-5.063399558615703233e-01 -2.967334001735898452e-01 3.392048017975212160e-01 -9.999999996342956443e-01 -1.541494810384168066e-05 2.222134607371904533e-05
-5.406068963783436931e-01 -2.804007315707343628e-01 4.017433433964442413e-01 -9.999999996342956443e-01 -1.541494810384168066e-05 2.222134607371904533e-05
4.868863516388379220e-01 -3.327283377948844212e-01 3.514733466991697974e-01 9.999999995282959908e-01 -2.325092877970784587e-05 2.006993636390648342e-05
4.977260537406992258e-01 -2.998501164087247761e-01 3.657236591865240527e-01 9.999999995282959908e-01 -2.325092877970784587e-05 2.006993636390648342e-05
4.718500478270445386e-01 -2.289766687478195228e-01 3.449035425633160679e-01 9.999999994078245802e-01 -3.172758384194683740e-05 1.333084085928156095e-05
4.926540274895996330e-01 -3.277942135684310254e-01 3.385641103597588630e-01 9.999999994078245802e-01 -3.172758384194683740e-05 1.333084085928156095e-05
5.223400090270335916e-01 -2.828916025586260541e-01 2.845348505933287253e-01 9.999999994078245802e-01 -3.172758384194683740e-05 1.333084085928156095e-05
-4.896038003637981362e-01 -1.781018032150077923e-01 2.631189050017463393e-01 -9.999999984530772990e-01 -4.778187730677863792e-05 2.847344957083922502e-05
-4.809270751640741803e-01 -2.255488588272595019e-01 3.624429549602752876e-01 -9.999999984530772990e-01 -4.778187730677863792e-05 2.847344957083922502e-05
-5.163981681965944537e-01 -2.555228430942408924e-01 3.178298778972331040e-01 -9.999999984530772990e-01 -4.778187730677863792e-05 2.847344957083922502e-05
-4.468205961127314496e-01 -2.506985586969204260e-01 3.196971467245314225e-01 -9.999999984673171305e-01 -2.765953840078952492e-05 4.796160831143828047e-05
-4.998691619629365701e-01 -2.391872475241460516e-01 3.615011766773173485e-01 -9.999999984673171305e-01 -2.765953840078952492e-05 4.796160831143828047e-05
5.134509255293088215e-01 -2.552755167975991890e-01 2.819222363377252849e-01 9.999999964209365100e-01 -7.800034076953747805e-05 3.277306380934400464e-05
4.354920930462862216e-01 -2.002917077423426728e-01 2.602715300894667960e-01 9.999999964209365100e-01 -7.800034076953747805e-05 3.277306380934400464e-05
4.485906998594993977e-01 -1.665874240994627276e-01 3.415933367842476920e-01 9.999999977259728112e-01 -3.123047115873637234e-05 5.977216857870708809e-05
4.726096931314688332e-01 -2.411567490744828957e-01 3.379439194768182886e-01 9.999999977259728112e-01 -3.123047115873637234e-05 5.977216857870708809e-05
-4.933023568928176505e-01 -1.782455504312571160e-01 4.014355621105194505e-01 -9.999999977039961685e-01 -4.585367557902406154e-05 4.989436951788455294e-05
-4.777934917273272686e-01 -7.462780028561827317e-02 3.263561000192134465e-01 -9.999999977039961685e-01 -4.585367557902406154e-05 4.989436951788455294e-05
-4.522699918801620367e-01 -1.866421647005385431e-01 3.638334352479203893e-01 -9.999999977039961685e-01 -4.585367557902406154e-05 4.989436951788455294e-05
-4.849309966023022667e-01 -1.614567337433215621e-01 3.778595431897638912e-01 -9.999999958246921228e-01 -1.470094453206291454e-05 9.019145129541464420e-05
-5.105987781162114603e-01 -1.463567524668791531e-01 3.136975390469389779e-01 -9.999999958246921228e-01 -1.470094453206291454e-05 9.019145129541464420e-05
4.853269218068758661e-01 -1.673257902905731509e-01 3.459931696777152621e-01 9.999999989331093131e-01 3.575871631382136756e-05 2.924202059257887998e-05
4.745511001961756348e-01 -1.340855547653037050e-01 3.874113045331423200e-01 9.999999989331093131e-01 3.575871631382136756e-05 2.924202059257887998e-05
4.904160405648828047e-01 -1.280790808682542858e-01 3.305288555478777535e-01 1.000000000000000000e+00 0.000000000000000000e+00 0.000000000000000000e+00
4.850749106467781568e-01 -1.732740505990894297e-01 3.458510080311175128e-01 1.000000000000000000e+00 0.000000000000000000e+00 0.000000000000000000e+00
-5.158576287484361034e-01 -1.002788867296511705e-01 3.556706832135285712e-01 -9.999999959716402431e-01 -9.581730881413442173e-08 8.975917915390947319e-05
-4.445872326393192075e-01 -7.319561997675706755e-02 3.442191561810103440e-01 -9.999999959716402431e-01 -9.581730881413442173e-08 8.975917915390947319e-05
-4.859454549799639422e-01 5.613898249725225720e-03 3.333628407061694499e-01 -9.999999917748830791e-01 2.957410317444232248e-05 1.248022684532163102e-04
-4.702773336958959716e-01 -9.356911214776678087e-02 3.467838787271373402e-01 -9.999999917748830791e-01 2.957410317444232248e-05 1.248022684532163102e-04
4.659607381617185684e-01 -9.798405030102916302e-02 2.268677684247518977e-01 9.999999976248197253e-01 6.260826454466927296e-05 -2.881953880711946194e-05
5.077558652628497704e-01 -1.402090192604316110e-01 3.413774602978926764e-01 9.999999976248197253e-01 6.260826454466927296e-05 -2.881953880711946194e-05
4.724051723502884492e-01 -9.085005899066989077e-02 3.356827435379808322e-01 9.999999965472379237e-01 -1.738640511614553595e-06 -8.308129314602776970e-05
4.987279924655010355e-01 -9.685563261347382435e-02 3.134632507509649835e-01 9.999999965472379237e-01 -1.738640511614553595e-06 -8.308129314602776970e-05
-4.930823597347452347e-01 -5.571992867767191007e-03 3.501823119543538976e-01 -9.999999867291960998e-01 1.090638888643666955e-04 1.210234513745210219e-04
-4.722002259802879354e-01 -3.558618501093180342e-02 3.409321493658239999e-01 -9.999999867291960998e-01 1.090638888643666955e-04 1.210234513745210219e-04
-4.853291374457341378e-01 -3.770757669894457542e-02 3.562937433227534867e-01 -9.999999867291960998e-01 1.090638888643666955e-04 1.210234513745210219e-04
-4.977885085764972573e-01 -1.556215954289473166e-02 3.135757521217654720e-01 -9.999999867291960998e-01 1.090638888643666955e-04 1.210234513745210219e-04
-5.204991130267589972e-01 9.579617308260034159e-03 3.597318510326709129e-01 -9.999999990164837316e-01 2.969088454624294201e-05 3.294668253226709973e-05
-5.114814837819879889e-01 3.262979363788122075e-03 4.664916345096291050e-01 -9.999999990164837316e-01 2.969088454624294201e-05 3.294668253226709973e-05
-5.084752454574291702e-01 5.500362475228778858e-02 3.323084606902930727e-01 -9.999999990164837316e-01 2.969088454624294201e-05 3.294668253226709973e-05
4.897031753329829096e-01 -5.031363590744587777e-02 3.443749013017086136e-01 9.999999966518300365e-01 -4.267506798828132784e-06 -8.171981676190642090e-05
4.532470794653289392e-01 -4.949880239280059213e-02 4.217201167791886918e-01 9.999999925460294481e-01 -4.624589876316849809e-05 -1.130011414251252434e-04
5.299455775873700425e-01 2.973494067665764101e-02 3.686852496891497855e-01 9.999999925460294481e-01 -4.624589876316849809e-05 -1.130011414251252434e-04
-5.047963463855404953e-01 5.106941018101197188e-02 3.299142827612616680e-01 -9.999999990043860754e-01 -2.486275080249802005e-05 3.705497649215041948e-05
-4.728883816327189016e-01 5.367718473547414965e-02 3.603778596892694419e-01 -9.999999990043860754e-01 -2.486275080249802005e-05 3.705497649215041948e-05
-5.337542070667232741e-01 1.010023494433053004e-01 3.178973415968080474e-01 -9.999999990347052670e-01 -2.964773280701762508e-05 3.242840551727559046e-05
-5.351300328598612710e-01 2.225333156297650689e-02 3.650426115215971157e-01 -9.999999990347052670e-01 -2.964773280701762508e-05 3.242840551727559046e-05
4.781610749951558659e-01 3.807607237199864963e-02 3.725521107297459222e-01 9.999999864678116301e-01 -1.574223597414026263e-04 -4.777632476883322327e-05
5.001007288662208117e-01 -5.634159618881336845e-02 3.612098178180318531e-01 9.999999864678116301e-01 -1.574223597414026263e-04 -4.777632476883322327e-05
5.282400841787482371e-01 9.574546662777579098e-02 3.557938748460706679e-01 9.999999987199907903e-01 -1.514610679129404949e-05 4.827643091502975667e-05
4.981796798612708743e-01 7.445355820625602916e-02 3.357380974417897845e-01 9.999999987199907903e-01 -1.514610679129404949e-05 4.827643091502975667e-05
-4.904763389934906903e-01 1.783347435667665959e-01 3.586978462654384914e-01 -9.999999968619824875e-01 7.431280862371857858e-05 2.745253333351836792e-05
-5.057268919231217019e-01 1.173023771687625727e-01 3.079661179281981687e-01 -9.999999968619824875e-01 7.431280862371857858e-05 2.745253333351836792e-05
-4.663537552473731029e-01 1.273598196362456525e-01 3.771507153926087486e-01 -9.999999992929228254e-01 -4.221719769975195163e-07 -3.760287275360011284e-05
-5.038072945956492132e-01 1.988619005381808136e-01 2.580104449410308698e-01 -9.999999992929228254e-01 -4.221719769975195163e-07 -3.760287275360011284e-05
4.519145465706863041e-01 7.786514282075526761e-02 2.843276722387359512e-01 9.999999993366293083e-01 2.888507269162987312e-06 3.630974749426960080e-05
5.228859762851698623e-01 1.229109665106639937e-01 3.220880647841692923e-01 9.999999967608425022e-01 4.309183868075896036e-05 6.798094102580915193e-05
-5.242290825724401637e-01 1.778093228878364074e-01 3.739196897463297753e-01 -9.999999984427521138e-01 -3.957779220950570910e-05 -3.934582664640873126e-05
-4.698521813949888548e-01 1.855351809732601609e-01 3.691362645513147633e-01 -9.999999984427521138e-01 -3.957779220950570910e-05 -3.934582664640873126e-05
-4.603215838820440275e-01 2.128224375239991528e-01 3.289872344450830433e-01 -9.999999984427521138e-01 -3.957779220950570910e-05 -3.934582664640873126e-05
-4.971384551864428958e-01 2.050223055819890561e-01 3.175012986106944823e-01 -9.999999984427521138e-01 -3.957779220950570910e-05 -3.934582664640873126e-05
-4.988332201271449273e-01 2.168495768598771023e-01 3.586487822888951849e-01 -9.999999984427521138e-01 -3.957779220950570910e-05 -3.934582664640873126e-05
-5.069790002608586255e-01 2.235517793492922400e-01 3.586373437569412848e-01 -9.999999997703534760e-01 1.519856736760352235e-05 1.510948851704432406e-05
-4.431279276416549839e-01 2.842360823252708113e-01 3.213509604350698878e-01 -9.999999997703534760e-01 1.519856736760352235e-05 1.510948851704432406e-05
4.781346686768014886e-01 2.090004840433690170e-01 3.330660606594476048e-01 9.999999960262688781e-01 7.031392134432875446e-05 5.480341698172297140e-05
5.495231663218036466e-01 1.351823270469293403e-01 3.665262466394430541e-01 9.999999960262688781e-01 7.031392134432875446e-05 5.480341698172297140e-05
4.801280069091515834e-01 2.045388698410247896e-01 3.447805795871296541e-01 9.999999960262688781e-01 7.031392134432875446e-05 5.480341698172297140e-05
4.711244071710771752e-01 1.129649178662830988e-01 3.857885090667197980e-01 9.999999960262688781e-01 7.031392134432875446e-05 5.480341698172297140e-05
4.663700127655943106e-01 2.342807960910073817e-01 3.716717191164436995e-01 9.999999994447082985e-01 -1.436481852647972617e-05 -3.007050926599580366e-05
4.280281860026090013e-01 2.139347413115438301e-01 3.542162079314749579e-01 9.999999994447082985e-01 -1.436481852647972617e-05 -3.007050926599580366e-05
-5.211460537306447094e-01 2.901312044064911499e-01 3.041634503209859619e-01 -9.999999988366364834e-01 4.514267499346962898e-05 1.699604986899351506e-05
-4.617451749759944324e-01 3.349054528501306249e-01 3.547939671053411681e-01 -9.999999997968774812e-01 1.472530034917703302e-05 -1.376265567196242275e-05
-5.050737719968054762e-01 2.179061875748414256e-01 4.530689191014621864e-01 -9.999999997968774812e-01 1.472530034917703302e-05 -1.376265567196242275e-05
-4.438110600210960488e-01 2.363751390880576009e-01 3.370159808316423589e-01 -9.999999997968774812e-01 1.472530034917703302e-05 -1.376265567196242275e-05
-4.779091806002907505e-01 2.917673297232419305e-01 3.274569163369047686e-01 -9.999999997968774812e-01 1.472530034917703302e-05 -1.376265567196242275e-05
4.793014152553284335e-01 2.060471986342356510e-01 3.249508411995709056e-01 9.999999994279276105e-01 -1.576039932270170728e-05 -2.992916211439517146e-05
4.655672555500376397e-01 2.457303841909898035e-01 3.795958854943600747e-01 9.999999994279276105e-01 -1.576039932270170728e-05 -2.992916211439517146e-05
4.258838705430718075e-01 2.495245278734685712e-01 3.595167813130805690e-01 9.999999994279276105e-01 -1.576039932270170728e-05 -2.992916211439517146e-05
4.881964580126331166e-01 3.320510653249515443e-01 3.648106395095501719e-01 9.999999998870455764e-01 -4.340794750587198523e-08 -1.503019985286577651e-05
4.452397229901948750e-01 2.268716691750003456e-01 3.150265445883527193e-01 9.999999998870455764e-01 -4.340794750587198523e-08 -1.503019985286577651e-05
4.927527429159542227e-01 2.610772942231352478e-01 3.457079625591978900e-01 9.999999998870455764e-01 -4.340794750587198523e-08 -1.503019985286577651e-05
-5.154921304482672495e-01 3.780743709432271005e-01 3.189958715897813213e-01 -9.999999998974744564e-01 1.612431388884135689e-06 -1.422853518873850894e-05
-5.019080442085218641e-01 3.772403057006495919e-01 3.994351677947176049e-01 -9.999999998974744564e-01 1.612431388884135689e-06 -1.422853518873850894e-05
-4.658497229577573395e-01 2.785444129604197072e-01 3.993736558932829972e-01 -9.999999998974744564e-01 1.612431388884135689e-06 -1.422853518873850894e-05
-4.493457889969688646e-01 3.226526920647466712e-01 3.639672221441434541e-01 -9.999999999026779607e-01 1.395086075623544304e-05 1.323735695999543527e-07
-6.139910507866224165e-01 3.144152309575118931e-01 3.322782650415334604e-01 -9.999999999026779607e-01 1.395086075623544304e-05 1.323735695999543527e-07
-4.380247916227548721e-01 3.509510080107383634e-01 4.021808733511992862e-01 -9.999999999026779607e-01 1.395086075623544304e-05 1.323735695999543527e-07
5.168752615602381084e-01 2.813598295038187147e-01 3.220274994832729720e-01 9.999999997644436478e-01 1.435919494713587518e-05 -1.627655528857225605e-05
4.807300102714457957e-01 3.609141190608134986e-01 3.040121666904216924e-01 9.999999997644436478e-01 1.435919494713587518e-05 -1.627655528857225605e-05
4.589489195327461912e-01 3.449498092178729380e-01 3.628018327260087439e-01 9.999999988666917750e-01 4.633889112635373417e-05 1.092354480945828286e-05
5.136348800560817107e-01 4.263528679079477968e-01 2.256156086935057203e-01 9.999999988666917750e-01 4.633889112635373417e-05 1.092354480945828286e-05
-5.525553831637761704e-01 4.069036095215728399e-01 3.172371556505909074e-01 -9.999999998524008449e-01 1.718056722278990501e-05 1.630188309360179977e-07
-5.265392365220785686e-01 4.267617902290650189e-01 3.275585339489922032e-01 -9.999999998524008449e-01 1.718056722278990501e-05 1.630188309360179977e-07
-5.014348751678820992e-01 4.569149431184479360e-01 3.533349703359943694e-01 -9.999999998524008449e-01 1.718056722278990501e-05 1.630188309360179977e-07
-5.236176839854213005e-01 3.682005375334213571e-01 4.129260554943035011e-01 -9.999999998524008449e-01 1.718056722278990501e-05 1.630188309360179977e-07
-4.923055465924504603e-01 3.804546975276705267e-01 3.325458437872875206e-01 -9.999999998524008449e-01 1.718056722278990501e-05 1.630188309360179977e-07
-5.096750446447261274e-01 3.474862515206478819e-01 3.422317929460066410e-01 -9.999999998524008449e-01 1.718056722278990501e-05 1.630188309360179977e-07
-4.558021480123544134e-01 4.138827848673096166e-01 3.605045582370284829e-01 -9.999999886176519359e-01 7.218896685494485485e-05 1.324894301183698604e-04
-4.917816725590179461e-01 4.723355090528471023e-01 4.155654425532740448e-01 -9.999999886176519359e-01 7.218896685494485485e-05 1.324894301183698604e-04
5.150620646843628858e-01 3.761342501851208664e-01 3.221716667450228999e-01 9.999999998887757480e-01 -4.099272917619461968e-07 1.490906555107353028e-05
5.417862658604435389e-01 3.935505218440920605e-01 3.455074996121818565e-01 9.999999998887757480e-01 -4.099272917619461968e-07 1.490906555107353028e-05
4.662716176590439576e-01 4.476898573709486295e-01 3.177182368250550670e-01 9.999999998887757480e-01 -4.099272917619461968e-07 1.490906555107353028e-05
4.570271792205322647e-01 4.278577878202393103e-01 3.679312834463367432e-01 9.999999998877019403e-01 -3.262501637769430443e-07 1.498297444418693805e-05
4.375724508648440314e-01 4.118330867577331134e-01 3.470463110224916159e-01 9.999999998877019403e-01 -3.262501637769430443e-07 1.498297444418693805e-05
5.020174102310163144e-01 3.480572286432284113e-01 3.323418777114720002e-01 9.999999998877019403e-01 -3.262501637769430443e-07 1.498297444418693805e-05
-4.564114167834687485e-01 4.570617611728832741e-01 3.714259309172937562e-01 -9.999987440038529130e-01 1.273209486292180975e-03 9.438899938230738054e-04
-4.174071874244672520e-01 4.638731799798668787e-01 3.377525715176549759e-01 8.107509814155853839e-05 9.999999944598644275e-01 6.713493423339486632e-05
-4.299676422711167789e-01 5.190803143489345350e-01 3.404399646310360961e-01 8.107509814155853839e-05 9.999999944598644275e-01 6.713493423339486632e-05
-3.846869025606974302e-01 4.204304071281744215e-01 3.664542506635041774e-01 8.107509814155853839e-05 9.999999944598644275e-01 6.713493423339486632e-05
-4.617202115570640530e-01 5.011600262606229483e-01 4.126769784005415720e-01 8.107509814155853839e-05 9.999999944598644275e-01 6.713493423339486632e-05
-4.086670442993487473e-01 4.696929910468625180e-01 2.979797106297694675e-01 8.107509814155853839e-05 9.999999944598644275e-01 6.713493423339486632e-05
-4.779801213763284484e-01 4.617153800548431941e-01 3.303941646780446662e-01 2.036105116990763778e-04 9.999999767370311154e-01 -7.119477936761219137e-05
-4.328486088845442947e-01 5.015670673092330611e-01 3.793271155343279633e-01 2.036105116990763778e-04 9.999999767370311154e-01 -7.119477936761219137e-05
-4.981313562664973493e-01 4.409577075539828361e-01 3.532281054973068213e-01 2.036105116990763778e-04 9.999999767370311154e-01 -7.119477936761219137e-05
-4.326848583599217091e-01 4.395682510799537868e-01 4.147518216189581830e-01 2.036105116990763778e-04 9.999999767370311154e-01 -7.119477936761219137e-05
-3.242021178625320021e-01 5.420338180650121629e-01 2.932379073162350025e-01 1.313396205585588280e-05 9.999999965524117851e-01 8.199192366197862998e-05
-3.853627972061065554e-01 5.054003481667628250e-01 3.657423227844349145e-01 1.313396205585588280e-05 9.999999965524117851e-01 8.199192366197862998e-05
-2.802216767918309093e-01 4.746794760918530698e-01 3.097541366096652760e-01 1.313396205585588280e-05 9.999999965524117851e-01 8.199192366197862998e-05
-4.084266392680566127e-01 4.551739286105080384e-01 2.562511644733918570e-01 1.313396205585588280e-05 9.999999965524117851e-01 8.199192366197862998e-05
-4.311970599283344030e-01 5.234006065929835971e-01 3.075375225864729334e-01 1.313396205585588280e-05 9.999999965524117851e-01 8.199192366197862998e-05
-3.653620735165389877e-01 4.636882519564257121e-01 3.181723965363030260e-01 2.738228743275588004e-05 9.999999973775820505e-01 6.704510697961753990e-05
-4.249861901837158618e-01 4.852629422249357671e-01 3.105713256599562655e-01 2.738228743275588004e-05 9.999999973775820505e-01 6.704510697961753990e-05
-2.240555701171827729e-01 4.890823512101815096e-01 2.826078482949958559e-01 -4.072831912000470027e-05 9.999999985847116690e-01 3.423128382223359679e-05
-3.266152866210429440e-01 4.740271623427830261e-01 2.752698219548399550e-01 -4.072831912000470027e-05 9.999999985847116690e-01 3.423128382223359679e-05
-2.733924078069855934e-01 4.690016585236352342e-01 3.700716941003145966e-01 -8.681123220353223306e-05 9.999999935701060494e-01 7.296298970161365575e-05
-2.478293182831554087e-01 5.254513879756727013e-01 3.624590356402511149e-01 -8.681123220353223306e-05 9.999999935701060494e-01 7.296298970161365575e-05
-2.271013518125416519e-01 5.321920265738203648e-01 3.654139740292949856e-01 -8.681123220353223306e-05 9.999999935701060494e-01 7.296298970161365575e-05
-2.215060346826175086e-01 4.612472456862881098e-01 3.290680024953738791e-01 1.544579219264211454e-05 9.999999997782761385e-01 1.431345822988013694e-05
-2.284831399445876043e-01 4.890602489255993501e-01 3.297941948785333421e-01 1.544579219264211454e-05 9.999999997782761385e-01 1.431345822988013694e-05
-1.762632770441339702e-01 5.088264174172888454e-01 3.803863599402158013e-01 1.544579219264211454e-05 9.999999997782761385e-01 1.431345822988013694e-05
-2.362637251077173706e-01 4.888600722620376482e-01 3.376908625991305590e-01 -1.493990392871780341e-05 9.999999991781378661e-01 3.768983008104574711e-05
-2.379669931000058247e-01 4.638501389190807789e-01 3.395302206694479907e-01 -1.493990392871780341e-05 9.999999991781378661e-01 3.768983008104574711e-05
-2.406843765126592538e-01 5.066104714035770673e-01 3.976414508222437250e-01 -1.493990392871780341e-05 9.999999991781378661e-01 3.768983008104574711e-05
-2.907174291327662696e-01 4.980161029072284196e-01 2.466445912466645463e-01 -1.493990392871780341e-05 9.999999991781378661e-01 3.768983008104574711e-05
-2.344663892499283808e-01 5.077955756490033501e-01 3.387147620054619668e-01 9.731887188789175149e-05 9.999999931927286978e-01 -6.437064247587204581e-05
-1.195107670503075953e-01 5.485693386833587759e-01 3.512482685954725903e-01 9.731887188789175149e-05 9.999999931927286978e-01 -6.437064247587204581e-05
-1.174846187424392896e-01 5.142161023432730849e-01 3.276786941660232988e-01 9.731887188789175149e-05 9.999999931927286978e-01 -6.437064247587204581e-05
-9.784571832782058831e-02 5.310611835716678719e-01 3.334507683306663917e-01 9.731887188789175149e-05 9.999999931927286978e-01 -6.437064247587204581e-05
-2.574023471646439964e-01 4.528515741551727425e-01 3.167684874789091776e-01 1.757429792691953200e-07 9.999999999210972268e-01 1.256083781805146048e-05
-1.768114783410071611e-01 4.710175106994538008e-01 4.175362271165596328e-01 1.757429792691953200e-07 9.999999999210972268e-01 1.256083781805146048e-05
-1.251636694933240257e-01 4.811276193331041617e-01 2.361317493524603406e-01 -1.814347532005087019e-04 9.999999759996660575e-01 1.228091914443652801e-04
-7.815166566374918966e-02 5.083564138753893236e-01 3.066567224359004751e-01 -1.814347532005087019e-04 9.999999759996660575e-01 1.228091914443652801e-04
-5.986358220041651523e-02 4.886644504954669177e-01 2.956974897886325282e-01 -1.814347532005087019e-04 9.999999759996660575e-01 1.228091914443652801e-04
-1.780143699285914316e-01 5.136024259014211335e-01 3.229105804242425881e-01 -1.814347532005087019e-04 9.999999759996660575e-01 1.228091914443652801e-04
-9.018208821752846105e-02 4.911103278288453944e-01 3.893753494576452368e-01 9.572081299061960713e-05 9.999999933198060464e-01 -6.479131169971646302e-05
-1.278436434346943984e-01 4.692129633191567950e-01 3.355039122149381936e-01 9.572081299061960713e-05 9.999999933198060464e-01 -6.479131169971646302e-05
7.085692225454473525e-02 5.027121625279560302e-01 3.476714722595989904e-01 -5.273522657055421787e-05 9.999999867951038235e-01 1.537165833414716747e-04
4.225280999970320445e-02 5.469844850232371547e-01 3.271236850287787545e-01 -5.273522657055421787e-05 9.999999867951038235e-01 1.537165833414716747e-04
-3.042513766180800910e-02 4.833749172621428225e-01 3.142998550148476400e-01 -6.308275233112443101e-05 9.999999854156624846e-01 1.587111877962459939e-04
-4.101002942164640175e-02 4.710465846527689404e-01 2.130172167332610167e-01 -6.308275233112443101e-05 9.999999854156624846e-01 1.587111877962459939e-04
-2.944674830748719024e-02 4.586111374242130556e-01 3.495870024813049759e-01 -6.308275233112443101e-05 9.999999854156624846e-01 1.587111877962459939e-04
-3.014621736363266510e-02 4.251380127190426128e-01 3.265656485907089679e-01 -6.308275233112443101e-05 9.999999854156624846e-01 1.587111877962459939e-04
1.073459152845169795e-01 4.507465311664867746e-01 2.702954719616749157e-01 1.474642367410143346e-04 9.999999838839781496e-01 1.024028440021776897e-04
8.893261679508812634e-02 4.985233128572337247e-01 3.455580485072866637e-01 1.474642367410143346e-04 9.999999838839781496e-01 1.024028440021776897e-04
6.615702681868250445e-02 5.271058936108664605e-01 4.022510684665853153e-01 3.037176080071959811e-05 9.999999852871674921e-01 1.688289697165819801e-04
1.240410048955845751e-02 5.538915922792982949e-01 3.906805770832065261e-01 3.037176080071959811e-05 9.999999852871674921e-01 1.688289697165819801e-04
7.746891804839721452e-02 4.070051232782287975e-01 3.801878821656544671e-01 3.037176080071959811e-05 9.999999852871674921e-01 1.688289697165819801e-04
4.211471418169469155e-03 4.812653856837139088e-01 3.082780177680917166e-01 3.037176080071959811e-05 9.999999852871674921e-01 1.688289697165819801e-04
1.268618778102083566e-01 5.169913841940653176e-01 3.815033834475538566e-01 -5.660357068689585868e-05 9.999999974467366215e-01 4.361837250615163822e-05
1.085913836141937927e-01 4.797042898636967867e-01 4.011213782795138849e-01 -5.660357068689585868e-05 9.999999974467366215e-01 4.361837250615163822e-05
6.992389497705291113e-02 5.143603671475638350e-01 2.879110904217529465e-01 -5.660357068689585868e-05 9.999999974467366215e-01 4.361837250615163822e-05
7.038061197676523384e-02 5.407264305278496330e-01 2.860872525104849462e-01 -5.710295177670386728e-05 9.999999974014861515e-01 4.400319258257866023e-05
4.696746903805022050e-02 5.245192731976634493e-01 3.419485729641350558e-01 -5.710295177670386728e-05 9.999999974014861515e-01 4.400319258257866023e-05
1.934085527848040664e-01 4.691590310558629850e-01 3.430955598533017015e-01 1.498973409620324370e-05 9.999999984332484937e-01 5.393339246726855694e-05
2.318491561166221848e-01 5.242285641407855579e-01 3.186683477859759694e-01 1.498973409620324370e-05 9.999999984332484937e-01 5.393339246726855694e-05
1.804995908192276177e-01 5.152541950507659729e-01 3.581594678902713103e-01 1.498973409620324370e-05 9.999999984332484937e-01 5.393339246726855694e-05
2.018374297596576272e-01 4.630713947460177171e-01 3.416004443824084968e-01 1.498973409620324370e-05 9.999999984332484937e-01 5.393339246726855694e-05
2.061772608305202092e-01 4.809440804082592003e-01 3.173139260686849150e-01 -3.212846596027707626e-07 9.999999980631760765e-01 6.223780514427048965e-05
2.118813114455939117e-01 5.728914386010315329e-01 2.815520144927387558e-01 -3.212846596027707626e-07 9.999999980631760765e-01 6.223780514427048965e-05
1.970175562078861631e-01 4.913360623559983598e-01 4.154687975499083419e-01 -3.212846596027707626e-07 9.999999980631760765e-01 6.223780514427048965e-05
2.220142357766098085e-01 5.036721266625941995e-01 3.969783242928858202e-01 -1.099442097855278535e-05 9.999999984894232252e-01 5.385421220474253699e-05
2.731641057779495840e-01 4.841024288792925567e-01 3.590253838194047420e-01 -1.099442097855278535e-05 9.999999984894232252e-01 5.385421220474253699e-05
2.029460984226871267e-01 4.540442348216915391e-01 3.931973464614526570e-01 -1.943267931745517235e-06 9.999999988519863159e-01 4.787745875239650601e-05
2.268655940794222226e-01 4.830859120351299607e-01 3.679124789991599087e-01 -1.943267931745517235e-06 9.999999988519863159e-01 4.787745875239650601e-05
3.104385373089303957e-01 5.689245087105140319e-01 3.152857591462327469e-01 2.753092092472861542e-05 9.999999970778867819e-01 7.131812241545046783e-05
4.031792012459270991e-01 5.436543611466242432e-01 3.912401842617064252e-01 2.753092092472861542e-05 9.999999970778867819e-01 7.131812241545046783e-05
2.989833476758318453e-01 4.396861468880853274e-01 3.161713368437205629e-01 2.753092092472861542e-05 9.999999970778867819e-01 7.131812241545046783e-05
2.683897606247889756e-01 4.880476491822946516e-01 3.594874794176372568e-01 4.047479847633658290e-05 9.999999973350719440e-01 6.075892421166350900e-05
3.115738810913233903e-01 4.935710192112945371e-01 3.933004737508099535e-01 4.047479847633658290e-05 9.999999973350719440e-01 6.075892421166350900e-05
2.526745409604140291e-01 4.718447517354497633e-01 3.133249151551156797e-01 4.047479847633658290e-05 9.999999973350719440e-01 6.075892421166350900e-05
3.856621916035677944e-01 4.612565991374125707e-01 3.809902239266274027e-01 5.076159527456194020e-05 9.999999985318970275e-01 1.895959525582464498e-05
3.508257585569982129e-01 5.092908282853639834e-01 2.761707171119857640e-01 5.076159527456194020e-05 9.999999985318970275e-01 1.895959525582464498e-05
4.291810230277562921e-01 5.396877369656388757e-01 3.098912992501565711e-01 5.076159527456194020e-05 9.999999985318970275e-01 1.895959525582464498e-05
3.232517337089171883e-01 4.710697722962272627e-01 4.010909504686562821e-01 2.924933965375589665e-06 9.999999976611064767e-01 6.833177622540656298e-05
4.030267757039703858e-01 4.499744983404138643e-01 3.246288046097081104e-01 2.924933965375589665e-06 9.999999976611064767e-01 6.833177622540656298e-05
3.588816409820468900e-01 4.930549808993262006e-01 3.802846186128648331e-01 2.924933965375589665e-06 9.999999976611064767e-01 6.833177622540656298e-05
4.894364816120480577e-01 5.464069682926084859e-01 3.145400938342074459e-01 2.042154086079728649e-04 9.999999725514097104e-01 -1.148618592053083926e-04
4.775985816492540614e-01 5.176649784828155632e-01 3.246020248439455136e-01 3.634524834952121040e-05 9.999999991893137041e-01 1.733192333889864328e-05
5.338865882295651399e-01 5.036808971849130456e-01 4.213747305809836807e-01 3.634524834952121040e-05 9.999999991893137041e-01 1.733192333889864328e-05
4.311706256470498877e-01 4.759239564402503175e-01 3.613197480011688389e-01 3.634524834952121040e-05 9.999999991893137041e-01 1.733192333889864328e-05
4.677150243543609642e-01 3.697705870539711448e-01 3.894143307128022924e-01 9.999999974761747401e-01 -6.856195635957760019e-05 1.862548110318992551e-05
4.480563887947124901e-01 4.489298774574220774e-01 2.957673868546494278e-01 9.999999974761747401e-01 -6.856195635957760019e-05 1.862548110318992551e-05
4.771675060386593725e-01 4.471104505889260117e-01 3.829510073013063787e-01 9.999999983287061189e-01 -3.849700875816778267e-05 4.313430197345046732e-05
4.943974669938688837e-01 5.468049058269933704e-01 2.972204651214313542e-01 9.999999983287061189e-01 -3.849700875816778267e-05 4.313430197345046732e-05
-4.044446330619271834e-01 -4.816076797320945624e-01 3.943809777274502326e-01 5.882298635740865981e-05 -9.999999981890375089e-01 1.271931825979544502e-05
-3.766120581618731533e-01 -5.185510484134459031e-01 4.408280195118842171e-01 5.882298635740865981e-05 -9.999999981890375089e-01 1.271931825979544502e-05
-4.441893902430112950e-01 -4.876685917263965386e-01 4.094682465161748608e-01 5.882298635740865981e-05 -9.999999981890375089e-01 1.271931825979544502e-05
-4.635358541481345851e-01 -4.651541101482469243e-01 4.022465724793975461e-01 5.882298635740865981e-05 -9.999999981890375089e-01 1.271931825979544502e-05
-5.147740027471860991e-01 -5.462217967797475815e-01 3.505369511268621729e-01 5.882298635740865981e-05 -9.999999981890375089e-01 1.271931825979544502e-05
-4.609227584263101973e-01 -5.295751073330835501e-01 4.204579301420529047e-01 5.882298635740865981e-05 -9.999999981890375089e-01 1.271931825979544502e-05
-3.922261635611420383e-01 -5.106643456626522859e-01 5.038686836894338272e-01 1.227785338595205919e-04 -9.999999911609668279e-01 -5.102448379765611632e-05
-4.634249040695390676e-01 -4.180532922160765108e-01 5.304110587833206214e-01 1.227785338595205919e-04 -9.999999911609668279e-01 -5.102448379765611632e-05
-4.143637425199530600e-01 -5.149572624736395987e-01 5.142402065669307021e-01 1.227785338595205919e-04 -9.999999911609668279e-01 -5.102448379765611632e-05
-4.976124983917540878e-01 -4.865226148797304195e-01 5.229327546382661618e-01 1.227785338595205919e-04 -9.999999911609668279e-01 -5.102448379765611632e-05
-4.552796572647131446e-01 -4.426078947530002194e-01 4.315968943633058386e-01 1.227785338595205919e-04 -9.999999911609668279e-01 -5.102448379765611632e-05
-3.857805253390887423e-01 -4.952365089680252352e-01 4.680490572127791182e-01 -2.327169064605423345e-05 -9.999999993853524449e-01 2.622448384962809990e-05
-3.915054816241517743e-01 -5.099445419555930226e-01 3.737281493544510891e-01 -2.327169064605423345e-05 -9.999999993853524449e-01 2.622448384962809990e-05
-3.308285595837880400e-01 -4.857780264733764231e-01 5.438893070895642889e-01 -2.327169064605423345e-05 -9.999999993853524449e-01 2.622448384962809990e-05
-3.605098468325421690e-01 -5.075090751163254810e-01 4.654520149575663290e-01 -2.327169064605423345e-05 -9.999999993853524449e-01 2.622448384962809990e-05
-3.313841955479495671e-01 -4.836333473166840591e-01 4.110555289852169114e-01 -2.327169064605423345e-05 -9.999999993853524449e-01 2.622448384962809990e-05
-3.193605127201424865e-01 -4.167351917337824840e-01 4.481899593900751100e-01 -2.327169064605423345e-05 -9.999999993853524449e-01 2.622448384962809990e-05
-3.343774678458816818e-01 -4.981681878145773346e-01 4.780669150966415648e-01 -1.404297797402796986e-05 -9.999999997140637253e-01 1.935632763642024137e-05
-3.751138514101625687e-01 -5.008507521885681157e-01 4.333234363135042289e-01 -1.404297797402796986e-05 -9.999999997140637253e-01 1.935632763642024137e-05
-4.453320520796716364e-01 -5.155209432097372924e-01 4.536375900779424652e-01 -1.404297797402796986e-05 -9.999999997140637253e-01 1.935632763642024137e-05
-2.862987156019011215e-01 -5.078940233883739719e-01 3.658571732756732420e-01 -4.408102138008298669e-05 -9.999999975941051833e-01 5.355980900001067229e-05
-2.570490660844798603e-01 -4.537087038289539520e-01 3.998948677229166027e-01 -4.408102138008298669e-05 -9.999999975941051833e-01 5.355980900001067229e-05
-2.270618510364514897e-01 -5.094341984897960973e-01 4.791507795063159048e-01 -4.408102138008298669e-05 -9.999999975941051833e-01 5.355980900001067229e-05
-3.253737643796944523e-01 -5.030010555134961647e-01 4.192926636250864925e-01 -4.408102138008298669e-05 -9.999999975941051833e-01 5.355980900001067229e-05
-3.007677053713893045e-01 -4.893872393719843061e-01 3.730184053513111442e-01 7.222898405320298577e-10 -9.999999996727797491e-01 2.558202923062728758e-05
-2.783566887412258217e-01 -4.854364054857123190e-01 4.702540399888935907e-01 7.222898405320298577e-10 -9.999999996727797491e-01 2.558202923062728758e-05
-2.738776533789764600e-01 -4.780632898513739737e-01 4.120940964356157310e-01 7.222898405320298577e-10 -9.999999996727797491e-01 2.558202923062728758e-05
-3.086050741850233092e-01 -4.618858452363399092e-01 4.321624570622820682e-01 7.222898405320298577e-10 -9.999999996727797491e-01 2.558202923062728758e-05
-2.547139651728714815e-01 -4.615104509687396050e-01 4.208501423573877132e-01 -2.972977677649703976e-05 -9.999999976117253109e-01 6.239142222417124091e-05
-3.149592881706164693e-01 -5.133156974324090127e-01 3.263025419589500875e-01 -2.972977677649703976e-05 -9.999999976117253109e-01 6.239142222417124091e-05
-1.938421985672721670e-01 -4.908199274530458123e-01 4.478837700534362698e-01 -2.972977677649703976e-05 -9.999999976117253109e-01 6.239142222417124091e-05
-2.426354757571099474e-01 -4.930042437746575135e-01 4.371748332336672926e-01 -2.972977677649703976e-05 -9.999999976117253109e-01 6.239142222417124091e-05
-2.610810428355154200e-01 -4.429365568461257618e-01 4.779566776660651994e-01 -1.442913992875270444e-05 -9.999999984976787326e-01 5.288139917739182876e-05
-1.632370676997836056e-01 -5.281618197321549246e-01 4.570139659916493402e-01 -1.442913992875270444e-05 -9.999999984976787326e-01 5.288139917739182876e-05
-1.938598673662196292e-01 -4.937395541962257828e-01 3.348179502716074341e-01 -1.442913992875270444e-05 -9.999999984976787326e-01 5.288139917739182876e-05
-2.555605378822399798e-01 -4.955289571587910835e-01 5.247525099608890686e-01 -1.442913992875270444e-05 -9.999999984976787326e-01 5.288139917739182876e-05
-1.237807335875690667e-01 -5.087994333357724885e-01 3.392054265778167155e-01 1.820393653115331596e-08 -9.999999986173073729e-01 5.258692819734181689e-05
-1.062586587993732401e-01 -4.931472966605595643e-01 4.353072951907157040e-01 1.820393653115331596e-08 -9.999999986173073729e-01 5.258692819734181689e-05
-1.459472525520063013e-01 -5.336208116962400938e-01 4.474765050735404759e-01 1.820393653115331596e-08 -9.999999986173073729e-01 5.258692819734181689e-05
-9.398022125067158339e-02 -4.797418413738155363e-01 4.947630808092139953e-01 1.820393653115331596e-08 -9.999999986173073729e-01 5.258692819734181689e-05
-1.751158796004685936e-01 -4.567853941093190651e-01 3.760937779604083819e-01 1.820393653115331596e-08 -9.999999986173073729e-01 5.258692819734181689e-05
-1.837393988614461626e-01 -5.137543677232994099e-01 3.528714910583387043e-01 1.820393653115331596e-08 -9.999999986173073729e-01 5.258692819734181689e-05
-2.264475782169995122e-01 -5.224437554619887347e-01 4.245754512059269903e-01 -1.492040730703106392e-05 -9.999999979701222896e-01 6.194462776149567440e-05
-1.714303990067037597e-01 -4.897888584621796215e-01 4.853477768296902140e-01 -1.492040730703106392e-05 -9.999999979701222896e-01 6.194462776149567440e-05
-1.463301400565369670e-01 -4.607946259424768876e-01 4.965611043620994369e-01 -1.492040730703106392e-05 -9.999999979701222896e-01 6.194462776149567440e-05
-4.096795927175822527e-02 -5.427662766600677147e-01 4.593345420663346723e-01 -4.122122670852529516e-05 -9.999999966789006045e-01 7.030653809757694101e-05
-9.193544053064069133e-02 -5.686940209368593901e-01 5.403435002386403063e-01 -4.122122670852529516e-05 -9.999999966789006045e-01 7.030653809757694101e-05
-1.159651635110799939e-01 -5.192917086016825001e-01 4.095602545888172297e-01 -4.122122670852529516e-05 -9.999999966789006045e-01 7.030653809757694101e-05
-5.764416894540443786e-02 -5.269422153257302677e-01 3.924014945365181806e-01 -4.122122670852529516e-05 -9.999999966789006045e-01 7.030653809757694101e-05
-1.369738044989717851e-01 -5.296711601544339398e-01 4.032529992489418125e-01 -4.122122670852529516e-05 -9.999999966789006045e-01 7.030653809757694101e-05
-8.989962383277540214e-02 -5.142769793051880090e-01 4.826602469080581992e-01 -1.447367433615926431e-05 -9.999999984797431907e-01 5.320739077877664118e-05
-7.512566332050690798e-02 -4.681622454514323683e-01 3.824255799485222207e-01 -1.447367433615926431e-05 -9.999999984797431907e-01 5.320739077877664118e-05
-4.447266660942230526e-02 -5.240460884297406530e-01 4.000666196062418467e-01 -1.829293082870660106e-05 -9.999999972874930032e-01 7.134691764755226944e-05
-4.692761056270013109e-02 -4.973264175159945455e-01 3.779310598169509650e-01 -1.829293082870660106e-05 -9.999999972874930032e-01 7.134691764755226944e-05
1.038993058976174499e-02 -4.770060401491607038e-01 4.226703480432129623e-01 -1.829293082870660106e-05 -9.999999972874930032e-01 7.134691764755226944e-05
-5.404691119646328618e-02 -4.306021476631891609e-01 4.322333437913793985e-01 -1.829293082870660106e-05 -9.999999972874930032e-01 7.134691764755226944e-05
-3.405692105897469707e-03 -4.980524011486016644e-01 4.156486591426269417e-01 -1.829293082870660106e-05 -9.999999972874930032e-01 7.134691764755226944e-05
4.913333417571030814e-02 -4.508730924880877122e-01 3.534129235712646366e-01 -1.829293082870660106e-05 -9.999999972874930032e-01 7.134691764755226944e-05
6.362055126340714073e-03 -5.500289792196086935e-01 4.764630422838652679e-01 -1.489750054259262209e-05 -9.999999974925318780e-01 6.923149842346501873e-05
1.625395285116195548e-02 -5.030911911941489123e-01 4.985765542713477827e-01 -1.489750054259262209e-05 -9.999999974925318780e-01 6.923149842346501873e-05
-6.609953763673870331e-02 -4.886745009847819343e-01 5.122382478039256837e-01 -1.489750054259262209e-05 -9.999999974925318780e-01 6.923149842346501873e-05
-1.625019599827818781e-02 -5.433734149483383513e-01 5.491268870876062635e-01 -1.489750054259262209e-05 -9.999999974925318780e-01 6.923149842346501873e-05
6.419726278653092866e-02 -5.027666805492880808e-01 4.320330219295405172e-01 -4.059118843256137342e-06 -9.999999966281671870e-01 8.201944438928864792e-05
1.283334017273233402e-02 -4.774941897277695801e-01 3.783429192575779587e-01 -4.059118843256137342e-06 -9.999999966281671870e-01 8.201944438928864792e-05
3.685542692934026809e-02 -5.169196017074644267e-01 3.912733302941813207e-01 -4.059118843256137342e-06 -9.999999966281671870e-01 8.201944438928864792e-05
6.497828910041945905e-02 -4.557170559105535035e-01 4.000375749436941297e-01 -4.059118843256137342e-06 -9.999999966281671870e-01 8.201944438928864792e-05
5.932512183075520223e-02 -4.543019182798431199e-01 3.744950650716548091e-01 -4.059118843256137342e-06 -9.999999966281671870e-01 8.201944438928864792e-05
-1.121136422090988904e-03 -4.980080447388675058e-01 4.931943908666086007e-01 1.494488750853363568e-05 -9.999999974570145111e-01 6.973249761523776867e-05
5.519871353189764740e-02 -5.825125968955585654e-01 3.934933210147101290e-01 1.494488750853363568e-05 -9.999999974570145111e-01 6.973249761523776867e-05
5.829551560603648402e-02 -5.306561811749059832e-01 4.778819988551952780e-01 1.494488750853363568e-05 -9.999999974570145111e-01 6.973249761523776867e-05
1.545138733202259251e-01 -4.848319205539748933e-01 3.743674540255829686e-01 3.068517229121048865e-05 -9.999999977065381351e-01 6.037668351816049379e-05
1.506793162503297923e-01 -4.887161561620430028e-01 4.590055106503163618e-01 3.068517229121048865e-05 -9.999999977065381351e-01 6.037668351816049379e-05
5.195625247819769116e-02 -4.497007734686705449e-01 3.774293303371007990e-01 3.068517229121048865e-05 -9.999999977065381351e-01 6.037668351816049379e-05
1.291381540970386044e-01 -3.961222137587332992e-01 3.933476178639840337e-01 3.068517229121048865e-05 -9.999999977065381351e-01 6.037668351816049379e-05
7.634779129102363393e-02 -5.070436802499982409e-01 4.169247682578187675e-01 0.000000000000000000e+00 -9.999999966617794112e-01 8.170949217871256677e-05
1.341017256322971085e-01 -5.228931772890963448e-01 5.899391655682348912e-01 0.000000000000000000e+00 -9.999999966617794112e-01 8.170949217871256677e-05
1.008860110146661410e-01 -4.848143761441875421e-01 4.801860136947625479e-01 0.000000000000000000e+00 -9.999999966617794112e-01 8.170949217871256677e-05
1.098837813487975462e-01 -4.887089880972283473e-01 4.805822567647620169e-01 0.000000000000000000e+00 -9.999999966617794112e-01 8.170949217871256677e-05
2.074856301705429729e-01 -4.981317235950459832e-01 4.118399559235446650e-01 2.618249980913391430e-05 -9.999999986591734391e-01 4.467806517170694048e-05
1.830323835944768773e-01 -5.044730357827581502e-01 4.300244175569334915e-01 2.618249980913391430e-05 -9.999999986591734391e-01 4.467806517170694048e-05
1.524479930934956040e-01 -5.051084945583520502e-01 4.537735550329096146e-01 2.618249980913391430e-05 -9.999999986591734391e-01 4.467806517170694048e-05
1.716222888346901343e-01 -4.902446129074347625e-01 3.926990544893650958e-01 2.618249980913391430e-05 -9.999999986591734391e-01 4.467806517170694048e-05
1.645702040288026247e-01 -4.934421038441862417e-01 3.866219279512320139e-01 2.618249980913391430e-05 -9.999999986591734391e-01 4.467806517170694048e-05
1.667782833888644678e-01 -5.497191469770645877e-01 5.090983957063734966e-01 2.618249980913391430e-05 -9.999999986591734391e-01 4.467806517170694048e-05
1.643204383475085906e-01 -5.062099324692539426e-01 4.539853896820105761e-01 2.737192313346070779e-09 -9.999999980549921785e-01 6.236998926287148871e-05
1.326126160831162526e-01 -5.084077340587767058e-01 4.572967988439413656e-01 2.737192313346070779e-09 -9.999999980549921785e-01 6.236998926287148871e-05
2.007205417980718332e-01 -5.720449753211415134e-01 5.361064905018728677e-01 2.737192313346070779e-09 -9.999999980549921785e-01 6.236998926287148871e-05
1.556462646809410044e-01 -4.930640763634102086e-01 4.458821190914064037e-01 2.737192313346070779e-09 -9.999999980549921785e-01 6.236998926287148871e-05
1.443305562864334313e-01 -5.042167019340138001e-01 4.115949765851217301e-01 2.737192313346070779e-09 -9.999999980549921785e-01 6.236998926287148871e-05
2.709387510947502964e-01 -5.026253936365155939e-01 4.850851717609976910e-01 5.807778727169747904e-05 -9.999999981496573431e-01 1.810126976561504686e-05
2.979464127297750120e-01 -4.680244083863583371e-01 3.889264699622226873e-01 5.807778727169747904e-05 -9.999999981496573431e-01 1.810126976561504686e-05
2.834632912147815875e-01 -4.696287120715867958e-01 4.636556834391639681e-01 5.807778727169747904e-05 -9.999999981496573431e-01 1.810126976561504686e-05
3.088954957726879336e-01 -4.828759008489997839e-01 3.556011742500275186e-01 5.807778727169747904e-05 -9.999999981496573431e-01 1.810126976561504686e-05
2.927612486694746163e-01 -5.313394189723826821e-01 5.360830178854211203e-01 1.435560401903482883e-05 -9.999999989005495804e-01 4.464098483162395214e-05
2.693847240508679963e-01 -5.145789546553320992e-01 4.245967015076215767e-01 1.435560401903482883e-05 -9.999999989005495804e-01 4.464098483162395214e-05
2.186033666774864215e-01 -5.618224926578175848e-01 4.112795626537576466e-01 1.435560401903482883e-05 -9.999999989005495804e-01 4.464098483162395214e-05
3.722421980889544235e-01 -4.977013562661330437e-01 4.197806713313121940e-01 4.121617437610837405e-05 -9.999999987807439705e-01 2.719814901949893602e-05
3.366265883091864586e-01 -5.042909983761308945e-01 4.455510852951474754e-01 4.121617437610837405e-05 -9.999999987807439705e-01 2.719814901949893602e-05
3.853270523305752926e-01 -4.573077751483577424e-01 4.035381249057361508e-01 4.121617437610837405e-05 -9.999999987807439705e-01 2.719814901949893602e-05
3.880441819593101194e-01 -4.826851131753118751e-01 3.944230938164735023e-01 4.121617437610837405e-05 -9.999999987807439705e-01 2.719814901949893602e-05
3.630626304787578640e-01 -4.846956740026837629e-01 4.566968214532721171e-01 4.121617437610837405e-05 -9.999999987807439705e-01 2.719814901949893602e-05
3.404154978516103491e-01 -4.624646716949765701e-01 5.087545761093074104e-01 5.499890255102929295e-05 -9.999999983237050083e-01 1.810277939190822432e-05
3.441520462465634811e-01 -4.869355315513863025e-01 4.825393844017328293e-01 5.499890255102929295e-05 -9.999999983237050083e-01 1.810277939190822432e-05
3.533783656544015050e-01 -4.740743286031127712e-01 4.515566908014852499e-01 5.499890255102929295e-05 -9.999999983237050083e-01 1.810277939190822432e-05
3.540964726192430412e-01 -3.873940291752329679e-01 4.971134528328399749e-01 5.499890255102929295e-05 -9.999999983237050083e-01 1.810277939190822432e-05
4.933638686663838202e-01 -4.036377307928148417e-01 3.602868366316243631e-01 -3.503771766711223081e-05 -9.999999987993088979e-01 3.425989625457093044e-05
4.415429430581464532e-01 -5.486330716133162033e-01 4.833027344137422188e-01 -3.503771766711223081e-05 -9.999999987993088979e-01 3.425989625457093044e-05
3.668164051157151717e-01 -4.677964590023587776e-01 3.491646960887463402e-01 -3.503771766711223081e-05 -9.999999987993088979e-01 3.425989625457093044e-05
3.956195688436371927e-01 -4.741566717460292679e-01 4.077480374152783194e-01 -3.503771766711223081e-05 -9.999999987993088979e-01 3.425989625457093044e-05
4.049042483375350221e-01 -4.869321347105969311e-01 3.929620928437628224e-01 -3.503771766711223081e-05 -9.999999987993088979e-01 3.425989625457093044e-05
3.545495574671750916e-01 -5.799019378382003209e-01 4.512446028890375049e-01 -2.496430518085835412e-05 -9.999999993245282104e-01 2.697642415619517305e-05
3.938167683074217940e-01 -4.810338955231357461e-01 5.275888339337065913e-01 -2.496430518085835412e-05 -9.999999993245282104e-01 2.697642415619517305e-05
4.470308552784741929e-01 -4.805958974254351812e-01 4.303999385616838480e-01 -2.496430518085835412e-05 -9.999999993245282104e-01 2.697642415619517305e-05
3.207298132306596328e-01 -5.154962627403112396e-01 3.796419243018507306e-01 -2.496430518085835412e-05 -9.999999993245282104e-01 2.697642415619517305e-05
3.778702750489565387e-01 -5.235461423928176039e-01 4.547115548464618073e-01 -2.496430518085835412e-05 -9.999999993245282104e-01 2.697642415619517305e-05
5.394588269394866575e-01 -5.085242542548155109e-01 3.085900938596519705e-01 2.159535225683648118e-04 -9.999999766820375502e-01 1.660320373848595138e-08
4.267981131085928359e-01 -5.174319718595454809e-01 4.157995393271809448e-01 1.932897028575347048e-04 -9.999999809525704775e-01 2.709150397765417039e-05
4.647927522247525256e-01 -4.293735202743432788e-01 4.308361468812549888e-01 1.932897028575347048e-04 -9.999999809525704775e-01 2.709150397765417039e-05
4.469292813797485220e-01 -4.012194440603385481e-01 3.386289333889495601e-01 9.999999889138118103e-01 1.275199814558492190e-04 7.688322633942497439e-05
4.961525928171375277e-01 -4.990595162050951439e-01 4.261887441457911097e-01 9.999999889138118103e-01 1.275199814558492190e-04 7.688322633942497439e-05
5.117051292706589205e-01 -4.305595248148293974e-01 3.838305320632635076e-01 9.999999889138118103e-01 1.275199814558492190e-04 7.688322633942497439e-05
