5.145861412561546500e-01 1.035871036338203155e-01 3.826429740220002595e-02 8.597640024931720859e-01 3.187614801386959851e-01 3.989949608663103664e-01
4.735590436701128114e-01 1.787742968709737368e-01 1.099941985945891154e-01 8.752956715707442825e-01 -1.052841214705755729e-01 4.719880730438946737e-01
5.179176190580829786e-01 2.514735661127193156e-01 8.548141711674740739e-02 7.344022831345647928e-01 -4.526814770633515450e-01 5.057002737298854633e-01
5.748460649744636664e-01 2.166684797974349208e-01 6.894384597235743428e-02 8.202918138829167205e-01 -3.374652337638306965e-01 4.617776045645754501e-01
5.424148739941702102e-01 2.156255662713498777e-01 8.355003814439909693e-02 9.161551587639911176e-01 1.139544808503586276e-01 3.842838812183664854e-01
5.771754178338374119e-01 3.235810981620393378e-01 3.988946163541574885e-02 8.691672446468293733e-01 2.540064191012241235e-01 4.242982911683853553e-01
5.369660531383495528e-01 2.092072500429714710e-01 1.222659148756880948e-01 6.953788606400814754e-01 2.282467730420062735e-01 6.814335263037863966e-01
5.327596193830885785e-01 3.559708036083805149e-01 7.003654008124063357e-02 6.639288072344402547e-01 2.993263812637736998e-01 6.852753143108158973e-01
5.069101195021005202e-01 3.884607030157961605e-01 5.836310570504615186e-02 5.677690926514914471e-01 2.361228782056921105e-01 7.885963757319468526e-01
4.831590459392361980e-01 3.467564670553771045e-01 8.059178531551400293e-02 5.097405088821765906e-01 4.310791534331466779e-01 7.445370219672770018e-01
2.414136549030066470e-01 5.729294028919518222e-01 4.742931116003534092e-02 6.632286690701363341e-01 7.472864656838843489e-01 4.111776658749911884e-02
1.891982020080963112e-01 6.040898353667212284e-01 6.930305524938712436e-02 5.771758848600111458e-01 7.935069009349251523e-01 -1.929113685211785445e-01
2.509487458717157837e-01 -4.387306338189379540e-01 -2.713825247180627898e-01 5.349476693004573402e-01 8.389481036845799489e-01 -9.998535109732804849e-02
3.662211214369904266e-01 -4.312742050372658231e-01 7.323759442608071546e-02 3.989339424083042651e-01 8.804213875496033070e-01 2.563394037985554652e-01
3.077650601655610996e-01 -4.614901189880988297e-01 3.423353982512095106e-02 3.830475106572169275e-01 8.907674226576375309e-01 2.445567486518807343e-01
3.077911184035867498e-01 -4.313605019581507327e-01 1.065495357112075658e-01 3.409661377613876221e-01 8.925294923649232937e-01 2.951833297442367221e-01
2.816790607626972198e-01 -3.888838177639465932e-01 5.337009865640583717e-02 8.776611875880577784e-01 4.671273071981046354e-01 1.072516604597227863e-01
4.856176859389385037e-01 -1.413955304464588614e-01 2.171297618337670460e-02 8.093720166917857117e-01 -4.241975572935532957e-01 4.061691408544652604e-01
5.499115574601046719e-01 -9.364837260637816352e-02 7.492091969033617960e-02 8.901051867328927392e-01 -1.955103797303278379e-01 4.116897472234465338e-01
5.487891315009878479e-01 -7.100848052348754380e-02 6.003474083898227565e-02 8.827244466524570843e-01 -2.121410722641329516e-01 4.192776129734775981e-01
4.692514285850221678e-01 -9.824067086051346820e-02 9.641586341123403736e-02 8.362386602465508023e-01 2.166628423996589392e-01 5.037480678199712791e-01
4.587390663511758393e-01 -2.253768050633044029e-02 3.807198106843645569e-02 8.721823103310047953e-01 2.154183956299941805e-01 4.391957790893146751e-01
4.836782045342523650e-01 1.263932098372324425e-02 7.174700323585421480e-02 8.837430049014738387e-01 -3.004318286396084892e-01 3.588021984714901969e-01
4.950324721049291221e-01 5.893189366025339965e-02 5.111331611539519232e-02 9.383937178521519762e-01 1.622547230412131336e-01 3.051075796279646979e-01
4.921862480525515671e-01 1.517519394861344961e-01 1.160219164445505102e-01 6.616639562167407895e-01 -3.728158328772173680e-01 6.505452818979459151e-01
4.531359724145692103e-01 1.692170138486007169e-01 9.318362749882666551e-02 5.940430246831199801e-01 -5.436943525488799889e-01 5.928822276234836375e-01
4.270516447771490198e-01 1.940485067577096545e-01 7.568871560235090890e-02 6.994055088406780918e-01 -4.614874995613050257e-01 5.457666368989283479e-01
5.333185630283038270e-01 2.214441778663754079e-01 8.431528543542479714e-02 9.452615495259673040e-01 7.130167580923806037e-02 3.184284441041056457e-01
5.084934215160827886e-01 2.422068101280790142e-01 4.193647122823657147e-02 9.461880882193236530e-01 -1.868057951371594793e-03 3.236118231328263262e-01
5.127265183681877225e-01 3.607928800681470816e-01 8.331197169397483449e-02 7.375649098600461917e-01 6.457223419911940765e-02 6.721818431895317802e-01
5.034489331662747036e-01 3.844111149126865357e-01 9.836236289208674655e-02 6.557120442049663156e-01 3.205255817289253129e-01 6.835971522335930750e-01
4.365355224294120151e-01 4.457391619579223474e-01 7.223160122237844150e-02 8.655646381039105997e-01 -4.608187348233892117e-02 4.986725560930779788e-01
4.927791889325067176e-01 4.870219993295126781e-01 5.431918340675705864e-02 6.367392020868055669e-01 4.471887609190181023e-01 6.281603303564873286e-01
4.283371408783911982e-01 5.270008221060956677e-01 8.727330730240373535e-02 5.323821053472971299e-01 6.708150860168023977e-01 5.163103855998342206e-01
-7.311686120318450222e-02 -5.197855444990403528e-01 1.679377810459643516e-01 -4.611003160451736943e-02 -9.987480190920633438e-01 1.939740562832248383e-02
2.393768798603800041e-01 5.631582529852060537e-01 7.768822953710056989e-02 7.163717808629725958e-01 6.975885763365002878e-01 -1.347775011000663242e-02
5.195221457475134308e-01 1.998041272094657622e-02 -1.093382009875605299e-01 9.220448838340926656e-01 1.310535368155817948e-01 -3.642227377354433360e-01
4.934719579168165421e-02 7.170855206876436405e-01 1.904451697868654314e-01 6.044820627918122691e-01 7.919719098321443829e-01 8.591815756742680887e-02
2.288208286772230871e-01 -3.761265249954048873e-01 8.517861916285064672e-02 3.538085384713257064e-01 9.312905534330342405e-01 8.670307486575705436e-02
2.609755405478004775e-01 -3.809244547321071761e-01 6.371490882594194050e-02 9.596247601275101902e-01 2.563855027754372018e-01 -1.157013125111587826e-01
3.189483925054741320e-01 -3.503956728866016723e-01 4.477568036813949631e-02 9.918337168540332094e-01 5.230783878387441910e-02 -1.163175314098165436e-01
2.452654519883278039e-01 -3.214937527471172229e-01 5.646731514003630603e-02 9.699904029745666234e-01 -2.396294155456470398e-01 -4.118690741594577959e-02
2.445925604852642876e-01 -2.720994399613453907e-01 1.029746653028885406e-01 7.567099071419801648e-01 -6.483105308259901056e-01 8.416395934899129072e-02
3.686270107523643702e-01 -4.392521272371190388e-01 1.258924125896520585e-01 5.904874480656150393e-01 4.980410212073977938e-01 6.350430811146987597e-01
2.842629398904656379e-01 -1.323634597408933911e-01 -2.788678365485484090e-01 2.738001366737945474e-01 -3.757295928134156693e-01 -8.853591125874723522e-01
4.515880647195245068e-01 -2.018464077356005582e-01 2.556595506854200672e-02 7.675642016193811035e-01 -5.765519450567049287e-01 2.800590135020340488e-01
4.173789437165925098e-01 -2.533189760193048645e-01 6.987753591474619996e-02 6.031507113537450948e-01 -7.505278827733311564e-01 2.700316954974955608e-01
4.668725988536197025e-01 -2.391290590747515432e-01 2.388069497911918249e-02 7.577632774754270439e-01 -6.102025338242558217e-01 2.311875494574846257e-01
4.760021812952652254e-01 -1.714235813155274013e-01 4.588392783412254677e-02 7.946440050602904259e-01 -5.403064345627666132e-01 2.767848659009592427e-01
5.261377272311261732e-01 -7.493550883220120862e-02 5.231670503989589022e-02 7.952059421076704826e-01 -5.264180843160902734e-01 3.008845461994185122e-01
4.770462386866287097e-01 -4.922319486726062232e-02 4.591570979070505598e-02 8.481623851728893326e-01 -3.820171211753463081e-01 3.669924897143485021e-01
5.209849390103471478e-01 -4.026454249682086262e-02 5.823060994934695089e-03 9.012099645256808067e-01 -5.349995972105493769e-02 4.300678483093877125e-01
5.062575660911740050e-01 5.451976711687125943e-02 1.899976332241398030e-02 8.984709845173486364e-01 -2.647284359007018653e-02 4.382340453829230431e-01
4.924047998273746174e-01 9.113308660234339942e-02 1.413661047379782820e-01 9.418991172730732941e-01 2.300697512683194668e-01 2.447324302816012986e-01
4.977943541422407692e-01 7.411075162065627886e-02 -6.926322331210134353e-02 8.806062411233481768e-01 3.315549715903142181e-01 3.385320500460090032e-01
5.168576399761348750e-01 8.382919193952223513e-02 4.990006792276296954e-02 9.180467769237388165e-01 8.114580004932962776e-02 3.880792116492314814e-01
4.945163220103756530e-01 1.447141536187869781e-01 9.071694268375805892e-03 6.718533488236626550e-01 -4.575017121652603658e-01 5.824991511069222971e-01
4.808013112919634624e-01 1.737657852722527818e-01 4.153484901866551227e-02 6.899233965220366027e-01 -4.234000027734100557e-01 5.871440577771123159e-01
5.450851736957347260e-01 1.575615119926862540e-01 6.984110104482477155e-02 6.806570064746660931e-01 -4.089560125138864133e-01 6.078330522155640514e-01
5.929131244581062887e-01 2.620024662006151250e-01 8.191949798467876298e-02 7.694205503181609229e-01 -3.329863371025275631e-01 5.450799171232968421e-01
4.920936280041005029e-01 1.983418176108492914e-01 2.957051271580346877e-02 9.336610895587368342e-01 1.517079275273671424e-01 3.244405562955153255e-01
5.020619936390896543e-01 3.390407472780633258e-01 -1.234743926263732333e-02 7.625921684894568786e-01 2.007203181397132219e-01 6.149508422991547540e-01
5.519947803620930404e-01 3.501554375283043030e-01 8.420046943235653947e-02 7.606088523347013242e-01 2.907078811317728162e-01 5.804852294399601709e-01
4.633349912645761681e-01 3.697507246597723229e-01 4.614761569372569094e-02 8.806580842838118706e-01 2.105950522452267881e-01 4.243713733929242449e-01
4.999064365303034774e-01 4.186618267637448043e-01 7.277179787789342380e-02 6.837016230117449744e-01 4.451908882315219196e-01 5.782362525185827939e-01
5.064540291700249108e-01 4.300513380382702255e-01 -5.419738298354494221e-03 8.122597803987515741e-01 3.032444493534160457e-01 4.982738735704647093e-01
5.121842860360982241e-01 4.469230309534464318e-01 2.742380365144632404e-03 6.917597474550782888e-01 1.747483480581105142e-01 7.006650174311886969e-01
5.241819606434311440e-01 2.798944742717215939e-01 -2.721516425644801007e-01 9.863452472652972647e-01 1.643110542345112002e-01 -1.117723818763142508e-02
3.741390436047506429e-01 -4.326359287579696900e-01 1.699331900237151943e-02 8.130732749183241515e-01 5.665859221650378919e-01 -1.337618870156399575e-01
3.432505447887633787e-01 -4.441548102554978561e-01 1.824266066131202679e-02 6.907836465765683220e-01 7.210618433305757691e-01 5.373799135705614044e-02
3.425113028457801301e-01 -4.035276648423786749e-01 4.282807367199430171e-02 3.354708356573006256e-01 9.326919572947500736e-01 1.324576582198260521e-01
2.674167064742247746e-01 -3.641791476828383223e-01 7.746488699992468141e-02 8.308689666620771019e-01 5.553556769705721985e-01 -3.516862656473257465e-02
9.840645715938038662e-02 -2.849345747166033838e-01 1.609999006500797691e-01 1.028343658021879520e-01 -5.072965468575317827e-01 8.556139940162771351e-01
4.285215399022525573e-01 -2.537040974359594525e-01 1.546637658878862592e-02 5.730273381462469562e-01 -7.651387028738994012e-01 2.936025120830427770e-01
4.620986070498109832e-01 -1.904233481201307865e-01 -2.908218751704327865e-04 8.407216319269814608e-01 -4.472005085907392874e-01 3.052848550554337903e-01
4.861418715202920349e-01 -7.644112733896391010e-02 6.743054548139121307e-02 9.159650473661422598e-01 -1.142263802444749704e-01 3.846561660233530078e-01
5.022744244492590715e-01 -9.140240230871123084e-02 6.266773831760436009e-02 7.219670549037869867e-01 -6.786800963695536204e-01 1.347475358786409672e-01
5.313390336867480634e-01 1.163818326258450608e-01 2.718255760876620714e-02 9.456521452516902793e-01 -1.951551982805964369e-02 3.245938457006181665e-01
5.043532140177147127e-01 1.219151292449621726e-01 3.584647942838539020e-02 6.967250491847855054e-01 -5.002966467376075421e-01 5.140792459354528443e-01
5.870662436596486566e-01 2.971695790120754133e-01 3.256081787422050733e-02 9.415393491340433574e-01 2.816329806481605164e-02 3.357238190452891957e-01
-3.073595604498390310e-01 2.816676587869777065e-02 3.329252187139660202e-01 -2.362096894628000765e-01 8.007159919254521752e-01 5.505078408875997420e-01
-4.467641088640565972e-01 2.321667179719831831e-01 1.748165074718640022e-01 -5.374405467339656850e-01 6.942177301831912173e-01 4.787686307869323254e-01
-5.456801568492608556e-01 -2.880162895007315482e-01 1.649958905118293906e-01 -8.591752073225338293e-01 -2.007675625124359653e-01 4.706488595174709855e-01
-2.240285441487114004e-01 7.027564811762507246e-02 3.168733893893364018e-01 -2.420123446901559505e-01 8.124404794613583336e-01 5.304436750025126601e-01
-5.981888677363274009e-01 -2.610346790470626233e-01 5.703590075018313832e-02 -8.863811150891801605e-01 -2.417730113195589725e-01 3.948092321751530687e-01
1.184901352138634234e-02 7.114881412187196164e-01 2.109312643183947900e-01 6.003712418124045325e-01 5.619634058464805237e-01 5.689916541514953296e-01
1.673817635607866006e-02 -4.906214433892854831e-01 2.904433624906182509e-01 -3.156859843918908837e-01 8.056646905587781793e-02 9.454371493242641478e-01
-3.442292847651630683e-01 4.884463449035122279e-02 2.665596784840950084e-01 -2.419242728868484932e-02 1.458453593472165688e-01 9.890115558570400367e-01
-4.066870084326678625e-01 4.819878122683553257e-02 2.453090272787771808e-01 -4.339610818839351736e-01 1.074682825226707245e-01 8.944989366465183611e-01
2.970010988522404083e-01 6.782733654749014685e-01 5.986713877653018212e-01 -7.912641848460941763e-01 5.420712703329828575e-01 -2.829482773572448151e-01
-2.624955993941072707e-01 1.099063117455835736e-01 2.469967321810206118e-01 -1.028066263868249730e-01 2.916712698914327162e-01 9.509777431101523737e-01
-4.545413236243754374e-01 1.428524704625468988e-01 1.421872069989475185e-01 -6.315150620586629238e-01 5.765589446226018211e-01 5.184288859320191900e-01
-2.501354285624691198e-01 2.928756758401962479e-01 1.517956951854513015e-01 -3.460531121703992047e-02 8.507430243116117508e-01 5.244413971271758568e-01
-3.718557225348967377e-01 2.895187358341989592e-01 6.154344791373522056e-02 -3.145164135340420275e-01 8.952779457009308883e-01 3.155262676215794815e-01
-5.133252441902475677e-02 1.793862941413480738e-01 1.721791816228875616e-01 3.791104423565591023e-03 7.533424217859644445e-01 6.576175355515602172e-01
-4.321395553822206526e-01 1.942196809898505683e-01 1.968181017098522001e-01 -4.202247994945479959e-01 4.133253507172428010e-01 8.078200742394530121e-01
-4.580557170660238819e-01 1.609466731155007602e-01 2.351505784513183706e-01 -3.281216895650532206e-01 2.480826105654425073e-01 9.114774682744547496e-01
-5.122864188028419807e-01 -3.967473960452647802e-02 2.130945171439220243e-01 -5.628082974566165353e-01 1.164003162972784139e-01 8.183506501982374948e-01
-1.490377648523005805e-02 2.444450964468190546e-01 1.273920304370988466e-01 1.259006124321645492e-01 8.233572380358848974e-01 5.533822317016739989e-01
-4.071737141705558671e-01 -3.253777481561421353e-02 2.560655373309461136e-01 -2.771510289019128992e-01 4.388554106675651711e-01 8.547474689675387260e-01
-3.811548559332553765e-01 9.777066772906539693e-02 2.614606848609415390e-01 -2.384455080960329043e-01 6.880230262313233869e-01 6.853962759194978105e-01
3.194852318549964432e-01 7.921482032175788390e-01 6.578571283086229737e-01 -5.382895182482417828e-01 5.406916413155548051e-01 6.464494903359172540e-01
1.323729891788213708e-01 -4.099745700901249457e-01 2.179144053080934174e-01 3.873987759794527697e-01 8.914397619121213756e-01 2.350687968482460533e-01
-5.648186216247825797e-01 -2.444779661136948778e-01 9.987402062878890374e-02 -8.584515455850632026e-01 -1.392742544741606969e-01 4.936229592748731521e-01
-1.857133418934950875e-01 -1.864603675407521324e-02 -3.880567106590597226e-01 1.194034039860352725e-01 8.193898340861116569e-01 -5.606631135654298603e-01
-3.100864483053186738e-01 -5.236252314684304299e-01 -7.316911686980522023e-02 -2.388718013817649199e-01 -9.667225951566406073e-01 9.158431371277711563e-02
-3.628914244096683728e-01 1.727505233316755651e-01 1.645509084320917470e-01 -3.705077073046915692e-01 6.598538934034799963e-01 6.536947897819668230e-01
-3.337248760568506389e-01 3.205634079271152403e-01 1.137098670363568820e-01 -3.302390706408315224e-01 8.921190036347241836e-01 3.083274875454130037e-01
-5.365524962091080402e-02 -3.306797277719866063e-02 3.269553192415388665e-01 3.754547553910268509e-01 8.883332358724267408e-01 2.643818993401163553e-01
2.909196795577489447e-01 -5.056332892938270041e-01 1.987013232208008628e-01 3.045812382637129168e-01 2.058084752937994477e-01 9.299855594550835436e-01
2.158227225253365675e-02 1.284870887150209584e-01 1.985659728121202949e-01 -6.827232667262869703e-02 6.184139436594553452e-01 7.828812704990877336e-01
-5.037209864034700724e-01 2.234663758046684101e-01 9.640099248061549664e-02 -5.448579798982897682e-01 7.898386191033041070e-01 2.815754561643118992e-01
-3.747955691182206506e-01 2.529394326947678184e-01 1.277412841164772550e-01 -2.341440105716241504e-01 8.566824852663553758e-01 4.596430155580479848e-01
-2.190860949481392983e-01 2.224797757047681512e-01 2.628296590351105189e-01 -1.964659997521340240e-01 7.106379432280074404e-01 6.755699997676494206e-01
-3.436004807604488565e-01 2.498586260223355504e-01 2.017706498998709796e-01 -3.127899680119640147e-01 4.984317072728341458e-01 8.085346431020518088e-01
-1.620928524819934685e-02 4.897399557201446985e-02 3.041021423033217763e-01 1.107832077395320552e-01 5.079275048056812736e-01 8.542462939602455396e-01
-4.642695173625355221e-02 5.821603741621785844e-01 1.853086638584856838e-01 3.662407452323059032e-02 -4.999309560922839957e-01 8.652905386666213117e-01
1.937832849966255461e-02 5.266944444799727121e-01 2.034163805208001607e-01 1.085178033437227546e-01 -5.141597020294694786e-01 8.508017907635245791e-01
-1.270634911095318287e-01 7.854204621612533854e-01 2.244746291811380579e-01 -8.950731947310691661e-01 4.003198130875474381e-01 -1.964383448399736054e-01
2.191062288117872903e-01 5.709305645665884166e-01 1.706287754953835778e-01 6.968107305551513031e-01 2.652422975083129630e-01 6.664092806944602598e-01
1.742009718543729990e-01 4.400420641633926433e-01 8.400465723704815535e-02 -4.396245063904517525e-01 -8.936382300245743204e-01 9.022753027484216315e-02
-3.080004914057037080e-02 -5.000882282022198755e-01 -7.313441215216523461e-02 -5.485311144984862386e-01 -7.970281880979908085e-01 -2.527047364104646476e-01
-5.661830890862380450e-01 -1.702132459099071071e-01 6.959340262961252743e-02 -9.618687368449857500e-01 7.039179647316751165e-02 2.642981802236100686e-01
-5.993725150249160777e-02 2.509407699862313823e-01 1.243599120709994316e-01 6.126437235701259754e-02 8.829146727603471856e-01 4.655194489000331060e-01
-1.893057160243303075e-02 9.883266737869178531e-02 2.524800655801760496e-01 1.456496744604705851e-01 6.572357509492182670e-01 7.394777481464713809e-01
-4.883887190706736048e-01 1.603492854786677801e-01 1.749296658575098251e-01 -3.338609206414724917e-01 6.164281732051448692e-01 7.131291558668712005e-01
-4.277005124599113084e-01 -1.162852589550123286e-02 2.868346060178408874e-01 -3.243783892825554127e-01 3.930362837860021941e-01 8.604075430830113724e-01
-4.902266589645468131e-01 2.087810413166268364e-01 9.801197890379312327e-02 -7.277689204758187591e-01 4.920599322205910231e-01 4.777336302716491678e-01
-1.465605621344424625e-01 3.056545226297066042e-01 1.179737830243691721e-01 3.419694669497875261e-01 7.941746984597016779e-01 5.023379659158959676e-01
-1.288753270675832840e-01 1.063798993872332871e-03 2.604797877021552965e-01 -5.569957616575471615e-04 7.355611529621516320e-01 6.774581020319350166e-01
-3.700275215190632072e-01 2.651037490685906675e-02 2.418643971952585403e-01 -4.208270874675089646e-01 4.882051519274292484e-01 7.645654269486222843e-01
-7.235882910625213160e-02 1.392155552604588120e-01 2.600531309499215515e-01 -5.566798772457512423e-02 3.359293943678360872e-01 9.402406697980871808e-01
6.447939514467176947e-02 -4.461567225866093778e-01 3.170014920592215124e-01 1.624943037507114718e-01 5.891738134087612933e-01 7.914984642069431420e-01
-2.226275415382366618e-01 2.003159679207920096e-01 2.396426937171112215e-01 7.440759130535126026e-03 6.450593919902536388e-01 7.640962085423050887e-01
-1.088217951352968976e-01 2.773108486027057729e-01 4.751267598446558271e-02 2.685637019395445413e-01 9.142435261412737990e-01 3.033682793393162047e-01
-2.872621300574296210e-01 -2.397784629148561747e-02 3.069238729393282683e-01 -4.322223368801190735e-01 5.602880560175262925e-01 7.065841392120192355e-01
7.367629864273227136e-02 -4.402720779693855557e-01 2.866153563816762895e-01 6.906717174889482891e-01 5.679337594112924270e-01 4.476871938997387668e-01
-6.386084568054492538e-02 2.378125907542239514e-01 1.131677075511139524e-01 3.438167092744776610e-01 7.837436451949698624e-01 5.172387930542047263e-01
-1.154729989905722287e-01 2.575780853597629538e-01 8.119388841243345423e-02 2.818734685607162671e-01 7.197830036911226914e-01 6.343971747406637052e-01
-4.760415073553269649e-01 1.507927460973318146e-01 1.376848877115438019e-01 -6.026547785457433415e-01 6.850458935057686105e-01 4.092912675428883040e-01
-5.677777756702995227e-01 3.816316045149264341e-02 1.440882563995341537e-01 -7.635965703818747841e-01 2.825106926229812854e-01 5.806100121895262367e-01
-3.609754673204430553e-01 2.313118122000037413e-01 2.205509926613434257e-01 -4.043129212395555339e-01 5.782458695830713369e-01 7.086344445684633619e-01
-4.516847458506763058e-01 2.101233810440888694e-01 1.871770032135948447e-01 -5.103229360655767710e-01 6.522096993086453631e-01 5.605292223007962704e-01
-5.356629450092812439e-01 -3.213792240140833090e-01 5.543315379256538028e-02 -5.972530334889174508e-01 3.292379922409907622e-02 8.013768385927668714e-01
-4.021730953998063351e-01 1.750215215834235449e-01 2.085098941415456930e-01 -5.540606488337936897e-01 3.019596154748102057e-01 7.757816626062905563e-01
-4.907048316621518969e-01 -3.938413617799407795e-02 2.352287087960852896e-01 -6.129827970510226542e-01 1.274516288968061128e-01 7.797487882716175323e-01
-6.427821593999742678e-02 1.471303403648133445e-01 2.730549520658231422e-01 1.093071606387897576e-01 4.551912791119906987e-01 8.836587825928488016e-01
-8.993610993846500035e-02 6.462121084417737915e-03 2.528898895212765563e-01 -1.367473085148871170e-01 1.429470296184509326e-01 9.802378896661748664e-01
-2.551148688453435120e-01 -6.147545933830907139e-02 3.605785395818607020e-01 -2.211350848123936827e-02 2.679807916354626229e-01 9.631704356224193297e-01
-4.397621353262091692e-01 1.321373658797743156e-01 1.888352604559406234e-01 -3.771093826252317482e-01 6.461088152304034216e-01 6.635750993049550628e-01
-4.421439612050405699e-01 1.826966792248901350e-01 1.463125998060618438e-01 -4.371207264636173817e-01 6.585867796021825926e-01 6.125266722593764035e-01
-4.870935746784416653e-01 -8.758698695232537690e-02 1.779599329852721845e-01 -6.195583197987620805e-01 2.338955564899691253e-01 7.492932383402259866e-01
-4.870455423588899713e-01 -1.705526880821361113e-01 2.347207479293952070e-01 -5.928304455187178856e-01 -1.926015580739898203e-01 7.819569698477979447e-01
-3.337172585642371736e-01 1.341051094254553100e-01 2.043673757528139678e-01 -4.275643482148455687e-01 5.856960298236874030e-01 6.885846997896369892e-01
-5.053603051925429357e-01 7.384429258456662315e-02 2.363228198188364881e-01 -3.672633211354570104e-01 5.269850902085252420e-01 7.664230996300063214e-01
-4.251334592638945087e-01 7.318385392827012059e-02 2.776436295549146727e-01 -1.910034944790066636e-01 5.030045705320447258e-01 8.429140330547839621e-01
-3.742891521589123416e-01 2.748901756403991370e-01 6.190408995255705649e-02 -4.173898491036805436e-01 8.038787104982396681e-01 4.237507907637391158e-01
3.009098162897812234e-02 1.635149423547887504e-01 3.617692533003144528e-01 2.512400894101433635e-01 6.130620736025386153e-01 7.490215693712288791e-01
2.393109706151895499e-02 9.296497637606229714e-02 2.967464906456354079e-01 3.043068094627967013e-01 6.157651317420116399e-01 7.267947910141598911e-01
-4.530802570834826515e-01 1.365207002094096511e-01 9.846131415450384838e-02 -5.815262033928442209e-01 6.788552316224383265e-01 4.483111076767448133e-01
-1.176631176099441622e-01 2.946925973235643981e-01 8.958979840608001510e-02 1.063548937236513808e-01 9.207866605120287318e-01 3.752873064788320168e-01
-5.972410781137854618e-02 1.688503724402331263e-01 1.839688502721210650e-01 2.197546310541905468e-01 5.598799785758901137e-01 7.989006895228576433e-01
-5.079778571865956743e-02 6.983820577016831566e-01 2.938105316218860286e-01 6.328108001832812857e-01 2.321201787195347477e-01 7.386952780427166187e-01
-1.951392220814542888e-01 2.849732496917642965e-01 2.461861857295316314e-01 2.099637090360561564e-01 6.348736723236859669e-01 7.435392801177751476e-01
-3.729964885282415765e-01 -7.826568160008536001e-02 2.861280774019841489e-01 -6.229421368015889415e-01 2.098019326754246294e-01 7.536088131402970403e-01
-5.178084675763903189e-01 9.805566253211712990e-02 8.129307148724576604e-02 -5.220803598870864537e-01 6.814403091110763366e-01 5.129046723697990862e-01
-1.291102481691650539e-01 -2.729114587353118071e-02 4.305799717768490908e-01 -1.424051725963598192e-01 5.414198921367215922e-01 8.286044093633957441e-01
-2.916659108590193838e-01 1.160884527286604358e-02 3.406610757413549018e-01 -2.101959760395619992e-01 8.067271097712233052e-01 5.522762189493084506e-01
-3.517736266112483912e-01 -7.383019643623930928e-02 2.854548120308206816e-01 -4.888088913851429962e-01 2.745859462526670236e-01 8.280509802079548676e-01
-4.644056198190817941e-01 1.159180474901776725e-01 2.130654712666798234e-01 -6.176869283729796711e-01 4.362977796910512129e-01 6.542989423450205067e-01
-4.356039699492580963e-01 -5.699386175378530137e-03 2.481806811575335281e-01 -6.305758629940442228e-01 3.192914312859660986e-01 7.074086958164108596e-01
-4.479304082904740913e-01 -3.351430236337930857e-02 2.432653870345871383e-01 -4.561352380037119181e-01 3.638122067055017395e-01 8.121461216452185994e-01
-5.089771487420459151e-01 1.343705588303915899e-01 1.319984868923501642e-01 -7.402281888014862199e-01 4.826404628796935325e-01 4.681029930420723129e-01
-5.040771290715490016e-01 8.867610586019890329e-02 1.681939900164183543e-01 -7.371881860786724250e-01 4.126294407943495446e-01 5.350612328470256696e-01
-4.832586453031752494e-01 9.297814258425333989e-02 2.052526556360656229e-01 -5.042380865062361384e-01 4.520270244450352304e-01 7.358094327255509937e-01
-3.979426023931101897e-01 2.215514409137500362e-01 1.597170295075812096e-01 -4.456682052044623754e-01 7.682119401435150152e-01 4.595979393891684306e-01
-3.480465298513998329e-01 1.099579765841942336e-01 2.080016126474571736e-01 -2.059077317321762746e-01 5.868532770393479758e-01 7.830742220511976992e-01
-5.142161353903459409e-01 1.555508233898094672e-01 5.883867794920995264e-02 -7.404448759952156900e-01 5.772584041551963585e-01 3.442587986451843829e-01
-4.597384034702838851e-01 1.025681995376704209e-01 2.281065931777382094e-01 -2.482221649785294748e-01 4.839138898941218181e-01 8.391740605982238588e-01
2.682361190302535656e-02 2.420201066629362741e-01 1.314465065026279855e-01 2.471655057184168336e-01 9.240116943760346979e-01 2.917389268494842147e-01
-1.380376959678482063e-01 2.229524397865698948e-01 1.569520570037260532e-01 5.484315179164685888e-02 7.640579088975784083e-01 6.428123680768893511e-01
-6.150495687362974584e-01 -2.708371202952492007e-01 7.499166834178606911e-02 -8.509399066991635285e-01 1.498865756278628704e-02 5.250491551571951909e-01
-2.268301068038497403e-01 5.639171892089896165e-02 3.240408767246676369e-01 -9.987188231316146414e-02 8.370900305734447766e-01 5.378716276564280419e-01
-5.910670629462869696e-01 3.521127298384333498e-02 1.859476370007044632e-01 -7.334909364829418355e-01 1.995433930760143193e-01 6.497487825129713013e-01
-5.974929471879998344e-01 -2.786035035807160609e-01 1.441860873199019843e-01 1.328263895329319655e-01 4.736213366924725277e-01 8.706549142302485444e-01
-4.637022810172982679e-01 -1.483280828064867905e-02 2.894925965553456493e-01 -4.196111329759396602e-01 3.953230358483795226e-01 8.170961965462016918e-01
-4.077736474054091120e-01 2.660499486446582518e-01 1.572656924193759354e-01 -4.897296743737958313e-01 7.370599082074413833e-01 4.657333333045574064e-01
-4.951369686670880621e-01 2.032902783586336415e-02 1.922170255336116962e-01 -4.485056541781928252e-01 1.635575014031906138e-01 8.786874426694265550e-01
-4.843569996830920932e-01 1.685423048001756241e-01 1.267785487350933660e-01 -7.694828063264951279e-01 5.598711817403456692e-01 3.073116831891857803e-01
-3.643824141121213001e-01 -7.375582843480446571e-02 2.547930393378621261e-01 -4.234257013946157722e-01 4.019623048319828640e-01 8.118725151725717515e-01
-1.105690829973800249e-02 2.245411004855678572e-01 1.442823491759409604e-01 5.027126010444336185e-02 9.511644763957454174e-01 3.045635225208673802e-01
-2.777898227983903734e-01 2.089604578698214254e-01 2.162883948904280318e-01 4.405340713111698808e-02 5.649006645586577280e-01 8.239821214694690310e-01
-2.130028933121491108e-01 -4.356080896449921469e-01 -1.654838201408143361e-01 -3.449119629160593559e-02 -9.974871809180330118e-01 -6.188441873823628120e-02
-3.098303107962773195e-01 3.065875773799624227e-02 2.417734362689729910e-01 -9.224315614723876955e-02 5.894847086604902975e-01 8.024954693949698514e-01
-3.527331035215734434e-01 -3.434707774002859759e-01 3.187577271630297471e-01 -5.805508713386546837e-01 5.763763113024571172e-02 8.121813770738790517e-01
-4.615471544055896880e-01 1.515201640020509000e-01 2.072775661572041073e-01 -3.570768941120290307e-01 6.814044044911098386e-01 6.388928933956166123e-01
-5.106144861771865218e-01 -3.603172641678258070e-02 2.385347255507105357e-01 -4.627556039858745085e-01 3.168896058011047012e-01 8.279119691820434612e-01
-3.722781108083265678e-01 2.868902496824106765e-02 1.936141495639152055e-01 -3.831834449557247058e-01 6.069741161479205172e-01 6.962419621355163679e-01
-5.781471139775602452e-01 5.291825565012497207e-02 2.222900513219122909e-01 -5.993246078798056820e-01 4.442577714997910654e-01 6.659166966308599500e-01
-4.703626642154790094e-01 2.292710522408467622e-01 9.639310186847906137e-02 -6.533060151567484652e-01 6.471920777403963321e-01 3.928532360437919091e-01
1.022144102590542142e-01 -4.001160868675660565e-01 2.889802731287854365e-01 4.196791518803237309e-01 7.999345320452184716e-01 4.289220837385382956e-01
-5.294235936949545085e-01 5.361156594489142890e-02 1.315484404699455157e-01 -6.085681212628288872e-01 1.873791092480338039e-01 7.710602513422958326e-01
2.248642393583546173e-01 -4.152245898021088566e-01 1.259082339986076216e-01 6.122125761170720271e-01 8.739404887742935335e-02 7.858486125615465889e-01
-1.344964295761026940e-01 3.229235976770848671e-02 3.713188970811081568e-01 -6.085758905047482931e-02 5.984508049344557934e-01 7.988447833767617912e-01
-6.862774672055419467e-01 -2.492866319910524431e-01 4.748486370338084184e-02 -4.447917833332834525e-01 4.519287063398724769e-01 7.732533309757977369e-01
3.820555993236710579e-01 4.909092531107600577e-01 2.942522695049472684e-02 1.264271825295825158e-01 9.760126149073321544e-01 1.772443033199751217e-01
-3.484368116726310749e-01 -3.694422258495019123e-02 3.685952245834813734e-01 -5.831006754871697062e-01 6.548516568470071908e-01 4.807940409064321297e-01
-4.626992073229733715e-01 5.840685534078880747e-02 2.090603794341324151e-01 -4.295700724906754142e-01 4.505336443412505387e-01 7.826167568720640011e-01
3.381336611399097802e-01 -4.012871732294536753e-01 8.215752688440679241e-02 3.737113150571743092e-01 8.534907568653686827e-01 3.631712832034186267e-01
-4.856741760610011616e-01 1.123996987464542519e-01 1.641021049605940474e-01 -5.454826150591911560e-01 4.627745946660909993e-01 6.987763527766387428e-01
-2.712351020502502541e-01 -4.335278367100113550e-02 3.901887616252046609e-01 -2.392802962808947276e-01 3.307253945797378747e-01 9.128886313191790780e-01
1.886094626354353071e-02 1.212917990428802467e-01 3.027288528679611401e-01 2.071454089429349554e-01 6.285682623986051931e-01 7.496617364245439230e-01
-4.834293449326708680e-01 1.127813476353708017e-01 8.446057101771495268e-02 -6.621458935864150686e-01 6.190371414130299010e-01 4.223219543876831628e-01
-1.767405013488087540e-01 -1.879594087829581511e-02 3.521206881033879244e-01 -1.986033314740662803e-01 8.051238847828774414e-01 5.588669312810787826e-01
-5.034715373410121320e-01 -3.288506248703866597e-04 2.164499333931277358e-01 -6.505608188752288745e-01 5.058960073232402488e-01 5.664272686928091272e-01
-6.655106595593436314e-01 -2.098691672371323091e-01 9.158746656206685766e-02 -8.520800266287358038e-02 6.142978443916107256e-01 7.844601676682024793e-01
-1.256349469960595100e-03 -5.015321662413680937e-01 3.963242248523948241e-01 -2.439513660877359602e-01 1.507369796924786128e-02 9.696703123296388505e-01
-5.304678758188992038e-01 1.839974069013392277e-01 5.734951826669903996e-02 -6.826324882117488224e-01 6.329445770084370926e-01 3.652314998373595301e-01
-4.581050371872386062e-01 7.209515292247371809e-02 1.932626718438033853e-01 -3.381033373413294130e-01 5.591097296128140215e-01 7.570220891961748633e-01
-3.533023057120927568e-01 2.703620920486515811e-01 1.018656242601631429e-01 -4.139234594791021404e-01 7.756219430617229404e-01 4.765269888831162315e-01
-5.082708105191968695e-01 1.303664495391973488e-01 1.902612467513112027e-01 -5.041320346248694406e-01 5.739767783865664663e-01 6.452918328461688668e-01
-4.660937961819341946e-01 5.508062575206120609e-02 1.550715785291682802e-01 -4.320200549062170325e-01 5.865861861462922100e-01 6.850367277607649630e-01
-4.784704670922119707e-01 2.712196049184240065e-02 2.083081892618442177e-01 -5.162791350399149604e-01 1.357138385681435633e-01 8.455989644882123679e-01
5.863529889748335389e-02 1.321424158385296199e-01 2.111918808997219343e-01 5.382325045001778996e-02 7.429117947573699032e-01 6.672219442744508067e-01
1.862211371085306932e-01 -5.562249469074540542e-01 -2.803186433718279913e-01 -1.000561981322752314e-01 -9.936646090263125952e-01 -5.118009362926251998e-02
-6.242390510563994299e-01 -1.334796589306415371e-01 1.058348563991517166e-01 -8.796581875149012131e-01 -1.131581805386922684e-01 4.619488059462558693e-01
-5.283300111554050105e-01 1.225919801457540370e-01 1.348964065726365735e-01 -8.104921844237813477e-01 5.019487178359741675e-01 3.019104232231622498e-01
-5.579951702375871569e-01 3.670674412123126062e-02 6.706381804364158761e-02 -6.317624515352372461e-01 6.075705349114501885e-01 4.813878373386695220e-01
-5.686614932251327081e-01 -2.685374699307414570e-01 4.024654603923014801e-02 -8.121077376601308628e-02 6.139500016897391221e-01 7.851561664086291747e-01
-4.115427421557052989e-01 1.116297823799597827e-01 1.470607002666670382e-01 -1.996187945832945398e-01 5.667196644383992732e-01 7.993629706134384172e-01
-1.862869245794963047e-01 3.723323501188990220e-02 3.579590261091527004e-01 1.316555153693295399e-02 8.202936838939939301e-01 5.717909936474592225e-01
-1.319988976878112841e-01 1.560361625423709875e-01 2.537096556327229080e-01 3.065738138965584669e-01 5.323539437240246697e-01 7.890575234001614424e-01
-4.197413768776229182e-01 1.062832208265608314e-01 1.240637342935461823e-01 -5.360846955794796864e-01 6.661620990142569365e-01 5.184990424314938062e-01
-5.645479403650204286e-01 -1.147858854514443791e-02 1.622734774176076700e-01 -6.726078683883309761e-01 4.325226807992138545e-01 6.004354969323241198e-01
-6.211197659530833803e-01 -2.184498358814236929e-01 1.091481271095987304e-01 1.199453636597487965e-01 5.719432095284471274e-01 8.114764782856183079e-01
-6.385021851185248565e-01 -2.860457092900307585e-01 8.071856737376605084e-02 1.794532968888176705e-01 5.442573738838502040e-01 8.195001068998031268e-01
-2.247722709528352236e-01 2.715954757293340682e-01 1.016010970966628874e-01 9.254320208121133429e-02 7.217223199901656727e-01 6.859684020248812963e-01
-4.932428669172431168e-01 1.543801550427811864e-02 1.951293885230561409e-01 -6.525477265941346250e-01 2.467105091004787865e-01 7.164603193591457808e-01
-5.587298457616297620e-01 3.965571272646337131e-03 2.291592859652839265e-01 -7.196720893047734435e-01 4.366972033511558604e-01 5.397848056966605412e-01
-2.157367988450680299e-02 5.551495172884489682e-01 1.953562286815999638e-01 -2.245981365830904131e-01 -8.468485108864103328e-01 4.820822301774593810e-01
-4.757292300638282789e-01 9.901079493365691486e-02 2.079581147788948092e-01 -5.436207972958494450e-01 4.917132870755563934e-01 6.802164891126766255e-01
-4.557271067503428363e-01 1.766488067702303710e-01 1.389249148479652640e-01 -5.390713532898504523e-01 6.120843573624697997e-01 5.785799992519804480e-01
-3.445593430855209971e-01 9.423565079066989481e-02 2.022941046459758585e-01 -2.018108880993680632e-01 7.055099491309018145e-01 6.793585777200848996e-01
7.074035899127109617e-02 -5.053509991645491750e-01 -1.429882518445495798e-01 -4.236398147983156531e-02 -9.990054535211625453e-01 -1.390672168963882731e-02
2.544626348462988852e-01 4.738283667390145726e-01 2.811097362003553979e-01 -9.719698544025895393e-01 -2.179050573618586117e-01 8.827223860724260629e-02
1.092226026823733542e-01 -4.456694405126525593e-01 -2.808455372765875091e-01 -9.543679257019895001e-02 -9.905803547544480558e-01 -9.819561802068574319e-02
-2.122552730845035929e-01 2.000639913350262533e-01 1.653849995769722248e-01 2.821417521276393114e-01 4.036481742013932617e-01 8.703241828021484050e-01
-4.835702357053653366e-01 -4.488458221936408865e-02 2.583289430950395649e-01 -5.896395747068731152e-01 4.205018217489620014e-02 8.065711091519184306e-01
-5.358471084865584766e-01 1.478824890468211084e-01 1.557982588750108921e-01 -7.765781054996877542e-01 3.979050998074681322e-01 4.884649195241399511e-01
-6.577871810807349728e-01 -3.661149939783744367e-01 -8.447308474176637438e-02 -6.399926206213003566e-01 -5.935563787306696870e-01 -4.879551934536756064e-01
-1.830273800061454348e-01 1.031534172498167895e-01 2.996880099539131481e-01 1.856252729283535685e-01 4.222917415917700201e-01 8.872502144455440831e-01
-4.554908747073185271e-01 6.842407680895472299e-02 2.161310983809333341e-01 -4.719592118959760052e-01 2.886831601992864704e-01 8.330165276414883690e-01
-1.078777674135869835e-01 2.488645422949750385e-01 1.336795037346430182e-01 3.108861981971089428e-01 8.589705183199121130e-01 4.068407801926565703e-01
-3.819115959840135854e-01 9.515527872970758194e-02 2.795121484006597434e-01 -3.146005945433630324e-01 6.249852647968666686e-01 7.144367604622209322e-01
-3.941050720426808596e-01 1.256488101680046654e-01 1.937339329803789978e-01 -2.185983256435769517e-01 7.554724411041092713e-01 6.176375658572127447e-01
-5.503321386039741192e-01 1.025244729276865996e-01 1.532068920719358573e-01 -5.359241946169083226e-01 3.204624907663435884e-01 7.810819736980552097e-01
6.808508972758713085e-02 -5.239258703380659243e-01 -2.294138580081292456e-01 -2.001380391865631089e-02 -9.968180854594315132e-01 -7.715667277493828968e-02
-4.616706873090998808e-01 1.358255392022713337e-01 1.930635618682291499e-01 -4.081734585138262483e-01 5.542486115391407342e-01 7.253984452504680380e-01
1.089974432047083885e-01 6.398253481797407938e-01 2.262940659963755541e-01 5.984866723908640607e-01 3.738241569879303117e-01 7.085684177429683039e-01
-2.284384656109503253e-01 -1.156901832902798230e-02 3.063757859974494124e-01 -2.476393444873114802e-01 8.450603944024352998e-01 4.738646271608537575e-01
3.291665857563644271e-01 6.445154227619686038e-01 4.611445951452645131e-01 -8.645656979805295128e-01 4.664830141358419224e-01 -1.868682728506361745e-01
-1.013160800624670344e-01 7.041721722228916347e-02 3.860277523672730471e-01 2.628515591725795741e-01 9.177816912730675236e-01 2.976337094559212693e-01
-4.703555270138256583e-01 9.438639765317707875e-02 2.257515728658872900e-01 -5.597515445499625653e-01 1.671200196235018975e-01 8.116336041681441182e-01
-4.639794167453789031e-01 -7.822744627150525487e-02 2.514713745005489609e-01 -5.822617950005554155e-01 2.920988249792543234e-01 7.587156770019123364e-01
-6.835758898739081879e-02 2.104302629064826458e-01 9.562990937548598858e-02 2.603496817125668383e-01 9.325982292087936498e-01 2.499571685485085515e-01
-4.715050850149037354e-01 1.802482609224817511e-01 9.383330127137062826e-02 -5.279032391573938998e-01 6.864573257229332759e-01 5.000945011179888100e-01
-4.513172865468810246e-01 4.984133191967860671e-02 1.717321481144925555e-01 -5.070308718540460502e-01 2.613998524313128069e-01 8.213341659372352943e-01
-4.299192829755040246e-01 1.423001389559581109e-01 2.081558988196857141e-01 -2.841503438721268981e-01 5.592743984862277307e-01 7.787623060184797330e-01
-6.345952088418403969e-01 -1.029090885391223120e-01 2.662278045490511919e-02 -9.958017933113522124e-01 8.355012561634551915e-02 3.739204390492683466e-02
-6.256979527622289483e-01 -2.314870929757060769e-01 1.586063046023005602e-02 -8.066038282857795894e-01 4.461802480887328004e-02 5.894060536310087306e-01
-3.550235356023117017e-01 2.869903894776738573e-01 1.128339096977834938e-01 -3.088721221920565085e-01 8.270235430981462965e-01 4.697127540252273858e-01
-8.023573539610287519e-02 6.408786769206247236e-01 2.527285268713356792e-01 4.341610557721339858e-02 -7.037810559446414649e-01 7.090890402974464601e-01
-1.424093217004255285e-01 1.817412212042667508e-01 1.901185662214584793e-01 -1.894051627319651501e-02 5.406413009459996033e-01 8.410399755984979686e-01
-7.003896414900233625e-01 -1.552656165657493870e-01 -3.212806968795141240e-03 -5.917367437775330336e-02 9.633070547870929978e-01 2.617976211848617174e-01
6.426860026172014594e-03 1.645012720074175983e-01 1.831248961826094368e-01 -1.153152001819861923e-03 8.118839584552723920e-01 5.838177012077125916e-01
3.850831152832884241e-02 -5.290734151552604070e-01 -7.735748797402557109e-02 4.922393873699897338e-01 -8.350327899203838777e-01 2.458060725030962179e-01
-5.636782606435878362e-01 -1.989649806229165929e-01 2.019397045387054390e-03 -6.735175539504909548e-01 1.081637831126459615e-01 7.312145379731641581e-01
-3.743996693810600629e-01 2.904672186624445707e-01 1.010576345457646630e-01 -3.971981039403972291e-01 7.989948102815251918e-01 4.514874963599135316e-01
2.738909551918259910e-01 -4.929580520715022840e-01 1.257155197802899971e-01 3.943656241063426271e-01 2.735697711241895091e-01 8.772886268784483299e-01
-6.754285616592651253e-01 -3.072537733663459059e-01 1.040586927360835079e-01 -7.518057006642473450e-01 -1.103277235070101447e-01 6.500892107045775914e-01
3.297080720088645389e-01 4.545580385141912982e-01 6.488382141124343638e-02 -2.301588766340360026e-01 9.078174928340740912e-01 3.505628206342119024e-01
1.971173514163938323e-01 -5.013852372208781327e-01 -3.408649012047537674e-01 -2.599752385070254190e-01 -7.063339159745991580e-01 -6.584111743486764645e-01
-4.638575488944789993e-01 -3.109631300909350693e-01 2.910687389740084230e-01 -5.849120373482253887e-01 2.318253084163481581e-01 7.772611755020401025e-01
-1.542542609198320480e-01 1.511593867661799595e-01 2.285199560186164658e-01 -8.243245087817373251e-02 5.672909972107215149e-01 8.193813614708860271e-01
-6.437790526948192760e-01 -2.868065151004974278e-01 7.504828853946902967e-02 1.727255956466495213e-01 5.967053400564750198e-01 7.836508187685359283e-01
7.153480931887765126e-02 2.271225044255854308e-01 1.915814815282005923e-01 1.059316224615874588e-02 7.131249554741868613e-01 7.009569050901528486e-01
-2.637947937814436039e-01 2.782721732234232914e-01 1.505402472826019022e-01 1.030832700461792872e-01 8.568608589598564196e-01 5.051369198733779431e-01
-7.978142788592830215e-01 -2.454951462474335711e-01 -4.094098425292988508e-02 -5.642760680436712528e-01 5.976447744748832891e-01 5.695728597607510046e-01
-1.701636900837344701e-01 1.344167808457252637e-02 3.172486356443113276e-01 -5.384989052090375511e-02 7.780361945038370974e-01 6.259072370031152355e-01
-8.551829172214336916e-02 1.388331764535329638e-01 2.273570035658594168e-01 3.187736958368574958e-01 5.344175955446283099e-01 7.828034008707479563e-01
-6.925279719205115203e-01 -2.453385919051480901e-01 1.120623229655429709e-01 -1.887542003183715900e-01 5.284862670233932969e-01 8.276920426280843790e-01
4.103345977433299208e-01 3.702287001254180310e-01 8.900798944158835879e-02 6.150051142873916854e-01 -2.592186133645657878e-02 7.880969271004716337e-01
-1.334241590018759860e-01 2.322768064618561390e-01 1.199150583866908232e-01 2.511862035194484810e-01 8.904905916047872738e-01 3.793837073792731829e-01
-3.486434211773223324e-02 1.121415650997437258e-01 3.047395495273395594e-01 -5.620634543766758057e-02 6.421875062904326414e-01 7.644841747852058056e-01
2.650888105423914176e-01 5.239685580916579877e-01 5.053253297102931751e-02 7.851987609757850040e-01 5.279210970900531930e-01 3.236699260192810734e-01
-3.233781446012554683e-01 2.796242085388401799e-01 1.518067651075591107e-01 -2.747836550614716211e-01 8.406445462271873170e-01 4.667019282256549828e-01
6.900331193666325857e-02 -4.238413030659524128e-01 2.452709243164399311e-01 2.413471825359573830e-01 9.448754942251279543e-01 2.212732200126701909e-01
2.871176239110697082e-01 5.173874474703626936e-01 9.690476333870576275e-02 1.925912367532829975e-02 8.788880211835295997e-01 4.766392056633173557e-01
3.485241251352754754e-01 5.248963935110554369e-01 1.159238217892073625e-01 -7.664928107891390008e-01 5.708339860711071356e-01 2.943422011107756364e-01
-4.013113240633991996e-01 1.952080535457875743e-01 1.034716829338484800e-01 -5.200294913810928898e-01 7.651686394100721822e-01 3.795869878661026209e-01
2.801828734616710892e-01 -3.874393283495570772e-01 5.436152036392899456e-02 3.860989046238914035e-01 8.358876439210309872e-01 3.901531527341269290e-01
-1.924007596566860712e-01 3.416538824654032913e-01 8.063374397194486565e-02 2.855513583856069890e-02 9.277002367850837317e-01 3.722322861952478967e-01
-7.303583376507283287e-02 2.715205265310260963e-01 5.530005865344876648e-02 2.033399097363293440e-01 9.088039222056442101e-01 3.643189702610318825e-01
3.985667184970653754e-02 2.008312480565266900e-01 2.148767139855286556e-01 2.943370174928799238e-02 8.289284942120707100e-01 5.585796350428852142e-01
-2.323297803797419459e-01 2.068852803058713330e-01 2.195675769959782309e-01 2.712936159385662127e-01 5.263325441332933341e-01 8.058373452112731483e-01
-2.764647488747395965e-01 3.014590280099535557e-01 3.009002886670236743e-02 -1.512820702422164043e-01 9.571570493147101288e-01 2.469091293783742813e-01
-5.891078537028823225e-01 3.349970104365473239e-02 -1.209933087366764359e-01 -8.574718208007130471e-01 3.052921416640693164e-01 -4.141724094756624730e-01
-5.858219025836677307e-01 -2.966810639729768329e-01 1.069710138764298768e-01 1.303038109752040763e-01 4.698355527529704534e-01 8.730838849816489056e-01
7.650128270216585702e-02 -4.498919596088497563e-01 3.597956114466254185e-01 2.439821463315485495e-01 7.851476009321594063e-01 5.692239954727186246e-01
-4.124840020378347516e-01 1.650456781095488434e-01 1.924946219832358585e-01 -3.171920992841189557e-01 4.455763941313218846e-01 8.371683517337851210e-01
3.398063372462785114e-01 4.746163697392391523e-01 3.949419563339325034e-02 4.780724218457945568e-02 9.092374383278171157e-01 4.135235765198568836e-01
2.470939702575107311e-01 5.284020579683063046e-01 1.238147414515548828e-01 6.453969189334946011e-02 8.352467139880903613e-01 5.460746789061078355e-01
-6.138111736561084886e-01 -1.696752540109401353e-01 9.250594230579178845e-02 -9.102179711489779557e-01 -6.733833420212666232e-02 4.086181515110665630e-01
-3.328939033445401097e-01 2.604128832035237373e-01 2.173909714287562689e-01 -3.844091635547878250e-01 7.113130443198804054e-01 5.884414566934352830e-01
-1.900197195094036062e-01 2.087622850104053351e-01 2.226248902471052449e-01 1.047585311354840565e-01 7.612320727659592778e-01 6.399620157062271275e-01
-5.562363696047306627e-01 5.375671797081954528e-02 1.158674433067780063e-01 -7.645292620982114817e-01 1.592428658418629239e-01 6.246092515117228627e-01
