-1.857651616357420543e-01 -3.243218126277067070e-01 9.635753565593693781e-03 2.211607091214960186e-01 9.749553029828059714e-01 -2.345416650793804778e-02
-2.090632846986376359e-01 -2.836247791363734061e-01 1.982146449551007716e-01 1.987459188083297301e-01 9.800139158848906185e-01 -8.531379079328995155e-03
-2.317029440314860023e-01 -3.105462281281794468e-01 2.777818342069951485e-01 1.723202611452061550e-01 9.847597257045447305e-01 2.353742188851122574e-02
-2.070591948336979460e-01 -3.413494213657466414e-01 1.688710398473914631e-01 1.837039536291951158e-01 9.829809352271877687e-01 1.156892771967493261e-03
-2.309184781260620878e-01 -2.774122863858478616e-01 4.891615325002948711e-02 2.751582392369033570e-01 9.613695013389066402e-01 7.524976772664817605e-03
-2.749205665246899910e-01 -3.349936196347507167e-01 1.138102281418613138e-01 2.862685421998188429e-01 9.581368433397227102e-01 -4.910313817081908561e-03
-2.806702872004925298e-01 -3.054548394703782144e-01 1.708196008530944721e-01 2.875825100761466024e-01 9.577558648612313208e-01 5.676458267686992963e-05
-1.944758769633026796e-01 -2.958044643428687781e-01 2.121372862376743051e-01 3.334453266856479137e-01 9.423108822913655036e-01 -2.940093921577864242e-02
-2.402001922157764036e-01 -3.733609162028584394e-01 1.306087899741203151e-01 2.670573335190919440e-01 9.636806016833828759e-01 -2.802727699477354267e-04
-2.743747146842173690e-01 -3.124914297101392124e-01 1.725787048518753197e-01 3.100019583449875049e-01 9.505791690779874514e-01 -1.726352041952829847e-02
-2.557613971080220372e-01 -3.537292805267915341e-01 3.889916793726951733e-02 3.581241908097472226e-01 9.336042313322422403e-01 1.141066147937074872e-02
-2.491937193704562847e-01 -3.308364748261124477e-01 1.772683930181020162e-01 3.543018335133877317e-01 9.349518981094996350e-01 1.830734799187700573e-02
-1.977180770929979348e-01 -3.122368265020597500e-01 1.107845745638673385e-01 3.311231650240368252e-01 9.434105423421396130e-01 -1.827561714893664174e-02
-2.579174369224906949e-01 -2.097803877335552292e-01 1.206317269064001024e-01 3.839943510113494884e-01 9.233201996470558059e-01 -5.305404328952376299e-03
-2.880721710290541360e-01 -3.061706862647155525e-01 2.728121971285402125e-01 3.943204016490221564e-01 9.187854902094468867e-01 1.856458520787739389e-02
-2.738537897824142031e-01 -3.015514114547603874e-01 9.798002232794406074e-02 4.138804076666082743e-01 9.102181284368674463e-01 1.435154397994875541e-02
-3.391492901956812411e-01 -3.490424336484923562e-01 1.192316041282055483e-01 4.639326180975744673e-01 8.858700480158311352e-01 -8.853776365628972462e-04
-2.979198840538744286e-01 -3.037285711074119154e-01 1.686626892893962892e-01 4.472845811037198249e-01 8.943910651590319949e-01 1.061164719463841008e-03
-2.744312179379695960e-01 -2.600876328325457121e-01 1.641011444960211729e-01 4.569797881763363323e-01 8.894709082521022880e-01 3.313090927076691328e-03
-3.328989834373635159e-01 -2.937085395917520825e-01 1.588170446567994942e-01 4.599023912857805318e-01 8.879680055642376058e-01 -1.616039569732282072e-03
-2.845426188037050719e-01 -2.596547629206536478e-01 8.213914645988799890e-03 4.943796796386492609e-01 8.688266349800506383e-01 2.700019832572665007e-02
-2.803073040204933641e-01 -2.541610023396260187e-01 7.886505356979431336e-02 5.441167627800921336e-01 8.390063424985418905e-01 -2.303412453800997121e-03
-3.003813992036059033e-01 -2.907316164739292552e-01 1.558269351326884156e-01 5.320712847626702935e-01 8.466943419234905788e-01 2.973093632679654329e-03
-3.451909461471580620e-01 -2.285347659386608998e-01 4.360238345490527467e-02 5.634112749515333141e-01 8.261601970895118274e-01 -5.202307421364902804e-03
-3.319902612650925122e-01 -2.974268340831503488e-01 1.748508274767216486e-01 5.584645005140748131e-01 8.295234596197363919e-01 2.869077564036726438e-03
-3.149674695523326795e-01 -2.558699599732775498e-01 2.230530929500593729e-01 5.383564788234272980e-01 8.426826388975421356e-01 7.633597416369010229e-03
-3.760883595913400712e-01 -2.313139544322426189e-01 1.535446195303138139e-01 5.976412806901613139e-01 8.016979651137204899e-01 -1.026023135916270812e-02
-3.625831258434741855e-01 -3.048327628999199512e-01 3.381017927740054968e-02 6.300457455980280619e-01 7.765568862340609391e-01 -1.326987673103600376e-03
-2.961081469269284394e-01 -2.544056102599062674e-01 7.286141236841389701e-02 6.102404643786495386e-01 7.921912000862212366e-01 -6.299058729893523834e-03
-2.959323131433537202e-01 -2.590781142177118745e-01 1.418956447373887764e-01 6.263769275547530491e-01 7.794341460976871305e-01 -1.159122616625090849e-02
-3.714296552678132968e-01 -2.786045878303419210e-01 1.898825594433125319e-01 6.271042926171017662e-01 7.789317230059829011e-01 2.361583395786816513e-03
-2.953754113075572896e-01 -2.064774120141898983e-01 1.680095045660416064e-01 6.625215475665164888e-01 7.485025573894242834e-01 -2.844504511439038125e-02
-3.749099344565914871e-01 -2.802691438464712803e-01 1.354048595115301956e-01 6.661187215169834808e-01 7.455465163749729340e-01 -2.112441160652040253e-02
-3.623460645827469295e-01 -2.327342450906463855e-01 7.207628335648377793e-03 6.998149001479672116e-01 7.142968146516646133e-01 -6.258283261102054809e-03
-3.882615486812772687e-01 -2.404525717672403862e-01 6.168082637790470169e-02 6.933363737108597658e-01 7.206109880150536329e-01 2.115854778396258386e-03
-3.206152694582588003e-01 -2.473910408050368215e-01 9.046714972516398112e-02 7.226327696712858684e-01 6.906170096800213765e-01 2.915520773089575260e-02
-3.984398227450438035e-01 -2.503656719819344345e-01 1.006240490413173316e-01 7.436651654596594385e-01 6.685369581685993712e-01 4.522968553265523280e-03
-3.090168638025035386e-01 -2.458217444243571692e-01 8.398479311210536868e-02 7.589118104837201395e-01 6.511913429414195598e-01 1.642798366347324873e-03
-3.928334865857596170e-01 -2.006385910546857054e-01 3.840952340365143963e-02 7.828928972912407858e-01 6.216247072523103379e-01 2.571837289577881547e-02
-3.725563042114961032e-01 -3.014860812873327855e-01 1.764448244503663832e-01 7.496831713833917998e-01 6.617788905751065265e-01 4.882881702536268249e-03
-4.103319032550103995e-01 -2.024690636748864014e-01 2.038972764539455640e-01 7.650857775788590942e-01 6.436330718255646177e-01 1.949927688249106575e-02
-4.080235127441906862e-01 -2.812750785393400288e-01 2.135135387237361293e-01 7.503079143973993004e-01 6.610812674612334128e-01 3.096999269287830335e-03
-3.839468787649669701e-01 -2.777689322737673105e-01 1.287894290039011680e-01 7.766267091977658854e-01 6.294737172522817392e-01 -2.477486325377556073e-02
-4.336249288269772295e-01 -2.058002638668053608e-01 1.518141204494213581e-01 8.064311700742227140e-01 5.912857331556007345e-01 -7.067510124757403131e-03
-4.438387416814456587e-01 -2.028512023067577108e-01 1.957139394089845719e-01 8.173523648813817433e-01 5.761374567076070763e-01 -8.617431766816725401e-04
-3.019899145159454235e-01 -2.358438535886327736e-01 1.248712146592581423e-01 8.221007579820894806e-01 5.693247511187127241e-01 4.435255222624307804e-03
-4.005086206164403251e-01 -1.836923038921219609e-01 1.361873089179590490e-01 8.284415192911442904e-01 5.597971586803602850e-01 1.765758329941599647e-02
-4.362509173303055765e-01 -1.600913690243652432e-01 2.399646995740960936e-02 8.614931858136896103e-01 5.077548656060897336e-01 3.806212017389807700e-03
-3.556698290806449281e-01 -1.627927164304762697e-01 2.015540723851943009e-02 8.388063003524921513e-01 5.444128515543199542e-01 4.317123053456595888e-03
-3.651035074049501783e-01 -1.801752150594655988e-01 1.652440130669926288e-01 8.557464975393553885e-01 5.171397601098280949e-01 1.626039552642389793e-02
-3.439362947777376278e-01 -2.063723566049436575e-01 2.292180806395313353e-01 8.826257727771432693e-01 4.695601669606976336e-01 2.202259824345443109e-02
-3.526392700303764838e-01 -2.276170681712855748e-01 2.567687761573388405e-01 8.641089426321847400e-01 5.030967978170514110e-01 1.446883856142196050e-02
-3.696188006661970671e-01 -1.888565918473795735e-01 5.175593508008540650e-02 9.167537146397638503e-01 3.993242832890688265e-01 1.013624535346795662e-02
-4.154630156762013637e-01 -2.196387106663653943e-01 8.655389862255238875e-02 9.093545286749273870e-01 4.158671941557325336e-01 1.134980191187248168e-02
-4.103430784285942434e-01 -1.708021329794482124e-01 1.959011229619119776e-01 9.129845302666079743e-01 4.079483339357903859e-01 -6.115908180622653748e-03
-4.176524056312123090e-01 -2.006502351971713727e-01 1.385296000397003291e-01 9.006326304085506829e-01 4.345519525003704309e-01 5.046347341475605243e-03
-3.458682079608453863e-01 -1.811599628046442756e-01 1.661187787855147868e-01 9.250531925779166276e-01 3.791610276421977233e-01 -2.266067118856532683e-02
-4.089102863146195088e-01 -2.130569117026699377e-01 8.487644498103524837e-02 9.409267596043162651e-01 3.386079134356925757e-01 1.230454894625515778e-03
-4.474338334604219258e-01 -1.768596563543514411e-01 6.510562632127987748e-02 9.473678015223790938e-01 3.201470297198812931e-01 -3.577711438441114815e-04
-4.705218262895201620e-01 -1.579300074512868246e-01 6.274502577647145252e-02 9.358804319292624019e-01 3.518729231775857835e-01 -1.769923914630605957e-02
-3.808324704443360464e-01 -1.697164294832188003e-01 1.260186132201043530e-01 9.391344213724344137e-01 3.432221490604760450e-01 1.500316592493203260e-02
-4.246962361976838185e-01 -1.311828633324428894e-01 8.236097242517395611e-02 9.520610152056238062e-01 3.056758764301019671e-01 1.191981100211529469e-02
-4.542858733843901931e-01 -9.045965613479961531e-02 7.030026148858960211e-02 9.602087394030832668e-01 2.782902495078689031e-01 2.353112412932054434e-02
-4.068375346045003949e-01 -2.097190436114723389e-01 2.185177273159853439e-01 9.388388904335887020e-01 3.439180702400687073e-01 -1.737523443799780798e-02
-4.068053534875569754e-01 -1.748579118468942539e-01 3.500112333114931140e-02 9.714167042843796507e-01 2.373684080305224764e-01 2.413608570084557932e-03
-3.867726434232297006e-01 -1.492484837675086273e-01 5.847243362566440644e-02 9.775305346616920410e-01 2.099556177648851107e-01 -1.878010577690866420e-02
-4.280591138154997699e-01 -6.522421782635333398e-02 1.879440032001714611e-01 9.694292722858867117e-01 2.453618371199710324e-01 -2.110668228016125952e-03
-3.867861110297251548e-01 -1.036229321932384817e-01 1.397993826246045623e-01 9.764969233605182986e-01 2.150440617569502055e-01 -1.448482552587606470e-02
-4.259297345883524821e-01 -1.018929177323617818e-01 1.490344183142343626e-01 9.742109554950061368e-01 2.256388728485611284e-01 -3.365310357044022649e-04
-5.036802219498781596e-01 -1.613173731784894871e-01 4.150946195948276157e-02 9.910584134844180326e-01 1.333098360195292542e-01 5.631046278849076436e-03
-3.717564134903374451e-01 -1.244227444616191613e-01 4.587887635518109186e-02 9.880971674256149306e-01 1.537166409020691848e-01 -5.931444618379863067e-03
-4.228289198240433588e-01 -1.184664775446237217e-01 6.944174087527643646e-02 9.870402689900024118e-01 1.598454699155914260e-01 1.417508869840441478e-02
-4.337186466585167266e-01 -7.853655194488173841e-02 2.384281599010660280e-01 9.910539203687387388e-01 1.334596703889110725e-01 -8.020607439179728518e-04
-4.263610285753920426e-01 -1.623109173655025717e-01 1.766807898019173984e-01 9.918027811760361523e-01 1.277416266506844200e-01 3.052879315802208265e-03
-4.924751576575699397e-01 -1.145802652756561929e-01 9.912417199895159903e-02 9.991288932790477473e-01 4.111914425317838434e-02 -7.118327814272394985e-03
-4.040374805461605101e-01 -1.065029739335755232e-01 -2.778612548607138633e-03 9.993808476345921177e-01 2.483189326498341093e-02 2.492585922371873958e-02
-5.352578949220813120e-01 -1.150131445615799330e-01 2.304152619134805791e-01 9.974488663400224997e-01 7.109565633774023174e-02 -6.416127095838149684e-03
-4.421591335307837878e-01 -1.297193629071480836e-01 2.104316586572875236e-01 9.994815964591973190e-01 2.941239879365641074e-02 -1.309385873518684011e-02
-4.237311280489368115e-01 -1.279567519476959847e-01 1.508058754377747668e-01 9.981436995195512862e-01 5.973194929424792410e-02 1.188483668095800978e-02
-4.595183490198885834e-01 -1.152497256468301701e-01 1.054944757254683979e-01 9.995524823503755263e-01 2.269849581973115357e-02 -1.948366789708839628e-02
-4.515750056224842046e-01 -7.974500739673627547e-02 7.638209637435140753e-02 9.995244544993836522e-01 6.235745668356687922e-04 3.082979098971193668e-02
-4.507378130853658682e-01 -4.237323029187445300e-02 5.183295783709512827e-02 9.996402425629826727e-01 -2.479950769061180921e-02 -1.021615715053746445e-02
-3.891258734517148987e-01 -4.283283626052999948e-02 1.394786855592920483e-01 9.990077577235699779e-01 -4.453607862614243629e-02 1.941873604061647809e-04
-4.303668931559432864e-01 -6.125827647852723906e-02 2.295792552514709650e-01 9.984468074663886972e-01 -5.569265726983349540e-02 1.516768407149694320e-03
-4.024692944323268184e-01 -7.993656965826850813e-02 2.681169253166184596e-01 9.991884871848659699e-01 -3.940505519769365445e-02 -8.343182970891684092e-03
-3.766251465776975227e-01 -2.677787455595585786e-02 9.790071595118450543e-02 9.957682524469771979e-01 -8.862437787257067268e-02 2.431680623340209610e-02
-4.709313298775657519e-01 -7.314870024117958724e-02 1.511738251979466430e-01 9.940661077640193799e-01 -1.072727224767025811e-01 -1.803153923905303352e-02
-4.304819481000781156e-01 -1.201942345712608551e-01 1.933094014012610717e-01 9.921876914484609733e-01 -1.244809353002294811e-01 8.251162642547315088e-03
-4.049697453461115204e-01 -7.247249111736790705e-02 1.343187669692295083e-01 9.924716456870109615e-01 -1.224091409543951459e-01 -4.004337413779942775e-03
-4.068059324561650314e-01 -7.460963672394087254e-02 8.384817263230461004e-02 9.921501430495826002e-01 -1.249878833301709541e-01 -4.015304139934157933e-03
-4.194259661409487916e-01 -6.013175837093315962e-02 5.694823349729846718e-02 9.835857078275326293e-01 -1.800186830475678790e-01 -1.234621849922627919e-02
-3.225421080418561237e-01 -7.849551159143307311e-02 5.787064697889175713e-02 9.920188920127940291e-01 -1.260890151667984627e-01 2.795424391664125198e-04
-3.934024618015943831e-01 -5.239645231792517538e-02 1.839568903876785955e-01 9.898931582173875476e-01 -1.418145117546953660e-01 -4.237572224001067691e-04
-4.773469568064510060e-01 -4.505972613702198537e-02 2.322400522946196921e-01 9.831690307102044502e-01 -1.826925177353252716e-01 -1.449488145885727405e-03
-4.070852445998173197e-01 -4.295074390705477113e-02 1.053738162062446138e-01 9.835227302695896956e-01 -1.807816438332793540e-01 1.017986242201613170e-03
-3.855167385048635098e-01 -5.614733090836256796e-02 1.615271258437283031e-01 9.685871466567602672e-01 -2.486741060871300590e-01 -3.581802373637392760e-04
-3.741815624446566124e-01 -5.921281746650282340e-02 1.772924646601534426e-01 9.680682816284846837e-01 -2.506866309003969451e-01 1.232585932744186647e-04
-4.642025473918207634e-01 -6.570044426272733662e-02 2.431339038673935582e-01 9.733996611663050524e-01 -2.289958694157504804e-01 7.347886216249183144e-03
-4.063796565620345080e-01 9.227405354138677740e-04 1.296729395521402928e-01 9.664094480910978557e-01 -2.569773657306108072e-01 3.925830156224270444e-03
-3.756009061558868156e-01 2.456240260295208117e-02 1.352622754047150266e-01 9.660287238874945004e-01 -2.584266579931051022e-01 2.041338485809764559e-03
-4.225459850904045855e-01 -3.570748287738043092e-02 6.545313746504294317e-02 9.451854829561079363e-01 -3.264843043900291231e-01 5.692257547542755106e-03
-3.813313943866044609e-01 -3.047282711065193994e-02 6.471046419977644071e-03 9.442767537195706495e-01 -3.291519793705424135e-01 -6.219817387482942748e-04
-4.393963280612731559e-01 -7.928823241915866626e-02 1.505060224945293790e-01 9.453999796707071024e-01 -3.259059598303314931e-01 -2.045430442969924188e-03
-4.552208769533820920e-01 3.209758768208763324e-02 2.047531376874176801e-01 9.440335279615337249e-01 -3.298368605204760606e-01 2.888516313945564684e-03
-3.643211156188344568e-01 -3.514614698512111973e-02 1.389412572472009666e-01 9.438186009918126951e-01 -3.304610229414099987e-01 -1.400263680335512651e-03
-4.139660471623476945e-01 4.229621130518219918e-02 1.164254183999502423e-01 9.120632566263313645e-01 -4.100492384683963043e-01 -4.877946897688792741e-04
-4.035858912197315962e-01 7.188717274538219265e-03 1.884964121249915747e-01 9.150556727005179081e-01 -4.032564157062541454e-01 -7.574896061813710633e-03
-4.338871523808637831e-01 -3.780564621203789943e-02 2.139716322714703967e-01 9.039810536953941655e-01 -4.275493804392178077e-01 4.447678698616563953e-03
-4.464865409074089686e-01 2.854969876167235202e-02 3.838081793448719359e-02 8.876454213971706197e-01 -4.604131837524515491e-01 1.026187602589073190e-02
-4.118844085993127457e-01 6.254218184853989337e-02 7.321379573553231379e-02 8.829359572609087881e-01 -4.694649633392480870e-01 5.171418822821918782e-03
-4.312371912137619723e-01 5.410368925085330682e-02 1.004018163819605652e-01 8.662490497291785996e-01 -4.996120554694080118e-01 6.147136962740298817e-04
-3.868429130298897123e-01 2.003962093803858535e-02 1.535925350926301558e-01 8.899432537801335030e-01 -4.554674144611750020e-01 2.346144529395045170e-02
-4.284649378369718153e-01 5.077705320779143938e-02 1.137767287798139154e-01 8.856723943538241661e-01 -4.642851630035662591e-01 -4.867986679951223292e-03
-3.920658805069856534e-01 4.847693010840858213e-02 1.966449905446256696e-01 8.758276133429729882e-01 -4.826167820302555977e-01 2.652057448958335985e-03
-3.717201573629186351e-01 6.628784372639973110e-02 8.497547935864765978e-02 8.678992477273382855e-01 -4.967386847126932237e-01 1.254951881169859762e-03
-3.385899709812510427e-01 5.285161725148472545e-02 2.611494230137886841e-01 8.819543499250346308e-01 -4.702961245671112844e-01 3.127426842415005626e-02
-3.369194158822658713e-01 5.073337469761780849e-02 2.093930108393463330e-01 8.475679118592500672e-01 -5.297923617425807086e-01 3.080078287591003078e-02
-3.498571145581260700e-01 1.906987890427766508e-02 1.451697560932527220e-01 8.145947016348848990e-01 -5.800302673559979416e-01 -6.008488183303035491e-04
-3.524546028332985470e-01 6.258493320557100004e-02 1.183121151546595029e-01 8.082551233476211738e-01 -5.888027908294243273e-01 5.910084077489930615e-03
-3.114009766396410583e-01 1.681839809280658016e-02 2.289618007814852307e-01 8.214663503452421800e-01 -5.702044672542035952e-01 -7.739559019583911771e-03
-3.652942112387759788e-01 3.561261819452227195e-02 9.218150655767484714e-02 8.093522417969398752e-01 -5.873233963563933013e-01 -4.204648125935457332e-04
-3.990141205386154022e-01 8.687329823916541127e-02 8.431168688766187136e-02 7.645733325147738846e-01 -6.444735822892495580e-01 9.023355169502471351e-03
-3.836099699526313578e-01 1.274033117926344216e-01 2.114183658066013521e-02 7.530824232231674298e-01 -6.579229263561501284e-01 2.070460644910689183e-03
-3.090750418896342500e-01 1.106150409035565330e-02 1.566915609641225671e-01 7.799008808867076148e-01 -6.255449219988725718e-01 2.116994458098149512e-02
-3.408546949345552246e-01 1.308583003699419489e-01 2.552545608328946058e-03 7.279197704377011746e-01 -6.853407239143475271e-01 -2.099761773350402802e-02
-3.659878166660990306e-01 1.070783465074351265e-01 2.267423453909467312e-01 7.554850580213718914e-01 -6.551613588491969065e-01 -2.433305841457697113e-03
-3.465080459407535729e-01 5.103377596056202226e-02 1.930765188489350914e-01 7.649631996057435490e-01 -6.440738840450664915e-01 -3.676139897592431297e-04
-3.690171039201833869e-01 2.665623926545618999e-02 1.333179708242762940e-01 7.560843253586331247e-01 -6.544695439747213461e-01 -2.471630332562609229e-03
-4.083335365060387634e-01 1.043252119464980338e-01 2.413991760148880006e-02 6.941838193165443816e-01 -7.197977660712581160e-01 3.095031080214695848e-05
-3.638466924654025769e-01 9.836064009658920804e-02 1.147826614683230412e-01 6.968726045032287431e-01 -7.171904790652767758e-01 2.527811505087000036e-03
-3.019403250896179891e-01 1.097075371031872998e-01 1.384059061987102934e-01 7.187572982356962292e-01 -6.949374317542654778e-01 -2.121113339046173940e-02
-3.165463015561177373e-01 6.962338114119318022e-02 1.519417467632755980e-01 6.917032870444450587e-01 -7.221789380536558500e-01 2.035712063116249925e-03
-3.009256795416126451e-01 1.262351204121638093e-02 2.027047604051856189e-01 7.169007103745970166e-01 -6.970683449450599811e-01 -1.221040293983437219e-02
-3.639032735089269277e-01 1.037007168705545018e-01 1.659982519301747006e-01 6.361342416939872457e-01 -7.715111358891283411e-01 1.018792145056424993e-02
-3.508106689936231204e-01 1.657758109490703735e-01 -2.071697480029465951e-02 6.162681777441311182e-01 -7.875189811720221256e-01 5.233296638694323252e-03
-3.504978361068079029e-01 1.184666469935945210e-01 6.365901182452080032e-02 6.129031235627165897e-01 -7.901569816171633009e-01 1.305958927072374673e-03
-3.278183741055002987e-01 1.346950616827432556e-01 1.840063751159199679e-01 6.054675325909666395e-01 -7.958170902766118493e-01 9.177461624745740856e-03
-3.269635419580035895e-01 1.068190127275791546e-01 2.956972082276898561e-01 6.111802965348485106e-01 -7.914890188358866263e-01 1.943756615480597303e-03
-3.197869860289315747e-01 1.742557873555012349e-01 1.836288303897994773e-02 5.814803620780911730e-01 -8.132345694299185634e-01 2.302441316661578766e-02
-3.249060200051797631e-01 1.489414701282181785e-01 1.309179530502982969e-01 6.047049005545412914e-01 -7.964440514060500131e-01 -2.975941067887001752e-03
-3.169726211326904797e-01 1.405191807778139734e-01 1.100067080110600781e-01 6.057104111382100031e-01 -7.956804906156010881e-01 2.730328276374476004e-03
-3.485262265464170173e-01 1.679931033890381953e-01 1.909908580889339014e-01 6.017941866238473159e-01 -7.986473358314878368e-01 -2.487953980425560829e-03
-3.378840004675780495e-01 1.336184926927519445e-01 1.725337323869552686e-01 6.047170140805804284e-01 -7.964368645497129640e-01 -2.377744243873357484e-03
-2.923308067571711022e-01 7.033375673726491306e-02 1.223453141244683628e-01 5.728348852964433302e-01 -8.194915176069006435e-01 1.714195898225062339e-02
-2.980394777949861851e-01 1.312164205855443633e-01 8.033088331744780985e-02 5.213149716260931932e-01 -8.533232473434535503e-01 -8.374718007714188409e-03
-3.036950751450525621e-01 7.530893268454394440e-02 5.991573360628693612e-02 5.429151718030595930e-01 -8.397843908625418630e-01 -2.300671572381099341e-03
-3.323649496917456259e-01 4.674966094516988524e-02 1.470162950602923180e-01 5.380866725272376305e-01 -8.428894542964727732e-01 -3.173079889287258723e-04
-3.151926570899651892e-01 1.113181369186494601e-01 2.247850850219095531e-01 5.585426436583625920e-01 -8.292377527697259998e-01 -1.987120017871032984e-02
-2.357912760409356934e-01 1.393246613238506015e-01 1.553785285441596220e-01 5.375133087497530049e-01 -8.432552650053170007e-01 -3.094681280989617619e-05
-2.903973679109995154e-01 1.297084424304787709e-01 4.748035310605629861e-02 5.356586195465373734e-01 -8.444281764663252865e-01 3.301226325851270432e-03
-3.199243983196793373e-01 1.650003141036733845e-01 3.756102179300285782e-02 5.258338278563816637e-01 -8.504936534878988486e-01 1.262263279633905021e-02
-2.859115186086294558e-01 1.753422967301602464e-01 -4.047487114374651029e-03 4.506275867631524545e-01 -8.926929590974419515e-01 5.835993991633444018e-03
-2.480955321421786930e-01 1.481311651768355553e-01 1.806829021836464932e-01 4.633867334140418515e-01 -8.857075995148485648e-01 2.819190411285174211e-02
-2.945952068456862416e-01 1.477704015174447216e-01 2.353960689944680218e-01 4.641402512958487936e-01 -8.857605875299925380e-01 -1.417288096661061805e-03
-2.896342365967273791e-01 1.053769359362445868e-01 1.644300277011781219e-01 4.642501564249130741e-01 -8.857039716023100695e-01 -5.166694669459019574e-04
-3.361149051213445649e-01 1.181129688366587827e-01 1.118047390773426464e-01 3.902456863653115393e-01 -9.206942974210067243e-01 -5.505903168953192074e-03
-2.348918670942458375e-01 1.303814005400021347e-01 1.216062610613766609e-01 3.815262903829824137e-01 -9.243579878101439995e-01 -1.087115479342235096e-05
-2.856365326191854792e-01 1.513496184606601125e-01 2.572769264509746148e-02 3.714294659966173584e-01 -9.284589190653278479e-01 -2.046313150669235893e-03
-3.208851633018904304e-01 1.154040801610532740e-01 1.453398742010640621e-01 4.078248872965452576e-01 -9.130416106367248430e-01 5.820528107952167331e-03
-2.625084315014044045e-01 1.303784122083856689e-01 2.015459886836138970e-01 3.632210312869194047e-01 -9.315204020239713500e-01 1.844513605170175485e-02
-2.440277960035675542e-01 1.412220791195546166e-01 1.297108185845290140e-01 3.279421778877689153e-01 -9.446851271808625050e-01 -4.892693072790646816e-03
-3.172053504427423398e-01 1.712468681165492113e-01 1.130959485661706260e-01 3.539186544412069590e-01 -9.352761836544654095e-01 -2.152376921249038975e-04
-2.306927182751518646e-01 1.352457037895263003e-01 9.002994133871017324e-02 2.680265158026992056e-01 -9.634115324120046120e-01 7.773170826781197198e-05
-2.539666576542276011e-01 1.884792182674498440e-01 1.014140220604309583e-01 2.648431553764284407e-01 -9.642914683167629342e-01 2.591944406063439164e-04
-2.408276754472576942e-01 1.715816227406360417e-01 1.809545187780360262e-02 2.894787461505973769e-01 -9.571751359171527529e-01 4.220747452562867777e-03
-2.465209689933080539e-01 1.144175963061001139e-01 4.429341287962625801e-02 3.398507953336497578e-01 -9.402405128400124212e-01 -2.119469097289249440e-02
-2.295063127458737973e-01 1.236254265575091327e-01 9.868300843342102391e-02 3.436867193851179669e-01 -9.390543591661557610e-01 7.506627027891571088e-03
-3.162104112326456495e-01 9.696762095961586336e-02 2.340205587031699563e-01 2.794817632097938986e-01 -9.601510006202408354e-01 -6.410545822118157984e-06
-2.302451108444963368e-01 1.620987089085725308e-01 2.406048278651237438e-01 2.896049235401263466e-01 -9.571452635571081613e-01 1.390219950771171909e-03
-1.557331840017157631e-01 1.468380976963780116e-01 1.196116756351327387e-01 2.793722886409629735e-01 -9.601802896464320947e-01 2.221646687507045949e-03
-2.273286496848892502e-01 1.281163126544755393e-01 7.465006021609096876e-02 2.732603990477369127e-01 -9.619400474414884217e-01 3.153419389767368199e-04
-2.547918631552462676e-01 8.688505651645581085e-02 6.713913351638611804e-02 1.805971079269471646e-01 -9.835565737828035893e-01 -1.072742771950655535e-03
-2.024484450313912554e-01 1.782558162579274130e-01 8.540491772186045716e-02 1.839854197278525672e-01 -9.829104069012600808e-01 6.041302240839434463e-03
-2.011752009189383683e-01 1.299336958571359335e-01 8.827749455762481934e-02 1.875461384077481974e-01 -9.822497792331497113e-01 3.437610328449277122e-03
-2.704166123044520753e-01 1.576145930516697491e-01 1.718361780598816335e-01 1.988848272723621191e-01 -9.800156273176472421e-01 3.767717351549944825e-03
-2.814840525976631258e-01 2.454008137211474150e-01 1.510682181039864902e-01 1.928445703478544604e-01 -9.812188627692356446e-01 -4.529352403970580455e-03
-2.170825637002997688e-01 1.989903150297002710e-01 2.106768133388917941e-01 1.270002060560424251e-01 -9.918453575481924744e-01 1.066463181835768277e-02
-2.205606418405797742e-01 1.698252495964262254e-01 9.456211674747336260e-02 1.184237174180532703e-01 -9.929562704081442703e-01 -3.697054237832406512e-03
-1.854510844358911448e-01 1.931640802477568586e-01 2.104483569182365177e-01 1.567371948730247599e-01 -9.874809399575702473e-01 -1.774387116299679101e-02
-1.822708814576363967e-01 1.673644561879475690e-01 1.687675578647164221e-01 1.050974653315540769e-01 -9.944419774489891006e-01 6.298910082446099873e-03
-1.019012382598588062e-01 1.444144688088376260e-01 1.341688380445285322e-01 1.043911447814294541e-01 -9.945362111260946936e-01 4.622230789525965181e-04
-2.254740416562064920e-01 1.752601876249058055e-01 2.116968583503120449e-01 7.018445501886401428e-02 -9.974522435860448955e-01 -1.277356797728613873e-02
-2.740508645530179144e-01 1.375588905878165347e-01 2.016753058907483909e-01 1.096224580072526628e-01 -9.937832167381847048e-01 1.943797391587893247e-02
-1.721708885665606814e-01 7.711185581771290432e-02 1.299980887387791328e-01 7.571160978622756832e-02 -9.971166749187549971e-01 5.107714023311736400e-03
-1.694625197411316064e-01 1.301785673426129331e-01 9.322889235508718953e-02 1.540555010112655034e-02 -9.998811894762968944e-01 -5.253166163731340203e-04
-2.053032320522413245e-01 1.097143957064672659e-01 6.153330593022296457e-02 2.959244510316505483e-02 -9.994128599566951543e-01 -1.726912117033163607e-02
-2.186690348329860811e-01 1.573882467653989203e-01 1.956227208727637570e-02 1.644112865283484104e-02 -9.996708872817999803e-01 1.969280096481342349e-02
-1.607671196461277208e-01 1.728485996153845683e-01 2.435751670657667484e-02 2.869053858260051017e-03 -9.999932996180379563e-01 2.273598246743842744e-03
-2.120295323101697438e-01 1.760877806062041973e-01 1.452224441357892748e-01 -6.814617330426191860e-03 -9.999748701389781225e-01 1.954502794517276511e-03
-2.286398346881448884e-01 2.613161257115706460e-01 1.804315003526051620e-01 -1.211685185552565172e-02 -9.998851946627347331e-01 -9.098318271874855298e-03
-1.844387169475182886e-01 1.475701446946144912e-01 1.691423999191381256e-01 -1.345176360931021019e-02 -9.999094029509971726e-01 -4.857427092422582924e-04
-1.778619445292015100e-01 1.520906270329399901e-01 1.816656113451849408e-01 9.595413886853552954e-03 -9.999029788248096073e-01 1.009757246134820007e-02
-1.057428538531915707e-01 2.265708074582028497e-01 1.206748246822413190e-01 -8.301403270929955114e-02 -9.965322909944857033e-01 5.662453410041072728e-03
-1.165872311732529809e-01 1.452671026819197519e-01 1.218834287040670705e-01 -6.500023407316930790e-02 -9.978035431691761881e-01 -1.276944828373829770e-02
-1.473762466530540161e-01 1.573417612959537304e-01 1.950281018451741899e-01 -9.993400229219669140e-02 -9.949940486589502475e-01 -1.957527372353917315e-04
-1.275143243375037871e-01 2.052753549848858605e-01 1.608944033045389688e-01 -1.527290998355361751e-01 -9.880848193829759873e-01 1.903186192516479608e-02
-1.421922355757407608e-01 1.222616968158695971e-01 1.320149767506140770e-01 -9.252106529646225708e-02 -9.957064137804777504e-01 -2.930875778267460346e-03
-1.248488941897659271e-01 1.488715849955536685e-01 1.977959401425526120e-01 -1.760941486009097445e-01 -9.843179574149889532e-01 1.044076332960398173e-02
-9.888826090246122247e-02 1.400745477454022336e-01 1.299843616817790148e-01 -1.637522742267280840e-01 -9.863599259345966486e-01 -1.671194769831860563e-02
-1.433233697333297085e-01 1.258339111125517384e-01 1.478785449415140618e-01 -1.825322936564854892e-01 -9.831733680297514155e-01 7.217351975459966595e-03
-1.935459564890055217e-01 1.238624377134580484e-01 2.191865120578073423e-01 -1.910442324177007156e-01 -9.815540693699212893e-01 7.328721803926738394e-03
-1.624309852531335696e-01 1.500167448490175026e-01 1.555264111121268042e-02 -2.390032378413596004e-01 -9.709272069407441919e-01 -1.333458374273643020e-02
-7.811003539240762850e-02 1.637214197228515633e-01 3.338629577458796654e-02 -2.780798578519693698e-01 -9.605492531762239716e-01 4.089606292396306790e-03
-1.040257436114014056e-01 1.924746374424963213e-01 1.603364389816710200e-01 -2.645545157477975362e-01 -9.643555792605532639e-01 -5.406010219279838366e-03
-1.027173389342936893e-01 1.585151531339611120e-01 1.730336762396401384e-01 -2.830171144590692411e-01 -9.591142053193242312e-01 -1.119856215397330200e-03
-1.072601776857113332e-01 1.340606787703384761e-01 2.261757043500444153e-01 -2.889132628459911700e-01 -9.573552653508641264e-01 1.498554632674655752e-04
-1.110694225417409031e-01 1.176850627067720506e-01 1.814372617730348747e-01 -3.148235732266958520e-01 -9.488112945062970871e-01 2.536227825058394447e-02
-9.982138509752359889e-02 1.044962631832612732e-01 1.052573636108585509e-01 -2.952779763643781918e-01 -9.553388657588057775e-01 -1.177150138410309674e-02
-1.290692352590265823e-01 1.923135906122623584e-01 1.320452199212787947e-01 -3.136760793888967447e-01 -9.493144503738362161e-01 2.023342607250985803e-02
-1.024803481214036638e-01 1.037380782450404992e-01 4.421168817386610800e-02 -3.593923414205161260e-01 -9.331384671664696429e-01 -9.473437733504121508e-03
-9.473335479856968833e-02 8.198383650616783425e-02 1.241317600126812942e-01 -3.851087596845910732e-01 -9.228563543630403654e-01 -5.233777407792204739e-03
-1.237428063165095793e-01 1.190010905515960921e-01 2.762458997009956674e-01 -3.707123004570724301e-01 -9.287472270216988735e-01 -9.892367413703105194e-04
-5.322707586317448197e-02 1.704277959740223003e-01 9.814816549119301237e-02 -3.728686620447995148e-01 -9.278831426860535414e-01 -1.354394319925756760e-03
-1.141409307734919665e-01 8.241385626070105164e-02 1.652429084724269248e-01 -3.671127280392715853e-01 -9.301675422486865852e-01 4.072868596151603231e-03
-2.934352519687808553e-02 1.053052269632613475e-01 5.095152637285134400e-02 -4.522760703704000740e-01 -8.918647993253708828e-01 4.851380692629081448e-03
-4.043665349886760990e-02 1.456544177120926431e-01 8.948255213715200496e-02 -4.474222089182902651e-01 -8.942558749500488791e-01 -1.094518542558743472e-02
-5.635176783082217894e-02 1.118548258569848075e-01 6.691565477939441509e-02 -4.804287886006072261e-01 -8.768487744954445162e-01 1.801126729550734523e-02
-1.004691604130520666e-01 1.217468266134649341e-01 1.856390866077907709e-01 -4.723571723410864287e-01 -8.811810609192850530e-01 1.996596141177044495e-02
-8.392360949214730526e-02 8.781286595692894270e-02 1.768050074560537643e-01 -4.732043649316001188e-01 -8.808665367588155437e-01 -1.231963587981931528e-02
-3.775896338371680094e-02 1.277164843335637789e-01 7.514978765640564773e-02 -5.076324077507564647e-01 -8.614550959072345693e-01 -1.429882291053048704e-02
-5.462577743350550963e-03 1.556484847705599250e-01 1.109959185067836834e-01 -5.207775799202671863e-01 -8.536855794626834193e-01 3.412282205818335887e-03
-1.009468618968872300e-01 1.121878651257210702e-01 4.128374688880298571e-02 -5.533455350153140273e-01 -8.329505739872595793e-01 -1.435330244537017441e-03
-4.007330930089095244e-02 1.435659591560784487e-01 2.122488176000041082e-01 -5.218862276703137848e-01 -8.528640258718476197e-01 -1.605362082877369659e-02
-2.771312108990203055e-02 1.484999713420463441e-01 1.450414227082632290e-01 -5.613613086885321790e-01 -8.274288236953883935e-01 1.533045418650436954e-02
-1.070734789643188467e-01 1.148086693683401799e-01 1.816889653154539486e-01 -5.336254361082432007e-01 -8.457176888629616140e-01 2.341939917704719421e-03
-1.243554560430021605e-01 5.709870432160603360e-02 1.360942353476219391e-01 -6.107709962258067726e-01 -7.918068664860952177e-01 -8.224079318995436861e-04
-5.425786607010632534e-02 1.485876642794824454e-01 4.471286786018963816e-02 -6.280347353092149421e-01 -7.781852924792964643e-01 1.476956206202979251e-04
1.765108928670350297e-02 1.479590421529255462e-01 2.695564342027083060e-01 -5.910961063231860990e-01 -8.062800890488306393e-01 2.275546292603717810e-02
-6.280134237519546803e-02 1.658876568791968209e-01 1.557734612282835884e-01 -5.921514141869221870e-01 -8.055415133420901208e-01 2.143765283241689037e-02
-2.335755269261736294e-03 9.489334038981318831e-02 1.392183655431117606e-01 -6.409203494983092275e-01 -7.674619766907275764e-01 1.494054660733925427e-02
-2.193645038184692531e-02 4.883174669804074552e-02 2.138190475873795182e-01 -6.188303750366641598e-01 -7.854845861532070428e-01 7.932959580536427802e-03
-1.093601646756004256e-02 9.413295671487814653e-02 2.030059760578763473e-01 -5.986653592853836692e-01 -8.009569215363335770e-01 -8.233919767766018430e-03
3.549288459862267459e-02 1.002617841928108849e-01 1.821327476185516103e-01 -6.504888494582905523e-01 -7.591862269950259146e-01 -2.237251598471547490e-02
-6.363138620596700545e-02 1.686292513477721799e-01 1.686802143563490841e-01 -6.145060884389847988e-01 -7.889087066139311988e-01 -2.306490874235435362e-03
-9.240355102471956711e-03 8.462223992661895011e-02 1.422758153019342831e-01 -6.862338713930609124e-01 -7.273557073146834639e-01 -6.062077997571303258e-03
-5.433595493412221936e-03 1.182626635690177258e-01 1.682584760012220682e-01 -6.866293204057289934e-01 -7.270055967309647649e-01 1.743181293047211177e-03
-1.702975240720690925e-02 9.153010149274168339e-02 1.026025753053153439e-01 -7.536888493441610271e-01 -6.572298349051046706e-01 -1.436135398714368438e-03
2.943309905640017002e-02 1.501446925744464034e-01 9.424618076667096167e-02 -7.545598461596282336e-01 -6.562222863882307688e-01 -3.427741378977945154e-03
-1.309331308421265473e-02 1.126347722088739539e-01 -1.419009519038513800e-02 -7.301481070265726236e-01 -6.828244437524004784e-01 2.518969669800141462e-02
-2.617079870133572073e-02 3.489123179241243600e-03 -1.640347707989031623e-02 -7.516626098083991625e-01 -6.594316887447911890e-01 1.237614217836625202e-02
9.507486441908562583e-03 1.137519610194964587e-01 4.544012311243957047e-02 -7.551489509328012106e-01 -6.555511869261395619e-01 -1.644148660998500733e-03
-8.610172595991170616e-03 3.207996214392118406e-02 2.527464245307092794e-01 -7.631062369893456543e-01 -6.462607493303154094e-01 3.989353704538823285e-03
3.937050313874406599e-03 4.656904911220449694e-02 1.738257458225077601e-01 -7.631256562406070199e-01 -6.462045495102806125e-01 -7.675479109341776761e-03
-7.199667863106019687e-03 9.935865022150502934e-02 1.018371102484542379e-01 -7.654886909669492701e-01 -6.434493469854398739e-01 4.319394981689798218e-05
4.039877050415632137e-02 8.464975553458219115e-02 1.134162443290203937e-01 -7.619144135878799240e-01 -6.476753043596318316e-01 1.768188252257172147e-03
1.321127581840186339e-02 4.122563541424684175e-02 3.977801963081453729e-02 -8.057522384173998464e-01 -5.922095692215363361e-01 7.152370781203985090e-03
1.425604352829595162e-02 8.114946021764554707e-02 5.101663307590034030e-02 -8.100571577092025022e-01 -5.862762749316469124e-01 9.355784112533621980e-03
2.208615129278436798e-02 5.553655564317921955e-02 1.362257082729938923e-02 -8.246384629808529709e-01 -5.655522979275305895e-01 1.104552766806120474e-02
5.099163911241724745e-02 3.024111486646691160e-03 1.074362654636518144e-01 -8.406659814929873242e-01 -5.410558798708609007e-01 -2.322159377822326579e-02
-5.952061021773882854e-03 9.259382944210720057e-04 1.341446188333675349e-01 -8.192024698857014453e-01 -5.734655479674337641e-01 -6.676722817165585584e-03
9.908297935141275117e-03 7.567765367693773948e-02 1.650937177556011382e-01 -8.303211110769057601e-01 -5.569881550807979087e-01 1.819471350974959448e-02
-1.436044857537559574e-02 6.908121770533093287e-02 1.675260040186277166e-01 -8.292157968131269596e-01 -5.587213672184707658e-01 -1.521828272485900233e-02
-2.499297257938123268e-02 -2.422613364040128447e-03 1.786934658451933278e-01 -8.150531661102741188e-01 -5.793795525766214372e-01 2.769561288693705037e-03
2.183550145563386419e-02 1.012175435672414692e-01 8.260222082987213332e-02 -8.565224525026607916e-01 -5.159289234010201453e-01 1.366141856073428175e-02
4.523914016415472167e-02 2.370505176404877345e-02 2.116034981317105879e-01 -8.669681183503307187e-01 -4.983517212588493006e-01 -3.441465157345233519e-03
4.223179208099988452e-02 3.166912319016070704e-02 1.122441370536460536e-01 -8.859311637355561375e-01 -4.633426906822861180e-01 -2.096483039432360182e-02
5.125712659631058432e-02 -1.215182980952712877e-02 1.806448934883188584e-01 -8.771655664282147491e-01 -4.799884027283490839e-01 1.384566065442033832e-02
3.005916366229464259e-02 5.757213882050594284e-02 2.151787947661966405e-01 -8.714608546642543807e-01 -4.904111747069798133e-01 -7.270385847216052390e-03
7.877430210388586262e-02 1.935137278062924737e-02 1.273412594861778879e-01 -9.052729965455592609e-01 -4.247364136342042240e-01 8.932001935614468022e-03
3.689558882339866869e-03 4.374487924952102924e-02 6.241379622581685188e-02 -9.045636544546372670e-01 -4.263335214113593841e-01 -2.079317354703739268e-03
6.340924871060689416e-02 4.798303599510592155e-02 3.762901486647289573e-02 -9.190973913776573356e-01 -3.937198385982845217e-01 1.564205411466674037e-02
4.107992440426412595e-02 1.235263987860090069e-02 6.244297686434635564e-02 -8.925052729119465900e-01 -4.505440115519713795e-01 2.108154356371986365e-02
1.072238232763410709e-01 -2.709155442330463473e-02 2.347069053671338723e-01 -9.255398168206859788e-01 -3.780706587131718033e-01 -2.094336409747591873e-02
2.893801248871168824e-02 3.960865107631036941e-02 1.708883422113026684e-01 -9.293163330661108334e-01 -3.682870970112185338e-01 2.712503035217595296e-02
9.764847165883264180e-02 1.480158980363749550e-02 1.828526051325736479e-01 -9.087662600661710055e-01 -4.172739895910828611e-01 5.128564719823708838e-03
8.505677029324143490e-02 8.982200651647020972e-02 1.617935390812083596e-01 -9.449883943154634425e-01 -3.270999714771066769e-01 -1.594762916015692337e-03
6.379988812500983486e-02 1.435384657144601374e-02 4.267895674341819212e-03 -9.485670006933095699e-01 -3.164600436052984467e-01 8.584054812943300167e-03
4.957428211855102740e-02 -3.009106045457263928e-02 9.209886133889305659e-02 -9.465175295118840593e-01 -3.226476893882144759e-01 -1.742084718335198479e-03
5.481984382865651151e-02 -9.687571372945472103e-03 1.058873087933542984e-01 -9.432104219740482520e-01 -3.321463110326060009e-01 5.738287808139765078e-03
5.400240656443695136e-02 2.492209773055990840e-02 2.131694091569276417e-01 -9.419905947904618770e-01 -3.356360922472385599e-01 -1.460447642073164302e-03
-3.102672196429824558e-03 -1.047124625358426958e-01 1.304277344812605210e-01 -9.558481324813054014e-01 -2.927262397453200826e-01 -2.580108905775517839e-02
2.883953308935477411e-02 1.481786266404912233e-02 1.224993044142798498e-01 -9.431704031905008279e-01 -3.322727410404847093e-01 4.941265719546727130e-03
2.492407672132556512e-02 -9.081943607749420888e-02 1.718583899681056515e-01 -9.508450917394754009e-01 -3.093465697921191082e-01 -1.408230353309701706e-02
4.339461704914123613e-02 -3.958494028856521241e-02 1.053082015828331330e-02 -9.694405244876544980e-01 -2.453260927319993179e-01 -4.215518375217538701e-04
2.083074550939696332e-02 -4.319219172989621075e-02 1.916754634994294326e-01 -9.697725494436884031e-01 -2.440088931653096316e-01 -9.286558724854868715e-04
6.674962297231246122e-02 -6.212008335115408453e-02 1.512125295465859276e-01 -9.782532751742536448e-01 -2.066391718141303291e-01 -1.791039594247856304e-02
3.339898235581331698e-02 4.107804206246455647e-02 8.885939094827924323e-02 -9.784917003168808192e-01 -2.056568212037771515e-01 1.610168635072690632e-02
2.894346487924718755e-02 -1.216528256158098953e-01 1.223373725874367796e-01 -9.878127490755717055e-01 -1.554375371939450690e-01 8.071232547896965009e-03
8.937054915393946586e-02 -7.002255260265223547e-02 1.473729275851861503e-02 -9.906019565138876048e-01 -1.367740998303388633e-01 -7.806192788192811141e-04
7.786907773769047303e-02 -7.276567556240048917e-02 2.891357132402992691e-02 -9.874924354965239903e-01 -1.576623166256402586e-01 -1.133028410804342266e-03
1.107234302403574955e-01 -3.152528549763512766e-02 2.482097606093961739e-01 -9.927487175258006280e-01 -1.189707552543123881e-01 -1.720300104914159606e-02
3.034960788858346095e-02 -3.761687385800088074e-02 1.604704797320052889e-01 -9.893621628422770709e-01 -1.454612385059200763e-01 1.881177390799834486e-03
4.928088569261844520e-02 -1.047931411578873484e-01 1.151392862278745044e-01 -9.920297000620231787e-01 -1.251412322284345680e-01 1.472230251018471353e-02
5.633414793739673077e-02 -6.360171611706080808e-02 1.828834101027296544e-01 -9.879487872335429577e-01 -1.547733114900928242e-01 1.554301824717749074e-03
-7.545566262006864200e-03 -7.144672838036048024e-02 2.326116575255234853e-01 -9.961169464162576981e-01 -8.801063078990031818e-02 -2.271107728431111510e-03
6.812333717809163081e-03 -8.386584817665149183e-02 3.140221595372707369e-02 -9.992964247297955183e-01 -3.588691239952441353e-02 1.089885501679288028e-02
7.375210395577937172e-02 -4.583532078137572685e-02 6.982808528572577444e-02 -9.990778549912958661e-01 -4.293379712571548240e-02 3.587901320738888793e-04
5.916043079205100808e-02 -5.275907711294382935e-02 4.499921243277635319e-02 -9.986915847046200501e-01 -5.102342539776145991e-02 3.424719091216391325e-03
3.617027395519714639e-02 -3.069327441712463994e-02 1.572918924217834857e-01 -9.996577434404630980e-01 1.796944416457182253e-02 -1.901302332449328336e-02
9.508556836965607884e-02 -1.227197564885835618e-01 1.169655301812609627e-01 -9.991244458399545225e-01 4.179173944085840670e-02 1.947367328259512866e-03
1.175209427817758279e-01 -7.239785239060164690e-02 1.341672203621957771e-01 -9.996661404257004557e-01 1.162611324792279556e-02 2.307468693460638237e-02
-1.880403582549627917e-02 -6.426907654470961906e-02 1.731644843446914217e-01 -9.997274805470496295e-01 4.659475417734383271e-03 -2.287474432382142001e-02
1.453931854453018591e-01 -5.625197809856020970e-02 1.293593022555756811e-01 -9.992779174842097989e-01 -3.797421466844931592e-02 -1.265957635680804499e-03
7.821995383838549476e-02 -8.831350066470780580e-02 -1.115531563260708375e-02 -9.997562472068242112e-01 -1.013059465366781056e-02 1.961675872540557738e-02
4.028781307551868723e-02 5.121164897087485124e-03 1.631007635893363394e-01 -9.993978483103959087e-01 -3.443066154248162342e-02 4.297713147496385645e-03
-2.070441866204558723e-01 -4.072285551954317462e-02 6.612032846005394537e-02 5.392528573431438593e-05 -3.226040714984332962e-06 9.999999985408282166e-01
-4.352779597460752770e-02 -1.412391789316042034e-02 -2.849494493460863476e-03 1.039394510690431150e-04 1.407834842932727585e-04 9.999999846883004251e-01
-6.764763447819976960e-02 6.736034143251945494e-02 4.343941983670988882e-02 4.934085406567793322e-05 -6.703844281271902757e-06 9.999999987602692375e-01
-2.430927285766188717e-01 -2.198252022585744647e-01 4.293811647328429210e-02 -3.561260428339600454e-03 -1.299599364525694592e-03 9.999928142070088066e-01
-2.100933455234245129e-01 -2.010108633287795432e-01 5.314190509521619921e-02 -5.609489678389798412e-05 7.904996890090912722e-04 9.999996859817528172e-01
-2.932397261120986420e-01 -6.489533061105039191e-02 7.789074621003757096e-03 7.862572514482649643e-05 1.075858777242735936e-05 9.999999968511239512e-01
-4.284005677296859882e-01 -1.552156401456388779e-01 5.048405641029841268e-02 -6.615802778289227824e-05 8.139383658780629258e-04 9.999996665636703419e-01
-4.109706839194336991e-01 -8.299721941836490924e-02 1.613852021520116239e-02 7.079111619405399224e-05 2.429827523364188160e-04 9.999999679739993708e-01
-1.338285367530407943e-01 1.603546853363863392e-02 5.087696746799648395e-02 -4.404511845986003370e-05 -9.098244492675708946e-05 9.999999948911112435e-01
-4.357704516435876863e-01 -1.028663189295643370e-02 -4.066892662029182592e-02 2.661964434994162389e-03 8.416054552570601324e-03 9.999610412266645154e-01
-4.380670352133207990e-01 -1.974390694995637255e-02 1.154206567684790130e-02 6.557185382172081188e-04 -3.699438032115465549e-04 9.999997165873503180e-01
-3.554783356079456169e-01 1.132483090934373327e-02 3.994256527881406837e-02 3.567130684955988583e-03 -8.425491525553763716e-04 9.999932828222407588e-01
-1.942565971450636308e-01 7.167798411216458332e-02 -2.259136591968441757e-02 1.225948345404793505e-04 1.421644518658222555e-04 9.999999823798874088e-01
-1.589329451765421064e-01 -2.322755377346597261e-01 5.875535865272554781e-02 1.161120586851795616e-04 8.167421282709495814e-06 9.999999932256415924e-01
-3.451498495009916456e-01 -2.246459326690018465e-01 4.350801430637737943e-02 1.041656039963009887e-04 -1.401025249755667120e-05 9.999999944766199134e-01
-4.810584281714879590e-02 -2.581702719240401844e-01 2.858634053030667532e-02 3.982338103516526765e-05 -8.753759725114437307e-05 9.999999953756335547e-01
-3.102598586977410866e-01 1.647540912927238366e-01 1.463169284229220123e-02 1.288353464339739242e-04 5.425370130191730603e-05 9.999999902289946618e-01
-1.647507449518972322e-01 -1.499022118471934062e-01 9.307621588149472824e-02 5.271464667581369129e-05 -1.394711247010425998e-05 9.999999985133221081e-01
-1.120389964985192971e-01 1.396272644355011916e-01 5.508351552659920825e-02 -3.405810158372686277e-04 -1.308211605414423767e-03 9.999990862930661084e-01
