-4.490735361512289137e-01 -5.037878448714923352e-02 -6.769879307679210756e-01 8.728673290658097716e-01 -4.085801467565171596e-01 2.667674821374266259e-01
-5.284567368151373845e-01 -1.684790547309857403e-02 -6.372582012103316096e-01 -9.708396620884949257e-01 1.743518077078237971e-01 -1.645350955416833294e-01
-3.934868370869190612e-01 -4.957913159061518721e-03 -6.894408828204894313e-01 -6.587335327197071377e-01 6.009340408734081818e-01 4.527122832331495483e-01
-4.584515989147871506e-01 -3.770194975701034179e-02 -6.455120509083380753e-01 7.502984722286452079e-01 -6.063869787565668856e-01 -2.633382512394351616e-01
-3.964764874870152500e-01 2.457522009451052272e-02 -5.948329593272578819e-01 7.209762896933626930e-01 6.887171859402351215e-01 7.656257238727132153e-02
-4.082320835731997888e-01 -6.643189395867589442e-02 -6.276313098593866435e-01 -2.647258965153114763e-01 -9.468548815977134714e-01 -1.827184525677267579e-01
-5.320350311260910736e-01 -2.571677979539408604e-02 -6.346243468678735011e-01 -6.746931818862945685e-01 -6.385265274589014828e-01 -3.702336884285711838e-01
-5.431300529374702979e-01 -3.446621381555691963e-03 -6.238746085070919767e-01 -6.382229656397612194e-01 -1.293628223329077766e-02 -7.697428783249435913e-01
-2.908190144101557850e-01 7.625807505798812280e-02 -6.151259421597372601e-01 5.208612845380951040e-01 8.106751057408905226e-01 -2.674124065957327323e-01
-4.383338461141231268e-01 -3.000572074259480471e-02 -6.237374802675978991e-01 -8.456657274366239374e-01 -4.615634788834844238e-01 -2.679713275708067721e-01
-4.131892239999317429e-01 -8.474732142854135564e-02 -6.047657478150234578e-01 -8.681080887302464744e-01 -2.345044738193179379e-01 -4.374882833172142327e-01
-4.139611530609308976e-01 -2.968767009799881673e-02 -6.618546025804176169e-01 -7.985811565306222271e-01 4.970767975753944135e-01 3.393859068175990590e-01
-3.979344253331644210e-01 -8.413695230723268470e-02 -6.495256000294031828e-01 -9.063756453983751182e-01 8.835586082304133781e-02 -4.131300416175257562e-01
-4.003754357222131799e-01 -3.331280749135755864e-02 -5.920297180903582035e-01 -8.706107588059538438e-01 -1.873418519764342149e-01 -4.549065147361169847e-01
-4.974330937662717056e-01 2.418505508554458575e-02 -5.993563875756120485e-01 1.999360516726269854e-01 -9.675972197837203748e-01 1.542115284548315202e-01
-4.650354095207269722e-01 1.642667247699130736e-02 -6.309475556849253319e-01 4.809392459439387063e-02 9.659876732861139015e-01 -2.540763457632150835e-01
-5.467873636560723893e-01 1.325881052273892267e-02 -6.320221148014547596e-01 -7.129002939138845418e-01 4.149571770688052080e-02 -7.000366250057833417e-01
-3.299306228482780656e-01 -6.999333342645727707e-02 -6.388309078697672616e-01 7.660122358701511036e-01 -5.450279854366442134e-01 -3.408368371935244778e-01
-4.400691146951574151e-01 3.171809708857450949e-02 -6.345196359911938755e-01 5.512858511513898385e-01 7.287815279940507152e-01 4.061543977047944454e-01
-4.734828473308902441e-01 1.779553744100472595e-02 -6.585755819382521636e-01 -6.420690590271449505e-01 -3.562082772144838927e-01 -6.788689024280650797e-01
-5.712459467773656208e-01 3.554106671810070006e-02 -6.187602386849494485e-01 -3.720483586498732342e-01 9.075944243865911032e-01 -1.945568802389359697e-01
-4.042840487413693618e-01 6.415440855536494458e-02 -6.658934767015070033e-01 -9.131640313972426704e-01 2.354315108700152370e-01 -3.327212879450269778e-01
-3.221724454575935481e-01 -2.978094392813973590e-02 -6.209222203191276934e-01 8.842412968387631800e-01 -2.911534414958883432e-01 -3.651670884266577377e-01
-3.886330475965486531e-01 6.739883265262260059e-02 -6.379366895031556295e-01 4.417035279524368363e-01 8.813260493879462310e-01 -1.678165309634488955e-01
-3.473795331490903693e-01 -6.173209594256201527e-02 -5.728932826286555757e-01 7.229229308777544993e-01 -6.404426265988226730e-01 -2.592598658611057205e-01
-3.837842186063045169e-01 -1.289579120578067117e-01 -5.279294267276130048e-01 3.689888612575037974e-01 -9.287701151065163030e-01 -3.511827946980540516e-02
-4.336188007991548798e-01 4.631484816453765654e-03 -5.964050758737623470e-01 5.605056807468702385e-01 7.638232003717243535e-01 3.200117191985070719e-01
-3.878233271027315965e-01 5.106847568159907785e-02 -6.537066806856405288e-01 -8.799212646295205831e-01 -1.498162870193440674e-02 4.748832686610705567e-01
-4.576337543531636132e-01 1.542608487679950069e-02 -5.650977112517290291e-01 8.393332201825165484e-01 5.424720684434467532e-01 3.526755529854145449e-02
-2.932390191442705851e-01 1.372573974114988521e-02 -6.333759360738119293e-01 8.958402081839578202e-01 -3.530198757933374898e-01 -2.699023688220974493e-01
-5.022229463135117200e-01 -5.698663528070022077e-02 -6.383030992469074238e-01 -7.791668514519817235e-01 -5.340865688834793845e-01 -3.281014394004969636e-01
-3.800154835532036368e-01 -5.107897934786990307e-02 -6.289924929380086294e-01 -1.875055975565991517e-01 -8.531133155432030213e-01 4.868668418857726721e-01
-4.285902742606126914e-01 8.702707787552355079e-02 -6.226957758198705672e-01 4.331234347468693735e-01 8.817511759921820014e-01 -1.868661390126056254e-01
-5.199080456706154374e-01 -5.565661090076357009e-02 -6.364339611050043866e-01 -6.188608771296503219e-01 -7.825493892834983756e-01 -6.802696590576139124e-02
-4.806901013881543228e-01 1.043683123156544795e-02 -5.812022188163904479e-01 -9.716877106005734621e-01 2.319457290098428381e-01 4.499079752470414723e-02
-5.020627196447748908e-01 -5.373017874828436846e-02 -6.057235310376541948e-01 -1.108544758313334128e-01 -9.737070599897996726e-01 1.990121767987605150e-01
-3.804201306835420793e-01 3.867634243342474992e-02 -6.475358127585049139e-01 -6.860680812005966883e-03 9.486329874826717745e-01 -3.163042619353984564e-01
-5.552678606125681648e-01 -5.292039308640121564e-02 -6.218502062304942513e-01 -5.938463465170611411e-01 -3.382052513476611622e-01 -7.300436457426391357e-01
-3.453960901246480031e-01 -1.202907047769745386e-01 -6.535167491377019688e-01 4.442903213756045355e-01 -8.654231936579660500e-01 -2.316221194333750732e-01
-3.915904532693317841e-01 3.462608614753880099e-02 -6.156111249749587344e-01 -6.268727969111378417e-01 7.191891184314699315e-01 2.996623239958146057e-01
-5.037737395470666124e-01 -1.888983123462667155e-02 -6.679847425077274359e-01 -6.710817716616095385e-01 -1.654047746108240347e-01 -7.226966972938633216e-01
-4.326602243265978975e-01 -2.755542610383484442e-02 -6.352646204981093891e-01 2.636841754926873560e-01 8.150613605760431701e-01 5.158930452047894022e-01
-5.259166210087180549e-01 4.441769554621922272e-02 -5.974978328876506817e-01 -8.165582644149679270e-01 1.225116188828111463e-01 -5.641130241842747806e-01
-3.903538481277104011e-01 -6.570358774244587641e-02 -6.500423507822937763e-01 -9.576232449933663737e-01 -2.874528260658665291e-01 1.812714635903518376e-02
-5.513473607130099374e-01 -5.954006900374364877e-03 -6.686425538758570264e-01 -6.475158807268779348e-01 -1.400509600322418224e-01 -7.490720344536585529e-01
-4.829947243854879058e-01 1.489570400509739392e-02 -6.406210087184145419e-01 -9.225327526564048863e-01 3.199899843301222124e-01 -2.157306890653361564e-01
-2.445088315163740922e-01 1.326675408962117546e-02 -6.416880438593330904e-01 9.068829944457507120e-01 1.284606207516171272e-01 -4.013241872865598858e-01
-5.058719896056355081e-01 5.632088951174333419e-02 -6.179160703066582938e-01 3.757057792193965740e-01 9.078739545297146440e-01 -1.860377653803753917e-01
-5.015398831165422955e-01 -2.890939377513994032e-02 -6.859238376275933469e-01 -6.460227995117775457e-01 -3.977532754735719212e-01 -6.514958744006063007e-01
-3.872280689078675953e-01 8.961807170517500920e-02 -6.479505967615100115e-01 -2.738875442940072458e-01 9.537088841113419146e-01 -1.241973326915567222e-01
-4.739980978693887348e-01 8.401862174063030875e-03 -6.029318062386885835e-01 5.655634381913489106e-01 -8.005387865945635673e-01 1.981808480627837987e-01
-3.713749123464687996e-01 6.578893309615228835e-02 -6.021978572882596970e-01 4.090933551339189789e-01 8.464965205773335999e-01 -3.407143487376795843e-01
-4.627300200123810048e-01 -8.077983438730994281e-02 -5.974560719353558813e-01 6.745241736899826313e-01 -5.675047716479335591e-01 4.721816104685493398e-01
-2.885635224481695738e-01 1.503114665352279014e-02 -5.967392476291356607e-01 8.635396854546679712e-01 2.599518036780819608e-01 -4.321160392873250045e-01
-4.318268326916971378e-01 1.348239050998071842e-01 -5.940919408599820706e-01 -9.445621828464410008e-01 2.396079884255114534e-01 -2.244778265643329329e-01
-5.179515448541136546e-01 3.550152375428916596e-02 -6.179203579424379367e-01 -8.318630343925098591e-01 4.204315433549922210e-01 -3.622722862204963978e-01
-4.838274822697735678e-01 -7.935242320574879826e-02 -6.592848279269566403e-01 -7.028469171290387951e-01 -2.910974008751623376e-01 -6.490520120036076257e-01
-5.007978048359789103e-01 9.688008709203018917e-03 -6.302481372996916464e-01 6.880539265314619124e-01 5.847984575629461279e-01 4.296423608265795835e-01
-5.099807670359050027e-01 -7.622771640352206390e-02 -6.307072744605234371e-01 -5.340132276599974803e-01 -7.614857406236129611e-01 -3.673817354075450958e-01
-3.781949382211417521e-01 -7.075449813168688262e-02 -6.362116927584592352e-01 2.465063527660854847e-01 -8.130347903066296178e-01 5.274552566777748197e-01
-4.605193099286692959e-01 -6.133402532908363569e-02 -6.093324361759642205e-01 6.718292000507392059e-01 -5.698495033118663455e-01 4.731987632426811752e-01
-5.018091604009504714e-01 -5.476859444636164587e-02 -6.675489269214630594e-01 6.718292000507392059e-01 -5.698495033118663455e-01 4.731987632426811752e-01
-5.077242865969395780e-01 2.242945400900408365e-02 -6.212144844176822334e-01 8.099599015544419744e-01 -3.791338321691924973e-01 4.474622835263564191e-01
-4.335992544488900258e-01 -1.109916673765733858e-02 -6.011726436357569536e-01 -5.593287363645508270e-01 -3.584543074260979068e-01 7.474368696849997828e-01
-4.847714667488563500e-01 -2.064470419551456271e-02 -6.223864080640270080e-01 7.542068806640720435e-01 -2.333654612613150214e-01 6.137691281330984738e-01
-4.629310745256696724e-01 1.425836907773778139e-02 -6.288910291913509809e-01 -5.977511043181853445e-01 -2.936830852855632501e-01 -7.459516490386909338e-01
-4.109583932953623231e-01 1.379242903654731567e-02 -6.181359819596298211e-01 -7.360162168226390689e-01 -1.587739277347631206e-01 6.580812779936577872e-01
-4.476586390398746285e-01 1.033225495744112127e-01 -6.398265857848923766e-01 8.441716013148858888e-01 4.740839562747148350e-01 2.502373072432959034e-01
-3.780478777093639331e-01 6.190625141332667392e-02 -5.825214689938067458e-01 -8.494307500890996288e-01 4.239858167310433523e-01 3.141710171450888267e-01
-2.979952382620951190e-01 3.495334467616794533e-02 -6.081954514708000081e-01 7.423577985914839861e-01 6.064263550037251038e-01 -2.848718568537463858e-01
-3.998677915903174340e-01 -5.988468223070661511e-02 -6.686134385677813263e-01 6.476419115741177679e-01 -7.089713037792253481e-01 -2.791409049032549383e-01
-5.200640264401419355e-01 -3.903256423402411135e-02 -5.981336210825398680e-01 -6.355104226883567797e-01 5.775285213099118006e-03 -7.720706889496411485e-01
-5.071216640713673840e-01 7.726457794142731206e-02 -6.551546025877332813e-01 -3.190185098349140325e-01 9.235041172136870813e-01 -2.129960935606081129e-01
-5.335213581081931222e-01 1.601869028501672065e-03 -6.271722353677473549e-01 -8.220357355376339825e-01 9.145967062483621735e-02 -5.620430394091699977e-01
-3.574938932397544455e-01 -5.625077901105441508e-02 -7.023950967657784927e-01 7.676858549802396681e-01 -5.410773577439783599e-01 -3.433565508331728466e-01
-3.895942166289714792e-01 -5.841916966879576872e-02 -6.629387119738924250e-01 7.949955950799219018e-01 -3.931146081887072485e-01 -4.619988188644640337e-01
-4.175493124033367032e-01 1.455406575886845563e-02 -6.278725888043874548e-01 -9.798628728883869154e-01 1.649125292533184239e-01 1.125726788798685346e-01
-3.919591551577711330e-01 4.287986836322043444e-02 -6.534404142813324823e-01 -7.961829147336693113e-01 1.861142917253834073e-01 5.757206238287435607e-01
-5.331744723163280852e-01 -1.007354437975743894e-01 -6.164611401573164562e-01 -6.724600963388749353e-01 -3.125128158545542045e-01 -6.709196365873997259e-01
-2.735799686279671294e-01 4.182497493176751124e-02 -6.170699677911243297e-01 7.573262775930474922e-01 4.471386973948603960e-01 -4.759452642469359507e-01
-3.560300460855955196e-01 -8.895053456381246670e-02 -6.283116168950430014e-01 -7.581473221680224972e-01 -9.035728700961699611e-02 6.457926900900305967e-01
-4.485282105378897710e-01 2.077129673641543717e-02 -6.690632290181323105e-01 2.955712924558379640e-01 8.894183529290571322e-01 -3.486726323486670776e-01
-4.501849646986910702e-01 1.933192053369886185e-02 -6.231310705059223132e-01 2.955712924558379640e-01 8.894183529290571322e-01 -3.486726323486670776e-01
-4.389533541196212196e-01 -1.386038593781212247e-02 -5.964289493385709351e-01 -7.286343376572674835e-01 -4.098269399523438161e-01 -5.487566685481397588e-01
-4.003104780431916421e-01 -1.067194473958315015e-01 -6.182742016035914778e-01 -3.423012129989603802e-01 -2.853298683958860327e-01 8.952188256402043853e-01
-3.983840939887826615e-01 2.514340497696270632e-02 -6.509964467384878883e-01 -8.746488309380713311e-01 3.126406299969048952e-01 3.704662724375912819e-01
-4.418534392669951627e-01 1.149722630617301122e-01 -6.168143545967448294e-01 -8.746488309380713311e-01 3.126406299969048952e-01 3.704662724375912819e-01
-4.583927857755675239e-01 1.779059237096194956e-02 -6.376776299056261532e-01 4.553134269010069568e-01 8.875680143937175748e-01 7.009067775999171246e-02
-4.637521597485507185e-01 -1.205928294567074760e-02 -6.543669548478353581e-01 -4.453339156937177745e-01 8.076067553428787349e-01 -3.865863839524720236e-01
-3.467564121137923228e-01 -1.000244111570494643e-02 -6.078941100920252083e-01 7.723774966491149252e-01 -5.971079953333117141e-01 -2.165526369709689647e-01
-4.476009263482531031e-01 -5.847617374420569641e-02 -6.361071193757755760e-01 -2.024156641248859301e-01 -4.542189776150807878e-01 8.675903522349659447e-01
-4.146274315431499047e-01 8.283586720493262001e-02 -6.394978371984733068e-01 -5.102662768818980732e-01 2.607683348996613359e-01 8.195292564580864969e-01
-4.562389456132489585e-01 -1.273414467968086716e-01 -6.832190843954778492e-01 -6.070222277960228840e-01 -6.814052736408651167e-01 -4.089142550901974649e-01
-3.879734736373716131e-01 5.120489290638071539e-03 -6.954524735415249515e-01 7.225629620334859116e-01 5.465858167442689819e-01 4.232572631761863935e-01
-4.201245443145000813e-01 -2.733714724657035702e-02 -6.227753718504069891e-01 -3.570544657512893516e-01 -2.863550044692970697e-01 8.891079349001729248e-01
-4.123426737176139056e-01 4.160564720547300921e-02 -6.339694064483667457e-01 3.577736882910617089e-01 8.676341353421278546e-01 -3.452665566714047674e-01
-3.500493207767600423e-01 9.418983336452044219e-02 -6.271439090807550132e-01 4.372540145912590104e-01 8.163342230135687272e-01 -3.773690011920163845e-01
-5.274106419928283884e-01 2.962985541299815312e-03 -6.812615231108734015e-01 -8.791132770200000834e-01 1.551416946994823576e-01 -4.506560781049438469e-01
-5.149357167806155600e-01 7.191451277058179964e-03 -6.245157048944757205e-01 -8.791132770200000834e-01 1.551416946994823576e-01 -4.506560781049438469e-01
-3.546032692537554043e-01 -3.893797460158857082e-02 -6.365868698681113047e-01 8.376538663303911836e-01 3.262126339959762339e-02 -5.452264239707769189e-01
-3.230502670041031088e-01 1.947457023476717800e-02 -6.386231924749108391e-01 8.376538663303911836e-01 3.262126339959762339e-02 -5.452264239707769189e-01
-4.569009014631930654e-01 -7.615127475904182042e-02 -6.854491577144180559e-01 2.028688159594108920e-01 -3.031096440959354932e-01 9.311115868505031035e-01
-3.908707994436080302e-01 -6.350225104022935718e-02 -6.409101996840740334e-01 6.179451287668675796e-01 -6.783944143421775097e-01 -3.973975797896024398e-01
-3.896085475724976876e-01 -8.554380906110894967e-02 -5.989708854689917983e-01 9.274562947393398538e-02 -9.588983794783795256e-01 -2.681644011557491880e-01
-4.596091265417953098e-01 5.824845222710966358e-03 -6.409021841217510396e-01 3.398813126069349377e-01 3.759719146800962197e-01 8.620474538633990935e-01
-3.228430734415710934e-01 -1.057784759894610932e-02 -6.497831251445626011e-01 7.276958926059835520e-01 -5.340364911732383701e-01 -4.304227154551168999e-01
-4.102124671393191924e-01 4.789001594739200618e-02 -6.261703010067414255e-01 -3.761084428231707411e-01 5.390246046595842389e-01 7.536543735749886563e-01
-4.900547861454001008e-01 -6.039273780333481723e-02 -6.379132329836533222e-01 -6.220940848162536119e-01 -4.617223875303177461e-01 -6.323064023793614208e-01
-4.937727646129391190e-01 -9.274528421613097151e-02 -6.264622556068415449e-01 8.118776846886076592e-01 -1.323949695277537586e-01 5.686177953145774566e-01
-5.015223369379051555e-01 -5.002554110998432002e-04 -6.436499028045725712e-01 -6.091971043982409295e-01 -2.999119876584196431e-01 -7.341196684816275742e-01
-3.704680719806746625e-01 1.037747203568440552e-02 -6.668764376357816381e-01 6.324405443806832006e-01 6.491772150284074172e-01 -4.225966177235991328e-01
-4.259929669322412571e-01 -4.251677892000215592e-02 -6.791691343030753503e-01 -5.189305391122683853e-01 -1.257718476292471466e-01 8.455131802169471023e-01
-4.354323160583308261e-01 1.010254023476367530e-01 -6.646225329459752862e-01 -7.060230220778468402e-01 6.193467097092437701e-01 3.434256039790828940e-01
-3.747553344727127533e-01 1.401790722225778885e-01 -6.141736060471920666e-01 -7.060230220778468402e-01 6.193467097092437701e-01 3.434256039790828940e-01
-3.748901924055436652e-01 -6.424260038801912764e-02 -6.079890809183388090e-01 -5.574116934026683845e-01 -6.036267407296248555e-01 5.700236503287384737e-01
-4.855519319423901026e-01 -5.213400589555913789e-02 -6.605142685977360983e-01 -3.592390590847766019e-01 -2.936469539480274782e-01 8.858435329475117248e-01
-4.304282000083646809e-01 -4.706914203353002729e-02 -6.918387286937836000e-01 -3.592390590847766019e-01 -2.936469539480274782e-01 8.858435329475117248e-01
-4.835849267533594009e-01 -9.838298353708443966e-02 -6.285988150711456779e-01 1.708759562624268813e-01 -6.960892248969216545e-02 9.828306087425366933e-01
-3.406902655186357931e-01 -1.444184122635083257e-02 -6.287268513092646449e-01 7.892327333829209923e-01 1.347228211799933982e-02 -6.139464065954424177e-01
-2.970945059075301153e-01 -8.691022133444308018e-02 -6.338912368019887777e-01 7.487167818309991008e-01 -4.486224456992434217e-01 -4.880175015503660507e-01
-3.264331208681716667e-01 -1.812672474144801787e-02 -6.625327220961673147e-01 7.487167818309991008e-01 -4.486224456992434217e-01 -4.880175015503660507e-01
-3.468457060161363459e-01 5.288668068655473509e-03 -6.378558358131629635e-01 3.997110115512612638e-01 7.915711913921688048e-01 -4.622187319902234526e-01
-4.867731798924420095e-01 4.114850477318012650e-02 -6.540693526754159937e-01 -7.431289318398411892e-01 1.415030539013563959e-01 -6.540155016505087016e-01
-4.215894838739202011e-01 -8.324274305449798350e-02 -6.857083695854904182e-01 1.400997955414296503e-01 -9.801646164921751225e-01 1.401762171910664878e-01
-3.354248941012340501e-01 -6.580370412357065824e-02 -6.250607378942756309e-01 6.777069579583739900e-01 -5.755065191345749565e-01 -4.577177356935295816e-01
-4.362776191900576417e-01 -4.987512570218591290e-02 -6.046304506513846544e-01 2.934308926855426769e-01 -3.953203066218239359e-01 8.704137903262979536e-01
-3.013272963433424323e-01 -2.716038546347534013e-02 -6.086189612766187418e-01 7.966845618860426415e-01 -3.936043758462450248e-01 -4.586603363788199772e-01
-3.907393344460931006e-01 3.149524699286881252e-02 -6.143040024972128421e-01 5.248904574181614269e-01 7.737280185416324230e-01 -3.547322385053160443e-01
-2.915158490583323880e-01 -2.594712905790712287e-03 -7.137823224212705986e-01 8.034196522562448983e-01 3.056256106675243056e-01 -5.109890884085073193e-01
-4.753798665432532045e-01 7.508254934026893646e-02 -6.795146545990062847e-01 6.519012140796195398e-01 4.047702733928866259e-01 6.412377350553893907e-01
-4.252050067717506598e-01 -2.521780147126477523e-02 -6.668005830724458294e-01 -4.494598952492742105e-01 3.478477821960954119e-02 8.926230009173660163e-01
-4.258797440040432147e-01 -5.152382822206327817e-02 -6.698556914156449382e-01 -4.494598952492742105e-01 3.478477821960954119e-02 8.926230009173660163e-01
-4.032952001015371879e-01 5.506194225541066051e-02 -6.252378710633199610e-01 -3.410571256496888748e-01 3.847426474226389170e-01 8.577022398815286053e-01
-4.259990829324818984e-01 4.046909890191905529e-02 -6.360401456823256972e-01 -1.863975008036000969e-01 3.397448592995540584e-01 9.218619214794036010e-01
-3.978231012616441631e-01 -1.398233633925935193e-01 -6.492304611441622741e-01 8.128524722497551536e-02 -9.548252704829134352e-01 -2.858345875341294362e-01
-3.445915431510025995e-01 -2.326873307366403298e-03 -7.083673887047124973e-01 7.232571089241764950e-01 5.086889170977990648e-01 -4.670489696086594367e-01
-4.980374310402987392e-01 6.295012456605034168e-02 -6.475023967623717569e-01 2.369016019679223428e-01 8.610737472113201285e-01 4.499218074826868419e-01
-3.188873833121201318e-01 4.561514690476825562e-02 -6.352901213211701315e-01 8.041116164085855278e-01 -2.432566275633232522e-01 -5.424303840155810796e-01
-3.440126638714438023e-01 -6.921640564275136076e-02 -6.947329182856804008e-01 8.041116164085855278e-01 -2.432566275633232522e-01 -5.424303840155810796e-01
-3.015062196951557860e-01 9.988678698606714979e-02 -6.121633923820931633e-01 8.328521828687327488e-01 4.227436948196655608e-01 -3.572744183131564832e-01
-5.620673555124318099e-01 2.966516357409236873e-02 -6.078463367452218158e-01 -7.107490602462748219e-01 -2.525213151782292401e-02 -7.029922497530420866e-01
-4.439613140037228511e-01 1.939876051693590481e-02 -6.378402064347287181e-01 -7.107490602462748219e-01 -2.525213151782292401e-02 -7.029922497530420866e-01
-4.579518312734672802e-01 -4.304359509700447090e-02 -6.609037101355461630e-01 -5.965939630473487965e-01 -3.010442413886773583e-01 -7.439408632291778511e-01
-4.537426919870878872e-01 2.777153774061371511e-03 -6.835384458465649793e-01 -5.965939630473487965e-01 -3.010442413886773583e-01 -7.439408632291778511e-01
-3.915831886705815612e-01 -4.590936090159654370e-02 -6.791635999585661221e-01 5.189743421457907457e-01 -6.858133552181372439e-01 -5.102212010479226789e-01
-3.962896465391814727e-01 -1.196070823647678860e-01 -6.405814931461153439e-01 -2.450646338414479986e-01 -1.360804619217558242e-01 9.599090754458563524e-01
-4.354676325073161824e-01 -7.316278135013257189e-02 -6.643206386306378386e-01 -6.956311416060046993e-01 -4.521836409275177826e-01 -5.582358549085326693e-01
-3.397144982315942752e-01 -6.655885653019093240e-02 -6.940555769428807809e-01 6.542452371259546151e-01 -6.015099837802054816e-01 -4.584200138636406741e-01
-3.836533096315180580e-01 9.969409369578230429e-02 -6.083740600354985428e-01 6.307088345264394436e-02 9.195408368307350644e-01 -3.879003906431836568e-01
-4.665647560753712897e-01 -1.092537908139754321e-01 -6.206497703767203111e-01 7.079495752282935483e-02 -3.135321119646090615e-01 9.469348915085729068e-01
-4.113316211634207575e-01 5.619671908943175975e-02 -6.221800285342801162e-01 -5.198859219441497315e-01 8.482139374664058318e-01 1.012508985244958970e-01
-4.794600096275527523e-01 8.492280191391526900e-02 -5.916356698408185011e-01 -2.450220229887748458e-01 9.448733896047737391e-01 -2.172060907692819065e-01
-3.719115527891153627e-01 6.121760621335786690e-02 -6.321042346087683006e-01 6.117614561992944511e-01 6.892979658695458367e-01 -3.880930751211944529e-01
-3.928236633875630823e-01 -1.189462631802729042e-01 -6.616592829159968492e-01 -5.055794302271292562e-01 -8.228221272605719117e-01 2.595249248561656286e-01
-4.369734254632676729e-01 -4.340382922034446977e-02 -6.457299580083718515e-01 6.733225345378544835e-02 -3.763058914619224482e-01 9.240455852910520740e-01
-5.370057426646540621e-01 3.056001240492314808e-02 -6.404682648278154922e-01 -7.021878037338278311e-01 4.748881626686605184e-01 -5.304842327955160419e-01
-4.296025983683996463e-01 -6.958051389598370051e-02 -6.430825024696206205e-01 -4.647023129800640362e-01 -5.618238519217797489e-01 6.844017239332119695e-01
-4.254965305558552902e-01 3.133602207309702653e-02 -6.861571776583489379e-01 -2.115386158370630154e-01 4.963343338040018815e-01 8.419641578458534337e-01
-4.731700722923782854e-01 -1.374059934386793747e-01 -6.293875644505441125e-01 -6.667183915422161267e-01 -4.866970904303539736e-01 -5.644577296361420471e-01
-3.535958360912584975e-01 1.836918466570398867e-02 -6.443783338036660480e-01 3.229537142583791542e-01 7.842281265064076079e-01 -5.297991544377615991e-01
-3.317605659929138695e-01 -1.609334329458501911e-02 -6.777068374305440512e-01 6.925649653334394751e-01 -4.606135841246242202e-01 -5.551476334386730160e-01
-3.730233108785101503e-01 -7.521104368141458274e-02 -6.847963647580256330e-01 7.388146294581282580e-01 -2.144412095677661889e-01 -6.388802007714451392e-01
-5.192193132697695557e-01 1.212340190712153654e-03 -6.819938849097725297e-01 -7.252884148839355838e-01 -3.577356860196172911e-02 -6.875150667619065459e-01
-4.115425500772668110e-01 -7.862437289284832098e-02 -6.597562728275483401e-01 6.437625120146377444e-01 -4.869521741562286010e-01 -5.902943403160202385e-01
-3.294374383976839127e-01 -3.337500923302003791e-02 -6.477070376993772083e-01 7.949468265978190118e-01 1.474744612872921565e-02 -6.064998398307596128e-01
-3.228240148819921385e-01 -5.636141213267983896e-02 -6.553656223156412164e-01 7.949468265978190118e-01 1.474744612872921565e-02 -6.064998398307596128e-01
-2.776721884240634930e-01 -7.744121983552863797e-02 -6.260956750513473335e-01 6.742777196497526937e-01 -4.271183066358638092e-01 -6.024280114008989662e-01
-3.335121335828084566e-01 3.836468856744490452e-02 -6.276391549000593928e-01 4.979489068085731773e-01 7.798958814057427302e-01 -3.792219671571078754e-01
-4.701819523368457876e-01 1.398836476665468037e-02 -6.821047211004989119e-01 -4.445772906542601599e-01 6.790222101807408261e-01 -5.841916386904036917e-01
-4.642215076476593483e-01 -7.195209974846630829e-02 -7.001888485712407517e-01 -2.129877154026811048e-01 -9.699190320507896645e-01 -1.178698619376715023e-01
-5.230963829026377132e-01 -5.502383853551378462e-02 -6.056557093707053419e-01 -6.906362646414226925e-01 -3.376343370889436230e-02 -7.224137183818756247e-01
-3.408620596730084218e-01 2.531692013253163814e-02 -6.517490249346571396e-01 3.333742288594901404e-01 8.115379946924849985e-01 -4.798621746948185107e-01
-3.582707699478333563e-01 -8.752184046463401534e-02 -6.831547558476068760e-01 6.022262081408019663e-01 -5.175188761018268968e-01 -6.078633128480885883e-01
-5.220814438727958695e-01 -9.325632630450345073e-02 -6.195604501395608477e-01 -6.494598589665312449e-01 -3.950842978809049888e-01 -6.497001532700494852e-01
-3.070316281323886565e-01 -1.957225514882716955e-02 -6.945640179516916479e-01 6.886743504107961655e-01 1.586460501954449764e-01 -7.075019928195626084e-01
-4.909447124861945899e-01 3.988909037332624696e-02 -6.337359571669688441e-01 -7.085714519288218716e-01 -1.717809912522885729e-02 -7.054299472108661595e-01
-5.408759852957265579e-01 -2.814764293442107573e-02 -6.634661454106584033e-01 -6.623179458604114833e-01 -1.179345656383984503e-01 -7.398826777394691412e-01
-3.645728369519043444e-01 -1.541676993113991201e-02 -6.311469231483074482e-01 5.121875609921116013e-01 6.550366862015682967e-01 -5.555095337570903347e-01
-3.434227542605663430e-01 -1.463658420274203675e-01 -6.538083884532190915e-01 5.985302849048664831e-01 -5.257620178028092894e-01 -6.044301437615582362e-01
-4.805348277729370454e-01 1.136822845264842119e-01 -6.494150969974149534e-01 -6.822533276573916616e-01 3.952193653408746232e-02 -7.300468570119394984e-01
-4.329177289441482612e-01 1.836409861927621248e-02 -6.798999534900247443e-01 -6.822533276573916616e-01 3.952193653408746232e-02 -7.300468570119394984e-01
-3.562911047881502924e-01 -6.906952662826518208e-02 -6.203075825114066078e-01 3.169455512501622163e-01 -8.404305361417006015e-01 -4.395702804595695290e-01
-4.253627404479480290e-01 -1.224438944505401999e-01 -6.200227192779358409e-01 -5.109471163573389707e-02 -9.879370608519169039e-01 -1.461837687232661331e-01
-3.577418350467471142e-01 -6.909282323645526275e-03 -6.766822894908768316e-01 6.334706018905558178e-01 1.195258676088708496e-03 -7.737658353126701805e-01
-3.595819593485072851e-01 -6.820926325487532485e-03 -7.097261615520441547e-01 6.334706018905558178e-01 1.195258676088708496e-03 -7.737658353126701805e-01
-3.403733378056201242e-01 -1.059994807417436874e-01 -6.909584017769192510e-01 4.574726788784534426e-01 -6.322797606946473081e-01 -6.252527907140367214e-01
-3.770234572775693072e-01 -9.619886684190999404e-02 -6.837312815303969726e-01 3.436008600781770839e-01 -7.787076124394071153e-01 -5.249313319687205492e-01
-4.448781070659421633e-01 -9.741562512544031660e-02 -6.320582690079730170e-01 1.926132190982014492e-01 -9.217918807291847205e-01 3.364518932186008615e-01
-4.440236116224490215e-01 -4.042658531033268415e-02 -6.743066502465708822e-01 -2.077077573153995882e-02 -8.385095237306147142e-01 5.444909122185306316e-01
-3.516767735996185196e-01 -6.271508649075283395e-04 -6.822801070931452383e-01 6.372880740625790352e-01 -2.295586558619742978e-03 -7.706222426973936557e-01
-4.418799860537694912e-01 8.383262753972250958e-02 -6.415178776734188348e-01 -6.375196665467940393e-01 6.438699747960262565e-01 4.230840700407296762e-01
-3.490493418877591569e-01 -7.350623173697222457e-02 -6.491316001262763535e-01 9.201607019834202872e-02 -9.875883487566831098e-01 -1.272882407188574427e-01
-3.767594163524682904e-01 3.239859393086103045e-03 -6.996331581153267809e-01 6.928488505539927012e-01 3.649948294582787689e-01 -6.218836263761357008e-01
-4.771814751716666470e-01 -5.080317719998278525e-02 -6.679884254065289184e-01 -7.097115646929929023e-01 1.404089499363386784e-01 -6.903584733446809230e-01
-3.777686751711757940e-01 3.626602150804997260e-02 -7.007553466972449296e-01 5.067997620329741659e-01 4.613648462120595872e-01 -7.282145836791812377e-01
-2.952340982941829561e-01 -2.946073444884585169e-02 -6.519886985145575409e-01 5.400911448899515799e-01 4.909585091528517742e-01 -6.835651377168605602e-01
-3.546179743194496914e-01 4.459490337004786559e-02 -6.251345128237997262e-01 5.400911448899515799e-01 4.909585091528517742e-01 -6.835651377168605602e-01
-4.681102097894330738e-01 -4.704298171244736260e-02 -6.600922875617395436e-01 -6.474309370596854629e-01 -2.616339010652654617e-01 -7.158078537927536900e-01
-3.278426306485523467e-01 -4.827090515339272497e-02 -6.364096598433717222e-01 6.144713270530922644e-01 -3.949557368679885161e-01 -6.829604338061436852e-01
-4.660404463107793438e-01 -3.422071065250756328e-02 -6.478117474665775477e-01 -5.668214109596332317e-01 -1.293760851452269711e-01 -8.136186555569049350e-01
-4.744445911586005482e-01 7.395832676041574905e-02 -6.451499168124478212e-01 -3.245411510605645811e-01 4.635014391460285377e-01 8.245237759930541532e-01
-4.238160482915580562e-01 -8.955294949632400248e-02 -7.139926003499043050e-01 1.211185133077843229e-01 -8.792773361803382093e-01 -4.606535268656049564e-01
-4.440626482067616676e-01 -9.795650567153137145e-02 -6.620436749929344833e-01 -2.538390183870508077e-01 -9.417975647449924326e-01 -2.204157430509459392e-01
-5.215362831256368237e-01 -2.493066281172466245e-02 -7.118227719146934529e-01 -6.261187712039186781e-01 -6.006092151784713645e-02 -7.774110689027536880e-01
-4.051724073008997618e-01 -5.252877285967943316e-02 -6.430966501585684281e-01 -7.942054942415163743e-02 -8.732477952396048293e-01 -4.807605063213232777e-01
-3.696026333763229865e-01 9.473245868462383534e-02 -6.657167857766111974e-01 4.198590951285882111e-01 6.448597676806875345e-01 -6.386503114104092882e-01
-4.615143088457863696e-01 6.336716856923113594e-02 -6.488149555171878191e-01 -4.001621188982841804e-01 9.092581556297993917e-01 -1.145420665935930060e-01
-3.546360870083426486e-01 -9.379487775367637004e-02 -6.726128662313335393e-01 5.911546915569586558e-01 -4.615626172457398813e-01 -6.614348652826368413e-01
-4.441871626932476502e-01 -6.880262463023607833e-02 -6.591634375234692866e-01 -7.605053292524405206e-02 -9.117333845753522459e-01 -4.036812503604290114e-01
-4.052605683001742620e-01 -8.774714417834632296e-02 -6.397658413635113339e-01 6.911324499501352303e-01 -5.424017511610794706e-01 -4.776361344824302524e-01
-4.490487836536050659e-01 -7.616315893585484664e-02 -6.807190722111816639e-01 -6.917747354763005285e-01 -4.528371575243284597e-01 -5.624821989378695486e-01
-3.607633626556272510e-01 5.530016530676521574e-02 -6.593969563605517337e-01 6.206965723627375642e-01 3.927597687514907121e-01 -6.785834724685124719e-01
-3.374102127931337680e-01 -6.349976155568363978e-03 -7.276335532548044993e-01 4.597176489221266316e-01 3.110567595734871071e-01 -8.318072947462976652e-01
-3.826084476961438829e-01 -4.343568916988033157e-03 -6.423386527439848281e-01 -5.126581403762259237e-01 7.418785752289912272e-02 8.553816650490888573e-01
-4.558545937147718274e-01 8.982585723728341021e-02 -6.229034976333438500e-01 1.128221031660205098e-01 6.781581385320626376e-01 7.262043184806351581e-01
-3.019010496242894859e-01 2.637022276046067926e-02 -6.454635695769818104e-01 6.965024712866917378e-01 1.638043894485214924e-01 -6.986074931525773080e-01
-5.114774287920557105e-01 7.243432322192044914e-02 -6.157317783143781975e-01 -6.554460110764197545e-01 2.238564920511623424e-01 -7.213035404949553753e-01
-4.553433757296772577e-01 -6.005295905485777408e-02 -6.446935607911032928e-01 -5.492093094466596881e-01 -2.707279521718632398e-01 -7.906171705256295201e-01
-5.170848535893144415e-01 2.647097284189350863e-02 -6.980326143212561840e-01 -5.850293951802210124e-01 4.643477741792190749e-01 -6.649223649343355413e-01
-5.318242992986568218e-01 -1.214315319138472432e-02 -6.597159716561844522e-01 -6.518587640935615823e-01 -2.550127721507464140e-01 -7.141768952538340987e-01
-4.927948271061149965e-01 -6.674100169011619454e-02 -6.674942341135786661e-01 -6.518587640935615823e-01 -2.550127721507464140e-01 -7.141768952538340987e-01
-4.768577435179023327e-01 2.711490058456720101e-02 -6.750171804945791498e-01 3.001863493471969985e-02 9.992856804678096339e-01 2.295670639797437601e-02
-2.858663252698847579e-01 -6.014673198311212832e-02 -7.140918521150899645e-01 7.371415223726970334e-01 -2.603385998828159353e-01 -6.235753277713266263e-01
-5.584651127107477242e-01 -4.350854706024033514e-02 -5.992010079265105427e-01 -5.999889027703613209e-01 -2.989413503543851269e-01 -7.420561876305019622e-01
-3.618500458744720594e-01 -3.031525690440398102e-02 -7.002128380478761516e-01 4.479274330462024722e-01 -5.139904755655814172e-01 -7.315564269094402272e-01
-4.320957096892600324e-01 6.524645265740108835e-02 -6.998376623930073759e-01 -2.877709974285173056e-01 9.174505787463267392e-01 2.747222025920476596e-01
-3.827835770462428844e-01 5.806799006491791121e-02 -6.724311224724571767e-01 5.545190271498171564e-01 6.212541146679994020e-01 -5.536713587832591266e-01
-3.319047263737522901e-01 9.850549667734187498e-03 -6.600747963188912104e-01 4.699555022705922958e-01 3.611732618340526280e-01 -8.054164766266865838e-01
-3.587203976201649991e-01 -7.113394334382573680e-02 -6.657083420743106217e-01 7.909639189728179254e-02 -6.665516823695479820e-01 -7.412507102992595964e-01
-3.149994201962581508e-01 -4.761452334378947493e-02 -6.978840379703278307e-01 5.850295665931726230e-01 -3.139205827568648521e-01 -7.477929351989057727e-01
-3.671950218059579218e-01 -8.551915589757402847e-02 -6.118385119740584743e-01 5.052659360473300554e-01 -4.611507386719452817e-01 -7.294150602315081500e-01
-3.260887457897695962e-01 2.902401029242447986e-02 -6.809899118964619635e-01 6.331256263255724548e-01 2.835757050683920255e-01 -7.202338236884019418e-01
-4.597555747366076084e-01 -6.535860329126311208e-02 -6.783025104512689918e-01 5.650517210533079898e-02 -6.842618390283284890e-01 -7.270439472101508649e-01
-3.454154972346937802e-01 5.222671001713502514e-03 -6.798306693775183485e-01 6.614983819749183924e-01 -2.508573664987979318e-02 -7.495269151013176367e-01
-4.612924405600147271e-01 4.980532589131810017e-02 -6.733166200957955150e-01 3.570062911149780582e-01 6.259492474834216225e-01 -6.933498739303740610e-01
-4.815238671779547563e-01 6.932723495152134929e-02 -6.381587213195174524e-01 -6.923142590942236163e-01 -1.687519893616877716e-03 -7.215941511205761216e-01
-3.872917618238357895e-01 6.262910827168777228e-02 -6.911080152168421753e-01 1.484686655348169404e-01 8.307698701553146714e-01 -5.364498841424353293e-01
-4.467240828467843872e-01 2.011461961269780246e-02 -7.073890647781333474e-01 -2.084877095071765163e-01 9.275152951637652965e-01 3.102390243372432077e-01
-3.952319025819061582e-01 5.041467818097915277e-02 -6.775679634159473830e-01 -1.181456956241847406e-01 9.828392812897325248e-01 -1.416634806834832783e-01
-4.674435825533108657e-01 -1.564213600096807724e-02 -6.644557572606912821e-01 -6.860772863345252492e-01 -3.102448616712604054e-05 -7.275286634994769797e-01
-4.529023431556744028e-01 7.887762071519886786e-02 -6.561850116395617771e-01 -6.860772863345252492e-01 -3.102448616712604054e-05 -7.275286634994769797e-01
-3.843746041968962857e-01 5.435337813358823850e-02 -7.085462456875436521e-01 -6.860772863345252492e-01 -3.102448616712604054e-05 -7.275286634994769797e-01
-4.407991500714064093e-01 9.996123122916533710e-02 -6.439653243973946228e-01 2.934504039761213212e-01 7.688609490243436539e-01 -5.681018407571274409e-01
-3.021118002915185174e-01 -1.525530737608467129e-02 -6.489497058849041933e-01 4.975938058249868567e-01 2.039151416556118368e-01 -8.431008358483443876e-01
-3.871507959268442045e-01 -6.249672364823972287e-02 -7.181175624395421675e-01 3.839560077688352613e-01 -3.890156149531099894e-01 -8.374035081254864732e-01
-4.250888158676401907e-01 -4.167337880581343385e-02 -6.908068537565777989e-01 -6.165553591977966930e-01 -1.213262567009466830e-01 -7.779070821630382770e-01
-4.292626195205428985e-01 -9.906880278712193455e-02 -6.685202687781273134e-01 -1.231164205471792505e-01 -6.590069875100961205e-01 -7.419920062942173544e-01
-4.287626636651115097e-01 6.275943444486284384e-02 -7.081030965316367221e-01 1.405466826644738432e-01 6.581357294551726245e-01 -7.396647832677445411e-01
-5.279000550188411856e-01 -8.115498397277350062e-02 -7.148468514877350799e-01 -4.878271756743222110e-01 -1.908447383351100923e-01 -8.518232988850548137e-01
-4.769002212157372189e-01 1.274396444371794779e-02 -6.857689816666605598e-01 -4.878271756743222110e-01 -1.908447383351100923e-01 -8.518232988850548137e-01
-3.881926475651583663e-01 -3.145562352393513339e-02 -6.042977940026132977e-01 5.618693703983470566e-01 -3.594953873952164702e-01 -7.450274337564546379e-01
-4.574384254252038540e-01 -8.291837761392067963e-02 -7.215603472984732925e-01 -2.972545043200784387e-01 -6.472222849928632726e-01 -7.019566036943033494e-01
-3.683355348376934901e-01 2.436677129220904750e-03 -6.289855067716657588e-01 6.423935324466613084e-01 1.530807780845188926e-01 -7.509306391749763776e-01
-3.813908171244032586e-01 -3.266362123057681144e-02 -7.162025632383489659e-01 3.210753803029608444e-01 -4.128563950167672969e-01 -8.523263443406333684e-01
-3.355729886231469949e-01 -7.107551263273946540e-02 -6.410353033600133532e-01 5.262627812727935783e-01 -9.020470155911268495e-02 -8.455238594289667953e-01
-3.693292962465641871e-01 -6.847299785658544913e-02 -6.864346748086384009e-01 1.893389062712687587e-01 -6.616221133393966891e-01 -7.255390807615468285e-01
-3.810412154275926166e-01 3.516862855825347856e-02 -6.671049211193387229e-01 1.293932724219279129e-01 5.728893406303544600e-01 -8.093547951572676036e-01
-4.757726446006302901e-01 -5.132632253861346000e-02 -6.707473060018530608e-01 -6.628157100816547409e-01 -2.020459560471872806e-01 -7.210081595335311455e-01
-5.147881341358173657e-01 -4.805031853810887849e-02 -6.633124233316827212e-01 -6.628157100816547409e-01 -2.020459560471872806e-01 -7.210081595335311455e-01
-3.849661173483467924e-01 9.561975982861042889e-02 -7.522706329705812767e-01 -6.388491687786930495e-02 8.040891014746291976e-01 -5.910663535384426126e-01
-3.398678185103640725e-01 -3.259870627097843920e-03 -6.762163395389556575e-01 4.176162911082954010e-01 -3.298061488649079442e-01 -8.466549105579259660e-01
-4.098275249066724024e-01 6.877660941118278470e-02 -6.820074423018538390e-01 -1.460390786042287392e-01 9.565192752605918836e-01 -2.524746790776848937e-01
-3.953220891599701914e-01 7.422223583480327957e-02 -6.520901224499677795e-01 1.486947681400960231e-01 5.844321844521811471e-01 -7.977022550452109728e-01
-4.324872673933741196e-01 -1.658800592202664542e-02 -7.031789339729761501e-01 -4.943163624825363534e-01 -3.726620485919879822e-01 -7.853498146184645368e-01
-4.655152186569778694e-01 -1.151135396491456547e-01 -6.505312969987568916e-01 -3.669257715319378943e-01 -2.606735631896118233e-01 -8.929808349789616351e-01
-4.106959648087823433e-01 -7.077787162552803824e-02 -7.295463785989266814e-01 -1.415497158109417508e-01 -6.397033704347092620e-01 -7.554755295893539335e-01
-3.586114082782052015e-01 1.379205928111592802e-02 -7.348066814153012549e-01 4.414599554089504996e-01 4.510809959099731231e-02 -8.961463982640425208e-01
-3.498286355876561449e-01 1.793380023132109050e-02 -6.486485609396617225e-01 4.414599554089504996e-01 4.510809959099731231e-02 -8.961463982640425208e-01
-4.447839481231888326e-01 -7.898147802370156234e-02 -7.048903200207137232e-01 -3.046431785835901906e-01 -3.372655560105367045e-01 -8.907550047411411098e-01
-4.115244928374691691e-01 -6.006747574228251535e-02 -6.761998662214683264e-01 -3.046431785835901906e-01 -3.372655560105367045e-01 -8.907550047411411098e-01
-3.816897013895432234e-01 3.947781071630113159e-02 -6.954823020243144915e-01 5.889105029352043053e-01 3.133123091869190469e-01 -7.449965210956122075e-01
-3.961698399156837191e-01 -8.879740871684871362e-02 -6.759140618117565058e-01 8.070729435202464441e-02 -4.762859919674937159e-01 -8.755786580849924672e-01
-3.659934078936210589e-01 1.619485699155837413e-02 -6.632309764827194476e-01 9.948646820442078043e-02 4.030693484975082508e-01 -9.097458672321655504e-01
-3.751387212503501933e-01 -4.973830664427185411e-02 -6.967025309763942298e-01 2.640936473773638493e-01 -6.060379720853820151e-01 -7.503149484087053844e-01
-3.547678896687584404e-01 8.938200405043747465e-02 -6.040558347118923921e-01 5.238768770072904646e-01 1.634564986992580460e-01 -8.359635104297720165e-01
-3.852943348400032497e-01 5.610969194137170601e-02 -6.814393249886800952e-01 -6.006994037820060361e-01 3.952743460013756205e-01 -6.949233178481833972e-01
-3.509586138359609975e-01 -4.483129403025287729e-02 -6.723415868616134938e-01 4.804329221171521058e-01 4.965368261344543094e-02 -8.756247593283882358e-01
-4.923906733904961919e-01 6.438110094061783029e-03 -6.654874707748060780e-01 -5.025168710913863190e-01 -7.311950692454455281e-02 -8.614698671315408340e-01
-4.083141376689334301e-01 5.392481324110058594e-02 -6.351426424223952649e-01 2.489384569483042153e-01 5.627807605308405847e-01 -7.882305882345127523e-01
-4.592581018596479936e-01 1.029856667240184598e-01 -6.775556600882365332e-01 -2.686255126505415758e-01 9.027372053644485694e-01 -3.360146901610392423e-01
-4.794436912173019039e-01 8.875825470846966658e-02 -6.953604195472968819e-01 -3.780797035507494352e-01 4.504507477871244614e-01 -8.087953150093031285e-01
-4.110200624191509555e-01 5.825978959086734743e-02 -6.807592367329360350e-01 5.393113662650961260e-02 6.285603770024044135e-01 -7.758887065583361942e-01
-4.368852541567043724e-01 5.626164093539556127e-02 -6.564541852208527484e-01 -2.215222425904189718e-01 9.647018536147651258e-01 -1.424016491124591444e-01
-3.390580880440213773e-01 1.973614094021143572e-03 -7.126058209088734774e-01 3.711774050046570128e-01 1.732851163286524554e-01 -9.122497478612828781e-01
-3.742466268526515316e-01 4.801578278256701110e-02 -6.965851167144836431e-01 3.711774050046570128e-01 1.732851163286524554e-01 -9.122497478612828781e-01
-3.561380135733753782e-01 8.693638295690930828e-02 -6.495199096976632669e-01 3.653737874035949407e-01 1.456668436116833609e-01 -9.193928247221435646e-01
-3.795068931436632598e-01 -2.621206547542745055e-02 -6.509683437185990185e-01 3.975378126643601129e-01 -1.203051875666935611e-01 -9.096649654386931294e-01
-4.341802782458633048e-01 -7.944409808439555076e-02 -6.685587120677167761e-01 6.574431428350702156e-02 -4.538755529448006976e-01 -8.886364091001688337e-01
-3.736040441346507035e-01 2.596449364561414369e-02 -7.499883551038054597e-01 4.322755172025146142e-01 3.557069579247497115e-01 -8.286195974699239741e-01
-4.789285293648929409e-01 -2.243985969859575713e-02 -6.610260315765399408e-01 -4.783125660623468445e-01 -1.682324947903068302e-01 -8.619251225271731265e-01
-4.236370819117951658e-01 2.946999302268386856e-02 -6.754396238830149279e-01 -6.231829132313464470e-01 -4.588545342688684497e-02 -7.807288785617584326e-01
-4.986737294464040904e-01 4.390536467519302877e-02 -6.869786969703406410e-01 -6.231829132313464470e-01 -4.588545342688684497e-02 -7.807288785617584326e-01
-4.504909210222467486e-01 -9.746657772011388388e-02 -6.834674661217101654e-01 -1.303725566817016956e-01 -3.567919028719990782e-01 -9.250419095961298632e-01
-3.888898752319358554e-01 -2.222894130684244934e-02 -6.411771876164850115e-01 9.030638230726741045e-02 -2.731899652577798876e-01 -9.577118565607438683e-01
-4.942382335842404606e-01 -6.116033873975980362e-02 -6.498537998935426385e-01 -4.679847654435238535e-01 -1.978505882622795531e-01 -8.613044781243389680e-01
-4.080971146572859309e-01 2.391998432218368081e-02 -6.427921208196802905e-01 -2.706181776402871164e-01 3.697439598715178688e-01 -8.888504970292693264e-01
-3.879955847070803987e-01 -6.884430312447123446e-02 -6.662887934692711678e-01 -2.730096373334204435e-02 -2.927471685543420188e-01 -9.558000589467686714e-01
-4.891293230513052981e-01 4.208756352948365281e-02 -6.733358176665590333e-01 -5.259663321353098553e-01 -2.598556663864405938e-02 -8.501083270893172728e-01
-4.999225905361763811e-01 -1.656626462655109641e-02 -6.759419725323148054e-01 -5.259663321353098553e-01 -2.598556663864405938e-02 -8.501083270893172728e-01
-4.163688291825695664e-01 -5.803340882087791586e-02 -6.820210775958827076e-01 1.171334162154896996e-01 -2.525516763096048445e-01 -9.604672891873504703e-01
-4.840880456394055509e-01 -5.759193138924835476e-02 -6.812101159226852110e-01 -3.002180948444581055e-01 -1.091836712125255626e-01 -9.476011932603921606e-01
-3.455041939753173419e-01 1.453368173094396476e-03 -7.064047151219051690e-01 4.511952839991287267e-01 5.787855494805721479e-02 -8.905463988889462668e-01
-3.584019438465996243e-01 -8.747110176519240499e-02 -7.268696501257293496e-01 3.466557980292297447e-01 -2.482453090838400989e-01 -9.045463084942565457e-01
-4.805735451101851297e-01 8.984611713630566952e-04 -7.225262564959987754e-01 -4.972537668103578223e-01 -5.679687305667938807e-02 -8.657440768517528085e-01
-4.618518155319155105e-01 2.095174155766112156e-02 -6.840612467027783472e-01 -2.847802598032354027e-01 -2.192852309696260715e-01 -9.331742554876872875e-01
-4.367731041552258553e-01 -2.859152913850355332e-02 -6.684618767755348134e-01 -4.957382681907895883e-01 -1.734225302311062089e-01 -8.509807256685886223e-01
-3.850127037962053911e-01 -6.774828123992934076e-03 -6.950758739249603968e-01 -5.053488363615599860e-02 7.442734416155029342e-02 -9.959451771944771714e-01
-4.946062259207527068e-01 3.870393607293189445e-03 -7.225336358893722499e-01 -5.083497156308238729e-01 -3.771736905311905835e-02 -8.603243380782454874e-01
-3.838989772100821485e-01 4.069435816896899150e-02 -6.378066500003579664e-01 1.100650810140996333e-01 5.691552669431774181e-01 -8.148300191157662464e-01
-4.095102440867113280e-01 6.010735601687413124e-03 -6.956305079292800508e-01 -3.569324601421610121e-01 -9.087025958429632844e-02 -9.296998520059832627e-01
