-1.551471430168489818e-02 -5.633183206502102580e-01 -3.464470170979701003e-01 -1.692403262712925127e-01 -7.714402485905906548e-02 -9.825510222844059394e-01
-6.338544970334794582e-02 -5.100595572134153377e-01 3.849253108871519835e-01 -2.344331480965192432e-03 -1.242145439737032536e-01 9.922526145973676881e-01
6.433754463587364469e-01 -5.589227250507236011e-01 1.324077750952979415e-01 8.361440955352664739e-01 -4.678644690112411797e-01 2.862968566686341920e-01
6.445317588357196703e-01 -5.387118996324526954e-01 2.144179062444296902e-01 8.361440955352664739e-01 -4.678644690112411797e-01 2.862968566686341920e-01
-3.543612854370162268e-01 -5.913289751768364688e-01 7.682491993936743646e-02 -9.646663161002724252e-01 -1.210539821539740185e-01 2.340188710044436293e-01
-1.284087222134954187e-01 -4.423006341298958422e-01 3.204210220215020222e-01 -4.307860919827761759e-01 -1.236375596557192369e-01 8.939446832979016655e-01
6.196295575085850604e-01 -6.401877484077305169e-01 -2.555447580231116622e-01 7.325982235328736270e-01 -2.895977981712605231e-01 -6.159812969326550203e-01
6.672292329470156380e-01 -5.432447519106485823e-01 -8.917915360993211582e-02 9.218561448068923747e-01 -3.803406022016361798e-01 -7.431200844191067356e-02
-4.244535037482419226e-01 -5.895734775264337424e-01 -2.444179937065372732e-01 -7.998696288935761567e-01 1.452262747315665944e-02 -5.999980583842990933e-01
-3.537420336913173480e-01 -6.518614913588025583e-01 -1.802912689938598878e-01 -8.398658552454060233e-01 1.302083888727168653e-02 -5.426378193119001381e-01
-3.545626504958904190e-01 -5.318416969434686115e-01 5.950783992706251690e-02 -9.761708237279057565e-01 -1.324715445262163172e-01 1.718773190191794920e-01
-2.807077626756470656e-01 -5.491078194114620281e-01 2.590440357474599331e-01 -4.444339800085097547e-01 -1.342878637762721927e-01 8.856891142247379500e-01
3.344265109422032145e-01 -5.186170737542686870e-01 -2.325872564049723534e-01 8.548628315298656410e-02 -4.151629137970879180e-01 -9.057217290096331030e-01
3.490240012406798376e-01 -5.983066228107533080e-01 -2.686326342484846585e-01 1.122397303751862391e-01 -4.130024320615608424e-01 -9.037871619117753275e-01
-2.244766771322324883e-02 -5.236611924594811729e-01 2.573029138871608112e-01 -2.359172510475355533e-01 -1.553191865005998096e-01 9.592804600131110693e-01
-1.454789827930664803e-01 -5.539072979747124981e-01 3.109051943344386393e-01 -2.359172510475355533e-01 -1.553191865005998096e-01 9.592804600131110693e-01
6.449760931867923874e-01 -6.040960782189884748e-01 1.634184580749517002e-01 5.451138992414427120e-01 -5.750787185333151585e-01 6.100289373004122995e-01
7.229733038894786690e-01 -5.699077051247369852e-01 5.292366313473872291e-02 8.953896621256175470e-01 -4.417607977370245353e-01 5.589946816670136875e-02
1.772507146575753589e-01 -6.083443503461605228e-01 2.686373216960900034e-01 9.114149397340083614e-02 -1.469551748197224783e-01 9.849352286673480616e-01
1.845536537604714200e-01 -4.823270706772789795e-01 3.165958673657714995e-01 -9.418012222839164393e-02 -3.300127548861434557e-01 9.392665682273075856e-01
4.057220433885060096e-02 -4.573983025787894952e-01 4.256075101108260927e-01 -1.786900957695560996e-02 -1.265611747622133465e-01 9.917978461055192430e-01
-8.160603127470844598e-02 -6.222789513359907598e-01 -4.002268985951431546e-01 -1.824012247032911482e-01 -8.011374842208467129e-02 -9.799548869925096550e-01
9.979379943960489663e-03 -5.359386849832831201e-01 -3.603398465277816709e-01 -1.824012247032911482e-01 -8.011374842208467129e-02 -9.799548869925096550e-01
2.976619708833797007e-01 -5.216981699947637052e-01 -3.880869974057631344e-01 6.779282330015384828e-02 -3.651888833361540687e-01 -9.284617453598651426e-01
-2.558245180743055625e-01 -5.379139309940917935e-01 2.603435683595237138e-01 -3.546884249072003170e-01 -1.243325495860330004e-01 9.266809258586722331e-01
-2.641909125762600952e-01 -5.352608178791481430e-01 4.057763718140454667e-01 -3.546884249072003170e-01 -1.243325495860330004e-01 9.266809258586722331e-01
-2.530626403252790868e-01 -6.551345842929050534e-01 3.308141115054028525e-01 -6.025126184870096546e-01 -1.259183271647945357e-01 7.881136462769484652e-01
-2.713207324158615208e-01 -4.662218326712185279e-01 2.145560380408693679e-01 -6.025126184870096546e-01 -1.259183271647945357e-01 7.881136462769484652e-01
2.164952087991823260e-01 -5.254645758218662310e-01 -3.350708928223024019e-01 3.232034699501105945e-02 -3.743120081390402532e-01 -9.267394001190633057e-01
2.555449181831324634e-01 -5.924848581359529742e-01 -3.349419079310392289e-01 3.232034699501105945e-02 -3.743120081390402532e-01 -9.267394001190633057e-01
7.269666377217096631e-01 -5.458058479173568678e-01 -4.819967442907316379e-02 5.845252192262228030e-01 -7.988532626859663477e-01 -1.419990590973141953e-01
-3.523989878464902636e-01 -5.978372476564053351e-01 -1.264018922211379015e-01 -8.631393045494708538e-01 1.966306333873617598e-02 -5.045829018922387554e-01
-3.451038224269529220e-01 -5.156433638992250490e-01 -2.211083361719421159e-01 -8.631393045494708538e-01 1.966306333873617598e-02 -5.045829018922387554e-01
6.608851892136132777e-01 -5.775796857116127780e-01 1.329447287791668542e-01 7.863899824566780161e-01 -5.812864153803297684e-01 2.090380319130286935e-01
6.478862618193678147e-01 -5.641516341472812002e-01 2.718459058733905809e-01 7.995216042528867639e-01 -5.842783860153104580e-01 1.392263336019247955e-01
1.895876972674112870e-01 -6.077696607436944287e-01 3.505893081843162729e-01 -1.540675367406067753e-01 -3.955263888285016072e-01 9.054402630008049346e-01
-3.264609654443105802e-01 -5.714450502933079434e-01 -1.157974688116397560e-01 -9.039034449963631035e-01 -1.389485563205728191e-01 -4.045390720562543896e-01
-3.708770564170655315e-01 -5.091017235075863123e-01 -1.669061171194489712e-01 -9.039034449963631035e-01 -1.389485563205728191e-01 -4.045390720562543896e-01
-3.345680534015649243e-01 -6.132389518770278158e-01 -8.377168456813743891e-02 -9.819288588536417839e-01 -1.502261419335307879e-01 -1.150991851845688668e-01
5.153743032853808081e-01 -4.790621791131746132e-01 2.768888280561375148e-01 4.089727058723169328e-01 2.597732837176705209e-02 9.121767944111166537e-01
8.823951731321902359e-02 -5.343791383577777276e-01 3.238235914282685535e-01 3.239933916153923954e-02 -8.447195285862614533e-02 9.958989768054515856e-01
-3.414189696936666407e-01 -5.589413478014917391e-01 1.207792794026851524e-01 -9.409581956525467916e-01 -1.665541466858730668e-01 2.947157787700622755e-01
-3.050943536042101112e-01 -5.235362113744036483e-01 1.914122357268676355e-01 -9.409581956525467916e-01 -1.665541466858730668e-01 2.947157787700622755e-01
5.491461113037062747e-01 -5.790639318212592590e-01 -3.251456953553082396e-01 4.199533488206276810e-01 -3.458885902591248285e-01 -8.390472382070602864e-01
5.039418218990061593e-01 -5.723797130455084980e-01 -2.093785167681444515e-01 3.466818172179664259e-01 -3.574889375158100679e-01 -8.671870485450448029e-01
4.292998304619485284e-01 -5.434780955215258169e-01 -3.150284744157342831e-01 9.152144650909393997e-02 -4.134748544275216320e-01 -9.059041724073373381e-01
5.690785617800014906e-01 -5.603464009594082418e-01 3.348323713027070436e-01 4.247277027567812335e-01 -3.829541486850692178e-01 8.203368201634260171e-01
5.319266235411395094e-01 -4.659143896473269542e-01 2.689032937689350700e-01 4.247277027567812335e-01 -3.829541486850692178e-01 8.203368201634260171e-01
3.829561741830813659e-01 -5.973628644246620212e-01 -3.393512169903509235e-01 1.553707702839615679e-01 -3.637263210043787942e-01 -9.184569054397642152e-01
-3.537700307584076831e-01 -5.145999712461573061e-01 -1.308141879497640159e-03 -9.741891198109925432e-01 -2.237363531503030745e-01 -2.996002538194162540e-02
4.979211070486127544e-01 -4.837479888785686244e-01 2.968679497484386087e-01 5.247365157634933386e-01 -3.822390932759871518e-01 7.606213674331929742e-01
6.342184525896060743e-01 -6.370855194589453152e-01 -2.569743351485670457e-01 7.171867761247195938e-01 -2.860660734668176164e-01 -6.354599356081457318e-01
6.322839244191996722e-01 -5.654563225582115438e-01 -2.162649959231760233e-01 7.171867761247195938e-01 -2.860660734668176164e-01 -6.354599356081457318e-01
6.798098964866903238e-01 -5.461160823753178351e-01 -8.825575855992805197e-02 7.987913062717327817e-01 -1.693949642799821853e-01 -5.772675247242670116e-01
4.220181865351457229e-01 -5.349390205388232511e-01 -3.083025072981137038e-01 3.458046561512191364e-01 -3.538402796635097824e-01 -8.690317579189994479e-01
4.348390079598984936e-01 -5.446128764279672962e-01 -3.093964129827955767e-01 3.458046561512191364e-01 -3.538402796635097824e-01 -8.690317579189994479e-01
7.092588479883936703e-01 -5.900678834905348502e-01 -9.709011712105397596e-02 8.335361401435973372e-01 -4.587979673474713582e-01 -3.077692775966139882e-01
5.820099475866368222e-01 -5.146529888701293354e-01 -2.740541388444226456e-01 5.039394744761653833e-01 -3.567085867294965684e-01 -7.866409538144650826e-01
5.904106096095342870e-01 -5.887901600108771394e-01 -2.472881072838579997e-01 5.039394744761653833e-01 -3.567085867294965684e-01 -7.866409538144650826e-01
-3.447365633858204825e-01 -4.937832780155504420e-01 7.447405767623348216e-02 -8.892859970285672544e-01 -1.518035872742181658e-01 4.314233261885431769e-01
3.474846841169444978e-01 -5.598514443006524788e-01 -3.311992982204768898e-01 9.080310430390410581e-02 -4.130431967077029531e-01 -9.061733354619611047e-01
3.713562820502087081e-01 -5.011964752065203310e-01 -3.311685199819920933e-01 7.006211972618867079e-02 -3.458353089470759256e-01 -9.356758191088159204e-01
7.965445409413953737e-01 -5.173267986079048697e-01 -3.760622677967308258e-02 5.924529102610629483e-01 -7.895877460870021070e-01 1.598459894787633839e-01
-3.736440236700172002e-01 -5.746501797689204105e-01 -5.183722883753520694e-02 -9.298420037378338776e-01 -1.446950405713561261e-01 -3.383152277371854200e-01
5.660968408140458763e-01 -5.908154640037697192e-01 3.501750109660464183e-01 5.479193587435173818e-01 -4.098191675570639902e-01 7.292685556205805719e-01
-1.749256196246777306e-01 -5.622333484382997515e-01 -3.451140115884812065e-01 -5.387840456734425132e-01 -5.173775825645323539e-02 -8.408537069540423792e-01
-2.507294757441608235e-01 -5.526756450050721581e-01 -2.269763992459364887e-01 -5.387840456734425132e-01 -5.173775825645323539e-02 -8.408537069540423792e-01
2.980090482222120807e-01 -4.843056777997571949e-01 -4.584846742029584643e-01 4.612729350907209674e-02 -3.687870328602361192e-01 -9.283686752512014806e-01
6.400488421033124764e-01 -5.392745941677768995e-01 -2.084453615621217060e-01 6.265249360156629477e-01 -3.316721684770996270e-01 -7.053084978988044540e-01
5.128133860884043216e-01 -5.579737967600485460e-01 -2.449712775581447122e-01 6.265249360156629477e-01 -3.316721684770996270e-01 -7.053084978988044540e-01
4.431084143067335890e-01 -6.269441463813653082e-01 -3.751446077878350938e-01 1.914182968431346887e-01 -3.834487086407106782e-01 -9.035076775962919138e-01
7.994130687132643409e-01 -4.939732957990080053e-01 -5.959350314350367328e-03 9.262009379831697142e-01 -3.345156605017324813e-01 -1.739284202141397617e-01
3.980039583494131561e-01 -5.587253982096503924e-01 3.074784598643516276e-01 1.837330459637160351e-01 -3.914974698123312447e-01 9.016495433101697765e-01
3.619737448676763614e-01 -4.822732060658118103e-01 3.096657378010146955e-01 8.768296520719293108e-02 -4.390785214857645391e-01 8.941598009205901088e-01
-3.851126939668831350e-01 -6.359278780808823583e-01 -2.333683782362023229e-01 -7.974528511430918343e-01 -7.587630238324619136e-02 -5.985914607980971081e-01
5.839896108791743368e-01 -4.620030660598747896e-01 1.291653594505678404e-01 -4.148187672824344557e-02 -1.250813748727538366e-01 9.912789231911693921e-01
-2.630378232160804353e-01 -5.994520935586756805e-01 2.729519019195217680e-02 -9.456496528802693646e-01 -3.059262796061809064e-01 1.102535507534642967e-01
7.106902461806849924e-01 -5.228115071571989292e-01 4.328315616373421687e-02 7.954439460032922682e-01 -5.862788312302242844e-01 1.534472574470896744e-01
3.759218496457586989e-01 -5.955975146984140434e-01 4.256401774518000503e-01 7.416682820569585333e-02 -4.148600681707864113e-01 9.068574339063650847e-01
6.019290715394368663e-01 -5.971741199750580931e-01 7.862723546065278346e-02 7.049048137823086257e-01 -7.006597024233092164e-01 1.103865250227962780e-01
6.027917860964900898e-01 -5.164837374928406000e-01 2.276826280461788365e-01 7.049048137823086257e-01 -7.006597024233092164e-01 1.103865250227962780e-01
3.636349579353221340e-01 -5.538317328295675468e-01 3.319676036819544374e-01 4.494549600894802432e-02 -4.019622555818972987e-01 9.145524848121200368e-01
1.891515616731554439e-01 -4.213845984126333155e-01 4.123221739814220688e-01 2.343857578141462714e-02 -2.962193793179806467e-01 9.548322954748696967e-01
-7.867374188981610117e-02 -4.800444087336901977e-01 -3.630865305312632185e-01 -2.299384032237070663e-01 -2.519385650118734568e-02 -9.728790265585590680e-01
-6.014648071547673558e-02 -4.566867802397208687e-01 -2.922964706315310801e-01 -2.299384032237070663e-01 -2.519385650118734568e-02 -9.728790265585590680e-01
-2.985593059220148504e-02 -6.237176263327810499e-01 -3.283550540465638434e-01 -1.003221412453155215e-01 4.723687685678611137e-02 -9.938330571281939196e-01
-1.145981852285705982e-01 -5.008214260276296903e-01 -3.585831067148937401e-01 -2.867076995479977408e-01 8.351963581630693703e-05 -9.580181042362223565e-01
-1.383871530817961104e-01 -5.606144296658907011e-01 -3.686446969807682938e-01 -2.867076995479977408e-01 8.351963581630693703e-05 -9.580181042362223565e-01
-1.431465740032651923e-01 -5.601836631592002069e-01 -3.486872649283303538e-01 -2.867076995479977408e-01 8.351963581630693703e-05 -9.580181042362223565e-01
6.362770518596234659e-01 -5.223831528256926982e-01 1.308770765247807000e-01 6.528185170317597485e-01 -2.180941157936512331e-01 7.254398255380245519e-01
-1.835813188265998652e-02 -5.508024299900982079e-01 4.029849331033059645e-01 -9.653287649103906021e-03 -1.277232754619908317e-01 9.917628642688857132e-01
-5.305329256387464332e-02 -4.812278245414797762e-01 3.325002094763235827e-01 -9.653287649103906021e-03 -1.277232754619908317e-01 9.917628642688857132e-01
3.106805983384516856e-03 -5.121182238733823500e-01 -3.267076057972555514e-01 1.051763442338033566e-01 3.058551576507304720e-02 -9.939831300575463491e-01
8.103345306411204041e-02 -5.454509771458562195e-01 -2.922683314014873912e-01 1.051763442338033566e-01 3.058551576507304720e-02 -9.939831300575463491e-01
1.443661532417482851e-01 -5.985421490366511499e-01 -3.870071402014940709e-01 1.051763442338033566e-01 3.058551576507304720e-02 -9.939831300575463491e-01
4.118814943832451170e-01 -5.762060121792503820e-01 3.264853446417061433e-01 3.119327540490842154e-01 -3.698235463387143929e-01 8.751734122588564757e-01
5.840899343614553985e-01 -5.461109193109194848e-01 2.610836183162943969e-01 7.204082315039519457e-01 -4.030239062574689224e-01 5.644322022761627533e-01
5.389803897881013661e-01 -5.715398351356429929e-01 2.683284918486134041e-01 4.457838494481787261e-01 -3.750749692629635201e-01 8.127702793554588689e-01
5.147665380781984990e-01 -4.895801365385887838e-01 2.864695747845567575e-01 4.457838494481787261e-01 -3.750749692629635201e-01 8.127702793554588689e-01
2.783562280503373842e-01 -5.208936475755803208e-01 3.124325409478934112e-01 -5.759195095856021324e-02 -4.280301191459477961e-01 9.019275937062202209e-01
-3.936832459768221382e-01 -4.991720498763551617e-01 -9.230849469394074303e-02 -9.803276278376134023e-01 -1.631920838489411552e-01 -1.110229069486015629e-01
-3.642250866116304997e-01 -5.688122192763087615e-01 -8.792285891064285930e-02 -9.803276278376134023e-01 -1.631920838489411552e-01 -1.110229069486015629e-01
2.189327881588219449e-01 -5.404803804702622561e-01 3.711018453124685923e-01 -1.501994731528104032e-01 -3.967059032050113676e-01 9.055741519207106682e-01
2.161380085507730309e-01 -5.150392835093748900e-01 2.793604494359144819e-01 -1.501994731528104032e-01 -3.967059032050113676e-01 9.055741519207106682e-01
1.433763573321294726e-01 -5.274380482714530194e-01 3.271117422236236583e-01 -1.349946478037778175e-01 -3.922688009246537155e-01 9.098910005519718069e-01
1.383351542162247205e-01 -5.544756061509503731e-01 3.409483987807664374e-01 -1.349946478037778175e-01 -3.922688009246537155e-01 9.098910005519718069e-01
2.123797092608214199e-01 -5.766509763321542303e-01 -2.456819407676339717e-01 3.148070293536701925e-02 -2.301185169719646428e-01 -9.726532956245605988e-01
-2.350336774343355362e-01 -5.994687315526358029e-01 -3.405183334761201497e-01 -2.849689409746742896e-01 2.947830131885537238e-04 -9.585367054958030542e-01
5.893576251013762368e-01 -5.653989863060835397e-01 -1.510779475088652457e-01 9.644688116817968782e-01 -9.177976284049244038e-02 -2.477425809707435589e-01
7.207604945100319904e-01 -5.426112417736306259e-01 4.109716634186771911e-02 9.538091712572481784e-01 -2.989211117477758028e-01 -2.990374185674936000e-02
6.143523801654408034e-01 -5.264076210662987920e-01 2.253992141125862325e-01 7.786208833176141431e-01 -5.512471929195496001e-01 2.997933494259257814e-01
-3.887241632397191449e-01 -5.397466841359922496e-01 1.005245950974991385e-02 -9.713863377743399141e-01 -2.324722690237457090e-01 -4.863359867732717362e-02
4.715034273329796188e-01 -6.221341913611719843e-01 3.222932968557288280e-01 3.580607340247313752e-01 -3.451230331283217656e-01 8.675728227382285551e-01
5.255463718143973395e-01 -5.840078219027857731e-01 3.225911327701480591e-01 3.580607340247313752e-01 -3.451230331283217656e-01 8.675728227382285551e-01
4.568139176077511410e-01 -5.277719103929419120e-01 3.163621731551924388e-01 3.580607340247313752e-01 -3.451230331283217656e-01 8.675728227382285551e-01
7.228498373225377138e-01 -4.635281573975615355e-01 -1.150085405510596348e-01 8.311748621505870016e-01 -8.813126628709573585e-02 -5.489819928117729564e-01
6.539071799812815056e-02 -5.184674751230921030e-01 -3.471290638343323409e-01 -9.293200352230775174e-02 -1.681436780862859484e-02 -9.955304715359174494e-01
-2.942503279399432681e-01 -6.000099850457575323e-01 2.677289797090349199e-01 -7.145240202210926261e-01 -1.412643179489168344e-01 6.852005669886117589e-01
-1.981533123589937495e-01 -5.342124299402264409e-01 -2.792379981701395009e-01 -5.218535886444548577e-01 -7.652336666343585725e-02 -8.495957899927455426e-01
5.811967685550761820e-01 -5.077738088794657711e-01 -2.577418825899170929e-01 4.188685420967609430e-01 -3.325818581822571618e-01 -8.449487866431732996e-01
3.129065624506920384e-01 -5.188734722684925638e-01 -3.979666809859928045e-01 6.867174262484800062e-02 -3.605062676501070151e-01 -9.302254687708009229e-01
5.677226828662818026e-01 -5.713373054551069696e-01 2.829432056681764895e-01 6.708913086472882981e-01 -2.688173360593952288e-01 6.911165544359788582e-01
7.107830590864006037e-01 -5.557472649485989402e-01 2.228962297715189611e-02 9.053191940758825718e-01 -2.578923138705345175e-01 3.374740157172044785e-01
3.187143326494699114e-01 -5.062212823096828851e-01 3.959224541683349918e-01 1.821315048452671823e-02 -4.244157285334242413e-01 9.052842484672263268e-01
3.380366002513517931e-01 -6.812470303073020483e-01 3.348962206126588903e-01 -5.838138491410490433e-02 -4.274774551004089096e-01 9.021389245988608030e-01
6.311525560416662017e-01 -5.402121188643883576e-01 1.248362572440322033e-01 6.900432952259158981e-01 -7.220313674355428590e-01 5.010943177605821364e-02
-1.684322886207060416e-02 -4.817694482573369741e-01 3.771844860737117999e-01 -4.433193685841883142e-02 -2.909693380205818358e-01 9.557047262131989074e-01
-4.464822964100693126e-01 -5.322166742997384015e-01 3.171572571829273102e-02 -9.345424591203588260e-01 -2.009402543189215684e-01 2.936893023171248673e-01
2.072731372561491259e-01 -4.672856635162618844e-01 -2.508450503781612939e-01 -1.060312540071888382e-01 -3.241947995798663551e-01 -9.400293107659107861e-01
3.157167824526740385e-01 -5.006457583205121686e-01 -3.908178327304112076e-01 1.455759565369836583e-01 -3.380988097961361016e-01 -9.297832197306953317e-01
6.943194716855872750e-01 -5.551582037737532449e-01 1.874029114492400949e-03 7.779390759851807502e-01 -1.428542879359926965e-01 6.118851579125150764e-01
6.336054085639590827e-01 -4.727459490365666372e-01 3.578530229258181788e-02 9.382069754664420502e-01 -3.256058405093962271e-01 1.172540311131373136e-01
6.491846683063489110e-01 -4.766782961320245038e-01 3.362410165375034898e-01 7.000350887849222659e-01 -2.895388779452577332e-01 6.527772304761306765e-01
5.982259702081270669e-01 -4.342845412667664662e-01 2.161702425889470147e-01 7.000350887849222659e-01 -2.895388779452577332e-01 6.527772304761306765e-01
6.518892474277961924e-01 -5.066541571904904506e-01 2.194895741767024788e-01 7.819365409415471868e-01 -4.078383507223181659e-01 4.714266916716399747e-01
-4.223342008162118688e-01 -5.175408619813273159e-01 -1.061242198821373273e-01 -9.750917720556028234e-01 -1.847495120160955739e-01 -1.227340779053593123e-01
1.028378851326584437e-01 -5.372798833606468039e-01 3.379733789340345074e-01 -6.766606345722552679e-03 -2.831630266816784203e-01 9.590479202620862953e-01
1.425870831956486118e-01 -4.934498315509363020e-01 3.350092474175178636e-01 -2.115438284451363893e-01 -3.679457409039658677e-01 9.054640469932565550e-01
7.953344592187705508e-01 -4.931870719994310148e-01 -2.006410431952692502e-03 9.721300321900806507e-01 -2.344241297371754684e-01 2.920258735214081251e-03
2.965482148608191704e-01 -4.643053084270178377e-01 -3.790007700940924984e-01 5.413258748023695721e-02 -3.389058685383177782e-01 -9.392616649491145608e-01
6.285358328648508186e-01 -5.038376727007702893e-01 -2.986372762849409113e-01 7.994628134656024399e-01 -2.358436162380925516e-01 -5.524825776125459331e-01
7.127527088053960957e-01 -5.757380368811937377e-01 1.047397752318075248e-01 8.888225268845560967e-01 -1.790572425055917127e-01 4.218210753493076837e-01
2.726988213475611267e-01 -4.936267244873102644e-01 3.742641722285640071e-01 -7.986646275825670660e-02 -3.154675676757211500e-01 9.455694378898085173e-01
2.102163585130397694e-01 -5.308161966523884390e-01 3.837282876348647731e-01 -7.986646275825670660e-02 -3.154675676757211500e-01 9.455694378898085173e-01
3.202111680842432695e-01 -4.708159556219630448e-01 3.813469616319112299e-01 -7.986646275825670660e-02 -3.154675676757211500e-01 9.455694378898085173e-01
3.819111864966857062e-01 -6.086484604652568908e-01 3.501260028438394345e-01 1.363731446530892510e-01 -3.741142538312791088e-01 9.173008723955803356e-01
5.262740210743464125e-02 -4.982586427998429990e-01 3.619759289139146130e-01 -5.031937236307067879e-02 -3.213513104740460258e-01 9.456221740323138558e-01
3.602978951303166255e-01 -4.211235248657165253e-01 -2.905161190404348392e-01 2.366384039807201967e-01 -3.675821974328367658e-01 -8.993806724029065336e-01
4.349453279340988465e-01 -5.487882999332991396e-01 -4.172240412448327551e-01 2.366384039807201967e-01 -3.675821974328367658e-01 -8.993806724029065336e-01
4.235981518672934931e-01 -5.149855442648327841e-01 -2.816971323881812816e-01 2.366384039807201967e-01 -3.675821974328367658e-01 -8.993806724029065336e-01
1.175698904342663137e-01 -5.635627510127620976e-01 -3.700065291713990900e-01 -4.829253258574844887e-02 -2.961537759265097658e-01 -9.539186402942994025e-01
-1.495638300568059575e-01 -5.494525201861517605e-01 3.347037989243644152e-01 -4.259424244860111619e-01 -1.443061471833611831e-01 8.931678380394542094e-01
-2.197286327627608060e-01 -5.592269184300842078e-01 3.709989651350045214e-01 -4.259424244860111619e-01 -1.443061471833611831e-01 8.931678380394542094e-01
-1.945601399395274211e-01 -5.976447095592031244e-01 3.024049842543680144e-01 -2.818335451560504551e-02 -9.685682900096738435e-02 9.948992176115755148e-01
-1.080706918321019672e-01 -4.536855351117214386e-01 3.267690538023567681e-01 -3.796510200447033023e-01 -1.305396339151102814e-01 9.158736304514533133e-01
-3.901466482605591146e-01 -5.620368361937743140e-01 2.026148439343504748e-01 -8.328652695674908513e-01 -1.449894848066697883e-01 5.341474441048716937e-01
5.758662104150626959e-01 -5.915162086993657198e-01 -1.307492688306249318e-01 8.591917678001463887e-01 -1.928349373694811797e-01 -4.739242482445560345e-01
6.183476574320544428e-01 -5.298461877465076020e-01 -2.588635430198110154e-01 8.591917678001463887e-01 -1.928349373694811797e-01 -4.739242482445560345e-01
6.598419361747445699e-02 -5.831412188497387961e-01 3.127736600599687611e-01 -1.443953700832685538e-01 -2.979530643217820352e-01 9.435962847318635216e-01
3.116038888828602804e-01 -5.695616934060114822e-01 3.763923984417852919e-01 1.284869806577038087e-02 -3.436328868702148709e-01 9.390161606805588201e-01
5.199276991284386140e-01 -5.611648795381987131e-01 3.268360721067639085e-01 5.542969496589399414e-01 -3.071845361233747629e-01 7.735583703673960532e-01
-3.334489760668659653e-01 -4.994131875488183603e-01 3.759552244863201276e-02 -9.378034676665708558e-01 -2.779860744369814229e-01 2.079624928963681174e-01
-1.887969079401498051e-01 -4.890399335232404887e-01 2.627089432312368356e-01 -4.907421857026383893e-01 -2.113250118625218943e-01 8.452892088114588587e-01
-2.794465504475655004e-01 -4.975072986843083189e-01 2.595076112210403796e-01 -7.325057721876256922e-01 -2.096993114537824832e-01 6.476584690155912094e-01
-2.885426261661545588e-01 -5.626293598621445735e-01 1.680038085344463528e-01 -7.325057721876256922e-01 -2.096993114537824832e-01 6.476584690155912094e-01
-2.673479034534778087e-01 -5.510921643241192269e-01 3.581060704330005784e-01 -5.900663456591958012e-01 -1.785325006775779211e-01 7.873676739123934842e-01
3.232245345448158669e-01 -5.774734904807395930e-01 -3.692565286501828803e-01 4.808641592678573190e-02 -3.397464910696663121e-01 -9.392869734054470898e-01
3.115373157922855518e-01 -5.341504161270534956e-01 -2.782514452269322369e-01 9.517390938672753986e-02 -3.533990351625382331e-01 -9.306186377449324754e-01
5.870286344072831453e-01 -5.549520783978519889e-01 -3.236122915924624643e-01 3.834324447769517641e-01 -3.288938225876137933e-01 -8.630228350142751248e-01
6.108330961141817950e-01 -4.022422661718355608e-01 -3.010018005915859884e-01 3.834324447769517641e-01 -3.288938225876137933e-01 -8.630228350142751248e-01
5.124645264756733098e-01 -5.074703097431259025e-01 -2.726121672348073566e-01 2.914449932486457007e-01 -3.463534913522277603e-01 -8.916832817421325164e-01
6.678196535431760728e-01 -4.972700296309144896e-01 -2.539976061154223252e-01 8.287685483378166573e-01 -2.068436577337643967e-01 -5.199599932123097901e-01
-1.026361710296458396e-01 -5.284184067246294747e-01 -3.439839428331984417e-01 -2.555842537713381435e-01 -2.099021871990580657e-02 -9.665588962614946045e-01
1.182222543814022073e-02 -5.062104045518073248e-01 -2.509933469731500666e-01 -7.015256144798127924e-02 2.332278762321375598e-02 -9.972635888769677548e-01
-5.647600152270207396e-02 -4.771016662891565674e-01 -3.955166353279440661e-01 -7.015256144798127924e-02 2.332278762321375598e-02 -9.972635888769677548e-01
6.743118816613916655e-01 -4.174310876917672886e-01 9.863780904796573545e-02 5.519482670287467752e-01 2.172467363915689675e-01 8.050819623188532059e-01
-3.755366068318407025e-01 -5.192855302335944723e-01 -1.080518963105659008e-01 -8.556087770651871205e-01 -1.104915005402245382e-01 -5.056928404846015024e-01
-2.985203640461885355e-01 -5.507001986554037609e-01 -1.793942293872889671e-01 -7.817530384312836311e-01 -9.432747164840035725e-02 -6.164126174859468899e-01
7.364670562883753879e-01 -4.748509589414652843e-01 -7.507116611957621172e-03 9.253844977002899652e-01 -1.399210454221158362e-01 3.522579061766596409e-01
3.700390105632156978e-01 -4.822713921534537707e-01 3.350752928201763403e-01 1.631492623669981157e-01 -3.563027060722053219e-01 9.200166845414969874e-01
3.271952186259163287e-01 -5.387051011405066259e-01 4.073508977226004135e-01 1.631492623669981157e-01 -3.563027060722053219e-01 9.200166845414969874e-01
6.302583398178585039e-01 -5.245689442608382214e-01 2.183002628312172566e-01 8.010256250024241353e-01 -2.773436382076772677e-01 5.305077326818194994e-01
-3.603082670075505312e-01 -5.459887909554244079e-01 -2.507578579670561303e-01 -7.783187658705339462e-01 -1.451809992067377986e-02 -6.277014604638594397e-01
-2.536394615484465764e-01 -5.540981292764765032e-01 -2.044985925930192794e-01 -5.960714244936206052e-01 -2.222116538234773786e-02 -8.026238700108514479e-01
-3.829802016050395941e-01 -5.389386119167487443e-01 -9.551264575063095341e-02 -9.179935259500852096e-01 -3.951032017898225557e-01 3.437071790290187334e-02
-4.125235328167848881e-01 -4.687844377601780854e-01 -3.771138874655159678e-02 -9.179935259500852096e-01 -3.951032017898225557e-01 3.437071790290187334e-02
-3.921690936776521530e-02 -4.654394013822175102e-01 3.170474583353115050e-01 -1.049612035553206951e-01 -1.831871337919649956e-01 9.774587560410430420e-01
-7.507260678423155476e-02 -5.418493613707671130e-01 3.244101819170210899e-01 -1.049612035553206951e-01 -1.831871337919649956e-01 9.774587560410430420e-01
6.506943419744753987e-01 -5.052312147122656194e-01 -2.527599464478949565e-02 6.959322733363385582e-01 1.766157070957362629e-01 -6.960496842438683718e-01
-3.734294469375079584e-01 -5.082809140524874314e-01 1.475322766410103736e-01 -9.202976295083964420e-01 -2.266515675102650229e-01 3.188751167249744833e-01
7.077516129045272608e-01 -5.267022872663071897e-01 -1.696330108916784818e-01 9.655409012278621805e-01 -2.678450795090486086e-02 -2.588693844198571847e-01
2.416431440034304823e-01 -4.223457908614849932e-01 -3.552437466344259276e-01 -2.612364019104157151e-02 -3.199860504626692026e-01 -9.470620269720833040e-01
3.313060446863141384e-01 -4.950659931391570567e-01 -3.045747180834416090e-01 1.210402833338957845e-01 -3.281777512548988973e-01 -9.368290203616282952e-01
7.479797712478798433e-01 -5.070443443111701809e-01 -1.629380072802200097e-02 9.697674759095478159e-01 2.351392542283094189e-02 -2.428953230904910832e-01
5.619126798036881976e-01 -4.913390764639887220e-01 1.104206126393397214e-01 8.954764855485577435e-01 -3.474553036354455782e-01 2.782025805149977993e-01
5.013749066569167523e-01 -5.387616279643844264e-01 3.740877222965585114e-01 2.393249355370915543e-01 -3.383303253403094346e-01 9.100858015513083599e-01
4.282502944578767123e-01 -5.408296645594578012e-01 2.882929244265870494e-01 2.393249355370915543e-01 -3.383303253403094346e-01 9.100858015513083599e-01
-3.615604781045130833e-01 -6.045723847597195277e-01 -5.718687146330503346e-02 -9.713406383212710438e-01 -1.946256903347614031e-01 -1.364485434416329579e-01
-3.071720441085907249e-01 -4.620606475411930814e-01 -3.519875173223684095e-02 -9.713406383212710438e-01 -1.946256903347614031e-01 -1.364485434416329579e-01
5.154131737048925910e-01 -4.556456287061386723e-01 2.674164453110114414e-01 3.508594789456965235e-01 -3.620424744353886171e-01 8.636103709073064127e-01
2.143200992152470286e-01 -5.319497589695713069e-01 3.945291971430558431e-01 -1.150898261150724577e-01 -3.791862452430919128e-01 9.181351334870309078e-01
3.446176191868065009e-01 -5.463815087875397714e-01 2.924156342038259915e-01 -1.150898261150724577e-01 -3.791862452430919128e-01 9.181351334870309078e-01
2.118521505696041030e-01 -3.668735245349890040e-01 3.693842320178947203e-01 -1.150898261150724577e-01 -3.791862452430919128e-01 9.181351334870309078e-01
9.821602588797877231e-02 -5.293021042081594851e-01 3.466323213549989402e-01 1.055437186471055722e-01 -3.939598944778761047e-01 9.130477123333267109e-01
-4.355555489310177775e-01 -5.537060362008565662e-01 1.508739310409062950e-01 -9.021651354740680695e-01 -2.134598846014295337e-01 3.748772412417171740e-01
-3.193640133243155765e-01 -5.330665240697621821e-01 2.113217310389379766e-01 -9.021651354740680695e-01 -2.134598846014295337e-01 3.748772412417171740e-01
7.305659633879960646e-01 -5.550105459995331447e-01 -1.575742895652000874e-01 8.139423920610373564e-01 1.846713414767317540e-01 -5.508123800743235376e-01
7.812140761294427138e-01 -4.921695597220230312e-01 -2.035557802118644899e-01 9.739917380853999607e-01 -1.985992570929613898e-01 -1.090799212664974316e-01
6.194376525165929959e-01 -4.368082385570545290e-01 -3.492927946135501172e-01 6.023200957849990100e-01 -2.870139338282300945e-01 -7.448714681084206424e-01
-1.854568293226809828e-01 -4.703096659954710823e-01 -2.025754333081455361e-01 -2.924669108260055661e-01 -2.074801126876152737e-04 -9.562756208457352525e-01
-2.203281744311997858e-01 -3.862416356197101996e-01 -2.058885161981692247e-01 -2.924669108260055661e-01 -2.074801126876152737e-04 -9.562756208457352525e-01
-1.752873300610870433e-01 -4.744135631969754185e-01 -2.962366980733889266e-01 -2.924669108260055661e-01 -2.074801126876152737e-04 -9.562756208457352525e-01
-1.340351690395141515e-01 -5.091551367825262187e-01 -4.091280320184300101e-01 -2.633953360223768581e-01 -9.780848331012323427e-03 -9.646383944087986162e-01
1.426358773508717148e-01 -4.884520299438014912e-01 -3.998204519954435265e-01 -3.051475332982795524e-02 -3.129018926204679141e-01 -9.492951361003325594e-01
1.544557235416945395e-01 -5.554546610267699913e-01 -3.514025998052559552e-01 -3.051475332982795524e-02 -3.129018926204679141e-01 -9.492951361003325594e-01
7.281517644289852154e-01 -4.866974274765255570e-01 2.214899010940397095e-01 8.908992213442552544e-01 -2.901969198828900365e-01 3.494056741077386508e-01
-2.033056466217788016e-01 -4.795988670468319115e-01 -2.633175057442573297e-01 -6.902251418494735891e-01 -4.178607047352142501e-02 -7.223871385021026770e-01
-2.559502864378321307e-01 -6.164011521656227455e-01 -3.590624198801622979e-01 -6.902251418494735891e-01 -4.178607047352142501e-02 -7.223871385021026770e-01
1.209463966509815025e-01 -5.092414825663857947e-01 3.163638903410754266e-01 -1.809556378818332201e-01 -3.971365623137810830e-01 8.997430788799496426e-01
-2.079311350025684901e-01 -4.945948180226068525e-01 2.972312024687973064e-01 -4.398684312434877342e-01 -1.822159155611560166e-01 8.793822395930013247e-01
-1.788281956007029827e-01 -4.906515856417395516e-01 3.368147956312061986e-01 -3.732734687752281566e-01 -1.701186422077844707e-01 9.119904413325222725e-01
-2.221934235742616393e-01 -4.902369908587982938e-01 3.142926625928025852e-01 -3.580502337957064962e-01 -1.414341001194786840e-01 9.229281799805624242e-01
6.164019920392915797e-01 -5.315525480129348335e-01 -1.726506403334915618e-01 5.914937007929038648e-01 -2.860546386196975988e-01 -7.538620202971288986e-01
-1.504840765783006518e-01 -5.060991290549746724e-01 -3.434065871462527730e-01 -2.924980673434922074e-01 -1.763433712098239417e-02 -9.561035042058079192e-01
-1.711386188025477983e-01 -5.368826845885940058e-01 -3.069379765454123832e-01 -2.924980673434922074e-01 -1.763433712098239417e-02 -9.561035042058079192e-01
-3.803369070857418044e-01 -5.203241149709079139e-01 -1.978232684780287243e-01 -9.028545958782454584e-01 -1.636829882675242542e-01 -3.975694380273006034e-01
-3.725732030395796923e-01 -4.940036865783609676e-01 -9.746141374008344960e-02 -9.028545958782454584e-01 -1.636829882675242542e-01 -3.975694380273006034e-01
2.448340443872027983e-01 -5.128435783951957871e-01 4.683171398613143466e-01 -1.265514025786873553e-01 -3.774365817279300428e-01 9.173474637665395282e-01
6.773620313150684469e-01 -5.369021954344186387e-01 6.781292497616009385e-02 8.136045916826996072e-01 1.911419817002551202e-01 5.491013669847555345e-01
7.325469915322708747e-01 -5.481191491350978495e-01 1.772682567289694811e-01 9.743439727469664913e-01 -1.626238641653274530e-01 -1.555869582439208254e-01
-8.931195472863029394e-03 -4.961336562012708118e-01 -2.889811817986365772e-01 -6.548691902538009146e-02 -3.605874838854798790e-03 -9.978469126590561178e-01
5.724607957141545356e-01 -4.191113040119630595e-01 -3.660533259490358349e-01 4.393467515331073159e-01 -3.241273540926918884e-01 -8.378042075844311931e-01
4.131991864415223148e-01 -4.945157904693026629e-01 -3.825412018555508498e-01 6.009053172161994000e-02 -3.280858832815944925e-01 -9.427347353252393258e-01
4.919550963538378840e-01 -5.422397954913573681e-01 3.147479083213549078e-01 5.610519528010340373e-01 -2.994701178594750268e-01 7.717113156921948658e-01
5.991261996302083004e-01 -4.710695494531021432e-01 3.056836412058892005e-01 5.610519528010340373e-01 -2.994701178594750268e-01 7.717113156921948658e-01
5.445036704079105894e-01 -4.550461135497098075e-01 3.223490976178594036e-01 5.688972058601402537e-01 -2.955543864471991133e-01 7.674656825007517558e-01
-3.240054147274492036e-01 -5.532438683006692948e-01 -2.052439651130918696e-01 -8.310225965645819945e-01 -1.612797191735758917e-01 -5.323441520129177373e-01
1.579583475448950725e-01 -4.786022037490070269e-01 3.638006885993660955e-01 -1.172588795979307152e-01 -3.776989012696199133e-01 9.184736768874541823e-01
-9.518073555540218500e-02 -5.407285405482809004e-01 3.943024768099607780e-01 8.600194251449122529e-02 -1.822669087564222357e-01 9.794806990727852325e-01
7.308255359107561633e-01 -4.847039673990440334e-01 8.953790204703722388e-03 9.823559318699398579e-01 1.812938135270519835e-01 -4.592794679452153611e-02
3.728674587204640067e-01 -4.367360244024702243e-01 -3.028438841637226542e-01 1.408190450196288579e-01 -3.421257229180938442e-01 -9.290425104792198185e-01
3.200072895084314917e-01 -4.564980040016820562e-01 -3.781034508596506361e-01 1.408190450196288579e-01 -3.421257229180938442e-01 -9.290425104792198185e-01
3.637633752271248189e-01 -4.912186727450421619e-01 -3.698618799821701275e-01 1.858346858156494363e-01 -3.400820522768697174e-01 -9.218512175329331981e-01
6.086368153651733337e-01 -4.887270216970802106e-01 -2.236267319895340333e-01 8.896322875581924583e-01 -1.950871974632543693e-01 -4.129108600169177357e-01
6.350150546952720854e-01 -4.754822335346040596e-01 -2.834448472581051481e-01 5.285720950301913135e-01 -2.912699706550956891e-01 -7.973539644034975948e-01
-2.060605198313442410e-01 -4.875075948273417947e-01 -2.960474043312379400e-01 -3.235789429266632822e-01 -7.210624833402526357e-02 -9.434497107136420313e-01
-6.308733972923771804e-02 -5.217163722302635698e-01 3.245328764209952643e-01 -2.110990187025148512e-01 -1.393785640141015636e-01 9.674765217803490414e-01
1.251123173129450317e-01 -5.011355891571036558e-01 -3.216316209243101354e-01 -1.777544492375028248e-02 -1.932536362906234761e-01 -9.809878009528020248e-01
2.463807380172859940e-01 -4.948489531119664164e-01 3.513457308045442318e-01 9.838641575521939187e-02 -3.472778601758964023e-01 9.325868329686474167e-01
-2.581751147559452342e-01 -4.532572124758160736e-01 -2.957951123321709841e-01 -7.179376434801427731e-01 -1.052201787436330277e-01 -6.881091875998585072e-01
3.910736303627446731e-01 -5.465752240010781637e-01 4.129926355917655223e-01 5.302301085997013219e-02 -3.581020779654156549e-01 9.321756605255228090e-01
-3.957218731429797964e-01 -5.257505590578508414e-01 -5.645595291239545455e-02 -8.742363259850631785e-01 -4.277575013871600662e-01 -2.296396445197391445e-01
-3.769788959629969960e-01 -5.675971453196232419e-01 -1.167723626258284630e-01 -8.742363259850631785e-01 -4.277575013871600662e-01 -2.296396445197391445e-01
-3.508477351285432810e-01 -4.858658177823126922e-01 8.378783967226839657e-02 -8.532581660371529875e-01 -4.392011796723574446e-01 2.811633437440304584e-01
-3.315527214022250813e-01 -4.496626351041047576e-01 1.173122446499605537e-01 -8.532581660371529875e-01 -4.392011796723574446e-01 2.811633437440304584e-01
2.095650149184842548e-02 -5.523189753108995736e-01 3.565815677502493508e-01 -6.179483411425460565e-02 -4.175781648206566277e-01 9.065372991453822804e-01
2.322665935344077059e-01 -4.841126005370336438e-01 3.657874311840150217e-01 -2.382490112417178646e-02 -3.808432485404806278e-01 9.243326209366177215e-01
-5.654709031440639799e-02 -4.814495804584913996e-01 3.250684913107195761e-01 -1.783598592261194382e-01 -1.625132999501451014e-01 9.704520534040581570e-01
2.164176643308855508e-01 -5.089853983109218216e-01 -3.642551774940659404e-01 -1.914299008464505694e-02 -3.067119062681497588e-01 -9.516098740996631333e-01
6.783248141856904612e-01 -4.528144393671842405e-01 -1.461276578252093672e-01 7.099875975474925216e-01 3.038599199095485259e-01 -6.352847868486247718e-01
5.841726426679115791e-01 -5.548778827430529414e-01 -1.733903102320999978e-01 7.415893625071591222e-01 -2.199591488796775463e-01 -6.337690354067113674e-01
1.673328919587155697e-02 -4.692978291362617238e-01 -3.073365971385989548e-01 -1.090127125018335169e-01 -6.905996342130792109e-02 -9.916385177902481418e-01
7.415902917817948081e-01 -4.998294397241856424e-01 1.635949143701264513e-02 9.698825429867238279e-01 1.763346922890852153e-01 1.680295483089784825e-01
7.672098660138300108e-01 -4.952415586123005142e-01 3.362892251941638350e-02 9.607618120119452154e-01 2.721868633638512835e-01 5.339524315584514430e-02
6.988594979742364099e-01 -5.585911239056888800e-01 1.372419566205968500e-01 8.912478936937829888e-01 -2.899358031633330057e-01 3.487325938744878506e-01
3.448231284076726522e-01 -5.239299943649902147e-01 3.742361851034902709e-01 8.498202247441631260e-03 -3.441624576626960419e-01 9.388716543245592128e-01
-3.650342652789347886e-01 -5.471508445595376635e-01 -8.719716801535759565e-02 -9.413972459849301311e-01 -6.948424602845792997e-02 -3.300653947414751155e-01
5.583003353068100721e-02 -4.440685567208288442e-01 3.220291948758097766e-01 -2.118332213689581162e-02 -5.742328761550620220e-01 8.184179071879656986e-01
-3.723800166282584811e-01 -4.971099164397304593e-01 1.335736268816277716e-01 -7.843802862951534394e-01 -4.791818549365199909e-01 3.938683998128423291e-01
2.908066702236843937e-01 -5.494025488111948796e-01 -4.452000623845270288e-01 -2.145920452884143848e-02 -3.084220539136038886e-01 -9.510075389820542568e-01
2.274242629846919828e-01 -5.028414929802400568e-01 -3.008663163725963652e-01 -6.774932641634089092e-02 -3.269625490586742789e-01 -9.426057077501632797e-01
1.631826713827137509e-01 -5.330940199815052960e-01 -3.741632263798946312e-01 -6.774932641634089092e-02 -3.269625490586742789e-01 -9.426057077501632797e-01
-4.270804445316874198e-01 -5.331023797792877605e-01 2.251894640569406525e-01 -8.075022323903612298e-01 -2.111623991367853892e-01 5.507727170760914337e-01
-4.641803730759852531e-02 -4.256695918588334626e-01 3.641485724669971669e-01 1.587309704084446244e-02 -1.819532557550494756e-01 9.831790566882868676e-01
3.320271536001441204e-01 -4.537453127490365667e-01 4.223881898208252106e-01 1.283985976850086572e-02 -3.436405099085465542e-01 9.390134918897168337e-01
6.140070557357986125e-01 -5.321302287386199259e-01 2.544117121100309964e-01 6.700697708470485514e-01 -2.726880890262083912e-01 6.903967759920510705e-01
-2.919799355563075793e-01 -5.265476932149847356e-01 -6.456340044248877474e-02 -8.747782526433705019e-01 -3.276559035609049042e-01 -3.569378343127811992e-01
-3.153553733843801887e-01 -5.065867288538122848e-01 -6.809514155560453252e-02 -8.747782526433705019e-01 -3.276559035609049042e-01 -3.569378343127811992e-01
5.519590177246171819e-02 -4.645435093015142236e-01 3.416081537146821168e-01 -1.327557684614438516e-01 -4.048156793435321865e-01 9.047099931457847077e-01
7.159552701192439805e-01 -4.799058354553770167e-01 9.163876382002819621e-02 8.248599457470597862e-01 2.478387883275053605e-01 5.081161332830435029e-01
3.424497455369248655e-01 -4.749834969858048317e-01 -3.270453475785141118e-01 4.708406861280853978e-02 -3.608219503395079797e-01 -9.314454415777974061e-01
7.640563669438267258e-01 -4.760556815274791242e-01 -1.225989458180226088e-01 8.683440017764427754e-01 -3.650562568090817139e-01 -3.357270080637168030e-01
5.219861069094250405e-01 -4.725357488540504747e-01 -3.324152627685639794e-01 2.938513528830112298e-01 -3.416718710812723381e-01 -8.926991177998589988e-01
-1.007519670507415338e-01 -4.703486599388190248e-01 -3.428508992442264036e-01 -2.651396321638893050e-01 -5.096236471393903594e-02 -9.628623021173696728e-01
6.287894185005407643e-02 -4.805280288377437037e-01 3.217975865174153571e-01 -1.443405226511058348e-01 -3.564090666797661844e-01 9.231134224510352260e-01
-4.453110299553798002e-01 -4.878361835903091692e-01 2.851748683013152069e-02 -8.161196901129500469e-01 -5.376857460848590842e-01 2.117609262047902841e-01
-3.744631042800456444e-01 -4.938901415846346232e-01 -8.927945289019410813e-02 -8.161196901129500469e-01 -5.376857460848590842e-01 2.117609262047902841e-01
-1.406575128390856744e-01 -4.990775970621620927e-01 -2.860789282443844672e-01 -6.382671329659816983e-01 -1.334257299562449650e-01 -7.581639938436992576e-01
7.294904955521406276e-01 -5.195954504230727578e-01 5.448325521018300421e-02 8.855721995793935930e-01 2.126602899362193821e-01 4.129618389347349261e-01
-1.741594100753985630e-01 -4.780139152154997961e-01 -2.663272212858298627e-01 -3.035249255070217589e-01 -1.924207587723381629e-01 -9.331917654959427377e-01
-3.110801728150418555e-01 -4.698911106908252311e-01 3.203463762844800389e-01 -6.499643809644608528e-01 -1.365613536700424069e-01 7.475943419805226586e-01
-2.775046586858834763e-01 -5.527150554760096313e-01 2.560446539704657742e-01 -6.499643809644608528e-01 -1.365613536700424069e-01 7.475943419805226586e-01
1.224705006972757471e-01 -4.722252054071585659e-01 -3.060972613223927885e-01 -7.014552915097092833e-02 -2.763567300290034612e-01 -9.584918166097230463e-01
7.370952579289730133e-01 -4.617707867355171358e-01 -9.323744352106176636e-02 8.381896560026231846e-01 4.546540546274708272e-01 -3.012105429446401139e-01
6.282304333506447680e-01 -4.162894305605245870e-01 -2.469023792667714434e-01 7.172075939806789036e-01 -2.112503253472229892e-01 -6.640681946736629593e-01
5.919874956828850010e-01 -4.700098829044417337e-01 2.501490492751891614e-01 7.775291615406495493e-01 -2.488689698637980841e-01 5.775055313958703529e-01
6.841518329808129462e-01 -4.506467179965619185e-01 1.913517720422286961e-01 7.775291615406495493e-01 -2.488689698637980841e-01 5.775055313958703529e-01
6.598050462604355682e-01 -4.882372401992785549e-01 8.348244296994752900e-02 5.436522601875283245e-01 4.337101559199508793e-01 7.185664343989941472e-01
-2.665931002764923008e-01 -5.200347631243114055e-01 -1.976841752480268943e-01 -7.640643496967736148e-01 -1.478696547155175789e-01 -6.279651540784408903e-01
-3.285979751305730945e-01 -4.220743445371435976e-01 -2.804404125973492534e-01 -7.640643496967736148e-01 -1.478696547155175789e-01 -6.279651540784408903e-01
-3.683069027722508659e-01 -4.701265934366994914e-01 2.085339997495610498e-01 -8.027133204114282883e-01 -3.742824374420133937e-01 4.642886841788469998e-01
-2.847553040893468362e-03 -4.303966442188607577e-01 3.392247954606822380e-01 -2.114902184390365647e-01 -2.476006955294302869e-01 9.454976377960713219e-01
-2.182659343051196466e-01 -5.051860518716595472e-01 2.331485114183354523e-01 -6.209046225063551416e-01 -3.145559804052932007e-01 7.180055605226922655e-01
-1.480093409569663843e-01 -3.380239690657541596e-01 3.674549281984110793e-01 -4.407171402231039870e-01 -2.006361247876816967e-01 8.749363106785265076e-01
-2.237433516331030214e-01 -5.167962808167175792e-01 2.184252135746868884e-01 -5.343889542989028740e-01 -1.078534645576240542e-01 8.383293360644387127e-01
6.456858214516567607e-01 -4.575122831667159384e-01 -2.625359023366217737e-01 8.101549475345697360e-01 -1.691255334983217673e-01 -5.612891544508644692e-01
-1.218893325197104305e-01 -5.029656617575907207e-01 -3.396815174926808290e-01 -3.010630738153658448e-01 -8.825697434798890351e-02 -9.495113122358163071e-01
-2.173232961179863421e-01 -4.243505385161325250e-01 -4.023709633143882636e-01 -3.010630738153658448e-01 -8.825697434798890351e-02 -9.495113122358163071e-01
7.531337857161621296e-02 -4.112363035421703894e-01 -3.033023675891545201e-01 -2.726238021164932301e-01 -3.112185959594603868e-01 -9.103951054616722383e-01
1.099628193637601364e-01 -5.237668693735481051e-01 -3.102375872101658660e-01 -2.726238021164932301e-01 -3.112185959594603868e-01 -9.103951054616722383e-01
3.330348867552118675e-02 -4.549570301372800052e-01 -3.586034403958520689e-01 -1.282943802297392966e-01 2.333386494841466208e-03 -9.917333851942934375e-01
-3.552258330484892035e-02 -4.545819366529740280e-01 -4.263039802897007347e-01 -1.282943802297392966e-01 2.333386494841466208e-03 -9.917333851942934375e-01
