-2.135407298255860564e-01 2.163285473795568126e-01 2.863481497170152767e-01 -2.464892640169690785e-01 -8.371745148054471342e-01 -4.882436630255810872e-01
-3.843387425947286662e-01 2.419299304304061982e-01 3.459670740097817165e-01 -6.534182267246499975e-01 -3.400830813117782236e-01 -6.763047528958378019e-01
-3.143476700938967472e-01 2.045231742829677901e-01 2.483433344339176507e-01 -5.542977255670181735e-01 -5.846839613432350813e-01 -5.923670287745707030e-01
-2.616189378598319792e-01 2.362596020806854435e-01 2.555410937964551765e-01 -4.907529293842956553e-01 -7.088839065867982292e-01 -5.066015883146953724e-01
-2.773990415930082665e-01 2.639121268679986976e-01 2.072899446389456779e-01 -7.418256990473591772e-01 -3.572132790504876088e-01 -5.675326470811130619e-01
-2.758933504468182862e-01 2.841635403946752847e-01 2.760027937798161246e-01 -7.418256990473591772e-01 -3.572132790504876088e-01 -5.675326470811130619e-01
3.080853164090484597e-01 -7.778479114885165913e-02 -4.659620627592749309e-01 -8.617114638444606234e-01 -4.969839305455264755e-01 -1.022757344562048448e-01
3.248098291373530677e-01 -1.150397329534547236e-01 -4.438118940570330295e-01 -8.617114638444606234e-01 -4.969839305455264755e-01 -1.022757344562048448e-01
2.919988190597507804e-01 -8.898831873078923149e-02 -4.852763571796090969e-01 -8.365161679083726876e-01 -2.013050263383766025e-01 -5.096243589142854802e-01
3.585409560666687478e-01 -8.479901530630815087e-02 -4.961373831365841203e-01 -8.372801011312954733e-01 -4.087564419918209846e-01 -3.631531403963824123e-01
2.899435086062761568e-01 -1.098284093540818768e-01 -5.330739921135029258e-01 -8.372801011312954733e-01 -4.087564419918209846e-01 -3.631531403963824123e-01
4.427722445311160215e-01 -4.697630251186982880e-02 -6.760492785919920422e-01 -3.677428247295004282e-01 -1.838690404978954307e-02 -9.297457376183188016e-01
4.326929517230366784e-01 -8.850800754840171258e-02 -5.938699390907022924e-01 -1.891482972054760736e-01 -6.345659001441900093e-02 -9.798960061394325072e-01
4.959509927150281688e-02 1.786801586832619249e-01 -2.381806517811870250e-01 -8.904728851388076238e-01 -1.409266022499404414e-01 -4.326635339508691502e-01
7.789286096430890483e-02 2.001789799098036005e-01 -3.030153727938266206e-01 -8.904728851388076238e-01 -1.409266022499404414e-01 -4.326635339508691502e-01
4.609154499288525136e-02 2.306824872014980321e-01 -2.502383954817073430e-01 -9.682337901743121034e-01 -2.353383172710222238e-01 8.449381035750505586e-02
-3.555052075143557699e-01 2.289011515482381187e-01 3.076284401015058623e-01 -5.533944736277586207e-01 -5.556478138433053049e-01 -6.204917916696495173e-01
-5.202574288543243552e-02 -2.252985198283242174e-01 2.240249517965201276e-01 8.061716722236623722e-01 7.136831653829633915e-02 5.873617269609874292e-01
4.752986634789234388e-02 -2.556147448985828796e-01 1.971637101792793056e-01 8.061716722236623722e-01 7.136831653829633915e-02 5.873617269609874292e-01
-1.059270072564233722e-01 -2.559626048244026397e-01 2.368830716397128666e-01 7.678417556418042356e-01 -3.065001902191712424e-01 5.625625935738384209e-01
-9.609995961624409611e-02 -2.340294442893592897e-01 2.311926493488788426e-01 7.772692692280214199e-01 4.853724314616929270e-02 6.272930887085456098e-01
-6.356397691008444650e-02 -2.979553226220276740e-01 2.651118730303379523e-01 7.772692692280214199e-01 4.853724314616929270e-02 6.272930887085456098e-01
-5.676793582123689647e-02 -2.378248361691694124e-01 1.996804889821356677e-01 7.772692692280214199e-01 4.853724314616929270e-02 6.272930887085456098e-01
-7.538401578024468697e-02 -2.427022098179469900e-01 2.314857829415604973e-01 7.772692692280214199e-01 4.853724314616929270e-02 6.272930887085456098e-01
-6.185713967171349581e-02 -2.379376325168763850e-01 2.149003686763913679e-01 7.772692692280214199e-01 4.853724314616929270e-02 6.272930887085456098e-01
-1.283261467132853495e-01 -2.529175515448460199e-01 2.492164082152523719e-01 7.772692692280214199e-01 4.853724314616929270e-02 6.272930887085456098e-01
-5.124962443353189845e-02 -2.326083117783516174e-01 2.294930544768506164e-01 7.772692692280214199e-01 4.853724314616929270e-02 6.272930887085456098e-01
-5.972405136272680021e-02 -2.489166406865288561e-01 2.211719976503584151e-01 7.772692692280214199e-01 4.853724314616929270e-02 6.272930887085456098e-01
-9.647134277753172116e-02 -2.312467827500549744e-01 1.314921847290572710e-01 7.772692692280214199e-01 4.853724314616929270e-02 6.272930887085456098e-01
-5.408968600463365251e-02 -2.767317630611315082e-01 2.255133465447034524e-01 7.772692692280214199e-01 4.853724314616929270e-02 6.272930887085456098e-01
-8.911595871676922243e-02 -2.465491759585710096e-01 2.046250576977373947e-01 7.712225616752932389e-01 -2.240046670555629615e-01 5.958503750945574051e-01
-1.131826352468841557e-01 -2.721405080252508046e-01 2.642437838092265290e-01 7.712225616752932389e-01 -2.240046670555629615e-01 5.958503750945574051e-01
-5.882984525968407152e-02 -2.371829764363461435e-01 2.055762638057583025e-01 7.712225616752932389e-01 -2.240046670555629615e-01 5.958503750945574051e-01
-5.613451454960470544e-02 -3.069136564125673483e-01 2.297891265227107183e-01 7.235320462641247063e-01 -3.993151359096366315e-01 5.630708661104006918e-01
-1.533423415075166885e-01 -2.658580505692241247e-01 2.215636207520766399e-01 7.235320462641247063e-01 -3.993151359096366315e-01 5.630708661104006918e-01
-9.860232408893405964e-02 -3.245582373665510945e-01 2.362408311329377009e-01 6.930161317702873136e-01 -5.422292096220262536e-01 4.750959117260645237e-01
8.909737437087129897e-02 -2.779426063673090530e-01 -3.212797773824986325e-01 9.303160102579145496e-01 -2.546112233777060863e-01 2.639796317671188608e-01
1.265416343727898130e-01 -3.242094000818996902e-01 -2.726887722118083723e-01 9.303160102579145496e-01 -2.546112233777060863e-01 2.639796317671188608e-01
9.278007990177539188e-02 -3.071050434076098568e-01 -3.110765732485801793e-01 8.380325189888188087e-01 -4.410613665702009523e-01 3.211952179539446228e-01
1.249121398138053896e-01 -3.106831948326542192e-01 -2.319569991227923289e-01 8.380325189888188087e-01 -4.410613665702009523e-01 3.211952179539446228e-01
-2.502085341925254780e-01 -2.902798040865093854e-01 5.548388322639617037e-02 9.276367841554787885e-01 -2.030285579290538323e-01 -3.134795070605582712e-01
-3.402039632338808017e-01 -2.773379523844226591e-01 6.661937117979573053e-02 8.875895038156378369e-01 -4.466481579683390657e-01 -1.126512125979982210e-01
-2.831990638212756317e-01 -2.828718522724749107e-01 1.075873538740901580e-01 8.875895038156378369e-01 -4.466481579683390657e-01 -1.126512125979982210e-01
-3.657493877576257213e-01 -3.350298381689561511e-01 1.151529017993849074e-01 8.875895038156378369e-01 -4.466481579683390657e-01 -1.126512125979982210e-01
-2.400418869502790598e-01 -3.219898484592376153e-01 1.104582206596732008e-01 9.613086584178948124e-01 -2.628316502204021132e-01 -8.249355667691531113e-02
-3.355388419128500499e-01 -3.024092636259665401e-01 1.140690645842314943e-01 8.499572834331248217e-01 -5.229635227601454606e-01 -6.388873297602207235e-02
-2.849391733819998662e-01 -2.963639678256563270e-01 7.625032789133978639e-02 8.499572834331248217e-01 -5.229635227601454606e-01 -6.388873297602207235e-02
-2.102599074836726256e-01 -2.858773432237329826e-01 1.300793452388417093e-01 9.453194197614576133e-01 -3.026150470450836294e-01 1.216360469752404139e-01
-3.336826751764241372e-01 -2.484013151159280841e-01 1.711563943281377564e-01 9.453194197614576133e-01 -3.026150470450836294e-01 1.216360469752404139e-01
-2.998982028304045255e-01 -2.926743695326251005e-01 1.710286405728761172e-01 8.331606305804361012e-01 -5.425212351228277941e-01 1.073036490134963022e-01
-3.085822296417886634e-01 -3.045322043525404698e-01 1.825430453338355297e-01 8.991145114669939487e-01 -3.917885004538529947e-01 1.951790618421707091e-01
-2.509846009022521640e-01 -2.278997759697343195e-01 1.306617226110329821e-01 8.991145114669939487e-01 -3.917885004538529947e-01 1.951790618421707091e-01
-3.231468826125535876e-01 -2.417070779224863020e-01 2.186978242304005449e-01 8.662122102457698869e-01 -3.815727084962684534e-01 3.226122672062547436e-01
-3.112367097404718508e-01 -2.890804648616460693e-01 2.515734824129333691e-01 8.662122102457698869e-01 -3.815727084962684534e-01 3.226122672062547436e-01
-9.608038761176239395e-03 -3.752954962820399532e-01 5.170886679844951539e-01 7.357646130697378939e-02 -9.965813271416849028e-01 -3.757875375875832646e-02
-1.596051985384582331e-02 -3.512219281210803290e-01 5.094299803242431368e-01 7.357646130697378939e-02 -9.965813271416849028e-01 -3.757875375875832646e-02
2.892427784225786169e-01 5.690424892549614810e-01 -2.617914034062229778e-01 7.686840257366323037e-01 6.998315915404049181e-02 6.357886645829291528e-01
2.695610875585020549e-01 5.716873451890052138e-01 -3.434252368926251076e-01 7.686840257366323037e-01 6.998315915404049181e-02 6.357886645829291528e-01
3.019770490216511782e-01 5.599984613322753768e-01 -3.549586695015042870e-01 8.030222549300399804e-01 1.833163413315611404e-02 5.956670288651888523e-01
2.762018371724503374e-01 4.931964615739727886e-01 -3.032095315254841883e-01 8.030222549300399804e-01 1.833163413315611404e-02 5.956670288651888523e-01
2.341799657710673943e-01 5.154057919832302215e-01 -2.756496358498129462e-01 8.030222549300399804e-01 1.833163413315611404e-02 5.956670288651888523e-01
3.479131226675781230e-01 5.550810517629758412e-01 -2.149506473004751117e-01 8.030222549300399804e-01 1.833163413315611404e-02 5.956670288651888523e-01
2.630106723557941728e-01 5.577338506867040024e-01 -2.827417997173432562e-01 8.030222549300399804e-01 1.833163413315611404e-02 5.956670288651888523e-01
3.008970663658857014e-01 5.122646196779870875e-01 -3.362259859354408409e-01 8.030222549300399804e-01 1.833163413315611404e-02 5.956670288651888523e-01
2.692117744033353799e-01 5.324063169840100862e-01 -3.030778127523151011e-01 7.847062299044169631e-01 2.070672471829728689e-01 5.842596065904795966e-01
2.633434295513261691e-01 5.102485873946549511e-01 -2.802037543717005863e-01 7.847062299044169631e-01 2.070672471829728689e-01 5.842596065904795966e-01
2.767963158548749636e-01 5.211180416622418488e-01 -2.977728764811138351e-01 7.847062299044169631e-01 2.070672471829728689e-01 5.842596065904795966e-01
2.701018804347462554e-01 4.554374382535268384e-01 -2.180073946394639195e-01 7.936613637512502928e-01 -8.984414323614012265e-02 6.016890140385392494e-01
2.547764946734223934e-01 4.589218899093631676e-01 -2.302863379930328858e-01 7.936613637512502928e-01 -8.984414323614012265e-02 6.016890140385392494e-01
2.832713352803045703e-01 1.653460767930249598e-02 -2.943806209087522774e-01 3.819684417199132320e-01 -6.736198998899601831e-01 6.327213762805088404e-01
3.256071884429644347e-01 6.961455721417511566e-02 -3.012649825898672251e-01 5.755884844368027720e-01 -3.165225475450725301e-01 7.539969320092235749e-01
1.504925690685517126e-01 4.797675814747495160e-01 -1.500578724071921777e-01 7.770900212996960654e-01 3.275523544081861138e-02 6.285365489354256541e-01
2.584406745075188971e-01 5.224049581002190301e-01 -2.113225749189459879e-01 7.770900212996960654e-01 3.275523544081861138e-02 6.285365489354256541e-01
2.632435450016329392e-01 4.749075862029494832e-01 -1.766397782511165415e-01 7.770900212996960654e-01 3.275523544081861138e-02 6.285365489354256541e-01
1.600041135568225636e-01 5.348041428954971588e-01 -7.503209760941051409e-02 7.770900212996960654e-01 3.275523544081861138e-02 6.285365489354256541e-01
2.089684857294918097e-01 5.458254388914478561e-01 -1.494047930190377238e-01 7.770900212996960654e-01 3.275523544081861138e-02 6.285365489354256541e-01
2.237939887542585438e-01 -1.561354586838288316e-01 4.430310508403670355e-01 9.486030364542885618e-01 1.611922799951112928e-01 -2.723404635739636315e-01
1.968178149680883948e-01 -1.439797212432555040e-01 4.879903684878555969e-01 9.486030364542885618e-01 1.611922799951112928e-01 -2.723404635739636315e-01
3.658220359039681124e-01 3.370092582773962508e-01 -3.968641815257754057e-01 8.697947154268562686e-01 2.910998072716418639e-01 3.983943463729465173e-01
3.684838293110322405e-01 3.816020650359646105e-01 -3.880721549021114436e-01 8.697947154268562686e-01 2.910998072716418639e-01 3.983943463729465173e-01
3.455724566295363398e-01 4.878702592139334548e-01 -3.890029701505046122e-01 8.697947154268562686e-01 2.910998072716418639e-01 3.983943463729465173e-01
3.599784699362222895e-01 4.655771956550477930e-01 -3.058286610066924260e-01 8.697947154268562686e-01 2.910998072716418639e-01 3.983943463729465173e-01
3.012638808170462479e-01 4.923724988336914410e-01 -3.006778383759554640e-01 8.620015649921171086e-01 2.675164084471888248e-01 4.305673851589993384e-01
3.073892487187511180e-01 4.294812580895939202e-01 -3.848907945161100241e-01 8.620015649921171086e-01 2.675164084471888248e-01 4.305673851589993384e-01
-8.758403911681791887e-02 3.013497743116123617e-01 1.566481697626285752e-01 8.309440908421077410e-01 -2.076095073975250394e-01 5.161687808582962056e-01
-1.156229561794910043e-01 2.770110653164056802e-01 2.518018951520994420e-01 8.606619357837692608e-01 -3.310021181365228049e-01 3.869090721113557785e-01
-2.577907867884625670e-01 2.639477606005666832e-01 3.594904395337666370e-01 7.015480830740105089e-01 -3.653759952400438271e-01 6.118256853365414694e-01
-2.367113267252837494e-01 3.248760282938789601e-01 3.004255631677023586e-01 7.877470848000757142e-01 -4.553911820861021864e-01 4.148173111951873882e-01
-2.424936815809319024e-01 2.122927556724213405e-01 3.688937138777171887e-01 7.877470848000757142e-01 -4.553911820861021864e-01 4.148173111951873882e-01
-1.863317542097367441e-01 2.529380529278675294e-01 3.412306354394062380e-01 7.282178570773628623e-01 -5.940786548278564894e-01 3.417152389220856623e-01
3.128019974680661397e-01 3.553402522604452440e-01 -4.523853887259940976e-01 4.598250322802454049e-01 4.125416990655296767e-01 7.863652371643835570e-01
2.967809210810375409e-01 3.534281136539133006e-01 -4.250856118450748178e-01 4.598250322802454049e-01 4.125416990655296767e-01 7.863652371643835570e-01
3.776818224331838225e-01 3.531480683302072876e-01 -3.986495452234096182e-01 5.275553616809223190e-01 2.012980927087627131e-02 8.492821269404116080e-01
3.395177858587768438e-01 3.392578184791067986e-01 -3.698391938535725010e-01 4.735984748445044024e-01 -2.449000854469147448e-01 8.460073479427074883e-01
3.217317672728702838e-01 3.150233720470719812e-01 -3.080687906069393134e-01 7.717535362048967285e-01 4.600911197432887012e-01 4.389904792687468471e-01
3.323324051563185111e-01 3.820800216940317129e-01 -3.585979865043234516e-01 6.998372835987933804e-01 -4.429224314284272990e-01 5.603994077643125182e-01
3.747883372632470067e-01 3.886645891651728246e-01 -3.772296784129638425e-01 6.998372835987933804e-01 -4.429224314284272990e-01 5.603994077643125182e-01
1.811991141554217255e-01 2.507853339695297334e-01 -1.458851936725331644e-01 2.197072524435302321e-01 -2.111398363750228713e-01 9.524435378116875572e-01
1.315777933065125360e-01 2.830206764034227662e-01 -1.490275430962932357e-01 2.929325849578992558e-01 -3.090536871886723769e-01 9.048073381140148141e-01
1.354524414313101055e-01 2.780584402671262279e-01 -1.289022280075301508e-01 6.921217443736220609e-01 -2.613956652815595597e-02 7.213072951432937252e-01
1.525580593680667396e-01 3.460463775367786932e-01 -1.358709765869065555e-01 6.921217443736220609e-01 -2.613956652815595597e-02 7.213072951432937252e-01
2.013156572801073352e-01 2.879942140634951797e-01 -7.726544050353545412e-02 2.292722598570936798e-01 -4.987276686826012106e-01 8.358857238584942451e-01
1.734673712308950899e-01 2.941865040478479076e-01 -1.034366449316615477e-01 7.111106900130504949e-01 -1.600228730226248564e-01 6.846271004413628791e-01
1.203990645802285875e-01 3.147586772782264286e-01 -1.209416661907337931e-01 7.111106900130504949e-01 -1.600228730226248564e-01 6.846271004413628791e-01
6.200739772801620864e-02 2.460678688791878288e-01 4.059885378259298072e-03 7.067736997396745213e-01 -1.580952222712102839e-01 6.895482855111083609e-01
1.063960298200816723e-01 3.340848628184610591e-01 -3.463524050215588401e-02 5.706074119793345112e-01 -6.964215798437365379e-01 4.352058875086595169e-01
-3.553724799908902429e-03 2.775961261130517888e-01 9.295046038457262239e-02 7.547030480684336906e-01 -4.207840990950764692e-01 5.033528098510631210e-01
-2.338525799429901769e-02 3.279834923008601577e-01 9.018443814760102040e-02 5.288735993819601022e-01 -6.085032311122238191e-01 5.916219515896563585e-01
-3.030477969828470133e-02 3.354944080222466152e-01 1.610873791329733018e-01 5.992660453715573654e-01 -5.497614260265092367e-01 5.819300484749294622e-01
-9.952176631475551094e-02 2.563505039041636402e-01 1.167549623367121897e-01 5.992660453715573654e-01 -5.497614260265092367e-01 5.819300484749294622e-01
-6.368335434266544914e-02 2.742012181502503365e-01 1.905568008488688347e-01 5.846175430216123958e-01 -7.388722154099988115e-01 3.350972660086822263e-01
-1.377233452342305209e-01 2.928235144497328690e-01 2.517287786541695938e-01 5.812269273477647102e-01 -3.676545215619402840e-01 7.259513838411888464e-01
1.116734413338411475e-01 -1.887097148630901833e-01 5.935209970321945194e-01 8.094449342652819679e-01 -3.717690484933766637e-01 4.545180667196880853e-01
-2.424610427689376235e-01 2.615813471590139327e-01 3.660274639435106003e-01 6.970265360910629093e-01 -3.698341895648542543e-01 6.143099219561749536e-01
-1.598000634075572857e-01 2.452139120030600861e-01 3.257453222266161186e-01 6.970265360910629093e-01 -3.698341895648542543e-01 6.143099219561749536e-01
-2.831144681756143089e-01 -2.944362438161078899e-01 2.789976098012694194e-01 -5.565802568723539068e-01 -7.761758586730233000e-01 -2.962590995616835587e-01
-3.202379739827347360e-01 -2.731446612884709246e-01 3.043696234327132322e-01 -4.941270642446676242e-01 -8.448976744289439234e-01 -2.049057444912373016e-01
-3.960402004459142589e-01 -2.948244044287072207e-01 3.901381283717487158e-01 -7.112253048377888964e-01 -7.022415929206131668e-01 -3.186394405458958107e-02
2.213429353577121839e-01 -2.947833867516466144e-01 -1.105170489906735776e-03 -9.563089954430396000e-01 -2.811826210023758987e-01 8.005897127092220789e-02
6.256138948156791946e-02 -2.814106804194723144e-01 4.937257361694163960e-02 -9.563089954430396000e-01 -2.811826210023758987e-01 8.005897127092220789e-02
2.344003330668821550e-01 -2.406972572932416232e-01 -1.423278146755498769e-02 -9.563089954430396000e-01 -2.811826210023758987e-01 8.005897127092220789e-02
1.803629240753024388e-01 -2.513521479227112665e-01 1.166052078187365670e-01 -9.702962796031998627e-01 -1.891034455056216645e-01 1.508808029077633450e-01
1.872990204489247967e-01 -3.039156803035918952e-01 3.214879646455296586e-02 -9.702962796031998627e-01 -1.891034455056216645e-01 1.508808029077633450e-01
1.413448340952457027e-01 -2.624430960981412597e-01 2.286523095123570853e-02 -9.702962796031998627e-01 -1.891034455056216645e-01 1.508808029077633450e-01
1.684255622213971515e-01 -2.966772665664160202e-01 9.655480590041976008e-02 -9.037026603855092821e-01 -3.870650274574977678e-01 1.830359695018434485e-01
1.028310859604209121e-01 -3.219562298189305172e-01 1.058801109980272992e-01 -8.880775103146901772e-01 -3.167845095210932715e-01 3.331154607650956279e-01
1.951193912289968246e-01 -3.481923702581558033e-01 1.017681936286764371e-01 -8.880775103146901772e-01 -3.167845095210932715e-01 3.331154607650956279e-01
1.620187417459643953e-01 -2.187622067850325536e-01 2.797219318518109898e-02 -8.880775103146901772e-01 -3.167845095210932715e-01 3.331154607650956279e-01
2.297026316669565638e-01 -3.298647619416540944e-01 1.391579262045297416e-01 -8.399827188007080725e-01 -3.727503568852038041e-01 3.943173893681634623e-01
2.143317975678759590e-01 -2.857215915744489299e-01 1.053422170324335438e-01 -7.717869732910577207e-01 -3.869935217178028797e-01 5.045600876076907770e-01
2.737857073015075304e-01 -2.958294265943542944e-01 6.072469788107048849e-02 -7.717869732910577207e-01 -3.869935217178028797e-01 5.045600876076907770e-01
1.391231739230979203e-01 -2.857520850187367234e-01 1.339665631214759789e-01 -7.717869732910577207e-01 -3.869935217178028797e-01 5.045600876076907770e-01
-3.837113277272463097e-01 -1.698901242435074399e-01 4.020208667600813635e-01 -7.245692921755072513e-01 -6.892017627142255076e-01 -5.206802174624956380e-04
-3.848165927403806030e-01 -2.454134292872907075e-01 4.190186360813108468e-01 -7.245692921755072513e-01 -6.892017627142255076e-01 -5.206802174624956380e-04
-4.962495636196655457e-01 5.094594167767436954e-02 4.910757127631767971e-01 -7.781407738365067051e-01 -3.978996290071694364e-02 -6.268282818647241683e-01
-4.505196201566882830e-01 1.333386198540524870e-01 4.157591674930303238e-01 -7.781407738365067051e-01 -3.978996290071694364e-02 -6.268282818647241683e-01
-4.676534998938566834e-01 1.715211226785980370e-01 4.686571182475292030e-01 -7.781407738365067051e-01 -3.978996290071694364e-02 -6.268282818647241683e-01
-4.698432201506487771e-01 3.684956728035621715e-02 4.540332355701572342e-01 -7.781407738365067051e-01 -3.978996290071694364e-02 -6.268282818647241683e-01
-4.196799751470911000e-01 1.182069544008012008e-01 4.333167272414756299e-01 -7.781407738365067051e-01 -3.978996290071694364e-02 -6.268282818647241683e-01
-4.429260728244846512e-01 9.288865248556034404e-02 4.443013806033293545e-01 -7.781407738365067051e-01 -3.978996290071694364e-02 -6.268282818647241683e-01
-4.669781249303807669e-01 1.457392336787947662e-01 4.194392845039138229e-01 -7.781407738365067051e-01 -3.978996290071694364e-02 -6.268282818647241683e-01
-4.381300658054487207e-01 1.717849289932350254e-01 4.826964159515752528e-01 -7.781407738365067051e-01 -3.978996290071694364e-02 -6.268282818647241683e-01
-4.952814636542856586e-01 1.565228997807373845e-01 4.843375066770008730e-01 -7.781407738365067051e-01 -3.978996290071694364e-02 -6.268282818647241683e-01
-3.678935347213094786e-01 1.184062596185594118e-01 4.129205143513700049e-01 -7.781407738365067051e-01 -3.978996290071694364e-02 -6.268282818647241683e-01
-4.905549794443189171e-01 7.320578362224960944e-02 4.468217293357901743e-01 -7.781407738365067051e-01 -3.978996290071694364e-02 -6.268282818647241683e-01
-4.784062787738928013e-01 4.254047537926809036e-02 4.739153801615620387e-01 -7.781407738365067051e-01 -3.978996290071694364e-02 -6.268282818647241683e-01
-4.229128130455092616e-01 1.026770159476943778e-01 5.227865409334283564e-01 -7.781407738365067051e-01 -3.978996290071694364e-02 -6.268282818647241683e-01
-5.278661201313232798e-01 2.247563653462034683e-01 4.145727713293398398e-01 -7.781407738365067051e-01 -3.978996290071694364e-02 -6.268282818647241683e-01
-4.791449495945749315e-01 9.863246423871391277e-02 5.109688789043603796e-01 -7.781407738365067051e-01 -3.978996290071694364e-02 -6.268282818647241683e-01
-4.801631187319463923e-01 1.423886309461327992e-01 4.011116125985185743e-01 -7.781407738365067051e-01 -3.978996290071694364e-02 -6.268282818647241683e-01
-4.641145847204700692e-01 9.093881775702387926e-02 4.880559982744869796e-01 -8.602659503069489677e-01 -4.528037234128087091e-03 -5.098254521120816340e-01
-4.572065067081774736e-01 1.254285961048081099e-01 5.160508685515851068e-01 -8.602659503069489677e-01 -4.528037234128087091e-03 -5.098254521120816340e-01
-4.510946990596265138e-01 1.139663133131147144e-01 4.716816852821887895e-01 -8.602659503069489677e-01 -4.528037234128087091e-03 -5.098254521120816340e-01
-3.243527126899165558e-01 -1.106698589688067252e-01 3.429902691144589011e-01 -7.829180103953218284e-01 -2.355412751792689691e-02 -6.216788496285681198e-01
-4.114388305407890578e-01 -1.405511769256472809e-01 3.488250311911907930e-01 -7.829180103953218284e-01 -2.355412751792689691e-02 -6.216788496285681198e-01
-4.252625105748842338e-01 -1.808104330015463945e-01 4.355577919897679062e-01 -7.829180103953218284e-01 -2.355412751792689691e-02 -6.216788496285681198e-01
-3.565098428661592211e-01 -8.477557742927746554e-02 3.931976809619228130e-01 -7.829180103953218284e-01 -2.355412751792689691e-02 -6.216788496285681198e-01
-3.751813076085208087e-01 -7.973989616703029693e-02 3.989998773800891851e-01 -7.829180103953218284e-01 -2.355412751792689691e-02 -6.216788496285681198e-01
-4.099343168990715602e-01 -9.084822740932863017e-02 3.831639239155034127e-01 -7.829180103953218284e-01 -2.355412751792689691e-02 -6.216788496285681198e-01
-3.346226546130541823e-01 -1.830422377625594010e-01 3.563300361442567898e-01 -7.829180103953218284e-01 -2.355412751792689691e-02 -6.216788496285681198e-01
-4.277153868011546178e-01 -4.561591388685060089e-02 4.320409665059904425e-01 -7.829180103953218284e-01 -2.355412751792689691e-02 -6.216788496285681198e-01
-3.809641821420156060e-01 -1.218232603655439866e-01 3.446157415919627875e-01 -7.829180103953218284e-01 -2.355412751792689691e-02 -6.216788496285681198e-01
-4.279734134185776973e-01 -1.363743907076877537e-01 3.817461082197893263e-01 -7.829180103953218284e-01 -2.355412751792689691e-02 -6.216788496285681198e-01
-3.883780236622005888e-01 -3.669316287354572326e-02 3.393126839929488936e-01 -7.829180103953218284e-01 -2.355412751792689691e-02 -6.216788496285681198e-01
-4.720454975457588631e-01 -6.240779415886396619e-02 4.536922318184781755e-01 -7.829180103953218284e-01 -2.355412751792689691e-02 -6.216788496285681198e-01
-3.920651614788973061e-01 -1.067434816842023210e-01 3.897691755783307954e-01 -7.829180103953218284e-01 -2.355412751792689691e-02 -6.216788496285681198e-01
-4.437117835737728333e-01 -8.342598166999133646e-02 3.678053635247610087e-01 -7.829180103953218284e-01 -2.355412751792689691e-02 -6.216788496285681198e-01
-4.099421565488792774e-01 -1.045779276826262760e-01 3.164871178765761295e-01 -7.829180103953218284e-01 -2.355412751792689691e-02 -6.216788496285681198e-01
-5.052691490340002201e-01 -2.848631157510762152e-02 4.169094789176798765e-01 -7.829180103953218284e-01 -2.355412751792689691e-02 -6.216788496285681198e-01
-4.615578668822448161e-01 5.902126004922025881e-02 4.138010738333685601e-01 -7.792933074923936720e-01 -2.846533610511874438e-02 -6.260125122854880431e-01
-5.078839924968059361e-01 -9.838065564557393894e-03 4.758678032879682940e-01 -7.792933074923936720e-01 -2.846533610511874438e-02 -6.260125122854880431e-01
-4.836093154885566792e-01 1.178985760153417883e-01 5.121250192859720940e-01 -7.792933074923936720e-01 -2.846533610511874438e-02 -6.260125122854880431e-01
-4.533498096257043697e-01 1.879202806042929580e-02 5.197534033195617686e-01 -7.792933074923936720e-01 -2.846533610511874438e-02 -6.260125122854880431e-01
-4.954693769387111257e-01 -1.417446158185228788e-02 4.640923183946585318e-01 -7.792933074923936720e-01 -2.846533610511874438e-02 -6.260125122854880431e-01
-3.955923718183755877e-01 -7.979018445748241317e-03 4.924056553940361347e-01 -7.792933074923936720e-01 -2.846533610511874438e-02 -6.260125122854880431e-01
-4.847135768933880651e-01 5.366828837946312214e-02 4.531762462278508541e-01 -7.792933074923936720e-01 -2.846533610511874438e-02 -6.260125122854880431e-01
-4.760076274264094520e-01 -6.339403050271046058e-02 4.340723841533413729e-01 -7.792933074923936720e-01 -2.846533610511874438e-02 -6.260125122854880431e-01
-5.056545453527424572e-01 -3.888112076260270139e-02 4.935511625749058884e-01 -7.792933074923936720e-01 -2.846533610511874438e-02 -6.260125122854880431e-01
-4.601348728288329193e-01 -5.656002067814772799e-02 4.878635039442681398e-01 -7.792933074923936720e-01 -2.846533610511874438e-02 -6.260125122854880431e-01
-5.631655849008722070e-01 3.386972557092635810e-02 5.379449312742056177e-01 -7.792933074923936720e-01 -2.846533610511874438e-02 -6.260125122854880431e-01
-4.435004958475224357e-01 6.509490848328561285e-02 4.518220602429001143e-01 -7.792933074923936720e-01 -2.846533610511874438e-02 -6.260125122854880431e-01
-4.428317504241247593e-01 5.860685168548888935e-02 4.428774019275923957e-01 -7.792933074923936720e-01 -2.846533610511874438e-02 -6.260125122854880431e-01
-4.636276281824689427e-01 2.846919656832591974e-02 3.989230774507865895e-01 -7.792933074923936720e-01 -2.846533610511874438e-02 -6.260125122854880431e-01
-4.203879515057112326e-01 3.407806451938433234e-02 5.292357800333484796e-01 -7.792933074923936720e-01 -2.846533610511874438e-02 -6.260125122854880431e-01
-4.389516388989031515e-01 -3.477243958845933902e-02 3.326016209061434803e-01 -7.792933074923936720e-01 -2.846533610511874438e-02 -6.260125122854880431e-01
-3.801599830829433535e-01 -1.410478574736725443e-01 3.910408494098941423e-01 -7.955487279253883326e-01 -6.784062697703981126e-02 -6.020796216678144797e-01
-4.573896714098686922e-01 -1.320426114067205225e-01 4.763059408277934281e-01 -7.955487279253883326e-01 -6.784062697703981126e-02 -6.020796216678144797e-01
-4.005051538346460216e-01 -1.799125765046664660e-01 3.985583241247016573e-01 -7.955487279253883326e-01 -6.784062697703981126e-02 -6.020796216678144797e-01
-4.745935986465098511e-01 -1.076787142148464965e-01 3.830633650188719486e-01 -7.955487279253883326e-01 -6.784062697703981126e-02 -6.020796216678144797e-01
-4.140093999738609365e-01 -1.455885982203271312e-01 3.857825688269906905e-01 -7.955487279253883326e-01 -6.784062697703981126e-02 -6.020796216678144797e-01
-4.857408639049758392e-01 -7.137354916308480401e-02 4.398415725565617551e-01 -7.955487279253883326e-01 -6.784062697703981126e-02 -6.020796216678144797e-01
-4.879646269721764074e-01 -1.585085597965121829e-01 3.849327485835286611e-01 -7.955487279253883326e-01 -6.784062697703981126e-02 -6.020796216678144797e-01
-4.327363907760480299e-01 -1.484354810472270358e-01 4.014425100915218203e-01 -7.955487279253883326e-01 -6.784062697703981126e-02 -6.020796216678144797e-01
-4.065935273506799397e-01 -1.412734087973900043e-01 4.181348985100051263e-01 -7.955487279253883326e-01 -6.784062697703981126e-02 -6.020796216678144797e-01
-4.088580534545905865e-01 -9.331871620313292315e-02 4.095521000605017448e-01 -7.955487279253883326e-01 -6.784062697703981126e-02 -6.020796216678144797e-01
-3.983140842806802695e-01 -2.053958796009887622e-01 4.047444100076276752e-01 -7.955487279253883326e-01 -6.784062697703981126e-02 -6.020796216678144797e-01
-4.593307800791341933e-01 -5.498420453619971837e-02 4.405697345100340057e-01 -7.955487279253883326e-01 -6.784062697703981126e-02 -6.020796216678144797e-01
-4.306552123049038339e-01 -2.398716101849301674e-01 4.415600710697974995e-01 -7.955487279253883326e-01 -6.784062697703981126e-02 -6.020796216678144797e-01
-4.017927350632498618e-01 -1.583272184138063976e-01 4.104566945620192198e-01 -7.955487279253883326e-01 -6.784062697703981126e-02 -6.020796216678144797e-01
-4.155081441209960702e-01 -2.042169349434248271e-01 4.061144874371687141e-01 -7.955487279253883326e-01 -6.784062697703981126e-02 -6.020796216678144797e-01
-4.037124281447088125e-01 -9.083247672405085626e-02 4.396805799998831366e-01 -7.955487279253883326e-01 -6.784062697703981126e-02 -6.020796216678144797e-01
-4.469229814605425455e-01 -1.965460505178643069e-01 4.308445586099917679e-01 -7.955487279253883326e-01 -6.784062697703981126e-02 -6.020796216678144797e-01
-3.617975773666592398e-01 -1.755744312739467849e-01 2.658812189788365421e-01 -7.955487279253883326e-01 -6.784062697703981126e-02 -6.020796216678144797e-01
-3.936972522769484617e-01 -1.431431294596861026e-01 3.877188207702774170e-01 -7.955487279253883326e-01 -6.784062697703981126e-02 -6.020796216678144797e-01
-4.561172908191943320e-01 -8.936905384896325077e-02 4.465694908314191136e-01 -7.955487279253883326e-01 -6.784062697703981126e-02 -6.020796216678144797e-01
-4.179800703453989685e-01 -1.058425943380693346e-01 4.022190838485151243e-01 -7.955487279253883326e-01 -6.784062697703981126e-02 -6.020796216678144797e-01
-4.921071490583073249e-01 -4.404189461572363684e-01 1.013400897813578616e-01 1.018919568085811973e-02 -9.893245496475148171e-01 -1.453723349063333614e-01
-5.162288447829102012e-01 -4.011839368795713789e-01 1.066075064586772397e-01 -1.511652965946202742e-01 -9.805438592172308621e-01 -1.252309596579048168e-01
-5.053601856932047331e-01 -4.159872437655935395e-01 7.096920415044619124e-02 -1.511652965946202742e-01 -9.805438592172308621e-01 -1.252309596579048168e-01
-4.881926095340895499e-01 -3.555179947891943248e-01 1.106939424211378920e-01 -2.120295645869185175e-01 -9.729584567203050094e-01 -9.162589829040762579e-02
-4.779290115457988097e-01 -4.169453634168068246e-01 9.433520271027762139e-02 -2.120295645869185175e-01 -9.729584567203050094e-01 -9.162589829040762579e-02
-2.312931503919124776e-01 -3.433437129305850211e-01 -1.910856443212771150e-01 -5.902658225294792338e-01 -3.717850912825125254e-01 7.164929201699421490e-01
-1.862518945055025299e-01 -3.459921099175422010e-01 -1.672695487470895193e-01 -5.902658225294792338e-01 -3.717850912825125254e-01 7.164929201699421490e-01
-1.293718998238558571e-01 -3.562762675946676283e-01 -1.914353393563323624e-01 -5.902658225294792338e-01 -3.717850912825125254e-01 7.164929201699421490e-01
-2.328140305401062427e-01 -3.831441036098887087e-01 -2.053576557699481053e-01 -5.902658225294792338e-01 -3.717850912825125254e-01 7.164929201699421490e-01
-2.137505256314566338e-01 -3.112201923810086202e-01 -9.971947941548651995e-02 -5.902658225294792338e-01 -3.717850912825125254e-01 7.164929201699421490e-01
-2.043204469937498768e-01 -3.787463317732694401e-01 -1.196100932573953141e-01 -4.141723291253693318e-01 -3.094633167937362317e-01 8.559753135142895708e-01
-1.197835123957413372e-01 -2.772333257503166726e-01 -1.913889473914454353e-01 -4.141723291253693318e-01 -3.094633167937362317e-01 8.559753135142895708e-01
-1.686410198358287427e-01 -3.389511265722653932e-01 -1.543467503915237349e-01 -4.832921559612030626e-01 -1.368798332524603090e-01 8.646922014423114033e-01
-1.216137642736631608e-01 -2.516594914862018695e-01 -1.571404315922297346e-01 -2.606264274349281429e-01 -1.626159581293692147e-01 9.516458981596952471e-01
-1.029503581647949889e-01 -2.841374398923862676e-01 -1.822863439581713096e-01 -2.606264274349281429e-01 -1.626159581293692147e-01 9.516458981596952471e-01
-1.854465711275184725e-01 -3.111111563055264373e-01 -1.152851605915261451e-01 -2.606264274349281429e-01 -1.626159581293692147e-01 9.516458981596952471e-01
-6.223612431750653595e-01 -4.021624578933166716e-01 2.054229702335244601e-01 -4.199460797475083051e-01 -9.024535836261347033e-01 9.603551168732579746e-02
-5.663357670124007370e-01 -3.329742055721683913e-01 1.731555346683324170e-01 -4.199460797475083051e-01 -9.024535836261347033e-01 9.603551168732579746e-02
-6.257979039590140236e-01 -3.426537583583633140e-01 1.738393531451550567e-01 -5.064716541138716277e-01 -8.441319327587052390e-01 1.758628547368984996e-01
-5.974811713040336647e-01 -3.803105673831519984e-01 2.372504291489664352e-01 -5.064716541138716277e-01 -8.441319327587052390e-01 1.758628547368984996e-01
-5.874491878570459180e-01 -3.252951408449885062e-01 2.214263189704751555e-01 -4.950522558876240264e-01 -8.511682279748672419e-01 1.744589109982598030e-01
-6.006118163902522955e-01 -3.625521892215007869e-01 2.163990321877396483e-01 -4.950522558876240264e-01 -8.511682279748672419e-01 1.744589109982598030e-01
-5.819098991176019364e-01 -3.917452832413486630e-01 1.557813022747549792e-01 -2.161568561455822490e-01 -9.746898274593531752e-01 5.706096554137955051e-02
-5.203563641438339049e-01 -3.605674460787854363e-01 2.225396411037225963e-01 -3.085700832227123991e-01 -9.405311103376160498e-01 1.420765083573612975e-01
-5.619747463066393500e-01 -4.009425274984581566e-01 1.290569888875177929e-01 -2.513565248692872234e-01 -9.291602681008999109e-01 2.710739633168393059e-01
-5.333271371107066727e-01 -4.290891049252990030e-01 2.224070580012182663e-01 -2.513565248692872234e-01 -9.291602681008999109e-01 2.710739633168393059e-01
-5.451579984217777008e-01 -4.094791907490778482e-01 2.098175846065136740e-01 -3.419715070462031603e-01 -8.626125456931604818e-01 3.727667962430583626e-01
-5.489268145496382090e-01 -3.910534433196197202e-01 2.757868418912069464e-01 -3.419715070462031603e-01 -8.626125456931604818e-01 3.727667962430583626e-01
-5.186812696114063703e-01 -4.082819639143469570e-01 3.032772937493383725e-01 -3.113306943072349231e-01 -8.768076955696132435e-01 3.664443528996994548e-01
-5.188725117934328557e-01 -3.821832345757820160e-01 1.976316576960290561e-01 -3.113306943072349231e-01 -8.768076955696132435e-01 3.664443528996994548e-01
-5.453339886964634342e-01 -4.565832156351209425e-01 2.428776551641170234e-01 -6.485249695308659135e-02 -9.220476045763126294e-01 3.816049901849212223e-01
-4.753826691144562022e-01 -4.576972630437224909e-01 2.146837364071914334e-01 -6.485249695308659135e-02 -9.220476045763126294e-01 3.816049901849212223e-01
-4.757211920288724194e-01 -3.459851699059292574e-01 2.307696872159201995e-01 -6.485249695308659135e-02 -9.220476045763126294e-01 3.816049901849212223e-01
-5.614262258391682359e-01 -3.820878482240194773e-01 2.435932636302024223e-01 -3.787648967275243361e-01 -8.259484792275204601e-01 4.175479166140506626e-01
-5.125545025274025335e-01 -3.908922379433131811e-01 2.743462077060975224e-01 -3.787648967275243361e-01 -8.259484792275204601e-01 4.175479166140506626e-01
-5.754610071972727781e-01 -3.603616457897377834e-01 2.189781824161032286e-01 -3.657310647701207396e-01 -7.477649086460441685e-01 5.541556005849682665e-01
-5.720257890371580611e-01 -4.352304793159016416e-01 2.654751817597354457e-01 -3.657310647701207396e-01 -7.477649086460441685e-01 5.541556005849682665e-01
-5.594628422307089677e-01 -3.171273862867793891e-01 2.507287721242026368e-01 -3.657310647701207396e-01 -7.477649086460441685e-01 5.541556005849682665e-01
-5.118069064488091069e-01 -4.432192555040077031e-01 1.489763663786248249e-01 -1.984142302295440752e-01 -8.736243007710319253e-01 4.443111233637336288e-01
-4.771497081119427386e-01 -4.140262988301062208e-01 3.484970279498605383e-01 -1.984142302295440752e-01 -8.736243007710319253e-01 4.443111233637336288e-01
-5.129495108279227278e-01 -3.900802760317405582e-01 2.675210676489159778e-01 -2.282566400865026768e-01 -7.849876150021412036e-01 5.759282512168255597e-01
-5.111212964368884171e-01 -3.843761208007211994e-01 2.702948214353266820e-01 -2.282566400865026768e-01 -7.849876150021412036e-01 5.759282512168255597e-01
-5.680963704260194591e-01 -4.024459595519633837e-01 2.801009906687873530e-01 -2.282566400865026768e-01 -7.849876150021412036e-01 5.759282512168255597e-01
-5.223395580133012306e-01 -3.489800865300287103e-01 2.521009050621532688e-01 -2.282566400865026768e-01 -7.849876150021412036e-01 5.759282512168255597e-01
-5.499670470206886597e-01 -3.601294322789758695e-01 2.656374395772528318e-01 -3.288323412603484930e-01 -7.501393866424230783e-01 5.737248399267432797e-01
-6.141324760904521840e-01 -3.652205113407284709e-01 2.984745919924311486e-01 -3.288323412603484930e-01 -7.501393866424230783e-01 5.737248399267432797e-01
-4.952056526078643661e-01 -3.425319063974890388e-01 2.834913755989284523e-01 -3.125221926809472472e-02 -7.740177823536154023e-01 6.323921025686597419e-01
-4.446798240790579282e-01 -4.023674161578433828e-01 2.784018511083324876e-01 -3.125221926809472472e-02 -7.740177823536154023e-01 6.323921025686597419e-01
-4.569913081237958474e-01 -3.105576024875073560e-01 2.886140911555018507e-01 2.207147370737053832e-02 -7.948932541286595210e-01 6.063477258051976904e-01
-4.620089390197746892e-01 -3.688492863904254127e-01 3.057674933973003606e-01 1.404857563239476359e-01 -7.233770748447890808e-01 6.760098814803557898e-01
1.885249734102588670e-01 -2.775638921063524056e-01 2.264296615517505940e-01 -4.028020102706089123e-01 -2.803368788831052671e-01 8.712989009863582046e-01
2.789025709573185741e-01 -2.810534119443949264e-01 1.744724947277101479e-01 -4.028020102706089123e-01 -2.803368788831052671e-01 8.712989009863582046e-01
3.396756439037917352e-01 -3.131325045117110406e-01 1.471682452460239543e-01 -4.028020102706089123e-01 -2.803368788831052671e-01 8.712989009863582046e-01
3.311752247196478316e-01 -3.089908191856828856e-01 1.957787541131853770e-01 -3.905699805302172423e-01 -2.450782152375096390e-01 8.873509783195275835e-01
3.012619643657361013e-01 -2.776907039092431639e-01 2.220296327488246457e-01 -3.905699805302172423e-01 -2.450782152375096390e-01 8.873509783195275835e-01
2.889277468202824384e-01 -2.948897575371711710e-01 1.294766146208876090e-01 -4.243329922975791479e-01 -1.557024092270528626e-01 8.920192102240142029e-01
-6.678450545158294560e-02 -3.896025887539859012e-01 5.804621643164579181e-01 -1.309973647678418507e-01 -9.156289039017261322e-01 3.800834129024898145e-01
-7.764436457837153860e-02 -2.755480111792274478e-01 6.341004346252120394e-01 -1.309973647678418507e-01 -9.156289039017261322e-01 3.800834129024898145e-01
-1.392104702989691023e-01 -3.670414143505512095e-01 6.208974981557480177e-01 -1.768801786469083315e-01 -8.461439467573739215e-01 5.027462817044915377e-01
-9.588694293139610192e-02 -3.277618312459743555e-01 5.633448591633443137e-01 -1.768801786469083315e-01 -8.461439467573739215e-01 5.027462817044915377e-01
-8.109313631705705738e-02 -3.034433879869448680e-01 5.984624752040041962e-01 -1.679252953715202334e-01 -8.362255209230026187e-01 5.220421183500816298e-01
-2.367364557161532462e-02 -3.144743677340881005e-01 5.794171622569505020e-01 -1.679252953715202334e-01 -8.362255209230026187e-01 5.220421183500816298e-01
-4.717074822447786531e-02 -3.212376504451543435e-01 6.371568310638692223e-01 -1.753198291846357615e-01 -7.784335073750768830e-01 6.027472373146194329e-01
-1.132066210776194598e-01 -2.952201824070241343e-01 6.241351490450736117e-01 -1.753198291846357615e-01 -7.784335073750768830e-01 6.027472373146194329e-01
-8.874791676416565744e-02 -2.883025222362061157e-01 6.198309126574436112e-01 -1.660635452370806675e-01 -7.691594211668958403e-01 6.171034627787287397e-01
-3.864622570945243363e-02 -3.343810036269889152e-01 6.542735319534674909e-01 8.452862513671846600e-02 -6.193126219481691619e-01 7.805810578205062411e-01
-1.831108360337634355e-01 -4.331479435331799244e-01 -4.375065152447817352e-01 -6.702046239398324889e-01 -7.420109596176112099e-01 1.566837123058696657e-02
-2.513065423459282521e-01 -3.634941857018167410e-01 -3.087941909854233224e-01 -6.702046239398324889e-01 -7.420109596176112099e-01 1.566837123058696657e-02
6.272125309068105059e-02 -3.550215957838332437e-01 -9.530434379503245623e-02 -5.827641476793317121e-01 -7.539353705160473096e-01 -3.032612821716823559e-01
-5.357669120779338101e-01 -3.603427098931513695e-01 1.774644983710212814e-03 -4.539189802750276947e-01 -7.330037242726191726e-01 -5.066192846196726496e-01
-5.827133380465285839e-01 -3.886006000428690044e-01 7.447621702972945235e-02 -4.539189802750276947e-01 -7.330037242726191726e-01 -5.066192846196726496e-01
-6.259018470884368801e-01 -3.873376984718243654e-01 8.592316042714859270e-02 -4.492986598551208521e-01 -7.690552555493802567e-01 -4.546259211310658133e-01
-5.458377758712130712e-01 -3.386786182379148413e-01 7.676157673544500848e-02 -4.492986598551208521e-01 -7.690552555493802567e-01 -4.546259211310658133e-01
-4.797092216014918198e-01 -4.052590767993872189e-01 5.776382208773922500e-02 -3.132855679376306268e-01 -8.933885819995401878e-01 -3.220388089576272095e-01
-5.056999235317257702e-01 -3.000622472484359982e-01 1.057301342693682672e-01 -3.132855679376306268e-01 -8.933885819995401878e-01 -3.220388089576272095e-01
-5.605721251731424770e-01 -3.622234485972153917e-01 9.918347859107881637e-02 -3.752208915798470601e-01 -8.975008187237649704e-01 -2.317359767325657127e-01
-6.196809686572726239e-01 -2.965679525616703449e-01 4.114791646811208348e-02 -3.752208915798470601e-01 -8.975008187237649704e-01 -2.317359767325657127e-01
-2.954757788021295517e-01 -3.420748319241073698e-01 -4.355755322827944420e-01 -9.063120577816378143e-01 -2.336490478752815611e-02 -4.219627177179081090e-01
-2.311868425605020927e-01 -2.746337607680858217e-01 -3.799278793472891658e-01 -9.063120577816378143e-01 -2.336490478752815611e-02 -4.219627177179081090e-01
-2.929603721253264959e-01 -2.920994426349798334e-01 -4.441086186948713932e-01 -9.344639405074599559e-01 -2.089524177595192822e-01 -2.882985102350023032e-01
-2.263734686195252310e-01 -3.092844316765831492e-01 -3.683851978983008202e-01 -9.496898743711330582e-01 -2.098217754577481886e-01 -2.325165909364312888e-01
-2.443358033791521999e-01 -3.637737842294130886e-01 -3.015889917400000342e-01 -8.449842537487097793e-01 -4.864115499787352026e-01 2.222732889125917932e-01
-2.187887534456241512e-01 -3.596550479755569740e-01 -2.750080333771964258e-01 -8.449842537487097793e-01 -4.864115499787352026e-01 2.222732889125917932e-01
-2.332870506771805297e-01 -3.634984012852905400e-01 -2.607972958736043401e-01 -8.704690109179424873e-01 -3.268593845250505336e-01 3.680307647187175957e-01
-2.611144181658128227e-01 -3.784036386924792272e-01 -2.955785395540866389e-01 -8.351279194846622511e-01 -4.028289943081895252e-01 3.745532798439653033e-01
-3.060115143098890433e-01 -3.287796133015362665e-01 -2.469733047893278022e-01 -8.351279194846622511e-01 -4.028289943081895252e-01 3.745532798439653033e-01
-1.992259392392934647e-01 -3.705799851851814819e-01 -2.617121476944091474e-01 -7.630212979967845310e-01 -4.551547164035619764e-01 4.589473640178087788e-01
-2.252547923542067287e-01 -3.172981099438773045e-01 -2.795278904008709486e-01 -7.630212979967845310e-01 -4.551547164035619764e-01 4.589473640178087788e-01
-6.435156469098523013e-01 -3.051230128940378705e-01 1.106441950125316848e-01 -7.755221770605229548e-01 -6.227426524381877160e-01 -1.037156773181245745e-01
-5.938525279079394092e-01 -3.706681776744328305e-01 1.615785924858236799e-01 -7.176119581303330719e-01 -6.904620796846908659e-01 9.107795598189755149e-02
-6.197884120971450805e-01 -3.684501288891805504e-01 1.422413054400592791e-01 -6.424269693397897107e-01 -7.656875811346606220e-01 3.178234039596711247e-02
-5.961510821847012531e-01 -3.549171362071948388e-01 1.439116068673111926e-01 -6.424269693397897107e-01 -7.656875811346606220e-01 3.178234039596711247e-02
-6.697476588962454347e-01 -3.113409656411377791e-01 1.430626950302353317e-01 -7.281544702201125929e-01 -6.734141972011568056e-01 1.276886310772747113e-01
-5.939760145766669330e-01 -3.545133991908724913e-01 1.877309980769119313e-01 -7.281544702201125929e-01 -6.734141972011568056e-01 1.276886310772747113e-01
-6.023430795856463682e-01 -2.980467611018545737e-01 1.610511991925995812e-01 -7.281544702201125929e-01 -6.734141972011568056e-01 1.276886310772747113e-01
-6.348128152119836276e-01 -3.965490522136606022e-01 1.683567002916453725e-01 -6.401051894314356838e-01 -7.113073144666354208e-01 -2.903571091762848777e-01
-6.054418267780771190e-01 -4.314152087091603915e-01 6.173657587414951853e-02 -6.401051894314356838e-01 -7.113073144666354208e-01 -2.903571091762848777e-01
-6.053750387042082792e-01 -3.508543085732391820e-01 9.902450196301042229e-02 -6.401051894314356838e-01 -7.113073144666354208e-01 -2.903571091762848777e-01
-1.792154554362204999e-01 -1.122929834544244276e-01 4.817093814584524347e-01 -9.882855194247426311e-01 -1.520751309634499893e-01 1.284081920347157797e-02
-2.840491637507296385e-01 -1.046638703176128865e-01 5.587633977602282087e-01 -9.866034496291018474e-01 2.037399989652064272e-02 1.618596098727936861e-01
-2.794881263893060352e-01 -3.862129524945729919e-01 -3.615130808269343410e-01 -8.337790047991208153e-01 -5.498342319251252608e-01 -4.994885944138521827e-02
-2.556631014308443639e-01 -2.987571787365260745e-01 -4.050085604024167840e-01 -8.337790047991208153e-01 -5.498342319251252608e-01 -4.994885944138521827e-02
-2.350672744170457795e-01 -4.010835420853264832e-01 -3.490592707129457906e-01 -8.337790047991208153e-01 -5.498342319251252608e-01 -4.994885944138521827e-02
-2.506028482466461926e-01 -3.963758267376463751e-01 -4.355082013580686140e-01 -8.337790047991208153e-01 -5.498342319251252608e-01 -4.994885944138521827e-02
7.739663155033349451e-02 5.576640245287447506e-01 -2.567587587099343094e-01 -5.706870929185789976e-01 -1.034437087033932140e-01 8.146260744082702843e-01
9.969422290783663820e-02 5.465422631954161004e-01 -2.718814275785821910e-01 -5.706870929185789976e-01 -1.034437087033932140e-01 8.146260744082702843e-01
