4.441709410396861291e-01 5.593168727603070600e-01 1.022247818555527266e-01 2.175945789121221663e-01 -1.727104675513498055e-01 -9.606371290067079460e-01
4.573961497289597000e-01 5.668201431839756665e-01 1.616941555547758147e-01 1.857530507959566368e-01 -1.531383203962911888e-01 -9.705897480121030707e-01
4.721277724958930500e-01 5.983768735371963743e-01 1.246614389842105181e-01 1.743549345123709959e-01 -1.672556492115317428e-01 -9.703741054964399870e-01
4.160706789298274089e-01 6.202862340077024417e-01 1.419934362591425969e-01 1.951441002764462695e-01 -1.747560264119841777e-01 -9.650798471421886404e-01
5.243205937996928689e-01 5.956203009391530800e-01 1.320345292496456213e-01 1.481247683621964573e-01 -1.257727809060720237e-01 -9.809384591200401848e-01
4.969139077679391447e-01 5.653673375226293540e-01 3.280694539119249908e-02 1.545298998416249070e-01 -1.806841127538960368e-01 -9.713257751410053764e-01
5.259330678955655980e-01 5.168116431590218385e-01 1.491733393431313170e-01 1.545298998416249070e-01 -1.806841127538960368e-01 -9.713257751410053764e-01
4.597331988709344452e-01 4.638631980750568817e-01 1.400575954969635051e-01 1.843873344598633279e-01 -1.761686394369915976e-01 -9.669363584898986730e-01
4.755513572831360780e-01 4.902827797321941405e-01 1.302959774584245556e-01 1.639109735471920570e-01 -1.745346912561143438e-01 -9.709123721010792796e-01
5.307675491350906105e-01 4.771429618484508417e-01 1.291191203481032446e-01 1.531319273336633202e-01 -1.632767475104244803e-01 -9.746236794545343196e-01
4.962333345683527241e-01 4.612574937749168713e-01 1.668217635951347588e-01 1.531319273336633202e-01 -1.632767475104244803e-01 -9.746236794545343196e-01
4.998774484389521544e-01 4.402529831989004938e-01 9.658396394599802481e-02 2.330975514000384052e-01 -2.010243208898316314e-01 -9.514487657998661474e-01
4.667921057312400812e-01 4.638370345273080120e-01 8.315231005434728373e-02 1.768099107772117262e-01 -1.559938634862199358e-01 -9.718045945588016377e-01
4.403500639078427592e-01 4.932968415351785541e-01 1.332741712134344059e-01 1.809024790436810914e-01 -1.708325623798652992e-01 -9.685507362583438695e-01
4.575972220637936072e-01 4.537222447566194861e-01 1.069217593857920701e-01 1.974171902675584678e-01 -1.450691808341388611e-01 -9.695263718739034475e-01
5.008287069572653349e-01 4.307476232004309735e-01 1.777790218425890634e-01 1.791800253253776898e-01 -1.705961791681594730e-01 -9.689125152342816794e-01
5.501417769197134433e-01 4.022648339517351790e-01 1.703519511868587799e-01 1.810510318449223555e-01 -1.712218545676750248e-01 -9.684542324685739834e-01
4.859237136429366832e-01 4.117933388983485155e-01 1.619504743852010209e-01 1.810510318449223555e-01 -1.712218545676750248e-01 -9.684542324685739834e-01
4.599981505763460210e-01 4.562235604044381776e-01 1.741425411032221371e-01 1.810510318449223555e-01 -1.712218545676750248e-01 -9.684542324685739834e-01
4.947292305699710901e-01 4.383700054224161646e-01 1.677068684942167598e-01 1.814798841815230546e-01 -1.738537601558462486e-01 -9.679049135721619068e-01
4.953400571164365274e-01 3.246377755647636976e-01 1.747103852465922980e-01 1.775559498500683953e-01 -1.695176496554574586e-01 -9.694006659416577465e-01
4.952422396170426122e-01 3.268420720880752528e-01 2.003081517156609370e-01 1.775559498500683953e-01 -1.695176496554574586e-01 -9.694006659416577465e-01
5.011809262721874658e-01 2.943415407367434011e-01 1.512511773668206994e-01 1.747590088436121181e-01 -1.732913042745432286e-01 -9.692416688787300894e-01
4.957318328629515269e-01 3.452870322802022995e-01 1.392042397650898322e-01 1.774222637188553608e-01 -1.507032705657846416e-01 -9.725275649448980042e-01
5.334755483513643481e-01 3.194507669473174993e-01 1.758376894001269508e-01 1.774222637188553608e-01 -1.507032705657846416e-01 -9.725275649448980042e-01
3.717720745920728431e-01 2.945564890258364765e-01 1.203751158411588557e-01 2.644456878565658031e-01 -1.773299461114420106e-01 -9.479570498636425979e-01
4.214086614047053980e-01 2.843535601926455159e-01 1.606363684083456089e-01 2.835115126430610699e-01 -1.661059291547645200e-01 -9.444734207474956289e-01
3.881097025553955637e-01 2.659715687442164578e-01 1.856839543154804872e-01 2.835115126430610699e-01 -1.661059291547645200e-01 -9.444734207474956289e-01
3.733085640368600799e-01 2.485444338129879360e-01 1.502484562601312246e-01 3.133068840763751917e-01 -1.634396734542750695e-01 -9.354818381622984624e-01
3.675982107941787591e-01 2.712565378188488419e-01 9.159988753825257235e-02 3.133068840763751917e-01 -1.634396734542750695e-01 -9.354818381622984624e-01
3.582873344666223647e-01 2.837690576287768551e-01 1.460564530057480992e-01 3.228149737947111908e-01 -1.708960016228806278e-01 -9.309054996739638543e-01
3.109550028760412754e-01 2.333975724267646767e-01 1.523276149857864803e-01 3.898811215711101008e-01 -1.689155966705420953e-01 -9.052404278664800685e-01
2.579674816460708064e-01 2.726124494218886141e-01 1.132286147709578306e-01 4.745802693478040624e-01 -1.529430387487025478e-01 -8.668229316556401720e-01
2.846055170865542383e-01 2.471052436015999110e-01 1.003688976645847608e-01 4.659988135626575989e-01 -1.571517691626515278e-01 -8.707171912895966814e-01
2.955358800093620397e-01 2.689396924583158932e-01 1.440263889132760156e-01 5.001556399665120223e-01 -1.519107461331246356e-01 -8.525065753523348722e-01
2.858753669629665040e-01 2.566808253225483227e-01 5.738219505576245411e-02 4.889780265942639259e-01 -1.524110564795957690e-01 -8.588779653540733472e-01
2.753950080611184958e-01 2.683799058750713229e-01 6.026102464610278570e-02 5.035513637312372115e-01 -1.569206864116954037e-01 -8.495951519756298476e-01
1.993032504821162232e-01 2.756225551616080516e-01 8.244572933564492390e-02 5.035513637312372115e-01 -1.569206864116954037e-01 -8.495951519756298476e-01
2.622458091006562575e-01 3.825674817777183767e-01 1.309151810997699894e-01 4.209215220241014910e-01 -1.550240641870320457e-01 -8.937519856312761135e-01
2.763212437972316637e-01 3.323406721555628440e-01 7.968316401194337761e-02 4.209215220241014910e-01 -1.550240641870320457e-01 -8.937519856312761135e-01
3.157900262097719790e-01 3.561150946728364741e-01 1.390413194236085059e-01 4.532241799448523678e-01 -1.555023416919308898e-01 -8.777282406540433124e-01
3.120328992446164684e-01 4.151189013167241315e-01 1.162602479169671660e-01 4.000282447068811420e-01 -1.619778309246380221e-01 -9.020757095309024365e-01
2.886441314546235315e-01 3.860543905425942723e-01 9.067619060987067159e-02 4.203404812044744254e-01 -1.562374822273377151e-01 -8.938141467934220818e-01
3.642487560216038922e-01 4.619491211392323660e-01 1.106820348999635467e-01 4.102116680618323463e-01 -1.571752902719361633e-01 -8.983442077031841277e-01
3.211123175157075682e-01 3.554004905171034290e-01 1.257277457746942551e-01 4.102116680618323463e-01 -1.571752902719361633e-01 -8.983442077031841277e-01
3.418131027131365851e-01 3.689654866514023857e-01 9.001449165314476253e-02 4.102116680618323463e-01 -1.571752902719361633e-01 -8.983442077031841277e-01
3.669073614070059164e-01 3.913739103354055282e-01 1.155626133658437804e-01 3.604630347856082606e-01 -1.663471983986697378e-01 -9.178207941303481165e-01
3.703496212318130310e-01 4.248584271015981573e-01 1.343555409195480721e-01 3.739965275106943432e-01 -1.616646595691110799e-01 -9.132311510545102484e-01
3.339007516689391775e-01 4.778930470676376885e-01 1.543321220013171569e-01 3.384740961590616548e-01 -1.651630874843255659e-01 -9.263673357593904534e-01
3.440416286352280806e-01 4.736796723495473316e-01 1.358363816224442411e-01 3.750748141042505868e-01 -1.577003625750256210e-01 -9.134820630249766982e-01
3.627530842453930426e-01 4.691942254012728131e-01 1.201513781505257616e-01 3.374679274931899897e-01 -1.659607983450531732e-01 -9.265918256309644274e-01
3.468655708864327170e-01 4.579752926166635318e-01 1.110235888552198597e-01 3.374679274931899897e-01 -1.659607983450531732e-01 -9.265918256309644274e-01
3.968229257512617680e-01 4.428705401444795187e-01 1.621655705645485557e-01 2.949181596494790947e-01 -1.663306971098254261e-01 -9.409343113671240211e-01
3.527345770121355639e-01 4.287194218595326012e-01 1.657256329231616143e-01 3.190737970273745949e-01 -1.594916658500889484e-01 -9.342132093772264056e-01
4.299795917327671191e-01 4.528029515845117814e-01 7.092584919437230906e-02 2.916811676327256131e-01 -1.683255748739352076e-01 -9.415883374871255596e-01
4.244645192658476063e-01 5.320308076779826090e-01 1.390528939334050307e-01 2.635848338276479685e-01 -1.643000976590172635e-01 -9.505411686430464968e-01
4.161215728944500092e-01 5.311399750932660480e-01 8.162926276931053993e-02 2.664853775830903215e-01 -1.704005716932920911e-01 -9.486565177665712278e-01
4.325436811799879822e-01 5.730647993732758128e-01 1.331256179463932432e-01 2.639739066874531304e-01 -1.684604887000171747e-01 -9.497046068831693777e-01
4.769442014530217433e-01 4.634847674105897486e-01 1.349662480458412861e-01 2.104911711722615708e-01 -1.699658846646807109e-01 -9.627071542835246021e-01
4.476267762146629026e-01 5.232787718116005404e-01 1.361364968721073543e-01 2.348521793512861888e-01 -1.668584660612691950e-01 -9.576025825767345845e-01
4.476563544892011026e-01 4.442191417703468259e-01 1.594948709325057501e-01 2.207892456036162909e-01 -1.688296525323509656e-01 -9.605980727919413154e-01
4.843120724467470661e-01 3.898781866442913580e-01 1.693247822050887863e-01 2.207892456036162909e-01 -1.688296525323509656e-01 -9.605980727919413154e-01
4.904219247623194944e-01 3.835954446925840533e-01 1.496222385589400516e-01 2.207892456036162909e-01 -1.688296525323509656e-01 -9.605980727919413154e-01
4.648364885927185330e-01 4.099413329806502193e-01 1.638244868930532339e-01 2.175069249748427525e-01 -1.666261324249022069e-01 -9.617309756793253062e-01
4.593948504380134801e-01 3.827753578651850175e-01 1.506092234067944735e-01 2.197860754435542463e-01 -1.700739948617932262e-01 -9.606086181754101005e-01
4.375996744721787346e-01 4.299786336803990694e-01 1.357641259424507418e-01 2.197860754435542463e-01 -1.700739948617932262e-01 -9.606086181754101005e-01
3.732299299878618082e-01 3.510389333190044314e-01 1.444842336465568533e-01 2.172585059859617196e-01 -1.948716242982419800e-01 -9.564642134550109809e-01
5.195824953553609404e-01 3.555728936513081195e-01 1.400293464468120586e-01 1.842316020576938718e-01 -1.511449961278382159e-01 -9.711920031326304326e-01
4.461184314948601348e-01 3.459114798021550863e-01 1.385561774612160957e-01 1.842316020576938718e-01 -1.511449961278382159e-01 -9.711920031326304326e-01
4.128921472663674708e-01 3.287226473348314748e-01 2.055533065553988570e-01 2.149905259009768921e-01 -1.719492489266996049e-01 -9.613597295322731107e-01
5.318694334811110425e-01 2.789674545502507375e-01 1.231608559729491514e-01 2.149905259009768921e-01 -1.719492489266996049e-01 -9.613597295322731107e-01
4.437983010885007684e-01 3.172134791399982556e-01 1.383479135272826510e-01 2.149905259009768921e-01 -1.719492489266996049e-01 -9.613597295322731107e-01
4.315577849807118449e-01 3.774266387887782459e-01 1.742757498930148086e-01 2.008158481405587226e-01 -1.785231743476929367e-01 -9.632250367159334026e-01
4.406676488332611497e-01 3.406225337551287979e-01 2.193296216984391700e-01 2.008158481405587226e-01 -1.785231743476929367e-01 -9.632250367159334026e-01
3.119954666910870200e-01 2.830194082489467244e-01 1.474481646585735772e-01 4.634145076768837468e-01 -1.495096291241189979e-01 -8.734379570832491169e-01
3.055096356035720273e-01 3.130683644522532783e-01 6.519625246434382349e-02 4.533728033366651311e-01 -1.559454226181919978e-01 -8.775728609973574290e-01
3.533334369816056864e-01 3.545794214409648815e-01 1.318142505041254020e-01 3.833453707456916937e-01 -1.536771173939777968e-01 -9.107302950475106851e-01
3.181665522449895755e-01 3.002191051089505014e-01 7.805459914739464045e-02 4.255292457157464070e-01 -1.583261042478705249e-01 -8.909869279368133332e-01
3.404816061713449304e-01 4.171386263705627040e-01 1.504223785578163441e-01 3.782093491647063321e-01 -1.631228195346810794e-01 -9.112346755646786312e-01
2.907602028133356442e-01 4.675894429608797864e-01 1.194619463570875534e-01 3.782093491647063321e-01 -1.631228195346810794e-01 -9.112346755646786312e-01
3.659560160915825144e-01 3.742181448098680918e-01 1.257097023534618219e-01 3.427579704665618676e-01 -1.672350259814471551e-01 -9.244184224509095493e-01
3.250258754083066304e-01 4.160247757632941634e-01 1.474964794719873518e-01 3.700648928117533099e-01 -1.597025227122229607e-01 -9.151759827200326436e-01
3.635104644950944430e-01 3.763678493680384096e-01 1.697456249650226290e-01 3.805330324964286692e-01 -1.572280277351961186e-01 -9.113034392964685093e-01
3.800824483837779155e-01 3.826273933237829272e-01 9.452047232650388764e-02 3.308504892459895319e-01 -1.669290348479810226e-01 -9.288017286215668467e-01
3.639890618189502991e-01 4.040218229157168661e-01 1.392255904520967036e-01 3.308504892459895319e-01 -1.669290348479810226e-01 -9.288017286215668467e-01
3.420297932524796747e-01 4.546498345979318456e-01 7.531792889339611330e-02 3.448520490506632452e-01 -1.641657199419362112e-01 -9.241897427809425691e-01
3.483397964842320782e-01 4.113430683982051139e-01 9.167842824873759233e-02 3.226635495626166694e-01 -1.526813812922332425e-01 -9.341181025921446723e-01
3.681575855409760512e-01 4.731315535982421050e-01 1.322936922397325299e-01 3.040154594601280347e-01 -1.704586383382489245e-01 -9.372931521275066347e-01
4.247207492274939211e-01 4.661706586490686477e-01 1.464395650058787357e-01 2.948505933745566021e-01 -1.662710962786987656e-01 -9.409660196462736881e-01
4.101935637915219424e-01 4.407275325132357091e-01 1.413176290713130945e-01 2.527190857408144753e-01 -1.787611511798389008e-01 -9.508824924937809842e-01
3.949530006573259699e-01 4.725572162746770610e-01 1.209824993548474087e-01 2.527190857408144753e-01 -1.787611511798389008e-01 -9.508824924937809842e-01
4.827293110133009657e-01 4.045806309931587741e-01 1.413896032591201168e-01 2.520672985348419992e-01 -1.778184993967991678e-01 -9.512321789561248853e-01
4.412812801451236888e-01 4.322214674211187213e-01 1.498203572322999722e-01 2.606076546491847834e-01 -1.649726260028636926e-01 -9.512453327128446157e-01
4.410809818843148822e-01 4.093845326674497853e-01 1.569697209373688562e-01 2.606076546491847834e-01 -1.649726260028636926e-01 -9.512453327128446157e-01
4.708449731616095590e-01 3.461561985773473071e-01 1.459809256562169533e-01 2.987036123436856427e-01 -1.640805388104143447e-01 -9.401349524172140093e-01
3.043836937507417018e-01 3.740764208668973523e-01 1.347819697824318708e-01 2.987036123436856427e-01 -1.640805388104143447e-01 -9.401349524172140093e-01
3.615348606627466488e-01 3.999997937045329244e-01 1.138494215717003877e-01 2.987036123436856427e-01 -1.640805388104143447e-01 -9.401349524172140093e-01
4.470100766585542451e-01 3.451446213333448365e-01 1.590182063005369517e-01 2.623633955297240417e-01 -1.668434919020586882e-01 -9.504360567108346425e-01
4.170649799979148642e-01 3.730603237282507090e-01 1.743225631932839303e-01 2.623633955297240417e-01 -1.668434919020586882e-01 -9.504360567108346425e-01
3.866814836626445984e-01 3.686595981002684375e-01 1.058446124401078992e-01 2.693846644616185726e-01 -1.114719252726154575e-01 -9.565594139565600784e-01
3.261255019129286614e-01 3.452112920254191142e-01 1.687557327035863197e-01 3.010189570569115625e-01 -2.158591240183550530e-01 -9.288662046120516047e-01
4.405535436235374358e-01 3.238750397328605257e-01 1.024806895373849835e-01 2.679694931704812433e-01 -1.611238463455322290e-01 -9.498586509943344192e-01
3.978896979243708443e-01 3.176503530743642889e-01 1.228982803979609129e-01 2.565126058231999018e-01 -1.546354633270421719e-01 -9.540907485849668968e-01
3.970500789050884771e-01 2.827906722774073955e-01 1.363920920859799379e-01 2.671272614302706017e-01 -1.747263848811088371e-01 -9.476886179685510836e-01
4.133994996503258523e-01 2.908148554435638911e-01 1.324009525211718719e-01 2.484018183319017525e-01 -1.657127594301441020e-01 -9.543771885431104884e-01
3.144620804564110528e-01 3.475776623113566721e-01 1.180282080638021119e-01 4.210208481083160814e-01 -1.489801873348164385e-01 -8.947325573822811906e-01
3.276577035287669415e-01 3.039720165287376763e-01 1.096343957202452341e-01 4.656584585669886200e-01 -1.579221843050196694e-01 -8.707598886428723484e-01
2.787476987891805980e-01 3.032668828109242876e-01 1.284754181157671538e-01 4.656584585669886200e-01 -1.579221843050196694e-01 -8.707598886428723484e-01
2.925212779195172086e-01 3.267759650992229092e-01 1.619107577108853113e-01 4.432610864498126579e-01 -1.721987876416219976e-01 -8.796972131217007940e-01
3.458172160941707651e-01 3.374338970798467230e-01 6.737863920542415397e-02 4.319679289229670371e-01 -1.566107773025259831e-01 -8.881873523163347217e-01
3.049724032251005523e-01 2.632644138534332434e-01 9.257626152640938133e-02 4.086851878941912819e-01 -1.586656171836065277e-01 -8.987778586055816810e-01
4.036311192996016040e-01 4.424512585509639551e-01 1.384946835947036270e-01 3.056516510953767307e-01 -1.656419539200547075e-01 -9.376245577437786194e-01
4.177625432364168168e-01 3.989543285159162789e-01 1.631757256054821303e-01 3.024264480821082235e-01 -1.637540068006913541e-01 -9.390009950778321901e-01
4.121360368378267358e-01 3.457567234776711684e-01 1.799159022891893278e-01 3.032790763647866816e-01 -1.588574693943089478e-01 -9.395669780579551933e-01
3.804180543788249214e-01 2.501884875741414715e-01 1.395077127489935953e-01 3.238017884507171651e-01 -1.567995428939409353e-01 -9.330414273462718233e-01
3.840716660271970562e-01 2.740127710300730435e-01 1.236028314361272418e-01 3.238017884507171651e-01 -1.567995428939409353e-01 -9.330414273462718233e-01
3.906784876168576948e-01 3.432449380281881735e-01 1.329302477621184253e-01 3.170038748766419445e-01 -1.648838524854766840e-01 -9.339817227883755457e-01
3.696972123990376335e-01 3.823573199058675764e-01 1.534119119893993244e-01 3.170038748766419445e-01 -1.648838524854766840e-01 -9.339817227883755457e-01
3.130063200043469163e-01 3.466053657073969729e-01 1.768390860542717324e-01 3.183314054755244649e-01 -1.655012028398767376e-01 -9.334208419285114910e-01
3.936059486062093993e-01 3.288531947012745538e-01 1.657842157608771794e-01 3.183314054755244649e-01 -1.655012028398767376e-01 -9.334208419285114910e-01
3.557471102808185126e-01 2.523322010774669000e-01 8.829601952451458791e-02 3.532985768420174311e-01 -1.639168037701609904e-01 -9.210382169286893683e-01
3.967582293474036237e-01 2.602633653601285624e-01 9.154544012165931333e-02 3.372056567175945041e-01 -2.026366136655827765e-01 -9.193643172756930104e-01
3.559267057204988927e-01 2.733567200420558563e-01 1.165219843927256665e-01 3.910545784660737212e-01 -1.545975159707824453e-01 -9.072904301911184355e-01
2.996728750603052660e-01 3.302612170370432532e-01 1.132412166125418285e-01 3.910545784660737212e-01 -1.545975159707824453e-01 -9.072904301911184355e-01
3.578545097375641637e-01 3.162341742650039422e-01 4.815549106109513755e-02 3.751361423717247678e-01 -1.692555733242344373e-01 -9.113865401601812799e-01
3.426621611160232117e-01 3.071441425300804884e-01 5.377348451493402237e-02 3.751361423717247678e-01 -1.692555733242344373e-01 -9.113865401601812799e-01
3.553524615368880424e-01 3.746616193498414904e-01 1.710037523789084135e-01 3.751361423717247678e-01 -1.692555733242344373e-01 -9.113865401601812799e-01
3.047335151319318647e-01 2.553556798471274258e-01 1.179180032671533485e-01 3.840837766357468874e-01 -1.539572195091006568e-01 -9.103718070581098276e-01
3.658814428896924875e-01 2.666473617106351890e-01 1.070328132851114666e-01 3.840837766357468874e-01 -1.539572195091006568e-01 -9.103718070581098276e-01
3.768650791648096576e-01 4.621756941381121586e-01 1.186772646347907800e-01 2.836435978155261717e-01 -1.687940974152804252e-01 -9.439570234369913937e-01
4.619951796495654350e-01 5.260799644236116013e-01 1.642724952315089970e-01 2.372928251896349872e-01 -1.821561425851849769e-01 -9.542071341338875801e-01
4.594020604459888579e-01 5.206647817625351671e-01 1.257079031023086435e-01 2.241478010391906028e-01 -1.613946793782143896e-01 -9.610980807168947315e-01
4.270542706161422619e-01 4.796567920615964487e-01 2.000099927887965534e-01 2.640829862274861051e-01 -1.773533863777131958e-01 -9.480537710096041959e-01
4.391829189088372054e-01 4.642976631879668359e-01 1.631976338861598486e-01 2.553595911515891270e-01 -1.560528630082371748e-01 -9.541692633667391288e-01
4.436928778275239238e-01 4.630558011481219483e-01 1.073719337748650499e-01 2.499678396317102091e-01 -1.597054696982323219e-01 -9.549922733186496648e-01
3.751912703346021449e-01 5.062654298601412250e-01 8.480081651130358389e-02 2.499678396317102091e-01 -1.597054696982323219e-01 -9.549922733186496648e-01
5.050528077614488964e-01 5.953361227630731278e-01 1.610986936860783203e-01 1.937852072101157175e-01 -1.659060419604861669e-01 -9.669138941537337439e-01
4.331229675546104940e-01 5.252634761338855762e-01 1.711841744094254048e-01 2.139846312560783337e-01 -1.710598805639293174e-01 -9.617427383909141758e-01
4.600362949902248588e-01 5.557834253862561358e-01 1.513997523436350634e-01 1.973821964527202044e-01 -1.687019329884214824e-01 -9.657017791893467429e-01
4.864806291065834065e-01 5.912155757547238322e-01 1.192347630281292287e-01 2.032855349375919940e-01 -1.717521137531246300e-01 -9.639378624716796740e-01
-1.030168965485910582e-01 4.170388680201464471e-01 2.403323663201208660e-01 -7.607445865198922963e-01 6.490482794130167932e-01 -2.001267518493875155e-03
-1.093559643250040236e-01 3.396434561222982373e-01 9.524400521792490693e-02 -7.579263376996749901e-01 6.520710937450534539e-01 -1.873380162401541704e-02
-1.081441255665894774e-01 3.940781300096774520e-01 1.471692648334040066e-01 -7.610308327626480462e-01 6.484928241561808138e-01 -1.700378200668755529e-02
-1.606002112098310897e-01 3.464603246901478695e-01 1.705290695851903460e-01 -7.610308327626480462e-01 6.484928241561808138e-01 -1.700378200668755529e-02
-1.354361896670667753e-01 4.243027758083698919e-01 1.420443775947766718e-01 -7.593031511759681385e-01 6.503771719040202237e-01 -2.163929020030641234e-02
-1.279329324512232247e-01 3.991608000265888245e-01 3.878486848165638851e-02 -7.590184564140119994e-01 6.505803968403731652e-01 -2.522161909777088928e-02
-1.237782779856200777e-01 3.500038653021310120e-01 1.735644906384277431e-01 -7.616602358004366247e-01 6.479423208071486417e-01 -6.665891348454281232e-03
-1.000418049264018838e-01 4.110821000792749258e-01 2.229489474490845835e-01 -7.616602358004366247e-01 6.479423208071486417e-01 -6.665891348454281232e-03
-1.590649471638919954e-01 4.308915418661342089e-01 2.149946903166268242e-01 -7.616602358004366247e-01 6.479423208071486417e-01 -6.665891348454281232e-03
-1.252690694290305995e-01 4.309893322027715246e-01 2.069041648101455355e-01 -7.616602358004366247e-01 6.479423208071486417e-01 -6.665891348454281232e-03
-1.498246572997726789e-01 4.427181637413065141e-01 2.533312935291138768e-01 -7.616602358004366247e-01 6.479423208071486417e-01 -6.665891348454281232e-03
-1.370822479701464536e-01 4.384843576717464830e-01 1.074833828263301039e-01 -7.613160349131089522e-01 6.482732642847427451e-01 -1.181819773848414960e-02
-1.569872515363616716e-01 4.011769398633072692e-01 1.536438317584152558e-01 -7.613160349131089522e-01 6.482732642847427451e-01 -1.181819773848414960e-02
-1.893942310890276981e-01 4.061359793782108873e-01 8.385185410731307853e-02 -7.623425283211799908e-01 6.467060715121342174e-01 -2.459932076731961847e-02
-1.222569689352695499e-01 3.539094845146075752e-01 1.043673419840447647e-01 -7.623425283211799908e-01 6.467060715121342174e-01 -2.459932076731961847e-02
-8.255609388893614398e-02 4.086980328786308791e-01 3.863353769378358865e-02 -7.623425283211799908e-01 6.467060715121342174e-01 -2.459932076731961847e-02
-1.653509233661410172e-01 4.346127196831354733e-01 8.541821871497974616e-02 -7.618023565319694823e-01 6.473744308889002319e-01 -2.373848802283849702e-02
-1.687513338972302379e-01 3.472158098610825250e-01 5.138911882700765432e-02 -7.618023565319694823e-01 6.473744308889002319e-01 -2.373848802283849702e-02
-1.580458676045920219e-01 3.985230940969772817e-01 1.742395441255062405e-01 -7.601782885837261583e-01 6.497010374728665605e-01 -4.187060137865389504e-03
-1.568882456204778175e-01 4.172604765186693765e-01 1.552248028782999834e-01 -7.601782885837261583e-01 6.497010374728665605e-01 -4.187060137865389504e-03
-1.569469970702559725e-01 3.696501982397077946e-01 2.299120883564653994e-01 -7.601782885837261583e-01 6.497010374728665605e-01 -4.187060137865389504e-03
-1.440647197614940977e-01 3.909570386909906325e-01 1.894886688180379697e-01 -7.621327581116041916e-01 6.473434049891276798e-01 -1.000874768796214571e-02
-8.318061260322225092e-02 4.344998308028632517e-01 1.767763859425855455e-01 -7.621327581116041916e-01 6.473434049891276798e-01 -1.000874768796214571e-02
-1.017808462899244260e-01 4.533562438842720366e-01 1.452392925533919077e-01 -7.621327581116041916e-01 6.473434049891276798e-01 -1.000874768796214571e-02
-1.362470332084171620e-01 4.341888981929737934e-01 2.030740768584877176e-01 -7.621327581116041916e-01 6.473434049891276798e-01 -1.000874768796214571e-02
-1.451523691715824183e-01 3.454854861007236599e-01 1.610201518155147671e-01 -7.577199035866526433e-01 6.525508898225266252e-01 -6.154989883212501865e-03
-1.327680500244380613e-01 4.036479432494813335e-01 2.152783101517266873e-01 -7.577199035866526433e-01 6.525508898225266252e-01 -6.154989883212501865e-03
-1.973531424444318616e-01 3.666037221064130103e-01 2.342881899840612292e-01 -7.577199035866526433e-01 6.525508898225266252e-01 -6.154989883212501865e-03
-1.313653356613190826e-01 3.578854616753393003e-01 2.246126386863393221e-01 -7.599074267401287885e-01 6.498408363451800840e-01 -1.573499931340410773e-02
-1.547742061481021669e-01 3.455737558072581872e-01 1.870571157806062979e-01 -7.599074267401287885e-01 6.498408363451800840e-01 -1.573499931340410773e-02
-1.286075842016885240e-01 4.082061899359190060e-01 9.099789003705127666e-02 -7.599074267401287885e-01 6.498408363451800840e-01 -1.573499931340410773e-02
-1.196876715013918957e-01 4.335059591592191341e-01 8.319517478064317184e-02 -7.611633399271510170e-01 6.483247553628734838e-01 -1.747516908687013135e-02
-1.416485022792594861e-01 3.481957997286735385e-01 1.210670282482706611e-01 -7.611633399271510170e-01 6.483247553628734838e-01 -1.747516908687013135e-02
-1.472313401789610010e-01 4.209785226802498781e-01 1.374872954189187146e-01 -7.612842758664976062e-01 6.480760883386805782e-01 -2.106264565663733962e-02
-1.994621216163678379e-01 3.297774162463877334e-01 9.102748115901192205e-02 -7.612842758664976062e-01 6.480760883386805782e-01 -2.106264565663733962e-02
-1.583710711091227130e-01 4.386817999477599650e-01 1.221994154281362127e-01 -7.612842758664976062e-01 6.480760883386805782e-01 -2.106264565663733962e-02
-1.509097193322638253e-01 3.697468756765481812e-01 -5.806316846799233766e-03 -7.611128581195493181e-01 6.481048448266291118e-01 -2.583267925209588659e-02
-1.055943842968454782e-01 3.530496091638599121e-01 1.352509179556538321e-01 -7.611128581195493181e-01 6.481048448266291118e-01 -2.583267925209588659e-02
-1.377451070524511045e-01 4.012669612660695329e-01 5.898252381653649318e-02 -7.611128581195493181e-01 6.481048448266291118e-01 -2.583267925209588659e-02
-1.358603256396203884e-01 3.849759669564756237e-01 2.153497552719070562e-01 -7.570229802272654407e-01 6.533161516290191262e-01 -9.706360207499929380e-03
-2.042411597838402204e-01 3.812998153713486604e-01 2.097814756644529044e-01 -7.570229802272654407e-01 6.533161516290191262e-01 -9.706360207499929380e-03
-1.805781689793093947e-01 4.034061996765762603e-01 1.833246013443092792e-01 -7.577570916685812952e-01 6.523558114974034039e-01 1.536506529559119455e-02
-1.586946719076997026e-01 3.677628157480642979e-01 1.816086695544410490e-01 -7.542390948866916078e-01 6.564999515958159781e-01 -1.145431356281765602e-02
-1.947448461490131899e-01 3.123112005666656144e-01 2.161718264604876594e-01 -7.542390948866916078e-01 6.564999515958159781e-01 -1.145431356281765602e-02
-1.542373962090666795e-01 3.628293362609804618e-01 1.007171354474433178e-01 -7.618353453459870694e-01 6.474380914629219719e-01 -2.075630758130586270e-02
-1.442219548953315722e-01 3.557253246037028749e-01 1.455442218619495132e-01 -7.618353453459870694e-01 6.474380914629219719e-01 -2.075630758130586270e-02
-1.746609064416189960e-01 3.912203642040723017e-01 1.408728215820349849e-01 -7.618353453459870694e-01 6.474380914629219719e-01 -2.075630758130586270e-02
-1.344297715011035788e-01 3.197790758816029255e-01 1.141816450284896534e-01 -7.600705339318428733e-01 6.495255392642811376e-01 -2.023257996421686661e-02
-1.921871621559003152e-01 3.339683636258207744e-01 5.523465456526865935e-02 -7.625214655527172702e-01 6.464989552357538471e-01 -2.449725393620668171e-02
-2.817020054861793521e-02 -5.454951510072809651e-01 -3.907227046939291681e-01 9.999999999994191313e-01 -1.062824353759499449e-06 1.793752012585043881e-07
-1.124127998125172209e-02 -5.296101644984776424e-01 -3.474300471114103450e-01 9.999999999994191313e-01 -1.062824353759499449e-06 1.793752012585043881e-07
-1.786849159141113905e-02 -5.252218132774060244e-01 -3.434427478573597314e-01 9.999999999994191313e-01 -1.062824353759499449e-06 1.793752012585043881e-07
-3.116188814483582953e-02 -5.244603160381523521e-01 -3.572020618296271599e-01 9.999999999994191313e-01 -1.062824353759499449e-06 1.793752012585043881e-07
-2.068140581746324633e-02 -5.745308189437005053e-01 -3.417860005652595956e-01 9.999999999994191313e-01 -1.062824353759499449e-06 1.793752012585043881e-07
-3.985689090348108754e-02 -5.717694811035368696e-01 -3.648767702115385814e-01 9.999999999981895593e-01 -2.699936511546881282e-07 -1.883706420510063820e-06
-6.542477106938827947e-02 -4.964823231466631293e-01 -3.611194227230245524e-01 9.999999999981895593e-01 -2.699936511546881282e-07 -1.883706420510063820e-06
-3.593015741555988934e-02 -5.135970049608468146e-01 -3.364939461723600589e-01 9.999999999981895593e-01 -2.699936511546881282e-07 -1.883706420510063820e-06
-5.049811475958107532e-03 -5.709834568961476009e-01 -3.301250069712587942e-01 9.999999999981895593e-01 -2.699936511546881282e-07 -1.883706420510063820e-06
-5.130813891301632540e-02 -5.119464852969726198e-01 -3.595579502179032660e-01 9.999999999981895593e-01 -2.699936511546881282e-07 -1.883706420510063820e-06
2.739613807037849513e-02 -5.304847810048142209e-01 -2.653602597456983236e-01 1.000000000000000000e+00 0.000000000000000000e+00 0.000000000000000000e+00
-3.921551500803209522e-02 -5.650902233348068515e-01 -3.656055901695902666e-01 1.000000000000000000e+00 0.000000000000000000e+00 0.000000000000000000e+00
-9.743368763742418781e-03 -5.799976189284477002e-01 -2.830298822640088807e-01 9.978612288389339113e-01 -2.628050877852270914e-02 5.985234196248899463e-02
-2.973743248082245938e-02 -5.549038381231129469e-01 -3.097102425878784371e-01 9.984897445162509433e-01 -4.873771685214740162e-02 2.535478361003719316e-02
-2.559589999115841064e-02 -4.874389836134951359e-01 -2.603843084561506260e-01 9.984897445162509433e-01 -4.873771685214740162e-02 2.535478361003719316e-02
-5.220923662944035315e-03 -5.824716585176150652e-01 -2.305610386058368488e-01 9.984897445162509433e-01 -4.873771685214740162e-02 2.535478361003719316e-02
-6.626063616431090986e-02 -4.647080952684992106e-01 -2.439400717538216246e-01 9.984897445162509433e-01 -4.873771685214740162e-02 2.535478361003719316e-02
9.582451107133738155e-03 -5.205347975597169885e-01 -3.069154835823971750e-01 1.000000000000000000e+00 0.000000000000000000e+00 0.000000000000000000e+00
-3.812023821378106303e-02 -4.821039193997554428e-01 -2.485288266560563286e-01 1.000000000000000000e+00 0.000000000000000000e+00 0.000000000000000000e+00
-5.544422801681521407e-02 -4.447539732297252635e-01 -2.932680890097013049e-01 1.000000000000000000e+00 0.000000000000000000e+00 0.000000000000000000e+00
-6.357331705288166157e-02 -5.155046089253531028e-01 -3.627016760503764536e-01 1.000000000000000000e+00 0.000000000000000000e+00 0.000000000000000000e+00
-3.891197437275780574e-02 -5.571705947376089929e-01 -2.433040757859677716e-01 1.000000000000000000e+00 0.000000000000000000e+00 0.000000000000000000e+00
-3.427067943206735245e-02 -4.793295046157440842e-01 -3.225939498975224362e-01 1.000000000000000000e+00 0.000000000000000000e+00 0.000000000000000000e+00
-7.928863059670240854e-02 -5.126279919735782231e-01 -2.865538874069213926e-01 1.000000000000000000e+00 0.000000000000000000e+00 0.000000000000000000e+00
-3.350602041075469162e-02 -4.919238651431719345e-01 -2.587965113080680224e-01 1.000000000000000000e+00 0.000000000000000000e+00 0.000000000000000000e+00
-3.364624939089622124e-03 -4.718209959265124431e-01 -2.241912383069909476e-01 1.000000000000000000e+00 0.000000000000000000e+00 0.000000000000000000e+00
-8.563882771278838457e-02 -4.945742219218817737e-01 -2.841968950958767559e-01 1.000000000000000000e+00 0.000000000000000000e+00 0.000000000000000000e+00
-6.738026775101632615e-02 -5.146253040873689510e-01 -2.073422670266575341e-01 1.000000000000000000e+00 0.000000000000000000e+00 0.000000000000000000e+00
-2.406750293329468215e-02 -5.093478992305847664e-01 -2.787744032110711090e-01 1.000000000000000000e+00 0.000000000000000000e+00 0.000000000000000000e+00
-3.566891167391098016e-02 -4.870997016954590197e-01 -2.568512946196881419e-01 1.000000000000000000e+00 0.000000000000000000e+00 0.000000000000000000e+00
-5.380453255627766496e-02 -5.777565203194010568e-01 -2.684576673053747364e-01 1.000000000000000000e+00 0.000000000000000000e+00 0.000000000000000000e+00
-6.134638230482368504e-02 -5.349526437733795881e-01 -1.689782569508006538e-01 1.000000000000000000e+00 0.000000000000000000e+00 0.000000000000000000e+00
-2.059025589383397734e-02 -5.306898977718558230e-01 -1.978611387293378598e-01 1.000000000000000000e+00 0.000000000000000000e+00 0.000000000000000000e+00
-6.732754290904972849e-02 -5.539179640688374207e-01 -2.124399143727931649e-01 1.000000000000000000e+00 0.000000000000000000e+00 0.000000000000000000e+00
-6.751050114397384727e-02 -5.952712483080363493e-01 -1.786584518370896435e-01 1.000000000000000000e+00 0.000000000000000000e+00 0.000000000000000000e+00
-7.807229615892563590e-02 -5.061427211007801796e-01 -2.512868514717099822e-01 1.000000000000000000e+00 0.000000000000000000e+00 0.000000000000000000e+00
-8.906051025773995683e-03 -4.861911957843861321e-01 -1.902422084357053567e-01 1.000000000000000000e+00 0.000000000000000000e+00 0.000000000000000000e+00
-2.040008032499987869e-02 -4.359626550427727620e-01 -2.057561557686766462e-01 1.000000000000000000e+00 0.000000000000000000e+00 0.000000000000000000e+00
-7.768070324036244201e-02 -4.743366088720122331e-01 -1.367031259483246219e-01 1.000000000000000000e+00 0.000000000000000000e+00 0.000000000000000000e+00
-5.536627865910338786e-02 -4.464003804590456759e-01 -2.403476451417408954e-01 1.000000000000000000e+00 0.000000000000000000e+00 0.000000000000000000e+00
-5.973660876759970956e-02 -5.842023839060872525e-01 -1.510227491317201742e-01 9.969328396488204014e-01 -4.305357746541537550e-02 6.535520405575075131e-02
-6.235923590303352193e-03 -5.104105073441199680e-01 -1.917534654574520603e-01 1.000000000000000000e+00 0.000000000000000000e+00 0.000000000000000000e+00
-5.567396077432040791e-02 -5.688361925393052854e-01 -1.404193343737929756e-01 9.967666830908055164e-01 -9.289137990196897829e-03 -7.981159937974340035e-02
-7.197625367505142147e-02 -5.754748178498090283e-01 -1.633075602244503655e-01 9.985100177738757132e-01 -4.816806476611051185e-02 2.564336058129271928e-02
-4.767455161240869571e-02 -5.673623270734681201e-01 -1.264322759186510547e-01 9.990714980521339106e-01 -3.951340413033518906e-02 -1.717069229524150267e-02
3.880257657921826198e-03 -4.769361856201165262e-01 -2.310876848274605322e-01 1.000000000000000000e+00 0.000000000000000000e+00 0.000000000000000000e+00
-6.142395431266460537e-02 -4.860691951153359724e-01 -1.776916720135340577e-01 1.000000000000000000e+00 0.000000000000000000e+00 0.000000000000000000e+00
-5.589628641128445430e-02 -4.598246253985788790e-01 -1.485676498722064975e-01 1.000000000000000000e+00 0.000000000000000000e+00 0.000000000000000000e+00
-2.906866598737111937e-02 -5.128469550511942643e-01 -1.982092875714207836e-01 1.000000000000000000e+00 0.000000000000000000e+00 0.000000000000000000e+00
-5.110803267860321991e-02 -5.317493482588540044e-01 -9.789672930683981922e-02 1.000000000000000000e+00 0.000000000000000000e+00 0.000000000000000000e+00
2.601057086337068419e-02 -5.444756349756072478e-01 -1.515909097162491392e-01 1.000000000000000000e+00 0.000000000000000000e+00 0.000000000000000000e+00
-3.037102880279306250e-02 -4.915670343514375595e-01 -1.498894571431192979e-01 1.000000000000000000e+00 0.000000000000000000e+00 0.000000000000000000e+00
-7.703129077123130330e-02 -5.069135462108513845e-01 -1.531636617375822240e-01 1.000000000000000000e+00 0.000000000000000000e+00 0.000000000000000000e+00
7.283721688818522999e-03 -4.721556486945730491e-01 -8.928646840864455647e-02 1.000000000000000000e+00 0.000000000000000000e+00 0.000000000000000000e+00
-3.991641363253620872e-02 -4.789228985411961292e-01 -1.285006930201845199e-01 1.000000000000000000e+00 0.000000000000000000e+00 0.000000000000000000e+00
-3.388791001096604083e-03 -4.997724130861284086e-01 -1.688089644503259212e-01 1.000000000000000000e+00 0.000000000000000000e+00 0.000000000000000000e+00
-3.403150172856272276e-02 -5.209730192533967852e-01 -1.073010513970314023e-01 9.805193377946492816e-01 -1.015717401469905384e-01 1.681220087146674536e-01
-7.137556159713664972e-02 -4.264390508296631577e-01 -1.068726748742130916e-01 1.000000000000000000e+00 0.000000000000000000e+00 0.000000000000000000e+00
-2.397055193666010331e-02 -4.587533913345199221e-01 -7.595152110029604331e-02 1.000000000000000000e+00 0.000000000000000000e+00 0.000000000000000000e+00
-1.920732315133455090e-02 -5.082160060976530502e-01 -5.982671847656075015e-02 1.000000000000000000e+00 0.000000000000000000e+00 0.000000000000000000e+00
-7.016963745214735426e-02 -4.952750925355646205e-01 -8.843769363610171075e-02 1.000000000000000000e+00 0.000000000000000000e+00 0.000000000000000000e+00
-6.125711760701639530e-02 -4.539441959674523908e-01 2.278503815814352657e-02 9.999999999960709207e-01 2.802410169755065488e-06 6.844276042146408873e-08
-2.809215047460797074e-02 -5.409349536021048621e-01 -1.182529335360075692e-02 9.999999999960709207e-01 2.802410169755065488e-06 6.844276042146408873e-08
-1.588508192881502024e-02 -4.817370299750612928e-01 1.003110036363257934e-01 9.999999999960709207e-01 2.802410169755065488e-06 6.844276042146408873e-08
-1.002670269468246278e-01 -5.644152805172103493e-01 -1.225477654809399575e-01 9.999999999960709207e-01 2.802410169755065488e-06 6.844276042146408873e-08
-2.278148646271149769e-02 -5.749949788125842121e-01 -4.066286768365054427e-02 9.999999999960709207e-01 2.802410169755065488e-06 6.844276042146408873e-08
1.851160885120314847e-02 -4.948047368688182623e-01 -3.151848789995124328e-02 9.999999999960709207e-01 2.802410169755065488e-06 6.844276042146408873e-08
-6.988195827023455098e-02 -5.556865940411718219e-01 -6.682612808990538722e-02 9.999999999960709207e-01 2.802410169755065488e-06 6.844276042146408873e-08
-6.956657653880499170e-02 -5.239126030058496308e-01 -9.570188288555259160e-02 9.999999999960709207e-01 2.802410169755065488e-06 6.844276042146408873e-08
2.981742416071926638e-02 -5.155384352386680469e-01 7.403908274851746241e-03 9.999999999960709207e-01 2.802410169755065488e-06 6.844276042146408873e-08
-3.739060470694146460e-02 -4.966759580189031853e-01 -3.066755149618569792e-02 9.999999999632371850e-01 -8.405112916180608657e-06 1.696976805768093761e-06
-1.994495515681960970e-02 -4.869504446802888631e-01 -6.489241294058095688e-02 1.000000000000000000e+00 0.000000000000000000e+00 0.000000000000000000e+00
-2.801250056966850255e-02 -3.874618074467711115e-01 -9.636211490486001896e-02 1.000000000000000000e+00 0.000000000000000000e+00 0.000000000000000000e+00
-2.346504805605419131e-02 -4.559474782583335384e-01 5.252723895558678718e-02 1.000000000000000000e+00 0.000000000000000000e+00 0.000000000000000000e+00
-1.997642660756097227e-02 -4.340055113184030366e-01 -5.246814692672849278e-02 1.000000000000000000e+00 0.000000000000000000e+00 0.000000000000000000e+00
-2.010952516722568431e-02 -4.931033933334585950e-01 -8.487099462020060436e-02 1.000000000000000000e+00 0.000000000000000000e+00 0.000000000000000000e+00
-2.357126985743469155e-02 -4.474617042059519378e-01 -3.080459584946043661e-02 1.000000000000000000e+00 0.000000000000000000e+00 0.000000000000000000e+00
1.241255955432632452e-02 -4.747271042789104056e-01 9.562392329637868504e-03 1.000000000000000000e+00 0.000000000000000000e+00 0.000000000000000000e+00
-7.545593308190215454e-02 -4.915581114082933079e-01 -5.793532858345318282e-02 1.000000000000000000e+00 0.000000000000000000e+00 0.000000000000000000e+00
-4.555982627530450607e-02 -5.277468499302706562e-01 1.261304732845554971e-02 1.000000000000000000e+00 0.000000000000000000e+00 0.000000000000000000e+00
-2.593475524782681840e-02 -4.690390319998242186e-01 -1.482212793851691267e-02 1.000000000000000000e+00 0.000000000000000000e+00 0.000000000000000000e+00
-8.582238962165861240e-02 -5.075306203587153231e-01 8.010534039098010650e-02 1.000000000000000000e+00 0.000000000000000000e+00 0.000000000000000000e+00
-2.685940830797840448e-02 -5.366910408983414094e-01 -1.059580060752567249e-01 1.000000000000000000e+00 0.000000000000000000e+00 0.000000000000000000e+00
-1.412592712005949491e-01 -4.863010740579787328e-01 -8.321570563736338522e-02 1.000000000000000000e+00 0.000000000000000000e+00 0.000000000000000000e+00
3.958979404818881165e-02 -5.205756877660064896e-01 -3.135265726164625233e-02 1.000000000000000000e+00 0.000000000000000000e+00 0.000000000000000000e+00
-1.046845918817253598e-02 -5.154319647289838935e-01 6.332667149592370592e-02 1.000000000000000000e+00 0.000000000000000000e+00 0.000000000000000000e+00
2.537183535198717782e-02 -5.155820678447201599e-01 8.202028276121450800e-02 1.000000000000000000e+00 0.000000000000000000e+00 0.000000000000000000e+00
-1.288812414833658687e-02 -4.654642183373093323e-01 -7.974220188033027956e-02 1.000000000000000000e+00 0.000000000000000000e+00 0.000000000000000000e+00
-2.531277862370007875e-02 -4.521590392047680762e-01 5.271945616311158461e-02 1.000000000000000000e+00 0.000000000000000000e+00 0.000000000000000000e+00
-7.992629691644022316e-02 -4.659137067591659354e-01 -4.052937674841004118e-02 1.000000000000000000e+00 0.000000000000000000e+00 0.000000000000000000e+00
3.292441563739592625e-02 -4.974995137756459962e-01 -1.453058696863360200e-02 1.000000000000000000e+00 0.000000000000000000e+00 0.000000000000000000e+00
-1.857228941490176796e-02 -4.877008145322513366e-01 6.094507688309419580e-02 1.000000000000000000e+00 0.000000000000000000e+00 0.000000000000000000e+00
-2.264080115441780006e-02 -4.539120609125377181e-01 -1.387563126836130652e-03 1.000000000000000000e+00 0.000000000000000000e+00 0.000000000000000000e+00
-4.934162510180719469e-02 -4.835925435640868741e-01 3.733680489517762768e-02 1.000000000000000000e+00 0.000000000000000000e+00 0.000000000000000000e+00
-7.868768199160992849e-02 -4.635901876248346154e-01 6.354139634377053980e-02 1.000000000000000000e+00 0.000000000000000000e+00 0.000000000000000000e+00
3.532838843999652756e-02 -4.300798612043334468e-01 6.019638638528663349e-02 1.000000000000000000e+00 0.000000000000000000e+00 0.000000000000000000e+00
-5.980094963956943122e-02 -4.768685238521307435e-01 1.921928959781375734e-02 1.000000000000000000e+00 0.000000000000000000e+00 0.000000000000000000e+00
-4.035480394587620534e-02 -3.970229690197653039e-01 7.630323813264103250e-03 1.000000000000000000e+00 0.000000000000000000e+00 0.000000000000000000e+00
-4.984692812816321483e-02 -4.353188585577127401e-01 9.952706964573918014e-02 1.000000000000000000e+00 0.000000000000000000e+00 0.000000000000000000e+00
-3.685848454563305648e-02 -5.355393675381069363e-01 6.325059116699532913e-02 9.924286831939709286e-01 -1.026115620286780494e-01 6.749945267863777243e-02
-2.735399165544189631e-02 -4.297651641747171070e-01 1.380027047402058726e-01 1.000000000000000000e+00 0.000000000000000000e+00 0.000000000000000000e+00
-7.403363437336829556e-02 -4.127790833870714771e-01 7.678394867615093156e-02 1.000000000000000000e+00 0.000000000000000000e+00 0.000000000000000000e+00
-8.832006264222178743e-03 -4.581505461729196704e-01 7.384230727945138850e-02 1.000000000000000000e+00 0.000000000000000000e+00 0.000000000000000000e+00
-1.653511074617496079e-03 -5.120792479438146527e-01 7.177035380856280899e-02 1.000000000000000000e+00 0.000000000000000000e+00 0.000000000000000000e+00
-4.746913395003081459e-02 -4.159032623828267106e-01 7.534232742171936836e-02 1.000000000000000000e+00 0.000000000000000000e+00 0.000000000000000000e+00
-5.216483464403656733e-02 -4.485765178713992385e-01 2.511810951284181026e-02 1.000000000000000000e+00 0.000000000000000000e+00 0.000000000000000000e+00
-2.811893136778528812e-03 -4.913140643811339525e-01 5.959165530655258919e-02 9.799803862066202020e-01 6.907287525357458380e-02 -1.867280925691888471e-01
8.998775601496256105e-03 -4.979939701467967494e-01 1.907872275700555065e-01 9.999999999451719690e-01 -8.390301637399142742e-07 1.043801554798312194e-05
-5.484647002967757423e-02 -4.666449119732493656e-01 1.548787342664197375e-01 9.999999999451719690e-01 -8.390301637399142742e-07 1.043801554798312194e-05
-6.635441012164070007e-02 -4.843715323730798383e-01 1.140878394261285456e-01 9.999999999451719690e-01 -8.390301637399142742e-07 1.043801554798312194e-05
-2.383818394358964976e-02 -4.929421337139734960e-01 8.761712406099214645e-02 9.999999999451719690e-01 -8.390301637399142742e-07 1.043801554798312194e-05
-6.493043003576692840e-02 -4.642191101813658016e-01 1.715720315134991181e-01 9.999999982217558925e-01 -2.870379646047269078e-05 -5.227408835362147847e-05
-7.537919422062291930e-02 -4.798474199117270800e-01 1.358300696759010273e-01 9.999999982217558925e-01 -2.870379646047269078e-05 -5.227408835362147847e-05
-1.095649214155689985e-02 -4.419572009655069467e-01 1.882055207500262506e-01 9.999999982217558925e-01 -2.870379646047269078e-05 -5.227408835362147847e-05
5.705745153285944615e-02 -3.900387442524028137e-01 1.712071948988156400e-01 9.999999982217558925e-01 -2.870379646047269078e-05 -5.227408835362147847e-05
1.210420422509120297e-02 -4.418289243363144880e-01 1.347946700401047582e-01 9.999999984484311266e-01 -2.508878958833970273e-05 4.973620935695982089e-05
-3.814191897875757187e-02 -4.188645619029195410e-01 1.765658334609462865e-01 9.999999984484311266e-01 -2.508878958833970273e-05 4.973620935695982089e-05
6.176201026227602642e-03 -5.262411745798121210e-01 1.690489335255123127e-01 9.999999984484311266e-01 -2.508878958833970273e-05 4.973620935695982089e-05
-5.810122259428772418e-02 -4.062781225514782713e-01 1.685774673138246971e-01 9.999999984484311266e-01 -2.508878958833970273e-05 4.973620935695982089e-05
9.662472805240136797e-03 -4.461119419316322832e-01 1.052113893823981433e-01 9.999999984484311266e-01 -2.508878958833970273e-05 4.973620935695982089e-05
-5.144789206087238553e-02 -3.811620726384662983e-01 2.249811146879919233e-01 9.999999984484311266e-01 -2.508878958833970273e-05 4.973620935695982089e-05
-4.364841891158355303e-02 -5.508499291157998856e-01 1.586526732698781417e-01 9.923113290897284111e-01 -7.420629989465445109e-02 -9.905377941361512284e-02
-9.178646987115651745e-04 -4.896259578989387573e-01 1.730686822279058901e-01 9.911813648961504963e-01 -1.037857326412287423e-01 8.238946281368419999e-02
-5.790137636132301757e-02 -5.250268010198847479e-01 1.788738685434115572e-01 9.999981596064908551e-01 -9.964672162088234267e-04 1.639462325968804850e-03
-1.099846744584653396e-01 -4.653224349013809769e-01 1.547091288047409696e-01 9.999981596064908551e-01 -9.964672162088234267e-04 1.639462325968804850e-03
