8.061272946549523644e-01 -1.368511733104407768e-01 9.742870835217107284e-02 2.718923710949456840e-01 8.817682724561265450e-01 3.854338493569376412e-01
7.329944151339848890e-01 -1.121465608367673700e-01 6.845432716153140862e-02 8.139455666106254483e-02 7.249394393795099978e-01 6.839866485378722771e-01
7.567356077733684572e-01 -3.096141562480844711e-01 7.516279800542999268e-02 3.042359725090661438e-01 1.354615407519090507e-02 9.525003804415166364e-01
7.486352364657008485e-01 -3.166577813191630009e-01 6.896342825533201271e-02 5.358020869428485877e-01 -5.420884822623993626e-01 6.473455035961370729e-01
7.842652839735053671e-01 -2.524423125868057172e-01 5.026710764589359393e-02 5.785084622371001739e-01 -4.829604024034118148e-01 6.573258011293944270e-01
2.009414088115692443e-01 6.691860027309742831e-01 4.468010669079049424e-01 6.181123151200044186e-01 -3.806651656209337764e-01 6.877726350908237585e-01
1.991140891492962917e-01 6.730893029582597498e-01 4.146528663543773141e-01 1.634098137730508327e-01 2.705923231256167072e-01 9.487238942011204657e-01
1.323389916073784978e-01 6.286716411532956572e-01 3.817291704611767145e-01 -2.887682588473114431e-01 3.384495802168153156e-01 8.955806911347260479e-01
1.054321955159732566e-01 7.192613802196174966e-01 4.735495783896279676e-01 -3.057651304739255060e-01 -1.480929860075382853e-01 9.405190867184113346e-01
1.319823114525564278e-01 7.523810208578195491e-01 4.409906936862629800e-01 -4.077007527346446225e-01 6.433068436609939988e-01 6.480250003807982440e-01
1.818264419685834687e-01 8.462970344999640737e-01 3.928684076521000157e-01 4.420655467777023090e-02 9.861958412106381910e-01 1.595730030498985208e-01
1.021280775748241026e-01 8.306699685828562441e-01 3.871201100900755754e-01 -6.337430417807546346e-02 9.940857122910548016e-01 8.818896863401284869e-02
6.558811382656927480e-02 7.825331138557203303e-01 3.596447953721136903e-01 -6.270118763599999423e-02 9.947841532912872209e-01 8.045526352931683944e-02
2.149009074237483996e-01 7.883475586621698783e-01 4.054861474570454205e-01 -6.567479332792783286e-02 9.945394255055062249e-01 8.110581136091060683e-02
6.797589917331486875e-02 8.135253663340723529e-01 3.252525342944507791e-01 -8.210911599990747267e-02 9.907636436207174491e-01 1.079142972414391943e-01
4.094732208288515835e-02 7.317647886403940705e-01 4.188827930624487439e-01 -1.222283002851416306e-01 8.884167677648515671e-01 4.424656928663048272e-01
2.392615891218167756e-01 8.658578136903707367e-01 4.348389376156872599e-01 -3.563946363986626037e-02 9.524585561817726642e-01 3.025764818811859103e-01
1.492749880127468287e-01 7.960153654992871974e-01 4.467850098263763670e-01 1.702033238541449944e-01 2.401517829660915204e-01 9.556976246110525652e-01
3.071415632751486324e-01 8.663683259983708806e-01 4.061802785913407043e-01 2.434614043651123216e-01 1.241448859993381504e-01 9.619327377029949222e-01
3.416068457968937655e-01 7.433977871138006677e-01 4.171584211814258203e-01 5.811572313440606097e-01 -1.323379184450356426e-02 8.136836849844798492e-01
-3.340926272429094457e-01 -6.586952232018578046e-01 5.121024599252418374e-01 8.253019356304272525e-02 9.162666064247607656e-01 3.919748373318103218e-01
-5.887677159008083971e-02 2.232018578509934181e-01 2.816005149550810938e-01 2.994085634058816711e-02 -1.035954399163307449e-01 9.941687633144253855e-01
-1.156348128675240006e-02 2.637918951485783703e-01 4.932866325711281474e-01 -4.184551202724249297e-01 -7.999602850896658790e-01 4.300684301329856796e-01
-5.557496355086188888e-02 4.611861701143572106e-03 2.703031971469888606e-01 5.858399457055932236e-02 -2.632720458298801192e-01 9.629411952267418195e-01
-8.299414848037800496e-02 -1.302718161200063646e-02 3.034682480815399375e-01 -2.281847362959228687e-01 -5.289354568269318824e-01 8.174099391571189033e-01
3.682145920876407630e-03 -5.656854907458561121e-02 3.115270776404149289e-01 -3.125852084287170096e-01 -5.514407283964758433e-01 7.734362355987335347e-01
-5.285014824460138733e-02 3.812070433366399058e-03 3.178852602796725102e-01 -3.639097374209859792e-01 -6.206633037990255675e-01 6.945118907027205690e-01
-7.250969863539524773e-02 -2.419759707615201302e-02 3.130196791656061905e-01 -2.995028978877885550e-01 -6.894412805459868565e-01 6.595215954280243542e-01
1.859348796284857053e-01 -1.925686145843873154e-01 3.280578053555228690e-01 1.845230882885861290e-01 -3.483693018774629557e-01 9.190158102001575458e-01
1.242488348472166049e-01 -1.422248934790632247e-01 2.445799433874581152e-01 5.732600442813436947e-01 -2.750699249675624958e-01 7.718221673474346956e-01
7.805338127685917948e-02 1.215476211115426308e-01 2.891108161674945665e-01 4.647909716631378751e-01 -4.585208750315812321e-01 7.574483215511863543e-01
4.861704317744489773e-02 3.108054402115066894e-01 3.995287092147271624e-01 5.729364562554928320e-01 -7.865593821410411524e-01 2.303652653055608124e-01
1.231447516583502877e-01 1.809600371608130198e-01 3.349183185578150090e-01 5.568665581008090948e-01 -5.901067007166780343e-01 5.845286291006071000e-01
2.093441388437823625e-01 5.589173038874811761e-01 4.564203369198521765e-01 7.109831391533441014e-01 -4.883578231892620192e-01 5.059739245944422370e-01
2.695302034112592171e-01 6.842354026901644737e-01 4.742256361050835034e-01 6.316293324430745093e-01 -4.566202353966827276e-01 6.265319999998356648e-01
3.629955925860687271e-01 6.087313775334969312e-01 2.897698763764489094e-01 4.093966851836399745e-01 -5.734233304246435514e-01 7.096337353067126985e-01
8.719539549063363981e-02 2.813489180296778747e-01 3.190263490705682603e-01 6.862225541222144454e-01 -3.470733552638889940e-01 6.392485371745879608e-01
4.580909410855298902e-01 4.710366544924735610e-01 2.835893766420538586e-01 1.872055606324370680e-01 -4.338733700062588627e-01 8.813103748780601876e-01
6.412244289124896524e-01 -3.736966635406421822e-02 1.713297380283551608e-01 -3.299820447225827458e-01 4.314703708243114444e-01 8.396101293227913320e-01
6.295329676337102498e-01 -2.510898793956984343e-01 9.739203040263194611e-02 3.255872538741327316e-01 3.946234168617061555e-01 8.592236606257378506e-01
5.383872466150356750e-01 -2.190582876910908416e-01 1.824379580808945800e-01 1.750693307526224873e-01 4.715833094862587616e-01 8.642684256895055706e-01
5.418679066768327113e-01 -1.635951465057300380e-01 1.298495898902369827e-01 4.055837349366565037e-01 -7.846007008942393335e-02 9.106842764407402369e-01
6.304501493529871547e-01 -7.024287999241138336e-02 9.217525869471558664e-02 1.078100880904625802e-01 4.625238401066179145e-02 9.930950115065813044e-01
2.769057657096247738e-01 9.147132477251495031e-01 -2.958232820195813573e-01 4.289733093424923371e-01 8.056975362413096864e-01 -4.084524206886694930e-01
2.622256167489094292e-01 8.194354361207691895e-01 -3.782350164634121770e-01 4.704636410240731759e-01 8.579918945685328646e-01 -2.061889214508669244e-01
4.224066225536897146e-01 7.953197126800768402e-01 -1.657244301137997256e-01 5.549275802057352935e-01 6.064621715811177038e-01 -5.694374550098739718e-01
4.668367172219898276e-01 8.317745414406925164e-01 -4.844390888942939205e-02 8.254705058850253518e-01 5.247662466620184318e-01 -2.078913905821449803e-01
4.216170628756788497e-01 8.892552366361938798e-01 -1.297762231738292527e-01 6.709672540390335671e-01 6.262374591920416567e-01 -3.970259295210014638e-01
4.849908377350318767e-01 9.049495740922210985e-01 2.185251922198273855e-01 6.699343496813765508e-01 6.877295799029365941e-01 2.796712213359132115e-01
4.319965056717339769e-01 8.316613153638306999e-01 2.016299054229513388e-01 -5.192223527811399425e-02 9.953782137754253467e-01 8.078547533417040905e-02
4.150643693871103879e-01 8.343576893507469450e-01 1.924473853102103005e-01 5.418243614621879312e-01 6.705035628572055817e-01 5.068050251545317408e-01
4.130531571504555410e-01 8.269117329623256740e-01 3.425441195588759258e-01 5.669524311895904889e-01 6.278228894871500376e-01 5.332948154672219054e-01
4.757769929829389066e-01 8.234440354654988248e-01 6.156344223165638452e-02 8.283067799290129152e-01 5.181947733977136927e-01 2.130306436804852155e-01
4.221632057006970418e-01 8.307288569924355937e-01 1.416418230581673321e-01 5.975640666228806408e-01 7.395831600012328089e-01 3.097320385812815102e-01
8.309202135509433096e-02 8.228269913590443574e-01 3.497461947796176029e-01 -5.780455147806949634e-02 9.949183381913824231e-01 8.243866907536333277e-02
-9.809167838350610347e-02 8.156028283623079078e-01 2.986805170807377285e-01 -8.021265911513134061e-02 9.949174761248801291e-01 6.086990240651287548e-02
-6.869034404559065665e-02 8.050307841873952652e-01 2.937648571617878512e-01 -8.021265911513134061e-02 9.949174761248801291e-01 6.086990240651287548e-02
-1.555991899633139552e-01 8.518136590079622428e-01 2.781062078241095525e-01 -6.497711221197369214e-02 9.942914247277720996e-01 8.463177654645889780e-02
-2.136922191638719326e-01 7.226972091170495993e-01 1.540525172022236267e-01 -6.500718207046883579e-02 9.952962254845212353e-01 7.182958871886853391e-02
-3.501915258665814351e-02 7.841463250588420753e-01 2.923818078553649391e-01 -7.116950880354055986e-02 9.904629266970734758e-01 1.179749628325029026e-01
5.514289399610065867e-03 8.308813147763958185e-01 3.196145350342812219e-01 -3.989818974188150125e-02 9.901808448226294690e-01 1.339777183029501606e-01
-2.690981418115110380e-01 8.095812887531065316e-01 1.040687448194169140e-01 -6.411362032592868299e-02 9.945399655258088112e-01 8.233893769429960485e-02
-2.248335164785427998e-01 7.923344752806052993e-01 1.201594631852456185e-01 -6.923520701031762870e-02 9.949340515435795007e-01 7.288840229635998313e-02
-2.312383981906320218e-01 8.084004100235686607e-01 1.252029016545701534e-01 -9.633448657654289371e-02 9.934597013157432377e-01 6.129835689207503713e-02
-5.791272573138332713e-02 7.480515333483404028e-01 -4.507341866145148646e-01 -7.011982101798630573e-01 6.555121351195651869e-01 -2.804013387121138123e-01
-1.182973771771239635e-02 8.112328690895227457e-01 -4.199175085219166159e-01 -6.277769134641293380e-01 7.513661039012575760e-01 -2.033350064049372352e-01
-2.655203566449174102e-03 7.272594200931086217e-01 -4.195623305615066578e-01 -5.891557017951246644e-01 7.366495408720771243e-01 -3.320286327641819302e-01
-1.715195685506537560e-01 7.541714992047604538e-01 -3.484729986281302483e-01 -2.761805151696214433e-01 7.702767757592245967e-01 -5.748025850382162405e-01
8.906839950325148858e-02 7.822965669325833149e-01 -4.236608103226120470e-01 -4.255320938829820765e-01 6.765826164312177537e-01 -6.009645582051010848e-01
5.388538174842368023e-03 8.174727061059109401e-01 -4.431829186212958849e-01 -5.585838742766939813e-01 8.294341173852063376e-01 4.806278754113867471e-03
-2.092549970654668523e-01 7.732179136186666524e-01 -2.617373252700500585e-01 -1.031316379653175325e-01 9.575436155665801863e-01 -2.692101215375674039e-01
-2.112479969901187860e-01 7.609764959049375443e-01 -2.218773816617471417e-01 -8.360224665275629852e-02 9.348217159706007084e-01 -3.451362393380233429e-01
-1.916360312789644471e-01 8.096284164192369959e-01 -1.843479312200217435e-01 -1.247355191725551954e-01 8.882025155916286607e-01 -4.421960442535142199e-01
2.879629854297091618e-01 8.814966685430586368e-01 -3.572377732729685174e-01 3.087784129624842611e-01 9.409856815868716806e-01 -1.385706994167959227e-01
3.162957372806238232e-02 7.017330048015970601e-01 -5.273534722080109871e-01 -5.130146946911846584e-01 6.045091369731832032e-01 -6.094133460524536750e-01
-6.175124321285228174e-02 7.301578434212597779e-01 -4.619379933564792817e-01 -3.822923470628568632e-01 3.604258953046738378e-01 -8.508500075636107329e-01
-8.493433881073009228e-02 6.986195277345902399e-01 -3.492192922884382322e-01 -6.376167365649729746e-01 3.083254732875830850e-01 -7.059605511458991733e-01
-7.928286213053248321e-02 6.018188842225835611e-01 -4.281164273576241186e-01 -3.235896561271048300e-01 -4.282134518922902644e-01 -8.437552809114923225e-01
2.340913421215140844e-01 7.642894778924842480e-01 -3.923568509343736688e-01 1.618745690484294231e-01 -7.594983879634510382e-01 -6.300466828547742759e-01
1.988989602975311799e-01 7.721637005133381582e-01 -4.324146104610817609e-01 3.949013032034319193e-01 -4.938393852599410883e-01 -7.747100246507171439e-01
-4.719485274807826980e-01 -5.141234851161934349e-01 -4.692982403453301310e-01 1.637853988927577831e-01 6.186095170257691622e-01 -7.684377714263431747e-01
-5.216208829203385910e-01 -2.628088839434998825e-01 -3.766585216503097744e-01 5.655315653882347915e-01 5.025838266295742374e-01 -6.538987274493711643e-01
-4.851435539315797074e-01 -1.524361487905324108e-01 -4.007348160596080344e-01 6.398296676464976240e-01 4.446660248306326668e-01 -6.268094788376251669e-01
-2.969281110582526126e-02 2.550745190022850675e-02 -2.682012919950368390e-01 -1.017749334707941516e-01 -3.429476985944811540e-01 -9.338247902822907065e-01
-4.597310409493404748e-03 3.504002840750118364e-01 -4.149522617217743514e-01 -2.631304270461714556e-01 -6.274382435368059951e-01 -7.328598971904159987e-01
-5.105460422421680133e-02 1.443867920242383196e-01 -2.980706587950212594e-01 -3.127852910355252702e-02 -1.672777682718353809e-01 -9.854135182039630569e-01
-7.983663676582516966e-02 6.246754719404110090e-02 -2.828521171935188816e-01 1.809149483408455106e-01 2.640392766759031562e-01 -9.473927600732945375e-01
-9.834753831036918692e-02 1.749243489056177825e-01 -2.940920571228554103e-01 1.939052343400725631e-01 -3.868893050787620691e-01 -9.015084168831670741e-01
-4.661184294821699853e-02 2.885490286803307214e-01 -2.920282968160217707e-01 -2.067505763994675061e-01 -7.700739863697753096e-01 -6.035232014388932642e-01
-3.952774251174295123e-02 2.715317986738687364e-02 -2.575971758756764318e-01 3.573491900228344398e-01 -7.698575851647972146e-02 -9.307925383111246287e-01
-1.973871126571328238e-01 -6.780690453530240358e-01 -5.154399552714798993e-01 4.208070700200590153e-01 6.718236191750184272e-01 -6.095690564158526836e-01
1.192620907410174846e-01 4.202349867664643690e-01 -3.349638341599987523e-01 9.471055750547126006e-01 2.522758889002852875e-02 -3.199290522273305348e-01
3.781051321086498773e-01 6.800031442605540821e-01 -4.105144838063410351e-01 5.885897653634929449e-01 -1.217703056523781052e-01 -7.992084088463249358e-01
3.983529569452889385e-01 6.949402544121410230e-01 -4.083439534933957504e-01 6.822300127877625048e-03 -8.298786098243978726e-01 -5.579022756512919123e-01
4.094337568613555245e-01 5.337315916208993372e-01 -2.469758622207700594e-01 6.273526815145662461e-01 -2.003058672992401312e-01 -7.525331703798727734e-01
3.158636262658238714e-01 5.576183668487079137e-01 -2.379557678679718735e-01 5.994166021173916864e-02 -4.529015734046581976e-01 -8.895432323269315544e-01
4.115351911562299958e-01 5.260553421471449997e-01 -1.890053386845142458e-01 4.879341432239768794e-01 -6.522909080018070016e-01 -5.800317605221818607e-01
4.466215551753444646e-01 -1.883033357221871318e-01 -1.366523088939105013e-01 2.500197268585107047e-01 4.300903370833798478e-01 -8.674747478336763962e-01
1.623090728708668218e-01 1.937998875239483054e-01 -1.610650696051179609e-01 6.353801544070715179e-01 -3.825257651992044483e-01 -6.707951239718495939e-01
-4.113386124518292886e-01 -5.773511171222712735e-01 -4.555943610340193461e-01 1.836660509883060177e-01 6.284649619097032458e-01 -7.558429554915465642e-01
-3.758863020218600193e-01 -6.724420615168310578e-01 -5.637708616120402638e-01 3.894463554303705111e-02 6.660378673682022521e-01 -7.449005803421266947e-01
-3.755959013987918982e-01 -6.311816315927063492e-01 -5.393689911295236339e-01 -5.779600775257903028e-02 7.449902954472321648e-01 -6.645668372536426283e-01
-1.101642460508606702e-01 4.769785014310544691e-01 -3.328939407452615185e-01 -6.034117036101608322e-01 -9.450000967206580171e-02 -7.918106238983302347e-01
-2.097805258977291365e-01 4.207977667902175756e-01 -3.118334599929710738e-01 -7.544135179969474470e-01 6.047279779127209820e-02 -6.536078982010282701e-01
-5.140335784904328520e-01 -3.666936349528996386e-01 -4.368200095578084752e-01 -6.192660688140563807e-02 -4.300277099618317611e-01 -9.006893271406842816e-01
-1.528976288816966400e-01 1.087207408802713660e-01 -2.960591596590158581e-01 -2.922466871945808217e-02 1.300360958458944213e-02 -9.994882815100982754e-01
-8.071827521478067147e-02 3.570684407071828548e-01 -2.877481813417820389e-01 -3.799527583248106244e-01 -5.979125504046640671e-01 -7.057878459636139912e-01
-3.353787246416692347e-02 3.705362221210156681e-01 -3.463136103394682808e-01 -4.605231187440921858e-01 -6.378764604409228323e-01 -6.172779587167959159e-01
-4.962631216686379521e-01 -8.194913335453263281e-02 -4.317030611692344588e-01 5.630752943622701068e-01 4.492395517102481528e-01 -6.936353783206405943e-01
-1.568602250219996164e-01 1.777470357292250946e-01 -2.111410768750731082e-01 -3.126467374357096429e-01 -3.375123879123237414e-02 -9.492696516010946661e-01
1.341492760715896210e-03 5.149098108707453880e-01 -3.305498882742626265e-01 -8.702251514216957640e-02 2.508733470210060545e-01 -9.641004333640810220e-01
-1.151751561347024166e-01 3.779703018660688363e-01 -3.366212988360641756e-01 -5.389970688610392635e-01 -2.191699567769829493e-01 -8.132937291074998631e-01
-1.599810956763522696e-01 4.236571422545451493e-01 -3.048170807736000909e-01 -5.278879760346388839e-01 -3.347363641246826615e-01 -7.805676468382739541e-01
-1.088941102218066725e-01 3.691011615827289316e-01 -2.980988767600925016e-01 -5.563794760500031522e-01 -3.398921340471914854e-01 -7.582316373267274923e-01
-1.600063523093550599e-01 4.399851481229807293e-01 -2.905128540746353960e-01 -5.739661814789462913e-01 -1.972757510270148340e-01 -7.947610336291057731e-01
-6.638388064603635286e-01 -1.636267096533552401e-01 3.173982172541260915e-01 -9.004080034292755164e-01 6.525489938249068485e-03 -4.349975233740666081e-01
-5.058587607960060017e-01 -4.533582911874501908e-01 -3.676619718954534655e-01 -7.955400474288395474e-01 -4.410097610498920906e-01 4.154833613944566850e-01
-5.744759712428387788e-01 -4.921709951101193026e-01 4.377256387136166937e-01 -4.220533331505408325e-01 -7.739312454306166433e-01 4.721243600183466227e-01
-4.908812004507390747e-01 -3.536061909401074232e-01 -4.038015535767607300e-01 -7.319514832664530957e-01 -6.350688258374023176e-01 2.468493722769868615e-01
-5.925970604263924857e-01 -4.300422566847892369e-01 -3.573575243305501803e-01 -7.936204948114088387e-01 -5.161156252771410546e-01 3.221663724849016530e-01
-6.109259451250177442e-01 -3.018578272615149993e-01 -4.056223571672913364e-01 -8.844431999863534566e-01 8.466455548628902539e-02 4.589031913619781022e-01
-5.884198957355515347e-01 -1.379457603614560046e-01 2.574459573690037750e-01 -8.364622391525705636e-01 5.008818212586309618e-03 -5.480016735485222501e-01
-5.748128704567547764e-01 -2.823169446285073714e-01 -3.625793646066428066e-01 -9.456371014725274415e-01 7.490106899506172866e-02 3.164811245272515228e-01
-5.126840543779497272e-01 -4.256052777421743816e-01 -4.552790252863100906e-01 -8.540300800138203030e-01 -3.536223949392146015e-01 -3.815544839587680093e-01
-4.782579053069271335e-01 -5.077869511063091146e-01 -4.456243272967160829e-01 -8.790425376613933972e-01 -4.029918905139139862e-01 2.547189689870768547e-01
-6.056531921208863078e-01 -3.268492325452525549e-01 -4.483174845650678697e-01 2.528870687244699073e-02 9.971587040672486024e-01 7.095773536158414552e-02
-4.491021779341375919e-01 -6.184421460336322340e-01 2.977837470246433305e-01 -5.079739081834124814e-01 -6.695723137709123085e-01 -5.418813756130922421e-01
-2.580463099043953656e-01 -7.505106813038158187e-01 -4.257368743983130921e-01 -3.668255547220709567e-01 -7.732076918453408831e-01 5.172899357942750687e-01
-4.359676150963788244e-01 -5.698616774987819156e-01 3.888833956931603275e-01 -4.101402784365918430e-01 -6.829042101565629963e-01 -6.045054108561772610e-01
-3.119675971581881146e-01 -6.052325417346160474e-01 -2.201073183901052499e-01 -3.665072512833841278e-01 -7.687830529222166032e-01 5.240658854536274225e-01
-2.769238307624354301e-01 -5.838702630757318657e-01 -1.890042446761436845e-01 -3.665072512833841278e-01 -7.687830529222166032e-01 5.240658854536274225e-01
-3.178029822949639538e-01 -6.220869365187350342e-01 -2.743685432807312918e-01 -3.665072512833841278e-01 -7.687830529222166032e-01 5.240658854536274225e-01
-5.095112515434462308e-01 -7.210990747848737836e-01 4.671137998132236513e-01 -7.867708259138497251e-01 -5.952570356886376368e-01 1.632811347156020720e-01
-1.998629250100286692e-01 4.724323419122846701e-01 3.621532505808569002e-01 -7.573310445162967364e-01 -1.828836132781656854e-01 6.268997312219694029e-01
-2.051992559106265712e-01 4.876064160238368084e-01 2.815957322816483033e-01 -7.329805273142033784e-01 -1.744392497449109500e-02 6.800259230791695364e-01
-2.072333293097268492e-01 4.115990744443639437e-01 3.856067930591725590e-01 -7.250821708470797100e-01 -2.252787269048802943e-01 6.507728795238801878e-01
-2.881104959463839377e-01 3.978058255194013015e-01 2.421636156834421350e-01 -7.838519616652207533e-01 -2.157732879496708778e-01 5.822525142933894227e-01
-2.803136353193630415e-01 4.222855508198839480e-01 2.754707582738809557e-01 -8.159948383530324367e-01 -9.387486614634078796e-02 5.703857758457999694e-01
-3.330335857942798850e-01 4.225807784762286023e-01 2.192194286632127564e-01 -7.824255345333801515e-01 -6.009409919742064038e-03 6.227151595252609084e-01
-3.060237547094911692e-01 5.458214181121638919e-01 2.284700903612011946e-01 -8.446340309254343204e-01 3.927332785615168104e-02 5.339016384332939680e-01
-3.110239572309717593e-01 3.959142256944055416e-01 1.080041324708614497e-01 -9.614779532121866534e-01 -2.197999171406804786e-01 1.650701121095344004e-01
-3.094633574768518858e-01 4.976211930140010953e-01 1.014109456776052937e-01 -9.439479421281233851e-01 -1.348909756971802543e-01 3.012751354286372085e-01
-3.704490405085064109e-01 4.684930770635016284e-01 3.061818012801262659e-02 -9.591546157982350218e-01 -2.825617362303188274e-01 1.346433108060527718e-02
-3.360711875035863883e-01 6.629891077000592547e-01 3.877174495886520633e-02 -7.689528928261392116e-01 3.897950244056694324e-01 5.067260478433053272e-01
-3.316117177737674671e-01 6.990684469726142769e-01 5.898655922978823796e-02 -7.560689849081289049e-01 4.408559145643576316e-01 4.837414109352384806e-01
-3.908602564283659708e-01 6.534971356834577971e-01 8.906566752945915127e-03 -8.340986701037613749e-01 3.895593768883375829e-01 3.905418036644817681e-01
-3.409247117748061551e-01 5.891540641073568230e-01 2.279472910284844334e-01 -8.397184156675537858e-01 1.574755046880124409e-01 5.196868747736750338e-01
-3.527145585777219372e-01 7.542424559234236492e-01 1.116310674248843608e-02 -7.732717355094584910e-01 6.227340912679757423e-01 1.193862413967314295e-01
-3.977612555171366471e-01 5.731573932236231350e-01 -1.396308167392233159e-02 -9.163956024608670425e-01 -3.435457326974671322e-01 -2.054152607177590073e-01
-3.696311070633585549e-01 6.722045303764890845e-01 -6.140441454417674277e-02 -8.698545109458674096e-01 1.304554645393702916e-01 -4.757462575354037826e-01
-4.790140783657135248e-01 7.554750971656995495e-02 1.024653220349791005e-01 -7.638049114492463376e-01 2.536029288500434298e-01 -5.935382142075510403e-01
-4.332295660200263243e-01 5.028222123139246547e-01 7.703080241768439640e-02 -9.650110307255708175e-01 -2.523461870808165197e-01 -7.123982343987769750e-02
-4.050560458098269034e-01 4.804153236763851753e-01 -3.109060498493467981e-02 -9.350363455649899347e-01 -2.879807193094985895e-01 -2.068190943275127758e-01
-3.713585181150731440e-01 4.283830822429194329e-01 3.944028416653325153e-02 -9.738868330940322338e-01 -1.721609637132484050e-01 -1.480035097536615829e-01
-3.710720102214981053e-01 4.129088324679667799e-01 -2.662677719008075400e-02 -9.738868330940322338e-01 -1.721609637132484050e-01 -1.480035097536615829e-01
-3.787447129922836275e-01 4.444539872416166104e-01 8.893177532657195461e-02 -9.744710038086009662e-01 -1.706607368678157155e-01 -1.458806897022085214e-01
-3.606350083578418464e-01 4.149717892080051485e-01 -4.135886987723390307e-02 -9.520106114572502998e-01 -1.664054539673362754e-01 -2.568754962286539101e-01
-3.574370312829221463e-01 3.424975551534490403e-01 -1.159757148634514290e-01 -9.520106114572502998e-01 -1.664054539673362754e-01 -2.568754962286539101e-01
-3.483105520738041805e-01 3.500861651318729617e-01 -5.436723182016835187e-02 -9.092184300437959887e-01 -9.846267208427486595e-02 -4.045082801065008615e-01
-3.405240941185745940e-01 6.168325279543190875e-01 -1.736036326572226382e-02 -8.346296045008272380e-01 -3.884890746874948841e-01 -3.904736382129356809e-01
-4.065148666765852625e-01 5.957352437121105071e-01 -9.684004082038588646e-02 -7.431469034130834261e-01 -3.141049492399797249e-01 -5.908221058918623481e-01
-4.718780751149391772e-01 2.627311668808870668e-02 -3.048897113156884831e-01 -8.217319389803894314e-01 1.911484867192264903e-01 5.368602019934790581e-01
-4.514172912749558342e-01 8.042155440306972269e-02 -2.049637838513587162e-01 -7.558540583644935973e-01 2.111892005836614183e-01 6.197449185033779839e-01
-6.197233679854917687e-01 -1.988615122526363466e-01 3.765235682251482641e-01 -3.503704101457694176e-01 9.234240166535694350e-01 1.566162863870598221e-01
-5.329722806476461239e-01 -1.889926080374431383e-01 2.715403972669960808e-01 -5.374064833573362066e-01 4.496777086640619814e-01 7.134313071180294896e-01
-3.604116857162218968e-01 -6.725376661400650491e-01 5.175193428973005050e-01 5.580206738955784465e-04 8.553174694659642086e-01 5.181039616131757342e-01
-5.441791236588492398e-01 -4.908285030214550870e-01 5.358004599591291717e-01 3.154789564977730221e-01 -4.355317155623850689e-01 8.430807510235077684e-01
-6.471188109338323891e-01 -3.353248049348080406e-01 3.393424077256530502e-01 1.845533226782520436e-02 2.843626789738418550e-02 9.994252245060419870e-01
-4.059082210856236328e-01 -5.877927472933113240e-01 5.178953176265922442e-01 4.714799964286557343e-01 6.243717763350628003e-01 6.227892885108357035e-01
-4.174752795659595894e-01 -5.824108257754111451e-01 4.803535319910304802e-01 -1.029228707600821913e-01 4.985086241632638582e-01 8.607531785066804275e-01
4.239035737198096343e-03 2.981384427004463156e-01 3.960892930490904629e-01 -6.073497151523051807e-01 -5.472278686212052046e-01 5.759062278780346933e-01
-6.655896657581826525e-02 1.383247974253653256e-01 3.677067017134348914e-01 -2.076225643939672294e-01 1.226638733137339204e-01 9.704877355938843486e-01
-8.326218869052863514e-02 1.417381286972046184e-01 3.430287557269177112e-01 -1.295840592484708842e-01 1.158664387020411496e-01 9.847755784802926238e-01
-1.075534918139024396e-03 7.469028658144997168e-01 4.193512460718157309e-01 -3.269200265183214715e-01 -4.336321948834970796e-01 8.396942394835044121e-01
8.636660122269192164e-02 7.053578564897247105e-01 4.334005756548992006e-01 -7.473963524894623456e-01 3.383741559751436978e-01 5.717531135495080852e-01
-7.216758136704222448e-02 7.544435630896517697e-01 4.222113879024588790e-01 -3.945484836553841967e-01 4.966807543031062644e-01 7.730716152790337858e-01
-1.465249260149955879e-01 3.901601735503975044e-01 3.871871495457610002e-01 -7.138072402202093603e-01 -1.771109895897166331e-01 6.775772436968050538e-01
-1.572042209171717608e-01 4.355904081621979618e-01 3.386470999070353982e-01 -7.332358957859161919e-01 -2.217314538164332216e-01 6.428065677320634608e-01
-1.759263175764554932e-01 3.593551524509627781e-01 2.989452326199870669e-01 -7.089709496911065223e-01 -4.160821919417292403e-01 5.694170721387413758e-01
-2.082971744575334294e-01 4.040775308743534966e-01 2.690802494485047269e-01 -7.542934573252889630e-01 -2.990167098437858106e-01 5.844915632158086405e-01
-2.058609150715940417e-01 1.292808862657397750e-01 3.009779834895359163e-01 -6.986309052382124740e-01 3.160329311479859182e-01 6.419018964577439812e-01
-1.044389415906176177e-01 3.783575459093044824e-01 4.428505433962071081e-01 -6.447516533899837476e-01 -4.679572443226832634e-01 6.044098964583577427e-01
-4.109539019451083353e-01 1.275029341495309554e-01 2.669452147769876826e-01 2.056523358813294455e-01 -1.154936491026355150e-01 9.717861563963082761e-01
-8.499692539977830863e-02 3.217230161448193515e-01 3.935756046254423879e-01 -5.873432079282210339e-01 -5.501899738024190745e-01 5.935646121761977145e-01
-1.918560210262174326e-01 -7.250887329295589989e-01 4.650037630499275210e-01 6.525803199292258272e-01 -5.549831139933654178e-01 5.158804795912482755e-01
-7.415343612808726614e-02 -5.880217711276779502e-01 -3.107524060276676270e-01 4.940054599840278393e-01 -8.612232269617239311e-01 1.193865940866222913e-01
-1.302525023103522361e-01 -6.298120680813344974e-01 -3.313351701266241123e-01 2.679375893215316662e-01 -9.166748881263776516e-01 2.965073316244631885e-01
-1.460970355570885559e-01 -6.338444091327848362e-01 -3.401657046142647634e-01 3.669171398243081805e-01 -8.883370096537592797e-01 2.760963052678641616e-01
-2.508183598691282046e-01 -6.203558445889493234e-01 3.145063578357816803e-01 4.071486092282298741e-01 -9.000766715272487950e-01 -1.552159636633660689e-01
-1.361747875691523280e-01 -6.160453716187153095e-01 2.363466058066430175e-01 3.704058380711032217e-01 -9.021820105727916816e-01 -2.210591208742107572e-01
-2.068436825123615430e-01 -6.921676533974326917e-01 2.432850715117331752e-01 4.278776515870849062e-01 -8.468753297235886990e-01 -3.157893145403815049e-01
-1.587423979786732608e-01 -6.437028633133147215e-01 2.619095680265912107e-01 3.912455119290155769e-01 -8.819493045114311647e-01 -2.628542821930154871e-01
-2.091162128361141737e-01 -6.599302130034104819e-01 -3.152625846120707398e-01 2.074589551628117923e-01 -9.637639240723100409e-01 1.676898344548561903e-01
3.838765152750460707e-01 6.773465670799861948e-01 -1.975616248040817646e-01 6.792620219199339004e-01 -4.245355667925519993e-01 -5.986423457335520171e-01
4.608224301876609474e-01 5.883400311180559950e-01 -2.686526778275952765e-01 6.733924987590480526e-01 -4.168386127055400681e-01 -6.105637669996200056e-01
4.406010222538444543e-01 6.245959175392612472e-01 -2.138178351109098763e-01 7.378931072074844666e-01 -2.000843717218417916e-01 -6.445773859889590840e-01
4.738921583446605301e-01 6.459389297316865397e-01 -1.295794081590577185e-01 7.058261085652761668e-01 -4.421691505088241603e-01 -5.534401022747661436e-01
7.650381616392027961e-01 -2.570717242240456168e-01 -1.125200664177474358e-01 3.931238317959657169e-01 2.154133867051603868e-02 -9.192331715089155919e-01
8.215838198665300629e-01 -3.067062240999671174e-01 -2.955039563983483455e-02 5.840503962276548666e-01 -4.889753336944366868e-01 -6.479106865183917874e-01
7.854344612591446229e-01 -2.415735858060196750e-01 -6.822213657168491041e-02 4.130871353115514455e-01 1.698379688783915875e-01 -8.947145259619732061e-01
8.095964452830096691e-01 -1.847237080577634194e-01 2.765107603210544690e-02 3.367677693072086420e-01 6.081623618529451436e-01 -7.188365677824787303e-01
8.171645760911014911e-01 -3.328811178421995920e-01 3.493258805651275334e-02 4.380168763735798887e-01 -6.940071167147633391e-01 -5.713977055967174312e-01
5.212454673794724158e-01 7.511394701970877108e-01 2.639325412054354114e-01 8.524800869991521202e-01 -1.584954551910014997e-01 4.981534823261955514e-01
5.402877782663827455e-01 6.071338792559570763e-01 1.961057882903462779e-01 8.915771741076842227e-01 3.579048045658997368e-01 -2.774784558822565028e-01
4.390788149777172245e-01 7.095491729327917385e-01 1.150591641600548221e-01 9.190614650850424949e-01 1.436283765473759244e-01 3.670107802859481350e-01
4.491216550301480592e-01 7.888835961945642739e-01 1.753619312116324047e-01 8.491212322519746669e-01 3.297722145851132436e-01 4.126056463822547760e-01
4.330735786790292363e-01 7.654542693587257363e-01 2.008389114076600535e-01 8.395805977242162266e-01 3.759266394415651247e-01 3.921524979943635247e-01
5.059256259301764258e-01 7.359680719823715744e-01 1.329795906123786564e-01 8.772735791689861840e-01 3.514359639234497235e-01 3.269309262722513432e-01
4.625770939738583221e-01 5.674100899603762294e-01 2.122984110688998921e-02 7.949960630131371886e-01 -6.017886337736610969e-01 7.636556851384362909e-02
5.188112666623663216e-01 6.764817848686522916e-01 7.926605653975718480e-02 8.652248556337125418e-01 -3.277754691547249410e-01 3.794063665965837218e-01
4.996189619290206663e-01 7.610376014686505153e-01 7.880767915531730616e-02 9.645397870525181938e-01 1.919188656387262049e-01 1.811909164517559179e-01
5.134282950734373463e-01 6.766759625937697198e-01 1.227337779187720745e-01 9.973841819575944845e-01 -6.743457595151261530e-02 -2.602636253916069259e-02
4.893796714385658109e-01 8.060531263910906130e-01 6.327083126198848606e-02 8.895721979991116912e-01 4.531118282154986132e-01 5.788761247657208536e-02
4.325775855114986079e-01 8.506970060619304386e-01 4.752323881474468381e-02 7.759695026498892867e-01 6.084594354196113386e-01 1.662782198790063448e-01
5.678925021055907241e-01 8.326435758851493674e-01 9.208523005759816638e-02 9.155359003658511963e-01 2.964898809275781644e-01 2.718230410558324928e-01
5.575684355110037682e-01 6.863349405002019399e-01 -1.136505927999493376e-01 8.720434305636598493e-01 -4.476129234183850308e-02 4.873773506418326851e-01
4.386026892155648893e-01 6.596759089261904352e-01 2.226941123519493027e-01 7.339764058712278105e-01 -2.590276884074211305e-01 6.278401805098672295e-01
7.674735986709291247e-01 -1.680941494983075324e-01 8.204421682230120250e-02 3.578890287955621696e-02 6.651989834022574710e-01 7.458079289678281043e-01
7.726630084066172799e-01 -1.724684913849870160e-01 1.111320798194975201e-01 1.173499000041427764e-01 7.577132776023569605e-01 6.419498344217492436e-01
7.279254763893390212e-01 -2.743834384041221597e-01 8.928343743815742029e-02 2.879950052124714555e-01 1.096131527088465007e-01 9.513379177379063245e-01
1.326734210186528151e-01 6.700345471488785565e-01 4.620575144026083381e-01 5.777091536816260087e-01 -5.602351952566773097e-01 5.936233315395984533e-01
-1.414767643250033069e-01 7.957044460038787959e-01 4.636415780246524454e-01 -2.117801214194175996e-01 8.631242623399792979e-01 4.584383142055681870e-01
1.155291552529015275e-01 8.526672365739922377e-01 4.280992718992993051e-01 -4.659198307398523115e-02 9.955278227560929727e-01 8.217993205002535606e-02
1.498137253030646099e-01 8.009483603426819087e-01 4.108794714635186085e-01 -2.197828694234149963e-02 9.796060891129700909e-01 1.997219694371948906e-01
1.286795126734066042e-01 8.235742524326428171e-01 3.535626285793442292e-01 -5.827143783516153253e-02 9.949569976183921804e-01 8.163952733093030045e-02
1.999619186524909942e-01 7.410316803473643299e-01 4.209194073705145867e-01 -6.693568310364500507e-02 9.920904817860576319e-01 1.061889366975503901e-01
1.581094407445160499e-01 7.283641010391852522e-01 4.771205435367700809e-01 -9.073987288243760829e-02 2.637177598052649619e-01 9.603224555494740411e-01
2.790603772620808276e-01 7.932796917904745282e-01 4.503285064642859603e-01 2.722056921956390041e-01 -1.193126715041517155e-01 9.548133574447079663e-01
1.439469910835585176e-01 7.362988702557049514e-01 4.276435055775045790e-01 3.558649309781943271e-01 -1.882791755115280352e-01 9.153748428750837496e-01
3.788333013550140294e-01 8.255020532319830018e-01 3.661607641866188589e-01 3.865481093086485798e-01 1.773222235045293360e-01 9.050620908210214033e-01
1.853779424106753032e-02 -1.413659200611230293e-01 3.159573967203705425e-01 8.102727023548020324e-02 -2.243597368209379883e-01 9.711319632119138623e-01
-4.565991704793978534e-02 1.045770408418526531e-01 3.763855595137608478e-01 2.197382062147011927e-01 -5.865765729282537699e-02 9.737938179976616260e-01
-5.672761874249559327e-02 1.491866752747894875e-01 3.064957015683344999e-01 -2.662591572672580800e-02 -1.423593829790794352e-01 9.894568543850353892e-01
6.690359062441406102e-03 6.048416608634411135e-02 3.819424081408981375e-01 1.954189812918163405e-01 -2.856809463234210034e-01 9.381885837392305305e-01
-2.899915808125496167e-02 9.421213402448030960e-02 2.779763255487448514e-01 1.212514186892823392e-01 -1.557763413498237659e-01 9.803223066632216209e-01
2.016654723794497270e-02 8.808625157195298927e-02 3.042115581103208566e-01 3.084746730692204397e-01 6.684091202224574924e-02 9.488812721067225731e-01
3.320023929314044886e-02 -3.464902422822307981e-02 2.761539113914338595e-01 7.051778644923888117e-02 -5.374696171958588398e-01 8.403294903700788687e-01
4.512784932506869184e-02 -1.851573705701043404e-01 3.034400795102392134e-01 -3.715671574275402067e-01 -1.059159573817843591e-01 9.223446522277439774e-01
1.095204726811463275e-01 -1.154984482632220172e-01 2.641089750033244754e-01 -5.608379237187272048e-01 1.804132037744674011e-01 8.080296400644594312e-01
4.373835375817079069e-02 -6.616028559387283903e-02 2.554091446703512513e-01 4.336567622558247792e-01 -2.796251089697986414e-01 8.565930252946397649e-01
3.377289399049134833e-01 -2.220738093477899189e-01 2.340482378823526277e-01 -5.509292605737787785e-01 -1.876591590875411053e-01 8.131795557281221720e-01
1.205775214145366481e-01 -1.217906730097646217e-01 2.800840215029742342e-01 2.318061999650162797e-01 -1.806244172225004441e-01 9.558455448244821406e-01
8.188317711581305502e-02 -7.625568036630633872e-02 3.421214464068708105e-01 4.956390458743801242e-01 7.927611921957340713e-02 8.649030194919070658e-01
9.865673042257455672e-02 1.316501104981826209e-01 2.969771416399997199e-01 3.833356280707612140e-01 -1.210887883486603117e-01 9.156371014697081145e-01
3.306773529176659787e-02 3.961886161882797186e-01 4.503187827506813234e-01 9.450089438932440800e-01 5.259686621560871744e-02 3.227873380820150406e-01
2.936040803138199040e-01 5.079940685612297502e-01 3.326351404430772929e-01 1.813269564467882566e-01 -7.018447690882185785e-01 6.888646129460054279e-01
4.279126358235120775e-01 7.429590946146941155e-01 2.953075034622454909e-01 5.724761230790913480e-01 -4.019053323550825785e-01 7.146629921360723170e-01
3.618158248244183750e-01 7.918506459135088438e-01 4.064472351112095039e-01 8.380915255248311269e-01 -5.332853953732243912e-01 1.149316402262015591e-01
3.639345584203052542e-01 5.944236456773790422e-01 3.292200957059543409e-01 6.607377067993080999e-01 -4.336770466936580304e-01 6.126580628577887877e-01
2.299087387777941638e-01 -8.106278980198358686e-02 2.815478153628618307e-01 9.149065489445610266e-01 1.950994878736350413e-01 3.533867520575706411e-01
2.417313222762602909e-01 -8.967729288605487403e-03 2.506614735537258110e-01 2.170052166301592589e-01 4.354043523785373626e-01 8.736886092224873668e-01
3.548532756267644972e-01 4.622639958531356008e-01 2.471466093539953224e-01 -2.608531887398798932e-02 -4.896121625122362708e-01 8.715500481666752508e-01
6.625265529595534275e-01 -1.083476146845177568e-01 1.092961018548212759e-01 3.385915762754196368e-01 -1.475421925736689621e-01 9.292938425954844206e-01
6.770290797987372766e-01 -2.110005054378288891e-01 9.586765872634527008e-02 7.827560246827885981e-02 1.236522170235233170e-01 9.892335716520114230e-01
4.019159571120764496e-01 -1.843759307739101794e-01 2.161037524135660248e-01 5.406082077830034471e-01 5.845687036731160580e-02 8.392410619032580898e-01
3.189089755674309745e-01 9.236870138836479338e-01 -3.166067456055000617e-01 4.150494735402711077e-01 6.666232224544933471e-01 -6.191505582637643057e-01
3.169886570254247804e-01 8.002203053572140012e-01 -3.088929653679464149e-01 5.685929241683174151e-01 4.230224605928347703e-01 -7.055168916615006669e-01
2.956493242240547659e-01 7.960331637972428709e-01 -4.000053514988284320e-01 8.046024536049350973e-01 4.064920590272602108e-01 -4.328730733144492970e-01
5.142304186864796733e-01 7.848014508522427324e-01 -2.054766499625785003e-01 6.721125677260940678e-01 3.422246193778781254e-01 -6.566178540036077260e-01
4.456660876581879371e-01 8.623931026069310279e-01 -9.290685411279897554e-02 7.204422892276499679e-01 5.448484890075044884e-01 -4.290722921824043912e-01
4.399766237339213237e-01 8.221234772735402929e-01 -1.373876489348256347e-01 7.544038589204163925e-01 5.056824939323770751e-01 -4.185212455495131434e-01
5.203549978871657711e-01 8.857740227210699757e-01 -2.494743097282604571e-01 9.443667418863548324e-01 3.197000369992695767e-01 7.722268553745387232e-02
4.392461227279175207e-01 8.257910760596093303e-01 3.111946672363167243e-01 4.763765222002115385e-01 6.229958532622765777e-01 6.204366010435227174e-01
4.212016989082589813e-01 7.728411143566675801e-01 3.134403183877579324e-01 5.977436902998235491e-01 6.010795337505351332e-01 5.304770257164657110e-01
-1.177066057102960639e-01 7.954279443679604933e-01 2.296225238630392740e-01 -8.592159060777142254e-02 9.926771665029722191e-01 8.490891220043508825e-02
-6.849907934048622693e-02 7.508977018786229252e-01 2.153748353037028829e-01 -8.592159060777142254e-02 9.926771665029722191e-01 8.490891220043508825e-02
-1.564416592082531476e-01 7.551418230285759092e-01 2.509282178449213085e-01 -7.283219220261380467e-02 9.933582379129248796e-01 8.907795995357388474e-02
-1.576314032604154980e-01 7.548290395884629245e-01 3.562392066966633131e-01 -1.056531839728510752e-01 9.873513054058096206e-01 1.182150769988421640e-01
-2.377416778128883523e-01 7.688810596951122234e-01 2.448224904539141600e-01 -8.275732921685853560e-02 9.931710627257782642e-01 8.223420593062687189e-02
-1.595240534986140657e-01 8.254420279484653289e-01 3.079606189134825867e-01 -1.336746273966280818e-01 9.858219927530036397e-01 1.014203756395602452e-01
-1.114262959595559987e-01 7.748962081423742543e-01 3.456326632414863931e-01 -1.054142459770410073e-01 9.838305088138230570e-01 1.447942218191938246e-01
-1.365863614411625127e-01 7.772856739709441687e-01 3.080358927110188327e-01 -8.388243832053517146e-02 9.921954947027352700e-01 9.225961647977902469e-02
-1.305121125956238970e-01 7.856094729576794666e-01 2.880898316395707481e-01 -1.057529059963782381e-01 9.907723496669464947e-01 8.477307360688973725e-02
-2.697685187259220574e-01 7.684665809967299310e-01 2.260578260321871036e-01 -8.471119131815064984e-02 9.923968658741906257e-01 8.928871523626766282e-02
1.227275106546051042e-02 8.416784278427082988e-01 -3.182793333627247923e-01 -4.424053754249330783e-01 7.424814436764017866e-01 -5.029898503859996373e-01
-1.438823219178058110e-01 7.212215442409849464e-01 -3.476811512025047568e-01 -5.636534835717474934e-01 5.167908424124829647e-01 -6.443771998263362333e-01
-8.577059370416187378e-02 6.798014193683830086e-01 -2.725560269866923457e-01 1.406938063417298157e-01 9.397472153247793392e-01 -3.115773164824404695e-01
-1.743161048427538107e-01 7.773249661812898781e-01 -2.598470750905760851e-01 -2.185684281376176485e-01 8.258269659087617010e-01 -5.198438848340718454e-01
-2.133461151722249038e-01 7.977727903965993184e-01 -2.336732874644390501e-01 -2.465945878556631832e-01 8.118769088221885477e-01 -5.291946656586997699e-01
-5.131630664198159886e-02 7.853084365176093984e-01 -4.035007423613650168e-01 -6.352831267689287298e-01 6.434685022977211233e-01 -4.270405547409065194e-01
4.974953134436786717e-02 8.094516112542119446e-01 -4.487949608071337138e-01 -6.300038346860273863e-01 4.996492055950317313e-01 -5.945131114022250696e-01
-4.933455351330991862e-02 8.122570963431798852e-01 -4.464192885665628219e-01 -5.343903501848553672e-01 4.907341659065820316e-01 -6.881910578039205362e-01
-4.694235615758275693e-04 7.867094906884818384e-01 -3.783769311209750352e-01 -5.955170043732532781e-01 8.033312559708244427e-01 -4.288435920517653585e-03
-3.068431930919881534e-01 7.973020589333642549e-01 -2.109161137423631038e-01 -1.913315893198711259e-01 7.663558579547778971e-01 -6.132625228291131991e-01
-3.290049108340120654e-01 7.493542857124801948e-01 -4.114795892055488069e-02 -7.585296328604060889e-01 6.514084533146438094e-01 1.731539843263991268e-02
-2.573066807927708588e-01 8.324688827783739420e-01 7.721181622770773023e-03 -6.562782273164308178e-01 7.523794117267764703e-01 5.678123950807061754e-02
3.701450197586683144e-01 7.772840384901036348e-01 -4.343188994970513250e-01 4.732432973037385970e-01 8.163145415478277878e-01 -3.311666511209196972e-01
-7.241891696997684869e-02 7.026091764382524918e-01 -3.960454281491788131e-01 -6.422083594157834696e-01 1.550882395161073679e-01 -7.506770684257528803e-01
-1.414491815505506955e-01 6.322714579746999686e-01 -3.899115482616403172e-01 -6.004405833169689233e-01 -5.410479455293620843e-01 -5.888448238240991950e-01
7.770628647074100115e-02 7.445963572781056916e-01 -4.620215052055126614e-01 3.158374741450947765e-01 -8.508624890832791055e-01 -4.198567786717909422e-01
1.999994399515512555e-01 7.328552073208725037e-01 -4.432875631513215620e-01 7.408306651720350348e-03 -8.931768852470701736e-01 -4.496444914072626475e-01
-5.984187188078533559e-01 -2.399065415712872684e-01 -4.091024433858125864e-01 1.801779562022831904e-01 8.947882404946798651e-01 -4.085216135912552726e-01
-3.488617579568046440e-02 3.902791477623632210e-01 -3.087799412954858047e-01 -3.542286643784079980e-01 -6.247539798821576396e-01 -6.958480566575533377e-01
-4.044389699876643207e-01 -9.304594259988829830e-02 -3.513715704291203723e-01 5.087588233621527234e-01 2.020340959701533989e-01 -8.368671840362009728e-01
-5.005952175141836769e-01 -2.872004069201998244e-01 -4.482571400058246724e-01 6.660400505662861237e-01 4.748865758271829107e-01 -5.752159517440316172e-01
-4.617107292257576212e-01 -2.337034867661675341e-01 -4.069984477479609564e-01 7.839675395554841775e-02 3.262312065261860350e-01 -9.420335179056539276e-01
-4.838713679514058397e-01 -1.780459845416787756e-01 -3.723830743054784009e-01 5.149249470172407861e-01 -1.142663628201077558e-01 -8.495854855558415686e-01
-2.024005932049217221e-02 2.169671393427852757e-01 -2.863679150874449686e-01 1.597965584638497138e-02 -1.722816477500768717e-01 -9.849181105287634352e-01
-4.991604801150801435e-02 7.298848938522367602e-02 -2.676073428946102450e-01 2.402554277452332299e-01 1.938643977213474479e-01 -9.511539963302968470e-01
-2.253733887514625112e-02 1.465535741599142128e-01 -2.826956916772336292e-01 3.332296016525499588e-02 -1.182030044321026041e-01 -9.924301638246638690e-01
4.337557545177957163e-02 1.968412942131133048e-01 -3.092915377295332169e-01 1.300338927802574263e-01 -2.406479652332692010e-01 -9.618626427705255777e-01
2.246773173222276019e-03 1.099624936626318605e-01 -2.212983063959355068e-01 3.217709521209041190e-01 3.601394674340109847e-01 -8.756500547407929380e-01
8.885608832613302310e-02 3.259941049023917792e-01 -3.122686657341868788e-01 3.250914005553488806e-02 -8.749442973969574489e-01 -4.831310715172377201e-01
-1.262809288422452741e-02 2.183690842551669065e-01 -2.438244141340320525e-01 2.121809829534676006e-01 -3.952356997143224304e-01 -8.937382011216875588e-01
-1.759624025696162053e-01 -6.415110598471057690e-01 -4.586070954555794832e-01 5.284672264405725350e-01 6.366861931212082215e-01 -5.615630704266726392e-01
4.272105493654780595e-02 4.382037470654316647e-02 -2.642762583017844169e-01 5.038430875347162941e-01 -1.788977298767565893e-01 -8.450667106142729645e-01
3.887587326724031289e-01 7.053652976485509374e-01 -3.031444768939689505e-01 3.751807798776017888e-01 -7.543841934672697036e-01 -5.386500450730247191e-01
3.603808183294750500e-01 5.582065183618211135e-01 -2.529915021108788964e-01 2.977099670588950753e-01 -8.481251951564779956e-01 -4.382378678920590409e-01
6.853930165931592100e-01 -2.182246467825927072e-01 -1.730167603432943846e-01 1.431659825605474667e-01 1.527729148501473511e-01 -9.778363553916691320e-01
2.002000278488193230e-01 -3.979499256400158280e-02 -2.043758215872507611e-01 2.237363706870005575e-01 1.319820161527134883e-01 -9.656721927466244138e-01
2.260496661072361468e-01 -5.422902895380749683e-02 -1.223615764363644443e-01 -1.062361143826421606e-01 1.392839871577489785e-01 -9.845373832020387628e-01
-4.552275741611818693e-01 -6.748357523712287254e-01 -5.474638727488777556e-01 -6.994668526296117517e-02 4.559627098684404523e-01 -8.872460022057876428e-01
-4.028398645994146765e-01 -5.127465208397131713e-01 -5.409167918523746232e-01 6.516036657727426462e-01 3.416335602108143688e-01 -6.772733372053029166e-01
-4.728378670807730222e-01 3.283739592973090871e-02 -2.004372914328017008e-01 1.721002864632660556e-01 8.765504806764515267e-02 -9.811717912514202888e-01
