4.499882534961162361e-02 7.601834887447116440e-01 4.010821453969554140e-02 2.292981258717583515e-01 7.752195581668052116e-01 5.886059854498275623e-01
2.408604722277814247e-02 7.649403503385122649e-01 -5.879189514315986444e-03 2.290027294563733162e-01 7.752836308820582056e-01 5.886365955221131152e-01
9.673842164533444365e-02 7.750521346524944510e-01 1.643980689997253178e-02 4.377254279548285498e-01 7.524596755819895622e-01 4.921390924777358511e-01
7.070800569212737363e-02 7.678354499410303680e-01 -6.099213744679225085e-02 3.878948743460787218e-01 7.533831546640470389e-01 5.309909497576096316e-01
1.226555603677388917e-01 7.669952618856834548e-01 -1.904366746753950734e-02 3.878948743460787218e-01 7.533831546640470389e-01 5.309909497576096316e-01
1.606546449250355613e-01 7.643814566595347193e-01 -4.404631003550860124e-02 5.152766574411211664e-01 7.014585242750207561e-01 4.923879618940898983e-01
1.379423357944833395e-01 7.053801455160461087e-01 -4.477473852097133694e-02 5.152766574411211664e-01 7.014585242750207561e-01 4.923879618940898983e-01
9.692864308555221298e-02 8.040972330932782963e-01 1.745690304834691606e-02 4.909635215467304525e-01 7.138478099430904944e-01 4.993757350431501374e-01
1.325876198289192009e-01 7.361761041114881499e-01 8.855791383574528053e-02 4.065246835056854358e-01 7.174640443404293189e-01 5.656704224009565518e-01
1.544609031400160648e-01 8.313785990447344343e-01 -1.221770745483867840e-02 4.065246835056854358e-01 7.174640443404293189e-01 5.656704224009565518e-01
4.759811182072584690e-02 7.502583058222678236e-01 -5.547848529705834419e-02 3.304417187279726775e-01 7.363480120436038945e-01 5.904234714876568368e-01
1.063330066410029806e-01 6.969762911776408165e-01 5.335212135380063697e-02 3.304417187279726775e-01 7.363480120436038945e-01 5.904234714876568368e-01
4.927521718567744874e-02 7.279365758784400731e-01 8.478026048582708307e-02 3.629119541704572405e-01 7.257053957689612034e-01 5.845054251861103722e-01
1.062980603488271891e-01 7.487117611366823633e-01 1.127932741718925824e-01 4.105014714109344598e-01 7.158447286818843125e-01 5.648494192152606619e-01
1.026521740534550031e-01 6.355438295897795076e-01 2.431857129637893938e-02 4.773783753665266638e-01 6.852597484724098909e-01 5.500263301478804934e-01
1.099338218119665089e-01 6.562872456036533686e-01 1.223954772576860001e-01 4.109423565742619799e-01 7.155499473035743518e-01 5.649023388932320477e-01
1.619196305950512949e-01 6.826805854167464771e-01 6.675055602302715219e-02 4.109423565742619799e-01 7.155499473035743518e-01 5.649023388932320477e-01
1.586195777066905233e-01 6.354288160658198015e-01 1.316355524093087148e-01 4.465796605380277784e-01 6.796930138503575192e-01 5.818797244420512715e-01
1.538182319899238926e-01 6.883733488416616808e-01 3.727928687798447160e-02 4.578799945929456494e-01 6.717162447473282727e-01 5.823600236057685509e-01
6.108760816984987185e-02 8.054084672895918118e-01 2.191937523160015361e-02 9.176843739341666861e-02 7.921792155446295558e-01 6.033495208893978612e-01
1.427003035027622421e-02 7.568310719086187577e-01 -1.493327636905912754e-02 9.176843739341666861e-02 7.921792155446295558e-01 6.033495208893978612e-01
-9.052452486006338367e-03 7.974020493549593969e-01 1.124560739551920263e-01 9.500008157509821916e-03 7.837025347710113721e-01 6.210636737392543072e-01
-1.801767102389847247e-02 7.642425583545211509e-01 1.035231596169435171e-02 9.500008157509821916e-03 7.837025347710113721e-01 6.210636737392543072e-01
1.739664705578421525e-02 9.050461176401541907e-01 -3.345812590607103593e-02 7.626187960719876813e-02 7.934527763055821969e-01 6.038350913053502911e-01
-2.404077692159964710e-02 7.817425522014860295e-01 -1.811264822079468664e-02 7.626187960719876813e-02 7.934527763055821969e-01 6.038350913053502911e-01
-5.147827043424400145e-03 7.729478836527626795e-01 1.949584078969681528e-02 1.419873938408492131e-01 7.760832123009582251e-01 6.144383024966050266e-01
-6.594703407858319710e-02 6.900640211174707828e-01 4.884541134649070943e-02 7.365998035482552997e-02 7.482565747792255806e-01 6.593074439089762206e-01
8.019292063109371982e-02 6.210192838392890602e-01 4.860949294971975837e-02 1.449846478797734567e-02 7.419025432581303203e-01 6.703509609345760234e-01
5.022129007043444476e-02 7.123552077404784466e-01 1.016491152779979562e-01 6.329980107377676524e-02 7.488808201260097608e-01 6.596746565022906239e-01
8.036596367267316576e-02 7.354504604208884633e-01 2.747658157427225467e-02 6.329980107377676524e-02 7.488808201260097608e-01 6.596746565022906239e-01
2.810933160840141387e-02 7.452537073095832909e-01 1.223685634019747448e-01 8.636015626183951577e-02 7.449671384961856768e-01 6.614876310039632390e-01
-1.279722695091272192e-02 6.275446217789114600e-01 1.006415280502782061e-01 8.151655758506584637e-02 7.244113520178451227e-01 6.845314046171721012e-01
6.221730679987828166e-03 7.359152913955803177e-01 7.206880822708090772e-02 8.151655758506584637e-02 7.244113520178451227e-01 6.845314046171721012e-01
6.656067371412680012e-02 6.586071479739743495e-01 4.540738160259878697e-02 1.553474369878605765e-01 7.378896691957311793e-01 6.567998248443105425e-01
-1.307410560714551001e-02 6.469756698140602946e-01 1.021489602155315896e-01 1.473939713818450958e-01 7.183666210819588116e-01 6.798708810616743703e-01
-6.849094705426651830e-02 7.039051300592302773e-01 5.639023212058874579e-02 1.473939713818450958e-01 7.183666210819588116e-01 6.798708810616743703e-01
9.563625215229717980e-02 6.959033106548068170e-01 1.501423490009059503e-01 2.140367350328964413e-01 7.183155324288087451e-01 6.619751293877850218e-01
4.036375716977908673e-02 7.223332699913216359e-01 1.106253951901559895e-01 1.423949608131773736e-01 7.199518932865220933e-01 6.792591158668142004e-01
7.904050780575985757e-02 6.659543760452418804e-01 1.710429923417183806e-01 1.625563691948442302e-01 7.174682158266842968e-01 6.773586834998602813e-01
1.074462899149024875e-01 6.228803654276853230e-01 1.183940565954274549e-01 1.625563691948442302e-01 7.174682158266842968e-01 6.773586834998602813e-01
2.961371873398410334e-02 7.033569227296491144e-01 1.072227513684756023e-01 6.545111430242682438e-02 7.225095174532200071e-01 6.882558745307488790e-01
2.128920067435373029e-02 5.693246059571270834e-01 7.806599892069940316e-02 2.990002032467868609e-02 7.212054263128642173e-01 6.920756619340575622e-01
-3.053689760544643986e-02 6.679901656814187794e-01 2.135889732854585055e-01 2.990002032467868609e-02 7.212054263128642173e-01 6.920756619340575622e-01
-4.428879952347455386e-03 7.411763022812281054e-01 1.170305016358806488e-01 4.461540581420781609e-02 7.234376330785962095e-01 6.889466282736800284e-01
1.587214066031791826e-02 6.459402595877866693e-01 2.018186912729530436e-01 8.527847212064841587e-02 7.090077534906678025e-01 7.000254193119590518e-01
4.099144205071749564e-02 5.946669878896025940e-01 2.438004132816086744e-01 2.329453921939738520e-02 7.059022815757263203e-01 7.079260789861749892e-01
3.130572185243845479e-02 5.668406482765125931e-01 2.485608671303296824e-01 2.329453921939738520e-02 7.059022815757263203e-01 7.079260789861749892e-01
7.867023632176910544e-03 6.134863035121989050e-01 1.759030522462267376e-01 2.876888814208850703e-02 7.070507067130322731e-01 7.065774191209832633e-01
7.343394332984488557e-03 6.099810052614980105e-01 1.630603848538254019e-01 2.876888814208850703e-02 7.070507067130322731e-01 7.065774191209832633e-01
1.339000267234137787e-01 9.036215515125252118e-01 -2.008668590259825582e-01 2.504271947842549029e-01 7.752111645125616679e-01 -5.799429890321693426e-01
-8.233215162743237614e-03 8.608418913015052354e-01 -2.589814195152089216e-01 1.157230890772653203e-01 8.689901433047728663e-01 -4.811073658691642496e-01
5.876265943892317739e-02 8.988477005683277454e-01 -2.601890471718890652e-01 1.157230890772653203e-01 8.689901433047728663e-01 -4.811073658691642496e-01
4.963207727545429493e-02 9.145118793082831488e-01 -2.115475664910733133e-01 2.411579031767334680e-01 8.857823046840346271e-01 -3.965256289876373241e-01
2.829548355865446618e-02 8.895917368324198771e-01 -3.118717069136620612e-01 2.310944575314377025e-01 8.788212242868898016e-01 -4.174549166570478143e-01
7.997531769286753134e-02 8.676900081957533706e-01 -3.080355379098340118e-01 3.764283982035707687e-01 8.738379830249712876e-01 -3.077480145325778849e-01
1.284334438453889893e-01 8.683753581341452366e-01 -2.776992343494017468e-01 3.978549158404856012e-01 8.817704779781861957e-01 -2.533619744706790411e-01
1.025941488489512804e-01 8.743267814600014232e-01 -2.046831469671466230e-01 5.473004026000511946e-01 8.130020744526224030e-01 -1.987206487749942352e-01
1.408839051986318924e-01 8.061641208549192861e-01 -2.509239102883916717e-01 5.473004026000511946e-01 8.130020744526224030e-01 -1.987206487749942352e-01
1.462228827972865963e-01 7.883265075022015678e-01 -2.634331216150009314e-01 5.529225744318541080e-01 8.138222298865204207e-01 -1.788015794845847217e-01
1.579031148493367787e-01 7.755869334427933914e-01 -2.435978506859012016e-01 5.435773277661519742e-01 7.672188227068295063e-01 -3.404393731972783499e-01
2.379275387818100551e-01 7.762340381463532779e-01 -2.638026087163962141e-01 6.464036637083806491e-01 7.115009702300154615e-01 -2.755515793932767910e-01
2.028527848246527709e-01 8.538661923972201695e-01 -2.429071502205492339e-01 6.582442661763687752e-01 7.163253713993970040e-01 -2.315004283699050869e-01
2.509781586772615869e-01 7.163898933744389241e-01 -3.127999264716167516e-01 6.582442661763687752e-01 7.163253713993970040e-01 -2.315004283699050869e-01
1.819531636528924079e-01 8.653160413041740551e-01 -2.106970243924193298e-01 5.594092891917138433e-01 8.286991772146076185e-01 -1.785835518332338362e-02
1.952974575516825406e-01 7.396114249121882311e-01 -1.735101477490244015e-01 5.594092891917138433e-01 8.286991772146076185e-01 -1.785835518332338362e-02
1.743980698362126991e-01 8.063491345668603039e-01 -1.654447862604404851e-01 6.479942183779507925e-01 7.614502444228529177e-01 1.723421646395271664e-02
1.872032623587671640e-01 7.873885508020270763e-01 -2.274050206527918061e-01 6.350801622575965588e-01 7.650329901021946100e-01 1.067600653903885283e-01
1.510484672062013256e-01 8.269101704756574023e-01 -1.940278416937336048e-01 6.350801622575965588e-01 7.650329901021946100e-01 1.067600653903885283e-01
7.129946070250083034e-02 8.134300413555854981e-01 -1.819543571580049812e-01 6.496581262603854379e-01 7.595754329000973248e-01 3.145601243760836468e-02
1.457404963033839262e-01 7.661497626857026733e-01 -2.176573468648640430e-01 6.496581262603854379e-01 7.595754329000973248e-01 3.145601243760836468e-02
1.632545796495543655e-01 8.055488585702313964e-01 -1.508172368228261340e-01 6.548254063322930252e-01 7.258374527905828710e-01 2.106268723316798985e-01
2.153393236506513375e-01 7.892428231846883024e-01 -1.508676464360920455e-01 6.548254063322930252e-01 7.258374527905828710e-01 2.106268723316798985e-01
2.722635936188583794e-01 7.975465819784399724e-01 -1.735298069632692508e-01 7.049451922692129280e-01 6.712793918068070687e-01 2.289896373900038862e-01
2.274294172192464214e-01 7.172443607235006180e-01 -2.221783739559559101e-01 7.049451922692129280e-01 6.712793918068070687e-01 2.289896373900038862e-01
2.730336192786474436e-01 7.718768378429856636e-01 -1.811148125445678492e-01 7.123320841950828708e-01 6.949830643627237237e-01 9.788535168904298478e-02
2.085001412096985363e-01 8.170482024465972604e-01 -2.090895183655198664e-01 7.123320841950828708e-01 6.949830643627237237e-01 9.788535168904298478e-02
2.180243639030994829e-01 7.498421830754731232e-01 -2.535240972541781823e-01 7.123320841950828708e-01 6.949830643627237237e-01 9.788535168904298478e-02
2.498389853120761284e-01 7.540965678736891720e-01 -1.736451718544006484e-01 7.235235609459433892e-01 6.695516419944887998e-01 1.679709958849608942e-01
2.911492985799659095e-01 6.494388716219726687e-01 -1.486546957014871218e-01 7.235235609459433892e-01 6.695516419944887998e-01 1.679709958849608942e-01
2.986710776590220662e-01 7.193435928750997466e-01 -2.054225560646115167e-01 7.243508611508268080e-01 6.760876472810292137e-01 1.349863813281115821e-01
1.842200714214690116e-01 7.185786430685727755e-01 -1.737683029269144197e-01 7.533772039377537588e-01 6.287220736196275084e-01 1.926949473400059176e-01
2.310741356456578743e-01 6.766663779795877298e-01 -1.900048364992537042e-01 7.533772039377537588e-01 6.287220736196275084e-01 1.926949473400059176e-01
2.635089385679119101e-01 6.351520235155236893e-01 -1.822859856442954063e-01 7.657312108440518239e-01 6.260232964322649529e-01 1.474806599638832927e-01
3.014438982826738722e-01 7.270595779840959283e-01 -2.127400435740606222e-01 7.682760729791582310e-01 6.335547583768514901e-01 9.143436895266765507e-02
3.183758674263000854e-01 6.664362610613532301e-01 -2.047545091587985588e-01 7.682760729791582310e-01 6.335547583768514901e-01 9.143436895266765507e-02
2.470388892113198898e-01 7.405983263958263452e-01 -2.083863883887143442e-01 7.620793737221878139e-01 6.470923648734604461e-01 2.250554308766046854e-02
3.263319073052979302e-01 7.051859799413300323e-01 -2.836192504129900760e-01 7.620793737221878139e-01 6.470923648734604461e-01 2.250554308766046854e-02
2.586912156610934321e-01 7.097081726145869629e-01 -1.866903347287066639e-01 7.620793737221878139e-01 6.470923648734604461e-01 2.250554308766046854e-02
2.290690003114315698e-01 6.708288844217170643e-01 -2.219894706552520414e-01 7.655281721987571286e-01 6.370765669966742539e-01 -9.000036307572475969e-02
2.640051671428252922e-01 6.252017242635441452e-01 -2.112256545044347289e-01 7.655281721987571286e-01 6.370765669966742539e-01 -9.000036307572475969e-02
2.897393682530061132e-01 6.510805782332833580e-01 -1.674496175164381373e-01 7.699517671641969985e-01 6.369457138104140936e-01 -3.839835802833846401e-02
3.724783003157920436e-01 5.709599801379793282e-01 -2.494022624137204047e-01 7.678745823797445968e-01 6.224641786147486755e-01 -1.513504941405846016e-01
3.231333091992044104e-01 6.660323128824958694e-01 -2.892676804935446211e-01 7.678745823797445968e-01 6.224641786147486755e-01 -1.513504941405846016e-01
2.859375698664341492e-01 6.680528471664906043e-01 -1.576771371492886320e-01 7.786314369236099209e-01 6.051590453094980449e-01 1.658783147803576941e-01
2.660974259241447037e-01 6.009395190652750962e-01 -2.671603100864038405e-01 7.885373460656838196e-01 6.129744474446895408e-01 4.971097101813321678e-02
3.920372307936256795e-01 5.639271750652916637e-01 -2.586590372893133871e-01 7.885373460656838196e-01 6.129744474446895408e-01 4.971097101813321678e-02
2.831632276058683173e-01 5.771306318957898362e-01 -1.738233811969520093e-01 7.885373460656838196e-01 6.129744474446895408e-01 4.971097101813321678e-02
3.919779648993099719e-01 4.696589766223495666e-01 -1.497812818157105152e-01 7.878987912749795264e-01 6.020603733794266388e-01 1.293785202947208279e-01
3.597864351300037455e-01 5.529101075994120595e-01 -1.422974932380634550e-01 7.878987912749795264e-01 6.020603733794266388e-01 1.293785202947208279e-01
4.022218758370436076e-01 5.500034982332702160e-01 -1.818612840573495260e-01 7.909189492185365600e-01 6.085685345014265613e-01 6.396526074231281833e-02
3.900220679958322223e-01 5.838722847924333603e-01 -1.972493725752586802e-01 7.909189492185365600e-01 6.085685345014265613e-01 6.396526074231281833e-02
3.682516546791896328e-01 6.278244868511688725e-01 -2.325083714361758092e-01 7.909189492185365600e-01 6.085685345014265613e-01 6.396526074231281833e-02
4.221611179719054752e-01 5.291550149217133514e-01 -1.655458707575228339e-01 7.949709793154556836e-01 5.893347448996258953e-01 1.438947549437371298e-01
3.285796722470835651e-01 5.563372444289605978e-01 -1.844361649466394193e-01 7.949709793154556836e-01 5.893347448996258953e-01 1.438947549437371298e-01
2.712623365203579717e-01 7.084785947883618373e-01 -1.801980827854705036e-01 7.036958481740487326e-01 6.653893371161050396e-01 2.491368766658131062e-01
2.336906862197627166e-01 7.326424457009382829e-01 -1.588416176899535848e-01 6.812967683404153041e-01 6.518363898190165928e-01 3.330826239187771876e-01
2.065205850386567232e-01 8.060444764153760211e-01 -1.100756434140701817e-01 6.812967683404153041e-01 6.518363898190165928e-01 3.330826239187771876e-01
2.375935073500402561e-01 6.657775542592304641e-01 -1.219701896469726488e-01 6.812967683404153041e-01 6.518363898190165928e-01 3.330826239187771876e-01
1.841621994004763174e-01 7.489607054827005506e-01 -1.005548904707829067e-01 6.838490481370289586e-01 6.639268744526882760e-01 3.025749241783991517e-01
1.966008870371696304e-01 7.572598521640361291e-01 -1.226309016037596400e-01 6.838490481370289586e-01 6.639268744526882760e-01 3.025749241783991517e-01
2.544294119371972029e-01 7.069169299946025387e-01 -1.429436110583724162e-01 6.913458862830700324e-01 6.329888682303719261e-01 3.483761734331283777e-01
3.156347859610028617e-01 6.629138093069054660e-01 -5.104107258486594023e-02 6.913458862830700324e-01 6.329888682303719261e-01 3.483761734331283777e-01
3.195767496460933388e-01 6.966134834049233504e-01 -9.636485462854427197e-02 6.913458862830700324e-01 6.329888682303719261e-01 3.483761734331283777e-01
3.273362366607766583e-01 6.867481103383148433e-01 -5.058541898448437601e-02 7.210333926893351952e-01 5.280168332466375070e-01 4.486747936257390323e-01
3.003161414962444709e-01 6.019616902331937913e-01 -1.222255528500358346e-01 7.210333926893351952e-01 5.280168332466375070e-01 4.486747936257390323e-01
2.796087767249872957e-01 6.553629526957975848e-01 -7.122778793747985837e-02 7.158663992308603730e-01 5.618380654640156013e-01 4.145760324088876292e-01
2.471536683826840441e-01 6.437398928086053296e-01 -4.351141228242503406e-02 7.158663992308603730e-01 5.618380654640156013e-01 4.145760324088876292e-01
2.976360043903026886e-01 7.173238931488996606e-01 -1.704221820482303973e-01 7.305179546684246183e-01 5.716436195808127785e-01 3.735867905850106530e-01
3.291171380371833433e-01 6.789245139226658399e-01 -8.937831248063635159e-02 7.305179546684246183e-01 5.716436195808127785e-01 3.735867905850106530e-01
3.628789586662807265e-01 6.739974330686290260e-01 -1.916040010038870811e-01 7.360938387871528432e-01 5.669554735548626434e-01 3.697666176195121834e-01
3.056566411148528006e-01 6.702438947249965695e-01 -1.151864836704651618e-01 7.360938387871528432e-01 5.669554735548626434e-01 3.697666176195121834e-01
3.284438650943507509e-01 6.424238180380368313e-01 -1.051225590342552141e-01 7.368000024372625134e-01 5.482517880541972755e-01 3.956586070134522903e-01
3.862277760837996565e-01 5.528923502850160432e-01 -3.386890467288013185e-02 7.368000024372625134e-01 5.482517880541972755e-01 3.956586070134522903e-01
3.181728294826746684e-01 5.848951490864555680e-01 -9.554364125171557753e-02 7.368000024372625134e-01 5.482517880541972755e-01 3.956586070134522903e-01
2.997100134005832861e-01 5.913265537717916631e-01 -1.199465539617792370e-01 7.213034229866425173e-01 5.030323158176777110e-01 4.761090854319593446e-01
3.794941578926638304e-01 5.348248632687937487e-01 -8.320455931352288559e-02 7.213034229866425173e-01 5.030323158176777110e-01 4.761090854319593446e-01
2.992074525170512200e-01 6.304690422867142985e-01 -8.733229025211884655e-02 7.227622140991176725e-01 5.272738287958147474e-01 4.467629028215561737e-01
2.659363108006121412e-01 6.269088804691231864e-01 -4.649098550008546465e-02 7.147732241690221144e-01 5.156356040877532187e-01 4.724607516059708412e-01
3.204975142465286697e-01 6.159406991973985779e-01 -9.487399578895414076e-02 7.147732241690221144e-01 5.156356040877532187e-01 4.724607516059708412e-01
3.501080770284815680e-01 5.715363673171708347e-01 1.368553145295787338e-02 7.147732241690221144e-01 5.156356040877532187e-01 4.724607516059708412e-01
2.685087291309301571e-01 6.101686458933130996e-01 -7.060791172456430675e-02 7.180834911034303936e-01 4.684470600050360534e-01 5.146974371194672493e-01
1.942239054132586240e-01 6.163115627029894794e-01 -7.992839417739053265e-02 7.180834911034303936e-01 4.684470600050360534e-01 5.146974371194672493e-01
2.155389555287431924e-01 6.281159486374842116e-01 -6.599260225460047702e-02 7.378183134517958264e-01 4.390936855117409388e-01 5.126605813585278781e-01
2.651522117807526002e-01 5.644335905118310626e-01 3.038756949672705154e-03 7.378183134517958264e-01 4.390936855117409388e-01 5.126605813585278781e-01
2.469885528116003981e-01 5.646035356175627129e-01 -7.282932353320899221e-03 7.017443760893680160e-01 3.828368719173194101e-01 6.008250661611129750e-01
2.606255822649019005e-01 6.404875784749640699e-01 -6.153823630110208387e-02 6.978692987333472431e-01 4.210900502003512291e-01 5.793631085145929394e-01
2.740720467567569485e-01 5.679519955744252169e-01 -7.485107330818781268e-02 6.547187162488443679e-01 3.020339251828504934e-01 6.929061340701968552e-01
2.703083978364742013e-01 5.725463957622880518e-01 -5.164545102910543528e-02 6.757254205459876095e-01 1.901088317606895173e-01 7.122175146080963470e-01
3.303516097127536244e-01 5.973091870633512324e-01 -4.386817319388398861e-03 7.316447788086991588e-01 3.028170970561087638e-01 6.107353955457969219e-01
2.341552689797861964e-01 5.664518500882899099e-01 -1.722599644677701852e-02 6.738985337893350636e-01 4.144614486723115221e-02 7.376604796464487634e-01
2.155935501043398650e-01 4.951032860966295135e-01 1.957680339738600284e-02 6.131471078265013919e-01 1.034390411992863468e-01 7.831672802918729914e-01
2.937312182826510298e-01 5.515833018636353557e-01 4.186601909728182580e-02 4.526864178374734871e-01 -5.144700338647214752e-03 8.916549440023882056e-01
3.332881743472947411e-01 5.444126302747088753e-01 -5.240395908119117180e-02 6.578057759630286938e-01 2.717676373146237223e-01 7.024485122897653477e-01
2.875124005619623668e-01 5.688289884346963143e-01 -3.358623000162615224e-02 6.578057759630286938e-01 2.717676373146237223e-01 7.024485122897653477e-01
3.311070780897188981e-01 4.768913192649284483e-01 -8.245720123341572505e-02 4.663436925031951841e-01 7.248195186486272590e-02 8.816291324113245675e-01
4.039165596764962562e-01 4.568901662529541996e-01 2.403675618733970565e-02 5.509276543461001374e-01 2.292046608161663890e-01 8.024611785855126911e-01
4.196010854979856930e-01 5.043556908597730537e-01 -9.609384185839589532e-02 5.509276543461001374e-01 2.292046608161663890e-01 8.024611785855126911e-01
3.834989898442716649e-01 4.461118661558575171e-01 -1.933836586654386763e-02 5.509276543461001374e-01 2.292046608161663890e-01 8.024611785855126911e-01
4.010860060986716769e-01 4.084680372242146529e-01 -1.208185129265291202e-01 5.962190345162802219e-01 3.234260275255084749e-01 7.347914449689406657e-01
3.541223112336658319e-01 4.090352296124799003e-01 -9.658707186793880073e-02 6.591007562085954286e-01 4.038688919740124894e-01 6.344100497792741766e-01
4.306708881841321279e-01 4.794431004561530707e-01 -1.246578814987717165e-01 6.086944761026447104e-01 3.486945325521174088e-01 7.126732475197784522e-01
3.736103655633855603e-01 4.388875636640450772e-01 -2.735174888465154858e-02 3.389148424387846137e-01 7.603608029262966250e-02 9.377394329281596441e-01
4.304119347379153360e-01 4.719066508827843287e-01 -9.017631936909198398e-02 3.389148424387846137e-01 7.603608029262966250e-02 9.377394329281596441e-01
4.159088181274366858e-01 3.333966602771571974e-01 -9.458456549526414459e-02 3.389148424387846137e-01 7.603608029262966250e-02 9.377394329281596441e-01
4.200654708093770617e-01 3.568095704437397320e-01 -6.482133029852883699e-02 2.074704341693397458e-01 1.639707046714591193e-02 9.781038569731136390e-01
4.848227479092937497e-01 3.276067478288700596e-01 -9.830552910280684897e-02 3.721092879127788633e-01 1.870592662865157851e-01 9.091443827827321300e-01
5.140968334159163877e-01 3.439415341121533354e-01 -2.906942340542117975e-03 3.721092879127788633e-01 1.870592662865157851e-01 9.091443827827321300e-01
4.676018017473527744e-01 3.641686115403949264e-01 -1.496232387055554391e-02 4.629912965557445026e-01 2.279002564819875287e-01 8.565632098152914375e-01
4.650225338209943438e-01 3.107826016546058057e-01 -1.265213555386895672e-01 2.462810127678592143e-01 9.562934163439086588e-02 9.644691243210486986e-01
4.805536056813766166e-01 3.222067674377708801e-01 -7.401786600117238324e-02 1.703134804508191213e-01 7.928972182863922025e-02 9.821947151095171691e-01
5.080920100071378842e-01 3.413216390578860393e-01 -8.311816457711612705e-02 3.386342703291104761e-01 2.314595846094735232e-01 9.120050940927253436e-01
5.097822512876235557e-01 2.924987158500730322e-01 -3.322712715777054182e-02 3.969391288235104009e-01 2.437796283052069413e-01 8.848789865468654758e-01
4.524381780343447734e-01 3.174968893927260227e-01 -1.036038427680609497e-01 5.224960398235187764e-01 3.588568850318334391e-01 7.734465879645402442e-01
5.218342958590441727e-01 2.923351800842904358e-01 -1.357049009090043890e-01 4.806376498987046664e-01 3.421508127899317020e-01 8.074157979672178520e-01
5.662323102962361077e-01 2.089266768830982668e-01 -8.466193814405480189e-02 4.806376498987046664e-01 3.421508127899317020e-01 8.074157979672178520e-01
5.801975697713795954e-01 2.609230897113271608e-01 -5.534490158967550477e-03 6.270227713383152990e-01 4.384739597979625536e-01 6.438812241417772864e-01
5.428765113413273058e-01 3.102678481519957066e-01 -9.864295144760151790e-02 6.270227713383152990e-01 4.384739597979625536e-01 6.438812241417772864e-01
5.552706354385141818e-01 2.296723521634664034e-01 -1.775418322708950947e-01 6.270227713383152990e-01 4.384739597979625536e-01 6.438812241417772864e-01
5.683922220636435929e-01 2.888788884827708792e-01 -1.105102604055939325e-01 6.976581276787297003e-01 4.848050628993588740e-01 5.274819313217831152e-01
6.333419710003839187e-01 1.547506263226918477e-01 -5.422557669298641581e-02 6.976581276787297003e-01 4.848050628993588740e-01 5.274819313217831152e-01
5.540264563026184863e-01 2.511042794293213420e-01 -1.339086374751825015e-01 7.463966497788931953e-01 5.154150308180232010e-01 4.209980845629830437e-01
5.485359932290340135e-01 3.358613131497514837e-01 -1.315830723228019750e-01 7.463966497788931953e-01 5.154150308180232010e-01 4.209980845629830437e-01
6.078519739260668242e-01 2.666091903162767229e-01 -1.050765092638684534e-01 7.463966497788931953e-01 5.154150308180232010e-01 4.209980845629830437e-01
6.043444880779058614e-01 2.163554868693772781e-01 -1.186849494422311940e-01 7.463966497788931953e-01 5.154150308180232010e-01 4.209980845629830437e-01
5.358125557850441645e-01 3.349806721488544081e-01 -1.064328438958526413e-01 6.915478410998641134e-01 4.779706988329243122e-01 5.415769516211736967e-01
5.178155019492621802e-01 3.097359281120807828e-01 -6.224776491632379172e-02 6.915478410998641134e-01 4.779706988329243122e-01 5.415769516211736967e-01
5.815739905595643799e-01 3.181736142860109307e-01 -1.705215784699198878e-01 7.465883709793814660e-01 5.156607748452489703e-01 4.203567170919847995e-01
5.717633051329035210e-01 2.031464339290071086e-01 -2.392233443456486808e-01 7.831011154902643989e-01 5.400967680503657720e-01 3.082987577974535265e-01
5.889148702738942198e-01 2.524070359946806730e-01 -1.726512276048207395e-01 8.043748418337967054e-01 5.577518166594652715e-01 2.046802990957376500e-01
6.124713328874485940e-01 2.657451292886031657e-01 -1.919409366212243839e-01 8.043748418337967054e-01 5.577518166594652715e-01 2.046802990957376500e-01
5.278041391234353785e-01 3.045511067732125654e-01 -2.253193331558245305e-01 7.842978824142419203e-01 5.434528075443930684e-01 2.992254628414045547e-01
5.986626360042081041e-01 1.811991951114889920e-01 -1.157384576964190087e-01 7.562639303724472128e-01 5.131367282392598206e-01 4.059009309542496169e-01
6.764844631127184815e-01 1.887435400139961250e-01 -1.795428303911640877e-01 7.562639303724472128e-01 5.131367282392598206e-01 4.059009309542496169e-01
6.056742762136415603e-01 2.282443496362121238e-01 -1.684099443453657419e-01 7.882245417646052132e-01 5.295484365874472132e-01 3.134972488998405415e-01
5.468359246560168252e-01 2.654465306154816240e-01 -1.719327006090818621e-01 8.113095464880790697e-01 5.454232787853209308e-01 2.104525284627799808e-01
5.240716547514081558e-01 1.991934157428253693e-01 -9.561974213360772967e-02 8.113095464880790697e-01 5.454232787853209308e-01 2.104525284627799808e-01
6.264269909309517770e-01 1.993899990103824016e-01 -1.833284685543913328e-01 8.113095464880790697e-01 5.454232787853209308e-01 2.104525284627799808e-01
6.568096878407869710e-01 1.857091209240173402e-01 -1.516271433560670845e-01 7.904914874833821603e-01 5.344433562925037240e-01 2.991546542026614075e-01
6.960882802465160335e-01 6.479211570110014751e-02 -1.455665231881994870e-01 8.208512725091297035e-01 5.358611184803029337e-01 1.976260360407537386e-01
5.291926865337726049e-01 2.149059751575173038e-01 -7.272821230551863858e-02 3.738453916907721886e-01 2.754992194535397787e-01 8.856296083533248265e-01
5.129500737744245864e-01 3.313995157654421875e-01 -7.124229115921792976e-02 1.992426221589499724e-01 1.311220152132819006e-01 9.711381954395748028e-01
5.428080175956052633e-01 3.062378650269942382e-01 -5.001593345131492147e-02 1.425060352360864591e-01 1.220210861586964735e-01 9.822438009241610812e-01
5.670962902251267534e-01 3.035897112748728310e-01 -5.031994388597767903e-02 3.324935938366432309e-01 2.875864348697435013e-01 8.981882055207048854e-01
5.903932289419725477e-01 1.778467764883023272e-01 -7.468015124166772767e-02 3.824149831068667793e-01 3.332263078899483366e-01 8.618114691888290047e-01
5.489247872776917836e-01 2.313469319199065177e-01 -1.281481648991361078e-01 1.965094222189686657e-01 2.070103006621063502e-01 9.584001160261570451e-01
5.854336431096197613e-01 1.441216889393935052e-01 -6.519410049681845232e-02 1.259739475026263322e-01 1.881233035365378892e-01 9.740329497594550912e-01
5.626421295661471200e-01 5.252447921545701226e-02 -6.652590737200338167e-02 3.482922160005636480e-01 3.528292955519811147e-01 8.684492043140517037e-01
5.700962186570479595e-01 1.825155611088497276e-01 -5.609307711237901395e-02 3.482922160005636480e-01 3.528292955519811147e-01 8.684492043140517037e-01
6.592669008173251965e-01 1.222019928100266106e-01 -1.121567964521438393e-01 5.398116087486519721e-01 4.336508250718007496e-01 7.214917802544520420e-01
6.007617967175258311e-01 1.393671734521383654e-01 -8.028896254332884563e-02 5.398116087486519721e-01 4.336508250718007496e-01 7.214917802544520420e-01
7.094087041780624547e-01 7.737140706107534238e-02 -1.396106709681571856e-01 6.345842784158006733e-01 4.610133062511591606e-01 6.202979324863756583e-01
6.102823816810180046e-01 1.164013082778781460e-01 -1.485113638139181069e-01 6.345842784158006733e-01 4.610133062511591606e-01 6.202979324863756583e-01
6.267052334076581577e-01 1.383552475779410429e-01 -9.438732774251083757e-02 6.345842784158006733e-01 4.610133062511591606e-01 6.202979324863756583e-01
6.292315132647173792e-01 1.358360979200067820e-01 -9.970733542498812219e-02 4.997352482646256755e-01 3.999970749846888940e-01 7.682883714111428120e-01
5.541380309200466536e-01 1.604892641593965719e-01 -1.727514482865605272e-01 4.997352482646256755e-01 3.999970749846888940e-01 7.682883714111428120e-01
7.328484131950954161e-01 5.253500312843107506e-02 -3.871322523045638703e-02 6.403458148804090921e-01 4.566625064988740768e-01 6.175893397099002646e-01
6.613309811111721670e-01 7.784754507778510191e-02 -5.772310759631073956e-02 4.204733119216808035e-01 4.052105701326622067e-01 8.117922072885251916e-01
5.839463833043333496e-01 1.632038126375218723e-01 -6.598836592087127528e-02 1.898023437903093302e-01 2.876743022777296099e-01 9.387324251887365634e-01
6.315377461292959183e-01 1.718920058903380677e-01 -1.027865976006337723e-01 1.898023437903093302e-01 2.876743022777296099e-01 9.387324251887365634e-01
6.649626791140973436e-01 5.823132878923933248e-02 -6.744438299377072954e-02 1.433882569123999251e-01 2.894266403311900326e-01 9.463995074207421920e-01
5.757250465498446879e-01 1.106892225855372891e-01 -8.249077022119657987e-02 1.433882569123999251e-01 2.894266403311900326e-01 9.463995074207421920e-01
7.302583681577596852e-01 1.429223526318608266e-02 -3.926152224074337671e-02 4.754897298593743771e-01 4.699935056262254940e-01 7.436502010135076501e-01
6.220567063979884903e-01 7.351349163211506887e-02 -8.054145878917098877e-02 4.754897298593743771e-01 4.699935056262254940e-01 7.436502010135076501e-01
6.656831156152771545e-01 -2.862955326123338418e-02 -2.001929809143177322e-02 2.218964502668548389e-01 4.135607622148965712e-01 8.830229109797791409e-01
6.539811491471985150e-01 -1.763483468873375606e-03 -2.038523244266852302e-02 2.923756808744780167e-01 5.008722123422204575e-01 8.146431661387671941e-01
6.188269561859938150e-01 1.704804485271889936e-01 -3.711166525605798516e-01 6.321018748159316081e-01 4.219435228224647227e-01 -6.499314451558353412e-01
5.678802230250485916e-01 2.568524600990040319e-01 -2.539690500279555563e-01 6.927450453378732886e-01 4.703360513179020153e-01 -5.467067778896761432e-01
5.654404306080795806e-01 2.566948980531361668e-01 -2.971561749977723599e-01 6.927450453378732886e-01 4.703360513179020153e-01 -5.467067778896761432e-01
4.873742663216383830e-01 3.603869627215605664e-01 -2.638883553545850469e-01 6.927450453378732886e-01 4.703360513179020153e-01 -5.467067778896761432e-01
6.700698184054055817e-01 2.706444153797327168e-01 -3.092748312706561920e-01 6.927450453378732886e-01 4.703360513179020153e-01 -5.467067778896761432e-01
5.293119540146929980e-01 2.593632837118977075e-01 -2.786509131146433504e-01 6.927450453378732886e-01 4.703360513179020153e-01 -5.467067778896761432e-01
5.612277811299923869e-01 2.138595309321053572e-01 -3.406957518251625960e-01 6.384250030193929781e-01 4.334557092881232698e-01 -6.360264645478348466e-01
5.840186308134810433e-01 1.920956734942092792e-01 -2.953500820183728170e-01 6.384250030193929781e-01 4.334557092881232698e-01 -6.360264645478348466e-01
5.782265383910177858e-01 2.776730071613322526e-01 -3.396536682926158957e-01 7.023323766239401023e-01 4.723431893382349367e-01 -5.325609300648634914e-01
6.336691647934852289e-01 1.769653872213884371e-01 -3.078236357235680787e-01 7.023323766239401023e-01 4.723431893382349367e-01 -5.325609300648634914e-01
6.770412532235775549e-01 2.588531345561947417e-01 -3.166097164526118779e-01 7.023323766239401023e-01 4.723431893382349367e-01 -5.325609300648634914e-01
6.566607306183747106e-01 1.636017540543411031e-01 -2.949963720370749054e-01 7.493514956341187361e-01 5.043485269266922977e-01 -4.290744683359576372e-01
6.588152285208304093e-01 1.247086996018776511e-01 -2.609024473801334620e-01 7.575781386878711610e-01 4.924749832729451438e-01 -4.284200679619629137e-01
6.447122931464244200e-01 9.022216591343949765e-02 -2.833573623398218388e-01 7.575781386878711610e-01 4.924749832729451438e-01 -4.284200679619629137e-01
6.204816486298072586e-01 1.996056778866016901e-01 -2.525870361331779002e-01 7.949611316776422631e-01 5.263287976289866554e-01 -3.016865855622812842e-01
6.214331436725126778e-01 1.980311966577948390e-01 -2.262644292097405474e-01 7.949611316776422631e-01 5.263287976289866554e-01 -3.016865855622812842e-01
6.806313794619702762e-01 1.243660862955914131e-01 -2.829906837743460524e-01 7.938996284455702712e-01 5.174570710299783993e-01 -3.193142019939941290e-01
6.863623572180522769e-01 4.497896012392851861e-02 -2.787820790622875244e-01 7.938996284455702712e-01 5.174570710299783993e-01 -3.193142019939941290e-01
6.192341096216168461e-01 1.477101601517570861e-01 -3.339486520485736021e-01 7.552432187472702951e-01 4.880608618242159302e-01 -4.374977436418004406e-01
7.188030696875997716e-01 5.254043815614486967e-02 -3.146366652345041204e-01 7.552432187472702951e-01 4.880608618242159302e-01 -4.374977436418004406e-01
7.361584223349699752e-01 1.812156913720898710e-01 -3.308636738127926913e-01 7.797537360218598224e-01 4.767392914397201586e-01 -4.058371091429482935e-01
7.178120958630812565e-01 5.864663994582069995e-02 -2.407695722290076057e-01 8.101016514800194468e-01 5.075955249149346482e-01 -2.933975074121750182e-01
7.995648666334330690e-01 7.963389102396681296e-02 -2.462484806489788070e-01 8.101016514800194468e-01 5.075955249149346482e-01 -2.933975074121750182e-01
7.188195049154366689e-01 2.066927642404299548e-03 -2.964561939675893765e-01 8.061943856026466682e-01 4.949081357849127172e-01 -3.242168252214455704e-01
8.076128641804491970e-01 1.489855829812953281e-01 -2.817845208171412263e-01 8.061943856026466682e-01 4.949081357849127172e-01 -3.242168252214455704e-01
6.997624777277111630e-01 1.410282835096055010e-01 -2.779989495285296597e-01 8.138149103372390725e-01 5.397781345727892255e-01 -2.152785571066274939e-01
6.902007059740744577e-01 9.461714812178842471e-02 -2.940205589359701221e-01 8.280377441122126481e-01 5.283901057841150495e-01 -1.875030411353623971e-01
7.066797468916277136e-01 1.127084510578033882e-01 -2.024233314364767278e-01 8.280377441122126481e-01 5.283901057841150495e-01 -1.875030411353623971e-01
7.481268371844338461e-01 1.635352871849531931e-01 -2.101378216594027848e-01 8.364391433793054720e-01 5.410281648046302294e-01 -8.751048114956123947e-02
6.627726823182862326e-01 1.522666545455901299e-01 -2.020090881632607138e-01 8.364391433793054720e-01 5.410281648046302294e-01 -8.751048114956123947e-02
7.249754373241021899e-01 2.189606445036155480e-01 -2.082723606238473801e-01 8.364391433793054720e-01 5.410281648046302294e-01 -8.751048114956123947e-02
6.524856504946918712e-01 1.748747003168126812e-01 -2.424165066936329882e-01 8.364391433793054720e-01 5.410281648046302294e-01 -8.751048114956123947e-02
7.142928303122825229e-01 4.784586349365149704e-02 -3.198646783994451015e-01 8.375690360003528179e-01 5.363911834773393839e-01 -1.037429911908222396e-01
7.092815559830346617e-01 1.807010563181135065e-01 -2.113052013011685326e-01 8.387001897253543170e-01 5.445499452375012206e-01 -6.881053443270022073e-03
6.343018781967106889e-01 1.098272427338138485e-01 -1.881863548450555257e-01 8.387001897253543170e-01 5.445499452375012206e-01 -6.881053443270022073e-03
6.932995606522294185e-01 3.161201231539818857e-02 -1.510702568371398158e-01 8.368608482523312020e-01 5.375770607948415769e-01 1.033190416601306449e-01
6.267159051620764254e-01 1.531289353173176382e-01 -1.715157406016385166e-01 8.368608482523312020e-01 5.375770607948415769e-01 1.033190416601306449e-01
6.621383159041979161e-01 1.531130216972259039e-01 -2.352467817333669942e-01 8.422795990481418693e-01 5.382802822356695938e-01 2.862542198098101676e-02
7.607717203820566487e-01 3.185470586192672149e-02 -2.011119132690661337e-01 8.422795990481418693e-01 5.382802822356695938e-01 2.862542198098101676e-02
7.540542537990506666e-01 8.253073035806553215e-02 -1.887849092679975693e-01 8.422795990481418693e-01 5.382802822356695938e-01 2.862542198098101676e-02
7.933716167117421669e-01 5.555447419368261114e-02 -2.014441105243586494e-01 8.443243750420398319e-01 5.170029741995062489e-01 1.407987016230387023e-01
7.013841467097344795e-01 -3.633941019734863997e-02 -2.459482855936310219e-01 8.443243750420398319e-01 5.170029741995062489e-01 1.407987016230387023e-01
6.884862368709341318e-01 1.035297527184055877e-01 -1.577828108359474180e-01 8.544132237528727636e-01 5.195378842147427845e-01 7.643948056603954398e-03
7.195228067883284728e-01 -1.668138661820590257e-02 -2.041090288775699868e-01 8.520138878884178091e-01 5.106666340056466025e-01 1.152906056823595621e-01
7.759198861205924835e-01 -1.133998119214258901e-02 -1.825714705545704031e-01 8.580466323645008497e-01 5.108001808993236637e-01 5.328369245048085456e-02
7.311313329603982281e-01 8.416457813884475891e-02 -1.823511580867265836e-01 8.580466323645008497e-01 5.108001808993236637e-01 5.328369245048085456e-02
7.497611745891656909e-01 3.568714568042399837e-02 -1.986505829157174940e-01 8.588377368572188697e-01 4.886401929588087834e-01 1.537156581976884817e-01
7.936458494061704450e-01 4.376668250655330050e-03 -1.955753425236997911e-01 8.723762451601614343e-01 4.876933553507161734e-01 3.338978926285741944e-02
7.784630457780177260e-01 -3.610628098912740946e-02 -2.267878147258381438e-01 8.740830592793770171e-01 4.707149792158188961e-01 1.200258881352530144e-01
8.044076338210510713e-01 -1.531108322729332616e-03 -1.970025063503191842e-01 8.740830592793770171e-01 4.707149792158188961e-01 1.200258881352530144e-01
8.293949319727954572e-01 -1.161814097417752656e-01 -2.937180392911412641e-01 8.947078226249955968e-01 4.444263550216929204e-01 4.453231518539797068e-02
8.483970739246804449e-01 1.484538027669113358e-02 -1.934274311946202196e-01 8.779695462469959688e-01 4.702121050065376506e-01 8.983346908677730669e-02
7.542837001937550134e-01 -6.521670500760474998e-02 -2.258547088760842481e-01 8.779695462469959688e-01 4.702121050065376506e-01 8.983346908677730669e-02
8.010140203567657213e-01 -3.685888586787244153e-02 -2.552626518567749914e-01 8.740111704778714685e-01 4.837642161574589594e-01 -4.557035270283051054e-02
8.521760807184122211e-01 -6.129470740008840374e-02 -1.697316003477992719e-01 8.975220787349913465e-01 4.408284095345764708e-01 -1.115488818571000289e-02
8.191383896751648352e-01 -5.823410253651348928e-02 -1.503985330484099991e-01 8.805729116723560734e-01 4.566430308400309945e-01 -1.267615462752775257e-01
7.583065207957725429e-01 -8.522494959086224231e-02 -1.733114211183473807e-01 8.805729116723560734e-01 4.566430308400309945e-01 -1.267615462752775257e-01
7.827761956174704716e-01 -5.142572080118702066e-02 -1.861463314298210103e-01 8.805729116723560734e-01 4.566430308400309945e-01 -1.267615462752775257e-01
7.994976758600405020e-01 -1.302623898126012980e-01 -1.878577034392441558e-01 8.831833564356027511e-01 4.604769714357097032e-01 -8.915221641967067956e-02
8.202588971885576008e-01 -4.619217505164916610e-02 -2.615861858180180688e-01 8.831833564356027511e-01 4.604769714357097032e-01 -8.915221641967067956e-02
9.068342490838057213e-01 -2.661599564718824529e-01 -1.922381272183220913e-01 9.051025702802248940e-01 3.862080232024538429e-01 -1.778558407423926624e-01
7.606983833620427626e-01 -1.170916505800694840e-01 -1.513496947113572022e-01 8.746385574159820653e-01 4.498972165942287105e-01 1.805543917551036270e-01
8.084449644765326903e-01 -8.915146198459683591e-02 -1.454012667586954966e-01 8.746385574159820653e-01 4.498972165942287105e-01 1.805543917551036270e-01
8.146893285968703768e-01 -1.543105869870657898e-01 -1.303714894037341920e-01 9.042616277021459092e-01 3.961588861654297133e-01 1.592766322397348167e-01
8.011352633593351591e-01 -1.719704388300477005e-01 -1.966925451654112922e-01 9.042616277021459092e-01 3.961588861654297133e-01 1.592766322397348167e-01
8.561203571950377622e-01 -2.410807056418857175e-01 -2.072518094627050500e-01 9.086731148265378977e-01 3.998964194124807192e-01 1.199834327418364821e-01
8.582020237351404290e-01 -1.621505350617320484e-01 -8.720782557832573723e-02 9.044290871431269752e-01 3.833674648481927849e-01 1.871828336822575767e-01
8.894772719637800140e-01 -2.125888580035638353e-01 -2.349559569258964642e-01 9.150651705665781011e-01 3.512590348154477904e-01 1.981737219625231416e-01
7.312644192313750846e-01 4.613686950271135567e-02 -1.273706170738130583e-01 8.320259351427060635e-01 5.137832947040398279e-01 2.091878804638721556e-01
7.041890201639449121e-01 4.921764482948203651e-02 -1.930008343961845396e-01 8.320259351427060635e-01 5.137832947040398279e-01 2.091878804638721556e-01
7.661696582873441796e-01 -4.045309249083525044e-02 -2.107358378544942068e-01 8.320259351427060635e-01 5.137832947040398279e-01 2.091878804638721556e-01
7.666835369704098069e-01 2.332086041456462450e-02 -9.106688529885752226e-02 8.057460998111732886e-01 4.933212628240133402e-01 3.277306123705926999e-01
6.888396730081891572e-01 6.173858554579332580e-02 -1.459674930339695531e-01 8.092627841385608978e-01 4.997316728617439141e-01 3.088073855125684775e-01
6.605388217075932600e-01 6.859671671303482765e-02 -1.589555588409879983e-01 8.092627841385608978e-01 4.997316728617439141e-01 3.088073855125684775e-01
7.067446437480956467e-01 8.291663872009213954e-02 -1.723751027222709120e-01 8.092627841385608978e-01 4.997316728617439141e-01 3.088073855125684775e-01
7.152881629248373230e-01 -8.062259209748977307e-03 -1.120282586888874110e-01 7.745296093374131052e-01 4.842428156248552717e-01 4.069555009768839882e-01
7.524290320710399493e-01 -1.480147987220046396e-02 -1.498337302821847739e-01 7.732974870607838280e-01 4.825552879245229021e-01 4.112801850339467546e-01
7.554139083925432985e-01 -2.340264392144762381e-02 -4.158465730620707762e-02 7.350214395157015357e-01 4.805100142203894698e-01 4.783864647815475046e-01
7.874540766416880944e-01 3.233182217932676055e-03 -2.233004230590603656e-01 7.350214395157015357e-01 4.805100142203894698e-01 4.783864647815475046e-01
7.620911242279100328e-01 -4.048789520944965498e-02 -9.167331601206267500e-02 7.256279435710822900e-01 4.697667305592953535e-01 5.027756023997511647e-01
7.535271213685555969e-01 5.874341379140606001e-02 -1.302052871243853660e-01 7.256279435710822900e-01 4.697667305592953535e-01 5.027756023997511647e-01
7.593859572321733920e-01 1.649019363670187199e-02 -1.058409018755178121e-01 7.256279435710822900e-01 4.697667305592953535e-01 5.027756023997511647e-01
7.260750335248948861e-01 8.518740526159807036e-03 -1.030101742566385675e-01 7.919916004465908932e-01 4.585616770076906823e-01 4.030762870747197080e-01
7.552013125315685249e-01 -7.795611964809381900e-02 -1.336457976237367118e-01 7.938455702166926642e-01 4.608994050013038302e-01 3.967126782909489169e-01
8.069872999418608028e-01 -7.144933783282284012e-02 -1.509495088796084517e-01 7.938455702166926642e-01 4.608994050013038302e-01 3.967126782909489169e-01
8.214403873281792556e-01 -8.213016599825792574e-02 -1.169518769565242866e-01 7.938455702166926642e-01 4.608994050013038302e-01 3.967126782909489169e-01
7.556902106968226285e-01 -2.876017374273866917e-02 -6.168694855025079471e-02 7.453181358034806081e-01 4.699032696874655968e-01 4.729606681104183696e-01
7.065085531669064167e-01 -6.865535988900300923e-02 -1.409481526707250798e-01 6.638652233164353822e-01 4.650232220206622635e-01 5.856930665908050004e-01
7.007783585053363185e-01 -8.950217441915186978e-02 -8.211862465635838548e-02 6.932478759895572828e-01 4.944669037501874809e-01 5.243184752911823621e-01
7.547805698797767082e-01 -1.293275588091920281e-02 -4.151246501350349533e-02 6.932478759895572828e-01 4.944669037501874809e-01 5.243184752911823621e-01
6.668918136269481600e-01 -1.093756672003943220e-01 -4.584456440590490428e-02 6.148340589651594135e-01 5.398060856221553738e-01 5.749682337848875946e-01
6.339510724185830615e-01 -1.500690301433382258e-02 -8.363971250988000428e-02 5.854221516712455609e-01 4.718816942372630607e-01 6.592484895518374577e-01
7.035380030148213892e-01 -8.815648802748027313e-02 -4.500347741323753453e-02 5.229833191092047029e-01 5.238335865900349830e-01 6.723740190502158764e-01
6.357178372724228144e-01 5.870506844573512850e-02 8.842173147399230021e-03 2.876024165408287425e-01 5.051219483426655499e-01 8.137178056933405124e-01
6.677355607241541868e-01 3.946628917729910757e-02 -9.550403036845539484e-02 4.875236806974642123e-01 5.500812470190131753e-01 6.780348681573865610e-01
-7.499865555104799457e-03 8.899566862570045256e-01 -3.001069377134764626e-01 -8.166200997790502847e-02 9.628460873436642808e-01 -2.574077081467557315e-01
5.710279407164738086e-03 8.700226257186911560e-01 -2.050175057656765387e-01 -1.023098132944534888e-01 9.892933773733673108e-01 -1.040736065909629027e-01
6.318476847214116177e-02 8.090162116581186558e-01 -2.798179461674503710e-01 -1.023098132944534888e-01 9.892933773733673108e-01 -1.040736065909629027e-01
-4.604318776448526607e-02 9.056995971134135237e-01 -2.444969354744869205e-01 -1.821251374681273905e-01 9.817446283926977157e-01 -5.484449766658101855e-02
-9.667833742173168043e-02 8.848365612980888528e-01 -2.815106772085381737e-01 -3.669109404188719004e-01 9.216906885831859242e-01 -1.259469585976238648e-01
-7.018100560450078740e-02 8.552922767581881969e-01 -2.824978018583166883e-01 -4.785047511802170139e-01 8.736721554219631924e-01 -8.792137361472350532e-02
-1.259444449570609470e-01 8.615404906560510945e-01 -2.358240103827125012e-01 -4.785047511802170139e-01 8.736721554219631924e-01 -8.792137361472350532e-02
