8.934115612319101785e-02 6.001364157014403844e-01 -7.620544881974291584e-01 0.000000000000000000e+00 9.341253274504544013e-01 -3.569451955350866901e-01
3.439789506455989132e-01 8.088955831566556620e-01 -9.446746235021154237e-02 0.000000000000000000e+00 9.341936836306459213e-01 -3.567662560621515100e-01
3.707937764219515486e-01 7.555223532707634471e-01 -4.792940837982245100e-02 0.000000000000000000e+00 9.341936836306459213e-01 -3.567662560621515100e-01
3.118676942622872761e-01 8.099500853055728866e-01 -4.675572263188862432e-02 0.000000000000000000e+00 9.341936836306459213e-01 -3.567662560621515100e-01
4.143910755087997222e-01 8.081680952182639377e-01 -7.988978945373237384e-02 0.000000000000000000e+00 9.341936836306459213e-01 -3.567662560621515100e-01
5.181025862748686039e-01 7.827445673655246683e-01 -1.059804599956889887e-01 0.000000000000000000e+00 9.341936836306459213e-01 -3.567662560621515100e-01
-1.430696654723964123e-01 7.719493121494737098e-01 -6.363049957665267709e-02 0.000000000000000000e+00 9.341305459003168554e-01 -3.569315385560316578e-01
4.301631335590759275e-01 8.970568229087327872e-01 -4.992988823410847432e-02 0.000000000000000000e+00 9.341305459003168554e-01 -3.569315385560316578e-01
4.480084767627622033e-02 8.324081916876240328e-01 1.077745529078140418e-02 0.000000000000000000e+00 9.341305459003168554e-01 -3.569315385560316578e-01
2.646886127566074332e-01 7.120285473003606924e-01 -1.466227214072335361e-01 0.000000000000000000e+00 9.341305459003168554e-01 -3.569315385560316578e-01
4.922231858197089194e-01 8.472275243466551586e-01 -1.031603719344656445e-02 0.000000000000000000e+00 9.341305459003168554e-01 -3.569315385560316578e-01
-2.536136152486726317e-02 7.830658876602765162e-01 -3.521364440412252939e-02 0.000000000000000000e+00 9.341305459003168554e-01 -3.569315385560316578e-01
2.167170095384766682e-01 8.136615178627893963e-01 -8.817183445142112719e-02 0.000000000000000000e+00 9.341305459003168554e-01 -3.569315385560316578e-01
-2.021147298215330568e-01 8.462206996238270662e-01 -1.024929352949169314e-02 0.000000000000000000e+00 9.341305459003168554e-01 -3.569315385560316578e-01
4.050801016806759303e-01 9.313264883823060281e-01 -4.999683425481617205e-02 0.000000000000000000e+00 9.341305459003168554e-01 -3.569315385560316578e-01
4.142648469424053403e-01 7.509860638199669092e-01 -3.873464082895833327e-02 0.000000000000000000e+00 9.341305459003168554e-01 -3.569315385560316578e-01
4.646543508681341694e-01 8.838413140872628526e-01 -7.011065814800651608e-02 0.000000000000000000e+00 9.341305459003168554e-01 -3.569315385560316578e-01
2.088976954567179634e-01 8.319369596131149791e-01 -1.330750420164031333e-01 0.000000000000000000e+00 9.341305459003168554e-01 -3.569315385560316578e-01
1.713088399605135759e-01 8.778948473351527726e-01 -4.734542712747330517e-02 0.000000000000000000e+00 9.341305459003168554e-01 -3.569315385560316578e-01
2.239316446078960521e-01 8.072453119166901336e-01 -9.187037206153442215e-02 0.000000000000000000e+00 9.341305459003168554e-01 -3.569315385560316578e-01
1.021236395516792600e-01 3.546129386958115637e-01 -8.387718972740256795e-01 3.569315385560316578e-01 0.000000000000000000e+00 -9.341305459003168554e-01
1.039119026164921772e-01 3.354098495356198639e-01 -8.150956213697013730e-01 3.569315385560316578e-01 0.000000000000000000e+00 -9.341305459003168554e-01
6.201204849544214581e-02 1.436024316624439634e-01 -7.989629577644814518e-01 3.569315385560316578e-01 0.000000000000000000e+00 -9.341305459003168554e-01
9.014485893965519525e-02 -1.818088491078630187e-02 -7.578988800161718942e-01 3.569315385560316578e-01 0.000000000000000000e+00 -9.341305459003168554e-01
6.048349985688858399e-02 3.013738697827811897e-01 -8.114628095087768056e-01 3.569315385560316578e-01 0.000000000000000000e+00 -9.341305459003168554e-01
7.340407436204668401e-02 3.154901031701536906e-01 -8.712007141350629480e-01 3.569315385560316578e-01 0.000000000000000000e+00 -9.341305459003168554e-01
1.193142397184879799e-01 4.903575547040901483e-01 -9.367007794960126033e-01 3.569315385560316578e-01 0.000000000000000000e+00 -9.341305459003168554e-01
8.316789812314359653e-02 1.608104560422192186e-01 -8.799111796333251023e-01 3.569315385560316578e-01 0.000000000000000000e+00 -9.341305459003168554e-01
8.807923547127258224e-02 -2.398778477614718907e-01 -8.473745348741035244e-01 3.569315385560316578e-01 0.000000000000000000e+00 -9.341305459003168554e-01
6.907381103953047496e-02 3.659994315864158465e-01 -7.969958102800296373e-01 3.569315385560316578e-01 0.000000000000000000e+00 -9.341305459003168554e-01
5.662633210941906553e-02 4.414314102572327592e-01 -9.132598339759869788e-01 3.569315385560316578e-01 0.000000000000000000e+00 -9.341305459003168554e-01
5.082757848878209916e-01 3.354520722728046578e-02 -6.146755312567282470e-01 3.569199719648901703e-01 0.000000000000000000e+00 -9.341349654159092353e-01
4.520440559749190346e-01 -3.179221103706421359e-02 -7.027979788846463460e-01 3.569199719648901703e-01 0.000000000000000000e+00 -9.341349654159092353e-01
5.506601001789216410e-01 6.937322402685798528e-02 -7.304933260450515720e-01 3.569199719648901703e-01 0.000000000000000000e+00 -9.341349654159092353e-01
4.326253648273541974e-01 9.175983309193279369e-02 -6.606329860990064473e-01 3.569199719648901703e-01 0.000000000000000000e+00 -9.341349654159092353e-01
4.256017889638216700e-01 -7.877742752351291067e-02 -6.869375353660105432e-01 3.569199719648901703e-01 0.000000000000000000e+00 -9.341349654159092353e-01
4.392785925379437129e-01 -9.539069370344484267e-02 -5.907060650491963161e-01 3.569199719648901703e-01 0.000000000000000000e+00 -9.341349654159092353e-01
4.178981327036641602e-01 -2.290737274458385930e-01 -6.146888054069625795e-01 3.569199719648901703e-01 0.000000000000000000e+00 -9.341349654159092353e-01
4.477126362017598282e-01 -2.198091327200546174e-01 -7.058650778708530638e-01 3.569199719648901703e-01 0.000000000000000000e+00 -9.341349654159092353e-01
4.081239119087909373e-01 8.947654023792890599e-02 -7.231302182171245319e-01 3.569199719648901703e-01 0.000000000000000000e+00 -9.341349654159092353e-01
7.269514270063519579e-01 -1.911845617157263422e-01 -5.616668192402357596e-01 3.567311784357987681e-01 0.000000000000000000e+00 -9.342070789347544091e-01
6.639167272490478222e-01 -3.824983772067587495e-03 -5.604277706303136819e-01 3.567311784357987681e-01 0.000000000000000000e+00 -9.342070789347544091e-01
6.990047028317710742e-01 -4.060670989125322178e-02 -5.369640824910848487e-01 3.567311784357987681e-01 0.000000000000000000e+00 -9.342070789347544091e-01
8.319927775512234724e-01 4.374980566113577385e-02 -5.629499718409664011e-01 3.569451955350866901e-01 0.000000000000000000e+00 -9.341253274504544013e-01
6.924852532926282223e-01 6.049011796469424412e-02 -5.811850590053445620e-01 3.569451955350866901e-01 0.000000000000000000e+00 -9.341253274504544013e-01
1.304712927654659016e-01 -2.974574586252822228e-01 -8.863913971361315758e-01 3.567662560621515100e-01 0.000000000000000000e+00 -9.341936836306459213e-01
1.116192045161362167e-01 -2.152301782161508692e-01 -8.121574701077610703e-01 3.567662560621515100e-01 0.000000000000000000e+00 -9.341936836306459213e-01
1.117904823614475629e-01 -3.107592130710085665e-01 -8.398022326223035794e-01 3.567662560621515100e-01 0.000000000000000000e+00 -9.341936836306459213e-01
9.179937730681977937e-02 -4.155542047116655424e-01 -8.430913410850070511e-01 3.567662560621515100e-01 0.000000000000000000e+00 -9.341936836306459213e-01
5.678290361437259709e-02 2.150063775003416972e-02 -8.676269420276321309e-01 3.567662560621515100e-01 0.000000000000000000e+00 -9.341936836306459213e-01
1.202687298591478271e-01 3.231613787912632763e-01 -8.154616523825090058e-01 3.567662560621515100e-01 0.000000000000000000e+00 -9.341936836306459213e-01
4.987654377057257338e-02 2.008406870759081864e-01 -7.697750208068627753e-01 3.567662560621515100e-01 0.000000000000000000e+00 -9.341936836306459213e-01
1.415711970053279700e-01 -3.011750700073163867e-02 -7.784069348822566514e-01 3.567662560621515100e-01 0.000000000000000000e+00 -9.341936836306459213e-01
7.142780257334610527e-02 -3.923175796770693724e-01 -7.809353592542180866e-01 3.567662560621515100e-01 0.000000000000000000e+00 -9.341936836306459213e-01
1.333481917665098049e-01 7.413549174910920303e-02 -8.262795618342174686e-01 3.567662560621515100e-01 0.000000000000000000e+00 -9.341936836306459213e-01
6.235673873637728737e-03 -1.781232346926693855e-01 -8.768489723383491308e-01 3.567662560621515100e-01 0.000000000000000000e+00 -9.341936836306459213e-01
1.815662456123670609e-01 -3.999403684658026092e-01 -8.145689791335702923e-01 3.567662560621515100e-01 0.000000000000000000e+00 -9.341936836306459213e-01
1.040909911501972096e-01 -3.897264754262179665e-01 -7.757212449452769443e-01 3.567662560621515100e-01 0.000000000000000000e+00 -9.341936836306459213e-01
1.202321434948597362e-01 -1.847843695350318005e-01 -8.397614237326034292e-01 3.567662560621515100e-01 0.000000000000000000e+00 -9.341936836306459213e-01
1.462321445701283973e-01 -9.639263599986240549e-02 -7.799146404491850149e-01 3.567662560621515100e-01 0.000000000000000000e+00 -9.341936836306459213e-01
3.051001009225270955e-02 -3.514047776101648646e-01 -8.458412524384307796e-01 3.567662560621515100e-01 0.000000000000000000e+00 -9.341936836306459213e-01
-4.356064565837777791e-01 1.281159332028617703e-01 -6.556649112245015454e-01 -3.569199719648901703e-01 0.000000000000000000e+00 -9.341349654159092353e-01
-4.363137859959116960e-01 1.212777208878211138e-01 -6.970220221704654939e-01 -3.569199719648901703e-01 0.000000000000000000e+00 -9.341349654159092353e-01
-3.964791617166800730e-01 1.174109960657956780e-01 -6.500250305011600060e-01 -3.569199719648901703e-01 0.000000000000000000e+00 -9.341349654159092353e-01
-3.870091989088847440e-01 1.780896359859340528e-01 -6.330928379117093385e-01 -3.569199719648901703e-01 0.000000000000000000e+00 -9.341349654159092353e-01
-4.285949825219066978e-01 -2.861049234475748770e-03 -6.758210128471180411e-01 -3.569199719648901703e-01 0.000000000000000000e+00 -9.341349654159092353e-01
-5.142170776518140141e-01 2.243169437289559420e-01 -7.532999089701714057e-01 -3.569199719648901703e-01 0.000000000000000000e+00 -9.341349654159092353e-01
-4.496940069122865036e-01 2.788471774460390268e-02 -6.438859520990641849e-01 -3.569199719648901703e-01 0.000000000000000000e+00 -9.341349654159092353e-01
-6.992229632157316299e-01 7.290159700144581423e-02 -5.647733324979609115e-01 -3.567311784357987681e-01 0.000000000000000000e+00 -9.342070789347544091e-01
-6.912899716260089145e-01 2.971242217551727308e-02 -5.658270500018597327e-01 -3.569451955350866901e-01 0.000000000000000000e+00 -9.341253274504544013e-01
-8.313892563942731906e-01 1.203748230512690851e-02 -5.967450426382187034e-01 -3.569451955350866901e-01 0.000000000000000000e+00 -9.341253274504544013e-01
-7.687705095018310120e-01 -1.025924954493316610e-01 -6.182372293129908547e-01 -3.569451955350866901e-01 0.000000000000000000e+00 -9.341253274504544013e-01
-9.142908459853173186e-02 4.231401605972298641e-01 -8.047815274821062959e-01 -3.567662560621515100e-01 0.000000000000000000e+00 -9.341936836306459213e-01
-1.151229337422076532e-01 3.164131529357612216e-01 -7.119148114039340891e-01 -3.567662560621515100e-01 0.000000000000000000e+00 -9.341936836306459213e-01
-4.384494865286331367e-03 2.168913583242981780e-01 -8.540502055295329242e-01 -3.567662560621515100e-01 0.000000000000000000e+00 -9.341936836306459213e-01
-1.111410159749945115e-01 -2.129913963187667070e-01 -8.166663344054508888e-01 -3.567662560621515100e-01 0.000000000000000000e+00 -9.341936836306459213e-01
-1.563933870479675137e-01 -3.058150707321153350e-01 -8.162457264713488536e-01 -3.567662560621515100e-01 0.000000000000000000e+00 -9.341936836306459213e-01
-1.128435881880025665e-01 -1.358593655078013385e-01 -8.572934167645502868e-01 -3.567662560621515100e-01 0.000000000000000000e+00 -9.341936836306459213e-01
-1.456489946906921462e-01 -2.520736956192793365e-01 -7.908035108349825704e-01 -3.567662560621515100e-01 0.000000000000000000e+00 -9.341936836306459213e-01
-1.072248748639319099e-01 -4.798327228560959890e-02 -8.150675638243051191e-01 -3.567662560621515100e-01 0.000000000000000000e+00 -9.341936836306459213e-01
-1.492912581981029052e-01 2.785896639993284407e-01 -7.301986068864075863e-01 -3.567662560621515100e-01 0.000000000000000000e+00 -9.341936836306459213e-01
-1.427817826521620426e-01 -1.302073164324302548e-02 -7.903947917197730044e-01 -3.567662560621515100e-01 0.000000000000000000e+00 -9.341936836306459213e-01
-6.098156103446817494e-02 4.899613394458490201e-01 -8.345826190575941217e-01 -3.567662560621515100e-01 0.000000000000000000e+00 -9.341936836306459213e-01
-3.700814748836236956e-02 1.370820928926219096e-01 -8.451950225840714204e-01 -3.567662560621515100e-01 0.000000000000000000e+00 -9.341936836306459213e-01
-8.471674321408602382e-02 3.153482862322111724e-01 -7.819624545949545036e-01 -3.567662560621515100e-01 0.000000000000000000e+00 -9.341936836306459213e-01
-1.169657484746165904e-01 -4.776335678312158550e-01 -6.907418844746319175e-01 -3.569315385560316578e-01 0.000000000000000000e+00 -9.341305459003168554e-01
-6.788600513489138899e-02 -2.268573218344204778e-01 -8.094144554585519513e-01 -3.569315385560316578e-01 0.000000000000000000e+00 -9.341305459003168554e-01
-1.326803727157547241e-01 1.540091739578188790e-01 -8.582579694860597019e-01 -3.569315385560316578e-01 0.000000000000000000e+00 -9.341305459003168554e-01
-4.956898748492561541e-02 3.052793432140060714e-01 -8.265964437326184244e-01 -3.569315385560316578e-01 0.000000000000000000e+00 -9.341305459003168554e-01
-9.294852694281197092e-02 -1.392880849107868968e-01 -8.393596770887048475e-01 -3.569315385560316578e-01 0.000000000000000000e+00 -9.341305459003168554e-01
-1.260048495804560187e-01 -1.209364727851505728e-01 -8.002519825644622831e-01 -3.569315385560316578e-01 0.000000000000000000e+00 -9.341305459003168554e-01
-1.020925379753316459e-01 5.451619336830226814e-02 -7.614514462096149128e-01 -3.569315385560316578e-01 0.000000000000000000e+00 -9.341305459003168554e-01
-2.029481149639816157e-02 -3.086901714395988150e-01 -9.022008526078791890e-01 -3.569315385560316578e-01 0.000000000000000000e+00 -9.341305459003168554e-01
2.832671868902483792e-02 3.290371398480329002e-01 -7.872653326619890590e-01 -3.569315385560316578e-01 0.000000000000000000e+00 -9.341305459003168554e-01
6.449266253401876592e-02 -2.924009242728864422e-01 -8.617782606262017753e-01 -3.569315385560316578e-01 0.000000000000000000e+00 -9.341305459003168554e-01
-6.666210307357520182e-02 -3.417570132945355610e-01 -7.536837801518763147e-01 -3.569315385560316578e-01 0.000000000000000000e+00 -9.341305459003168554e-01
-1.059277681389075576e-01 -3.245400533387728936e-01 -7.617347643767855558e-01 -3.569315385560316578e-01 0.000000000000000000e+00 -9.341305459003168554e-01
-2.855763766933776954e-02 -3.181490256963189212e-01 -8.027885591653665109e-01 -3.569315385560316578e-01 0.000000000000000000e+00 -9.341305459003168554e-01
-1.213435053147782772e-01 -2.435272358138272919e-01 -8.970275718424012279e-01 -3.569315385560316578e-01 0.000000000000000000e+00 -9.341305459003168554e-01
-5.484699407440640773e-01 -6.714193060090299925e-01 9.759024551195299296e-03 -9.341253274504544013e-01 -3.569451955350866901e-01 0.000000000000000000e+00
-5.483326389614746610e-01 -6.779276760422099368e-01 5.196776725826838389e-02 -9.341253274504544013e-01 -3.569451955350866901e-01 0.000000000000000000e+00
-5.831201257007174732e-01 -7.953863552610954679e-01 9.099353888805589152e-03 -9.341253274504544013e-01 -3.569451955350866901e-01 0.000000000000000000e+00
-5.496730432648755382e-01 -7.280625450643178898e-01 1.048334813754102091e-01 -9.342070789347544091e-01 -3.567311784357987681e-01 0.000000000000000000e+00
-5.954807514180985306e-01 -7.798428012668171538e-01 -3.580775940715510974e-02 -9.342070789347544091e-01 -3.567311784357987681e-01 0.000000000000000000e+00
-6.298325253219828612e-01 -6.379270802927330397e-01 3.593161704594217964e-02 -9.342070789347544091e-01 -3.567311784357987681e-01 0.000000000000000000e+00
-8.154237436651927684e-01 -5.305294610532603622e-02 -1.376887882367142657e-01 -9.341305459003168554e-01 -3.569315385560316578e-01 0.000000000000000000e+00
-7.643447663114650847e-01 -8.377671262250600825e-02 -9.741827651684849265e-02 -9.341305459003168554e-01 -3.569315385560316578e-01 0.000000000000000000e+00
-8.504828815254261709e-01 -8.319615545931752232e-02 4.717317886817400108e-02 -9.341305459003168554e-01 -3.569315385560316578e-01 0.000000000000000000e+00
-7.852793405124673942e-01 -5.284866187798897830e-02 1.718560101572850218e-01 -9.341305459003168554e-01 -3.569315385560316578e-01 0.000000000000000000e+00
-8.250281530206832192e-01 -1.963257544378427810e-01 -3.790452058746351383e-01 -9.341305459003168554e-01 -3.569315385560316578e-01 0.000000000000000000e+00
-7.887217988007090286e-01 -1.477092351940459403e-01 4.001669264788050850e-01 -9.341305459003168554e-01 -3.569315385560316578e-01 0.000000000000000000e+00
-7.935642944894660822e-01 -8.344815211489262086e-02 7.538045492708561612e-02 -9.341305459003168554e-01 -3.569315385560316578e-01 0.000000000000000000e+00
-9.177435677611248677e-01 -1.216581295552057462e-01 1.100960902677560194e-01 -9.341305459003168554e-01 -3.569315385560316578e-01 0.000000000000000000e+00
-8.137615035327279145e-01 -4.348101818555977216e-02 -2.110973998368773641e-01 -9.341305459003168554e-01 -3.569315385560316578e-01 0.000000000000000000e+00
-8.392748832011538429e-01 -8.651909798323395573e-02 1.978679977953538283e-01 -9.341305459003168554e-01 -3.569315385560316578e-01 0.000000000000000000e+00
-7.491733842403573984e-01 -1.044989684413898112e-01 -1.526897000478911193e-01 -9.341305459003168554e-01 -3.569315385560316578e-01 0.000000000000000000e+00
-9.202667156270369908e-01 -1.096292473029970016e-01 -7.537597988174472852e-03 -9.341305459003168554e-01 -3.569315385560316578e-01 0.000000000000000000e+00
-8.948116193130101204e-01 -5.793743100774392807e-02 -2.203005083530445718e-01 -9.341305459003168554e-01 -3.569315385560316578e-01 0.000000000000000000e+00
-7.554346473979958176e-01 -5.940949628011318873e-02 -1.147409572788727489e-02 -9.341305459003168554e-01 -3.569315385560316578e-01 0.000000000000000000e+00
-5.290917054220760640e-01 7.175473000753387343e-01 -4.160737198425780436e-02 -9.341253274504544013e-01 3.569451955350866901e-01 0.000000000000000000e+00
-5.761876152371535609e-01 6.899437908775565287e-01 1.022146029202838646e-01 -9.342070789347544091e-01 3.567311784357987681e-01 0.000000000000000000e+00
-6.005629320007748184e-01 7.036727027460478734e-01 1.598136388095421079e-02 -9.342070789347544091e-01 3.567311784357987681e-01 0.000000000000000000e+00
-5.817362059776228778e-01 7.429697857541559536e-01 -9.770767433446056471e-02 -9.342070789347544091e-01 3.567311784357987681e-01 0.000000000000000000e+00
-8.775523553985417058e-01 1.090666697083365194e-02 3.364088097751997963e-02 -9.341305459003168554e-01 3.569315385560316578e-01 0.000000000000000000e+00
-8.145771617033297218e-01 8.792366334219268997e-02 -2.303162284516658831e-01 -9.341305459003168554e-01 3.569315385560316578e-01 0.000000000000000000e+00
-8.256914162128873302e-01 4.648016621528101855e-02 3.890873996600524576e-01 -9.341305459003168554e-01 3.569315385560316578e-01 0.000000000000000000e+00
-8.185386690356533101e-01 8.345477643579364557e-02 2.288372344388459045e-01 -9.341305459003168554e-01 3.569315385560316578e-01 0.000000000000000000e+00
-8.012285272242634093e-01 4.387689458163258199e-02 4.740103017905313854e-01 -9.341305459003168554e-01 3.569315385560316578e-01 0.000000000000000000e+00
-8.638785957812878946e-01 1.384889669636945597e-01 1.784359743455075642e-01 -9.341305459003168554e-01 3.569315385560316578e-01 0.000000000000000000e+00
-9.135367099686944048e-01 5.673536758708953159e-02 4.609698377996592628e-02 -9.341305459003168554e-01 3.569315385560316578e-01 0.000000000000000000e+00
-8.154022236623412745e-01 4.594078543824225980e-02 4.218141057701779162e-01 -9.341305459003168554e-01 3.569315385560316578e-01 0.000000000000000000e+00
-8.118588798955240771e-01 7.647547893192230273e-02 3.631992841518186244e-01 -9.341305459003168554e-01 3.569315385560316578e-01 0.000000000000000000e+00
-7.812103926914187868e-01 9.690490608868189415e-02 -4.162942381676461995e-02 -9.341305459003168554e-01 3.569315385560316578e-01 0.000000000000000000e+00
-8.141104728128588652e-01 7.468256106405103678e-02 1.674599695451838011e-01 -9.341305459003168554e-01 3.569315385560316578e-01 0.000000000000000000e+00
-8.738255356438583421e-01 9.732331460339153917e-02 1.789658226338082248e-01 -9.341305459003168554e-01 3.569315385560316578e-01 0.000000000000000000e+00
-1.325954063776978165e-02 4.050565448405143432e-01 7.610517708330377662e-01 -3.569315385560316578e-01 0.000000000000000000e+00 9.341305459003168554e-01
-4.524368654888882846e-02 -1.262951316650788303e-01 7.903278171522032380e-01 -3.569315385560316578e-01 0.000000000000000000e+00 9.341305459003168554e-01
-1.033178890339108424e-01 3.241655067880859775e-01 8.099581734221996676e-01 -3.569315385560316578e-01 0.000000000000000000e+00 9.341305459003168554e-01
-1.189117843067975105e-01 4.325652818002666544e-01 8.632540929176024669e-01 -3.569315385560316578e-01 0.000000000000000000e+00 9.341305459003168554e-01
-3.846825256150282479e-02 3.701425117041765023e-01 8.441925001031055364e-01 -3.569315385560316578e-01 0.000000000000000000e+00 9.341305459003168554e-01
-9.411244945591935862e-02 2.522900829062529882e-01 8.128999519894797299e-01 -3.569315385560316578e-01 0.000000000000000000e+00 9.341305459003168554e-01
1.667798850525392673e-02 -3.146587548587658212e-01 8.708358562440763340e-01 -3.569315385560316578e-01 0.000000000000000000e+00 9.341305459003168554e-01
-3.437946630340708853e-02 1.385259474146187109e-01 7.978414515016387654e-01 -3.569315385560316578e-01 0.000000000000000000e+00 9.341305459003168554e-01
-1.173795344581825967e-01 8.006594628421168092e-02 7.858164459061336427e-01 -3.569315385560316578e-01 0.000000000000000000e+00 9.341305459003168554e-01
1.856350312493594557e-02 3.956677307474735228e-01 8.118809262642396885e-01 -3.569315385560316578e-01 0.000000000000000000e+00 9.341305459003168554e-01
-8.203081969706017829e-02 1.781175982237808153e-01 8.138155048461246377e-01 -3.569315385560316578e-01 0.000000000000000000e+00 9.341305459003168554e-01
-8.298871865915462276e-02 4.048930708099755804e-02 8.960773162345299081e-01 -3.569315385560316578e-01 0.000000000000000000e+00 9.341305459003168554e-01
-4.187967708480002521e-02 -8.085133653202278281e-02 8.131580290797073562e-01 -3.569315385560316578e-01 0.000000000000000000e+00 9.341305459003168554e-01
-4.562248347365665535e-01 -8.943774514049465663e-02 7.132640849637561509e-01 -3.569199719648901703e-01 0.000000000000000000e+00 9.341349654159092353e-01
-4.066013553049068197e-01 -1.268266480645630356e-01 6.572760190016894155e-01 -3.569199719648901703e-01 0.000000000000000000e+00 9.341349654159092353e-01
-4.814136923965366965e-01 8.654183613290074295e-02 6.935978767671463485e-01 -3.569199719648901703e-01 0.000000000000000000e+00 9.341349654159092353e-01
-5.342238032675129533e-01 6.423085840339268909e-03 6.787844634170840941e-01 -3.569199719648901703e-01 0.000000000000000000e+00 9.341349654159092353e-01
-5.304097092824622273e-01 -2.792629028894801357e-01 6.423607489071040400e-01 -3.569199719648901703e-01 0.000000000000000000e+00 9.341349654159092353e-01
-5.808043971120852023e-01 -1.202360000239121873e-01 7.098345074033334257e-01 -3.569199719648901703e-01 0.000000000000000000e+00 9.341349654159092353e-01
-4.723372185151091251e-01 3.208358346800921357e-02 6.792579673681441443e-01 -3.569199719648901703e-01 0.000000000000000000e+00 9.341349654159092353e-01
-4.652590958809708632e-01 -2.134887250361689470e-01 7.614979516723352493e-01 -3.569199719648901703e-01 0.000000000000000000e+00 9.341349654159092353e-01
-4.452815423179031784e-01 -8.744562153852605824e-02 6.568225726611061077e-01 -3.569199719648901703e-01 0.000000000000000000e+00 9.341349654159092353e-01
-4.182839601773144511e-01 -1.875575061697589141e-01 7.236977757196553229e-01 -3.569199719648901703e-01 0.000000000000000000e+00 9.341349654159092353e-01
-4.686769119297732322e-01 5.317794072107302761e-02 7.207965743279424187e-01 -3.569199719648901703e-01 0.000000000000000000e+00 9.341349654159092353e-01
-5.018508758028104033e-01 1.563714492090813035e-01 6.175352688774630172e-01 -3.569199719648901703e-01 0.000000000000000000e+00 9.341349654159092353e-01
-7.090837793557389634e-01 5.425894997579297496e-02 5.516322930076230646e-01 -3.567311784357987681e-01 0.000000000000000000e+00 9.342070789347544091e-01
-7.865436288539998655e-01 7.310132109939392053e-02 4.766600540744154180e-01 -3.567311784357987681e-01 0.000000000000000000e+00 9.342070789347544091e-01
-7.054955144551728896e-01 -2.975575842855313416e-02 5.654100982204348647e-01 -3.567311784357987681e-01 0.000000000000000000e+00 9.342070789347544091e-01
-7.453163486214641198e-01 4.040038564425245393e-02 5.556766785205553560e-01 -3.569451955350866901e-01 0.000000000000000000e+00 9.341253274504544013e-01
-6.961198929818331882e-01 4.906776249677211044e-02 5.109904571567108755e-01 -3.569451955350866901e-01 0.000000000000000000e+00 9.341253274504544013e-01
-3.983538934768791895e-02 -5.820564999252587912e-02 7.280130248190411768e-01 3.569315385560316578e-01 0.000000000000000000e+00 9.341305459003168554e-01
6.882893747925641903e-02 -3.106124348823212644e-01 8.349964599593836523e-01 3.569315385560316578e-01 0.000000000000000000e+00 9.341305459003168554e-01
1.010336332242395413e-01 -2.454634994808482795e-01 8.249906476987415305e-01 3.569315385560316578e-01 0.000000000000000000e+00 9.341305459003168554e-01
6.720844031340379721e-02 -4.688173935003286386e-01 8.228006292856345771e-01 3.569315385560316578e-01 0.000000000000000000e+00 9.341305459003168554e-01
1.173643429161442403e-02 -3.985947748839415161e-01 8.201465457935225301e-01 3.569315385560316578e-01 0.000000000000000000e+00 9.341305459003168554e-01
9.131053751110800032e-02 -1.506717998303215011e-01 8.085053199879368435e-01 3.569315385560316578e-01 0.000000000000000000e+00 9.341305459003168554e-01
7.897358626008221805e-02 -4.279827561620385135e-01 7.941776748754831861e-01 3.569315385560316578e-01 0.000000000000000000e+00 9.341305459003168554e-01
1.939438489285210537e-02 -3.104997458898045570e-01 8.529268388306373572e-01 3.569315385560316578e-01 0.000000000000000000e+00 9.341305459003168554e-01
8.047329168902461749e-02 1.027066983578261983e-01 8.075612415122590537e-01 3.569315385560316578e-01 0.000000000000000000e+00 9.341305459003168554e-01
1.043483256617683264e-01 -4.173932542811191748e-01 8.226870968671886608e-01 3.569315385560316578e-01 0.000000000000000000e+00 9.341305459003168554e-01
3.856339868567758011e-01 1.862314608497749047e-01 6.444470091627934050e-01 3.569199719648901703e-01 0.000000000000000000e+00 9.341349654159092353e-01
3.475243829721360589e-01 3.316446511829349714e-02 6.838331490395211931e-01 3.569199719648901703e-01 0.000000000000000000e+00 9.341349654159092353e-01
4.869956820349931603e-01 -7.743752966847582131e-02 7.186819049816203231e-01 3.569199719648901703e-01 0.000000000000000000e+00 9.341349654159092353e-01
4.242972142522678514e-01 9.827345052765029676e-02 6.386794827696999910e-01 3.569199719648901703e-01 0.000000000000000000e+00 9.341349654159092353e-01
4.649256320104634965e-01 2.214954506342046159e-01 6.183344907458272477e-01 3.569199719648901703e-01 0.000000000000000000e+00 9.341349654159092353e-01
4.444351488954347285e-01 -1.496565174603506354e-02 7.108964312737402480e-01 3.569199719648901703e-01 0.000000000000000000e+00 9.341349654159092353e-01
7.498885970111032195e-01 4.615650072221871847e-02 6.236581205869253797e-01 3.567311784357987681e-01 0.000000000000000000e+00 9.342070789347544091e-01
8.030811447740755504e-01 8.690345962036143818e-03 5.919855247054143232e-01 3.567311784357987681e-01 0.000000000000000000e+00 9.342070789347544091e-01
6.754098691548009459e-01 3.538133955804902142e-02 6.323687542431492004e-01 3.567311784357987681e-01 0.000000000000000000e+00 9.342070789347544091e-01
8.179548358790277307e-01 -8.618404760259396058e-02 5.694028726918289873e-01 3.569451955350866901e-01 0.000000000000000000e+00 9.341253274504544013e-01
7.517781040170601337e-01 4.328728195204420773e-03 6.058623524400726934e-01 3.569451955350866901e-01 0.000000000000000000e+00 9.341253274504544013e-01
7.232966281275058362e-01 -8.461164639286869460e-02 6.355172263515113107e-01 3.569451955350866901e-01 0.000000000000000000e+00 9.341253274504544013e-01
8.493868087728015936e-01 -6.434308051488903113e-02 4.598907593637402424e-03 9.341305459003168554e-01 -3.569315385560316578e-01 0.000000000000000000e+00
7.709449806861303767e-01 -1.213877383662242682e-01 3.845501278662135647e-01 9.341305459003168554e-01 -3.569315385560316578e-01 0.000000000000000000e+00
8.679693332278158868e-01 -3.994480918523990454e-02 2.882912403086808073e-01 9.341305459003168554e-01 -3.569315385560316578e-01 0.000000000000000000e+00
7.803551525409874179e-01 -7.640396108243070750e-02 1.011756680753942428e-01 9.341305459003168554e-01 -3.569315385560316578e-01 0.000000000000000000e+00
7.801075758928812665e-01 -8.729021072566851835e-02 4.796960960757957748e-01 9.341305459003168554e-01 -3.569315385560316578e-01 0.000000000000000000e+00
8.014675745439366894e-01 -1.063277694578176891e-01 -5.399467953542815835e-01 9.341305459003168554e-01 -3.569315385560316578e-01 0.000000000000000000e+00
8.173943528581798512e-01 -1.609374749608275257e-01 4.442524612672906770e-01 9.341305459003168554e-01 -3.569315385560316578e-01 0.000000000000000000e+00
8.061605487757403932e-01 -1.014536839905992999e-01 -1.844780557974406987e-02 9.341305459003168554e-01 -3.569315385560316578e-01 0.000000000000000000e+00
7.894394652567773285e-01 -7.069032115768562885e-02 2.105524117273895601e-01 9.341305459003168554e-01 -3.569315385560316578e-01 0.000000000000000000e+00
7.982098259036388699e-01 -7.925247806102815595e-02 -1.425147990764995265e-01 9.341305459003168554e-01 -3.569315385560316578e-01 0.000000000000000000e+00
8.496417651967447249e-01 -4.091520116421151071e-02 -2.024919582487261227e-02 9.341305459003168554e-01 -3.569315385560316578e-01 0.000000000000000000e+00
8.339393262001274509e-01 -1.002006305101731665e-01 1.997493584143626433e-01 9.341305459003168554e-01 -3.569315385560316578e-01 0.000000000000000000e+00
8.612228430551954750e-01 1.016314947581026251e-02 3.442385984100196361e-01 9.341305459003168554e-01 -3.569315385560316578e-01 0.000000000000000000e+00
8.051438253942212464e-01 -9.481471171853708690e-02 4.634189836003569374e-01 9.341305459003168554e-01 -3.569315385560316578e-01 0.000000000000000000e+00
8.510223039710428372e-01 -9.173876162942069812e-02 3.918029193775500740e-01 9.341305459003168554e-01 -3.569315385560316578e-01 0.000000000000000000e+00
5.756141793621273317e-01 -7.834047235922984020e-01 -1.671795576479065751e-02 9.341253274504544013e-01 -3.569451955350866901e-01 0.000000000000000000e+00
5.615417291422447610e-01 -7.566520044956984714e-01 2.588328641918134082e-02 9.342070789347544091e-01 -3.567311784357987681e-01 0.000000000000000000e+00
5.671097432333127575e-01 -7.156349074698246104e-01 -1.353237057400468180e-01 9.342070789347544091e-01 -3.567311784357987681e-01 0.000000000000000000e+00
4.951789249442342666e-01 -7.527217654265884184e-01 3.353568743611193975e-02 9.342070789347544091e-01 -3.567311784357987681e-01 0.000000000000000000e+00
5.936289653166305635e-01 6.797931416978881813e-01 1.835119348527634864e-02 9.341253274504544013e-01 3.569451955350866901e-01 0.000000000000000000e+00
6.177200683638903733e-01 7.061563709063704009e-01 2.781839519906524616e-02 9.342070789347544091e-01 3.567311784357987681e-01 0.000000000000000000e+00
5.720892127881422873e-01 6.466498767375602474e-01 -6.650832426922860530e-02 9.342070789347544091e-01 3.567311784357987681e-01 0.000000000000000000e+00
6.241424203792922398e-01 7.245296402346658171e-01 8.142771018721764453e-02 9.342070789347544091e-01 3.567311784357987681e-01 0.000000000000000000e+00
8.861510755543700046e-01 -2.111091150215627099e-04 -1.341029459275474289e-01 9.341305459003168554e-01 3.569315385560316578e-01 0.000000000000000000e+00
8.019927379867748396e-01 7.304518239728045870e-02 1.461777736175559339e-01 9.341305459003168554e-01 3.569315385560316578e-01 0.000000000000000000e+00
8.270363569887839716e-01 -1.354247786283424571e-02 2.678978065035527156e-01 9.341305459003168554e-01 3.569315385560316578e-01 0.000000000000000000e+00
8.300988621327780592e-01 8.675629206641140290e-02 -2.676899635766279151e-02 9.341305459003168554e-01 3.569315385560316578e-01 0.000000000000000000e+00
8.484057276816260318e-01 4.616205773456617811e-02 -1.853233545191236287e-01 9.341305459003168554e-01 3.569315385560316578e-01 0.000000000000000000e+00
8.686570940685256481e-01 2.611507376991215046e-03 -2.593716102799294987e-01 9.341305459003168554e-01 3.569315385560316578e-01 0.000000000000000000e+00
7.505595906282549468e-01 3.369013959200439778e-02 -1.333635415483525044e-02 9.341305459003168554e-01 3.569315385560316578e-01 0.000000000000000000e+00
8.030557576527710406e-01 1.543909690924776257e-01 3.599406118900781992e-01 9.341305459003168554e-01 3.569315385560316578e-01 0.000000000000000000e+00
7.933112030840242523e-01 3.235987967069672150e-02 -2.487162087126383592e-02 9.341305459003168554e-01 3.569315385560316578e-01 0.000000000000000000e+00
8.024704318723479002e-01 1.635853096278406388e-02 3.169096145200473447e-01 9.341305459003168554e-01 3.569315385560316578e-01 0.000000000000000000e+00
9.125265377964630886e-01 1.228286819500892801e-02 -1.929249923230789421e-01 9.341305459003168554e-01 3.569315385560316578e-01 0.000000000000000000e+00
7.722198502997552616e-01 6.328361880442111287e-02 1.563991172080257674e-01 9.341305459003168554e-01 3.569315385560316578e-01 0.000000000000000000e+00
8.007819431351612671e-01 1.277025484506244257e-01 8.397830863185323791e-02 9.341305459003168554e-01 3.569315385560316578e-01 0.000000000000000000e+00
7.949309448010224433e-01 1.714587418919802375e-02 5.084709674503305743e-02 9.341305459003168554e-01 3.569315385560316578e-01 0.000000000000000000e+00
-5.036069073513461669e-01 -8.000639792458801303e-01 -9.038361443116564586e-02 0.000000000000000000e+00 -9.341936836306459213e-01 -3.567662560621515100e-01
-1.074015220792069042e-01 -8.182652329989018591e-01 -8.536698785207055828e-02 0.000000000000000000e+00 -9.341936836306459213e-01 -3.567662560621515100e-01
-4.135075834204297029e-01 -8.056170524175571002e-01 -1.136001539047365033e-01 0.000000000000000000e+00 -9.341936836306459213e-01 -3.567662560621515100e-01
9.541340080169197213e-02 -7.612808078533470635e-01 -6.018548335333682303e-02 0.000000000000000000e+00 -9.341936836306459213e-01 -3.567662560621515100e-01
-4.773298338505216898e-01 -8.083781842173360932e-01 -1.274087524606873079e-01 0.000000000000000000e+00 -9.341936836306459213e-01 -3.567662560621515100e-01
-2.675302657812097529e-01 -7.841121020095997984e-01 -9.365132044125802635e-02 0.000000000000000000e+00 -9.341936836306459213e-01 -3.567662560621515100e-01
-2.230059556882215410e-01 -8.180177020112459063e-01 -1.716191921257306796e-01 0.000000000000000000e+00 -9.341936836306459213e-01 -3.567662560621515100e-01
1.992092287807314954e-01 -8.970862580132054065e-01 -7.575332298428476274e-02 0.000000000000000000e+00 -9.341936836306459213e-01 -3.567662560621515100e-01
-1.869773786186023079e-01 -8.530025855059680806e-01 -8.630367634624405704e-02 0.000000000000000000e+00 -9.341936836306459213e-01 -3.567662560621515100e-01
-4.794110661693605224e-01 -8.097304675571505017e-01 -1.105609989798214399e-01 0.000000000000000000e+00 -9.341936836306459213e-01 -3.567662560621515100e-01
2.475343348891782258e-01 -7.886523016704569677e-01 -1.456065027564778513e-01 0.000000000000000000e+00 -9.341936836306459213e-01 -3.567662560621515100e-01
-9.806697745189349447e-02 -8.437303027197992078e-01 -1.630277817742772917e-01 0.000000000000000000e+00 -9.341936836306459213e-01 -3.567662560621515100e-01
-3.463504860803089114e-02 -7.697347174355897437e-01 -8.222303164025127065e-02 0.000000000000000000e+00 -9.341936836306459213e-01 -3.567662560621515100e-01
1.849554050943857109e-01 -7.711944362655313023e-01 -8.928520591517627447e-02 0.000000000000000000e+00 -9.341936836306459213e-01 -3.567662560621515100e-01
-3.117961684664573019e-01 -8.073259588547316845e-01 -1.048741279777012647e-01 0.000000000000000000e+00 -9.341936836306459213e-01 -3.567662560621515100e-01
-3.553708655359825719e-01 -8.609320757792889856e-01 -6.554050958029808416e-02 0.000000000000000000e+00 -9.341936836306459213e-01 -3.567662560621515100e-01
6.989100427654847125e-02 -8.313821215163692546e-01 -7.092888877795781866e-02 0.000000000000000000e+00 -9.341936836306459213e-01 -3.567662560621515100e-01
2.894493815418603955e-01 -7.572674601941018491e-01 -1.849289312060101165e-02 0.000000000000000000e+00 -9.341936836306459213e-01 -3.567662560621515100e-01
-8.491803583828400059e-02 -8.347026618673847320e-01 -4.932850277704955988e-02 0.000000000000000000e+00 -9.341305459003168554e-01 -3.569315385560316578e-01
-2.136191065966824565e-01 -7.321311314109328894e-01 -9.754448645704755227e-02 0.000000000000000000e+00 -9.341305459003168554e-01 -3.569315385560316578e-01
-6.018644469361207616e-02 -8.611954704089094248e-01 -1.316880841245517131e-01 0.000000000000000000e+00 -9.341305459003168554e-01 -3.569315385560316578e-01
9.916207840971467957e-02 -8.531024589666196256e-01 -2.209505928523471802e-02 0.000000000000000000e+00 -9.341305459003168554e-01 -3.569315385560316578e-01
9.032401249094081097e-02 -8.203142043486468804e-01 -7.044796985558381130e-02 0.000000000000000000e+00 -9.341305459003168554e-01 -3.569315385560316578e-01
4.869405239212572928e-02 -8.262980943790549926e-01 -2.523660082300066554e-03 0.000000000000000000e+00 -9.341305459003168554e-01 -3.569315385560316578e-01
-3.127502573015463194e-01 -8.307671289460414332e-01 -1.656945909640227810e-01 0.000000000000000000e+00 -9.341305459003168554e-01 -3.569315385560316578e-01
-2.605268249153401827e-01 -8.369430035169288518e-01 -3.420120422525724929e-02 0.000000000000000000e+00 -9.341305459003168554e-01 -3.569315385560316578e-01
-1.883802065629039957e-01 -8.955574583120048393e-01 -4.072694649790219862e-02 0.000000000000000000e+00 -9.341305459003168554e-01 -3.569315385560316578e-01
-4.006663492113644032e-01 -7.765174596701127641e-01 -3.779081256951091067e-02 0.000000000000000000e+00 -9.341305459003168554e-01 -3.569315385560316578e-01
-2.347315064906493332e-01 -8.030648470930523697e-01 -1.736300584480454656e-01 0.000000000000000000e+00 -9.341305459003168554e-01 -3.569315385560316578e-01
-3.368150201131024923e-01 -8.469544433039638553e-01 -2.984184427714133350e-02 0.000000000000000000e+00 -9.341305459003168554e-01 -3.569315385560316578e-01
-4.558521480775917789e-01 -8.094909009212180040e-01 -1.364680274701715046e-01 0.000000000000000000e+00 -9.341305459003168554e-01 -3.569315385560316578e-01
-2.031127368620209150e-01 -8.870770527825664331e-01 -4.154473807253848683e-02 0.000000000000000000e+00 -9.341305459003168554e-01 -3.569315385560316578e-01
-1.013437195409144231e-01 -6.449176939011656007e-01 -3.941122002082476095e-01 0.000000000000000000e+00 -9.341933345674033884e-01 -3.567671700841256177e-01
-7.454257306796022164e-02 -6.582190098180443760e-01 -4.273494290000132700e-01 0.000000000000000000e+00 -9.341933345674033884e-01 -3.567671700841256177e-01
-1.137887285889600253e-01 -7.551654836921130043e-01 -3.747379313380314603e-01 0.000000000000000000e+00 -9.341933345674033884e-01 -3.567671700841256177e-01
3.132372727718987782e-02 -6.391317434444532264e-01 -4.923728624954709088e-01 0.000000000000000000e+00 -9.341933345674033884e-01 -3.567671700841256177e-01
-1.645570172920809981e-01 -7.219327784552961313e-01 -4.237505966935910529e-01 0.000000000000000000e+00 -9.341933345674033884e-01 -3.567671700841256177e-01
-2.492930247871254223e-01 -7.174103391830660703e-01 -4.468361805333544989e-01 0.000000000000000000e+00 -9.341933345674033884e-01 -3.567671700841256177e-01
-2.206989017084464988e-01 -6.723457090111466528e-01 -4.419147536967494849e-01 0.000000000000000000e+00 -9.341933345674033884e-01 -3.567671700841256177e-01
-2.351498390884818046e-01 -6.178052019721428367e-01 -4.343421999628177543e-01 0.000000000000000000e+00 -9.341933345674033884e-01 -3.567671700841256177e-01
8.257770380868087456e-02 -7.397171478869728478e-01 -3.946177626447341380e-01 0.000000000000000000e+00 -9.341933345674033884e-01 -3.567671700841256177e-01
-2.266536409589581941e-02 -6.265409874005762880e-01 -4.155132224263899388e-01 0.000000000000000000e+00 -9.341933345674033884e-01 -3.567671700841256177e-01
-2.514782434632291119e-01 -6.786002651643096018e-01 -3.568807164266483700e-01 0.000000000000000000e+00 -9.341933345674033884e-01 -3.567671700841256177e-01
-9.782926919686718570e-02 -6.488711509526525756e-01 -4.309189407975266839e-01 0.000000000000000000e+00 -9.341349654159092353e-01 -3.569199719648901703e-01
-2.489221988380441175e-01 -6.594570314791847743e-01 -5.360488209433753592e-01 0.000000000000000000e+00 -9.341349654159092353e-01 -3.569199719648901703e-01
-1.606151122827113586e-01 -7.000101572695769381e-01 -4.598862861320162643e-01 0.000000000000000000e+00 -9.341349654159092353e-01 -3.569199719648901703e-01
1.286730381881626833e-02 -7.421268172484765113e-01 -4.606905263196421352e-01 0.000000000000000000e+00 -9.341349654159092353e-01 -3.569199719648901703e-01
-8.854134140018003751e-02 -6.284454410705490046e-01 -4.683490075462703461e-01 0.000000000000000000e+00 -9.341349654159092353e-01 -3.569199719648901703e-01
9.115007113212338086e-02 -6.932976344014570858e-01 -4.489444721632461222e-01 0.000000000000000000e+00 -9.341349654159092353e-01 -3.569199719648901703e-01
-2.860679268552780985e-01 -6.961487919606149655e-01 -4.924750721901905437e-01 0.000000000000000000e+00 -9.341349654159092353e-01 -3.569199719648901703e-01
1.336261300774405636e-01 -6.458075196682279140e-01 -5.130314433054234957e-01 0.000000000000000000e+00 -9.341341336610865520e-01 -3.569221488353605531e-01
1.872990005289226489e-01 -5.977311608402340326e-01 -4.896876116628920972e-01 0.000000000000000000e+00 -9.341341336610865520e-01 -3.569221488353605531e-01
1.824306502227727167e-01 -6.847104971724058409e-01 -4.862423335151744297e-01 0.000000000000000000e+00 -9.341341336610865520e-01 -3.569221488353605531e-01
1.808242454706060487e-01 -5.358871063383267019e-01 -7.256415880776418970e-01 0.000000000000000000e+00 -9.342070789347544091e-01 -3.567311784357987681e-01
4.152346685564597961e-02 -5.572285562309956530e-01 -6.795646701899595854e-01 0.000000000000000000e+00 -9.342070789347544091e-01 -3.567311784357987681e-01
5.425986094115611835e-02 -5.912953939617542343e-01 -7.509443119562022595e-01 0.000000000000000000e+00 -9.342070789347544091e-01 -3.567311784357987681e-01
-1.307966852588032525e-01 -6.315979334724779459e-01 -7.661822792149722838e-01 0.000000000000000000e+00 -9.342070789347544091e-01 -3.567311784357987681e-01
8.438185424764722831e-02 -5.473434397185974465e-01 -7.201972599666506270e-01 0.000000000000000000e+00 -9.341253274504544013e-01 -3.569451955350866901e-01
1.640986333658597807e-03 -5.940973656856772811e-01 -8.094284309964011603e-01 0.000000000000000000e+00 -9.341253274504544013e-01 -3.569451955350866901e-01
-3.733492518400657184e-03 -7.083101416525945382e-01 5.122010821244789014e-01 0.000000000000000000e+00 -9.341933345674033884e-01 3.567671700841256177e-01
-2.600905133026185263e-03 -6.396729908547995613e-01 4.677308086731695735e-01 0.000000000000000000e+00 -9.341933345674033884e-01 3.567671700841256177e-01
1.663187946698960751e-01 -6.460055384661307354e-01 4.849873392206575096e-01 0.000000000000000000e+00 -9.341933345674033884e-01 3.567671700841256177e-01
-1.027439116958929616e-01 -6.568182225799235052e-01 4.047909938110506034e-01 0.000000000000000000e+00 -9.341933345674033884e-01 3.567671700841256177e-01
3.108863092968859876e-01 -6.576350195981049973e-01 4.005976573626467419e-01 0.000000000000000000e+00 -9.341933345674033884e-01 3.567671700841256177e-01
1.840389638671946493e-02 -6.272951432499679347e-01 4.279359761951389562e-01 0.000000000000000000e+00 -9.341933345674033884e-01 3.567671700841256177e-01
1.148634493683601127e-01 -6.966989052905960822e-01 3.683714582333867393e-01 0.000000000000000000e+00 -9.341933345674033884e-01 3.567671700841256177e-01
1.119018034243987603e-01 -6.794900596852674335e-01 4.052784867243500733e-01 0.000000000000000000e+00 -9.341933345674033884e-01 3.567671700841256177e-01
2.004565008035614770e-01 -7.007400523709262918e-01 4.571285458821673364e-01 0.000000000000000000e+00 -9.341933345674033884e-01 3.567671700841256177e-01
-6.162621114904257014e-02 -7.457027535524753947e-01 4.431074489009930728e-01 0.000000000000000000e+00 -9.341933345674033884e-01 3.567671700841256177e-01
8.375481842335001648e-02 -7.958456294537890052e-01 3.945792366078007540e-01 0.000000000000000000e+00 -9.341933345674033884e-01 3.567671700841256177e-01
-1.050441603971923321e-01 -7.196864139075969113e-01 4.259503871752190474e-01 0.000000000000000000e+00 -9.341933345674033884e-01 3.567671700841256177e-01
8.108751423382856705e-02 -6.916568054806894184e-01 4.324333049748684266e-01 0.000000000000000000e+00 -9.341933345674033884e-01 3.567671700841256177e-01
-1.574297032101540372e-01 -6.678991233275712869e-01 4.570639838178879866e-01 0.000000000000000000e+00 -9.341933345674033884e-01 3.567671700841256177e-01
2.956016792196499710e-01 -5.932614834459603026e-01 5.390039749866888386e-01 0.000000000000000000e+00 -9.341349654159092353e-01 3.569199719648901703e-01
-1.279190499377065582e-02 -6.328628110345860813e-01 4.887000234207923843e-01 0.000000000000000000e+00 -9.341349654159092353e-01 3.569199719648901703e-01
2.392503662543441281e-02 -7.087067802242580372e-01 5.668599923242872984e-01 0.000000000000000000e+00 -9.341349654159092353e-01 3.569199719648901703e-01
1.716467470510397442e-01 -6.344323903348829674e-01 5.046877195693039164e-01 0.000000000000000000e+00 -9.341349654159092353e-01 3.569199719648901703e-01
2.573186779879570452e-01 -6.134334809961974333e-01 4.002693472330713931e-01 0.000000000000000000e+00 -9.341349654159092353e-01 3.569199719648901703e-01
2.887419721704176379e-02 -6.581689735814918452e-01 4.366722933982264965e-01 0.000000000000000000e+00 -9.341349654159092353e-01 3.569199719648901703e-01
2.088240694898549632e-01 -7.300719181629934385e-01 4.742937659875293144e-01 0.000000000000000000e+00 -9.341349654159092353e-01 3.569199719648901703e-01
1.324979644147080207e-02 -6.165792247632608802e-01 5.380628404206687643e-01 0.000000000000000000e+00 -9.341341336610865520e-01 3.569221488353605531e-01
-1.356077526300912273e-01 -6.573578964050148521e-01 5.366263573358981409e-01 0.000000000000000000e+00 -9.341341336610865520e-01 3.569221488353605531e-01
2.297839540892278667e-02 -6.267957947098705684e-01 5.260606507272436172e-01 0.000000000000000000e+00 -9.341341336610865520e-01 3.569221488353605531e-01
-1.672859535908282347e-01 -6.534849259339339245e-01 5.679591580018198416e-01 0.000000000000000000e+00 -9.341341336610865520e-01 3.569221488353605531e-01
-1.443743589954639417e-02 -6.737286937325471792e-01 4.449990732475996857e-01 0.000000000000000000e+00 -9.341341336610865520e-01 3.569221488353605531e-01
-1.737835446354772662e-01 -6.546826564748934318e-01 6.415273053316615792e-01 0.000000000000000000e+00 -9.341341336610865520e-01 3.569221488353605531e-01
-1.575531821157606926e-01 -6.602327434625241409e-01 4.998496274920811167e-01 0.000000000000000000e+00 -9.341341336610865520e-01 3.569221488353605531e-01
-1.565463901040459703e-03 -5.111937544817435342e-01 6.980960079380700289e-01 0.000000000000000000e+00 -9.342070789347544091e-01 3.567311784357987681e-01
-1.534350744649943810e-01 -5.773543393355794473e-01 6.921956069348331742e-01 0.000000000000000000e+00 -9.342070789347544091e-01 3.567311784357987681e-01
