3.771389776606041688e-01 4.922446889519547786e-01 -1.810211091557510088e-01 4.794079474465675061e-01 4.420341543577614440e-01 -7.581383952196907305e-01
2.601029672318628250e-01 4.541778529240805273e-01 -1.899188405230034793e-01 4.887737573365882882e-01 6.171314838860815222e-01 -6.166432888920765354e-01
2.763354546876872209e-01 4.671411356831204342e-01 -1.298316970457256136e-01 4.887308539928739703e-01 6.171469553392980867e-01 -6.166618099662328767e-01
3.251980918798682563e-01 4.061533734449787603e-01 -1.132467078138894856e-01 4.911217010191057386e-01 6.169111916173559695e-01 -6.149959808367483349e-01
3.547978412693721384e-01 4.071330053849204766e-01 -2.601991935024791092e-01 4.354515530905054277e-01 6.431205224179721569e-02 -8.979119694310322419e-01
3.880071396199674671e-01 4.597910106379143880e-01 -1.077535027111969079e-01 5.565358635973377543e-01 5.796972232832664496e-01 -5.951629708303735056e-01
3.079617156276178158e-01 4.821778015573747189e-01 -9.519681986239560134e-02 5.719902657324987816e-01 5.929415935253754544e-01 -5.667869110828636092e-01
4.107839580606458263e-01 4.229323513361500919e-01 -1.416025344970782973e-01 6.595869753054284246e-01 5.029806633929213566e-01 -5.585297433980154214e-01
4.527848599475042257e-01 4.083816947254522711e-01 -1.688779883767567713e-01 6.770757856326284907e-01 4.836641269956491462e-01 -5.546506943721384308e-01
3.944649220114364585e-01 4.601665904131322371e-01 -9.214462529618056008e-02 6.445214083737358379e-01 5.476413536960329509e-01 -5.335551535407677681e-01
3.731087911791420852e-01 4.130995012496215257e-01 -1.648536794779509318e-01 6.444183916100675313e-01 5.476736910194696106e-01 -5.336463854649480254e-01
3.551808646910772360e-01 4.023524713749726534e-01 -2.250593442761187613e-01 6.941203188723650275e-01 1.631200675878799466e-01 -7.011339575848911654e-01
4.236952586263310616e-01 3.968291560181267941e-01 -1.155484356389029910e-01 6.963572813220614277e-01 2.683327811123005224e-01 -6.656455928873002970e-01
3.575534947695242494e-01 3.735509783046598864e-01 -1.043319159860532641e-01 6.963309711646867850e-01 2.683797459836932964e-01 -6.656541823969653882e-01
3.593226034685770842e-01 3.895776509425493694e-01 -7.553180363003535180e-02 5.588087872158913338e-01 4.185459048932211878e-01 -7.159274158931331344e-01
4.909800700372892734e-01 4.098805977241875564e-01 -1.150175707918859314e-01 5.587866713855337286e-01 4.185395157643841957e-01 -7.159484126845946372e-01
4.144309584843174354e-01 3.934866318806303220e-01 -1.445142743382467898e-01 5.587808282610072785e-01 4.184831662241547123e-01 -7.159859115617773773e-01
4.347025062544090379e-01 3.226921503703450433e-01 -1.858703920013942690e-01 5.356667455423163027e-01 2.815957058141155822e-01 -7.960935850684600634e-01
3.500715982300479090e-01 3.993917859116348779e-01 -1.795361173158291912e-01 5.334030070891219166e-01 3.577159517936361888e-01 -7.664988779252421836e-01
3.980927460000647788e-01 3.602714960095543262e-01 -1.461013605015669126e-01 5.333486630587561672e-01 3.577982888215265889e-01 -7.664982636182713360e-01
1.986464586772137275e-01 5.607084467408652850e-01 3.516478238843061543e-01 2.947351668847842387e-01 9.435725857454227983e-01 1.510031682816460330e-01
2.221514677892604261e-01 5.836289400176749576e-01 3.399539937681848034e-01 2.948164498268795453e-01 9.435568993869510868e-01 1.509425007436877297e-01
1.862444553575715034e-01 6.060768574770833972e-01 3.243796516989248535e-01 2.758658035132730002e-01 9.579640362563973666e-01 7.875889595041418723e-02
1.654530051729141971e-01 5.962132460852501703e-01 2.722410953672580458e-01 3.578915419524170138e-01 9.251752123360490465e-01 1.263505863772220739e-01
1.164184872062678372e-01 5.782126880470914720e-01 3.623504267732638451e-01 2.318162310781076915e-02 9.722405378112112251e-01 2.328324483113432819e-01
7.679648535855039537e-02 6.730064042651215939e-01 4.084794076422508802e-01 2.314604276383798800e-02 9.722080819613322378e-01 2.329714705139714348e-01
1.852459964900471656e-01 5.697628671810823775e-01 2.871111827743727529e-01 3.583986060653379657e-02 9.621224075729271075e-01 2.702516923865211362e-01
-1.397407628133483237e-02 5.998369073364612225e-01 2.557909213221024047e-01 1.354475002807048745e-01 9.896227923978492269e-01 -4.796564848297082961e-02
3.211650602552978961e-02 6.234215508547645834e-01 1.842699236083129577e-01 1.231471184651755646e-02 9.586956618042827838e-01 2.841671619131699300e-01
1.365207582311755985e-01 6.292393996941345602e-01 2.694180841056120768e-01 4.966776326395060115e-02 9.713675728010958688e-01 2.323319861811196929e-01
6.901323847378745824e-02 5.752027380235090748e-01 2.435836615197556898e-01 1.181014358380773691e-02 9.523067476838626977e-01 3.049137235749052599e-01
9.330626058136819168e-02 6.594247463533930986e-01 2.871770787489525412e-01 1.177739128845860933e-02 9.522864089828719791e-01 3.049785046867154459e-01
9.984936030141959573e-02 5.965632224138074369e-01 3.339281147212578293e-01 1.629706212736623666e-02 9.259466251588847063e-01 3.773026015320972149e-01
2.408918193220891540e-02 6.374886601435926226e-01 3.583513257263871155e-01 -1.164421955536816961e-01 9.424693987414671792e-01 3.133570607638121452e-01
-2.504529031627212091e-02 5.896106575920933013e-01 3.095838026436544266e-01 -1.308180992175109747e-01 8.555180186683636334e-01 5.009745948158198514e-01
3.966229932865713431e-02 5.996654308278038803e-01 3.614065603340593236e-01 -2.058844857072951451e-02 9.108601596226644226e-01 4.122012680689187136e-01
5.609544452010575138e-02 5.752296695917895608e-01 1.919113161228337416e-01 5.660292012808228364e-03 9.702870501853351204e-01 2.418904738450251835e-01
6.687395133082930931e-02 5.851457789516233410e-01 3.720702637259791778e-01 3.914221662494356269e-02 9.676820212922546682e-01 2.491172265127850338e-01
2.421234036711142693e-02 6.089766331697488155e-01 2.751464818873026186e-01 3.913854371292037337e-02 9.676814249881817709e-01 2.491201198796952065e-01
1.663732859845834522e-01 5.493242941471472296e-01 4.728098355828272981e-01 6.463961976423117373e-02 9.052889089793183519e-01 4.198496288384345188e-01
1.175675706455523023e-01 4.797533530287526604e-01 5.267491651755620286e-01 1.829252065359437684e-01 8.702001737151352501e-01 4.574822690333808506e-01
1.833460857209450179e-01 5.856403101116542942e-01 5.604801610459075878e-01 1.602664324198391499e-01 8.767440451682102509e-01 4.534694586204238154e-01
1.127748925312291595e-01 4.776631847403352560e-01 5.599065303490379231e-01 1.144397062259743247e-01 7.971801789425637663e-01 5.927961841476498961e-01
7.937106058972255573e-02 4.479675445933765099e-01 5.242392801441480010e-01 1.145138483065721996e-01 7.972054828510297675e-01 5.927478356420005090e-01
1.845231990295056745e-01 5.006613318788903921e-01 5.309613431099384773e-01 6.221031912035830669e-02 8.409870136788060169e-01 5.374669469079442763e-01
1.951235888907403293e-01 6.146042611706601377e-01 4.761051236458292424e-01 2.333903089769365502e-01 8.085375240930472440e-01 5.401814841413348223e-01
2.297705837521294980e-01 5.064799029436097833e-01 4.786494728859734260e-01 1.336687677050316936e-01 7.986649695997261045e-01 5.867426410910383527e-01
2.184181151056082126e-01 5.151284171449088678e-01 5.039019364517894894e-01 9.597220913448702151e-02 8.479410882900941804e-01 5.213302656313528738e-01
2.200567261635052729e-01 5.458506500574487053e-01 4.279699186265302768e-01 9.590914812497158826e-02 8.479762325962507674e-01 5.212847055667481078e-01
2.040150191121126444e-01 5.694313718543182468e-01 5.064715168152351676e-01 2.097782255591910117e-01 8.363425192698344945e-01 5.064822667602723039e-01
1.564985896426528134e-01 4.912241165963061040e-01 5.397118911539567909e-01 2.159555797417167522e-01 8.158743478300999330e-01 5.363881394393690272e-01
2.398550246609341685e-01 4.937833252951491225e-01 4.880645805302608053e-01 2.028131824522139692e-01 8.347214826764338680e-01 5.119637285805125337e-01
1.447027394019195223e-01 4.833505888749382029e-01 5.499245595094357508e-01 1.989174295032132278e-01 7.370009942955187965e-01 6.459577313162608858e-01
2.299357962806598543e-01 4.055089935632111842e-01 5.748134513627781716e-01 1.821416044888762020e-01 7.510632377531344384e-01 6.346088943672287819e-01
1.633398786600843422e-01 4.761707053418466895e-01 5.493295625024162687e-01 6.327801940080889087e-02 7.709259139708286579e-01 6.337737194211773284e-01
1.779734260615799812e-01 4.340440997541979984e-01 5.973627713763683955e-01 6.313491393290540654e-02 7.709456779514227698e-01 6.337639499772024232e-01
2.602140580819566340e-01 4.629861512724379180e-01 5.438779920060321516e-01 3.426456698125852629e-01 7.049619102041363439e-01 6.209852253637118125e-01
2.226876393712244606e-01 4.299901639612355719e-01 5.916913020640930387e-01 2.760073211048474917e-01 7.234290623401916642e-01 6.328272674736105108e-01
2.267576867515521677e-01 4.308588011820316255e-01 5.721771723109673191e-01 2.758846036955042158e-01 7.234464264713237336e-01 6.328609274316484568e-01
2.117990970419073582e-01 5.283209750032321628e-01 4.188008076244263966e-01 3.465806922993920347e-01 8.830462716840460358e-01 3.164033909271203315e-01
2.477453212408281258e-01 5.299112537447565607e-01 3.989938753879650468e-01 3.467514444645098393e-01 8.829965400868473591e-01 3.163550947217899090e-01
2.723647283770107563e-01 3.809223419996623505e-01 6.599106010486870399e-01 4.434523135973247876e-01 4.021415164855222657e-01 8.010195043092923628e-01
2.217071192916911793e-01 3.467430917343214958e-01 6.793157742712194747e-01 4.002618323599901884e-01 4.035563296117770649e-01 8.227592323311200273e-01
2.314144618662704322e-01 3.889308351309369582e-01 7.108780563524379481e-01 4.687863321149626228e-01 3.646117054507078126e-01 8.045481210409518580e-01
2.320168284599461450e-01 3.446712940179534335e-01 6.211465426714847249e-01 3.276308869082976694e-01 6.051883129508133230e-01 7.255378059146405656e-01
2.496895200506615287e-01 4.227481960845533848e-01 6.511553317733934643e-01 3.276065519314907970e-01 6.052270495669010986e-01 7.255164819658499464e-01
3.389134873494328848e-01 5.941679020546383194e-01 2.798102839460067104e-01 3.417963245862305488e-01 9.396590118187023721e-01 -1.470421732849882916e-02
2.699543862170739605e-01 6.153652891369095768e-01 3.408101396596404098e-01 2.914639700517803744e-01 9.320473174113986792e-01 2.152592675539672651e-01
2.931794374452658669e-01 5.193931760712849899e-01 3.104122748713012414e-01 2.947797834052900967e-01 9.174553761357339132e-01 2.671713160037377244e-01
3.227850130765736458e-01 5.707429690972456449e-01 3.710833799114311993e-01 3.866692553106934604e-01 8.923857273019647485e-01 2.326684351286547603e-01
2.795948946515056655e-01 5.822590504344302698e-01 4.032321818421997772e-01 3.867233303018589030e-01 8.923255715107820674e-01 2.328092357020992709e-01
3.817501825704102125e-01 5.243820758794154324e-01 4.916960539816147557e-01 4.772049865551995507e-01 7.969899079355785565e-01 3.702465225436828433e-01
4.294423726367994631e-01 4.894421334520303035e-01 3.804136529193804517e-01 4.620105727271421880e-01 8.290320179122359079e-01 3.150430827120382360e-01
3.627458768221449859e-01 4.902577080753294236e-01 5.075244945289394405e-01 4.481549923699859606e-01 7.802644471599886611e-01 4.362848786194351014e-01
3.950922626212425293e-01 4.721171863402778279e-01 4.592235491913120304e-01 6.489646155112661630e-01 6.415156201707913342e-01 4.090264501119695306e-01
3.562803527236908518e-01 4.493889574586901747e-01 3.375329762954320523e-01 6.444000237377418561e-01 7.149831145791972764e-01 2.711968939228991959e-01
4.022395527472207299e-01 5.485851509807921911e-01 2.566683346142991651e-01 4.515136940857584769e-01 8.592621618523651472e-01 2.404244606146227758e-01
4.392690028725885765e-01 4.737040853064253265e-01 3.423007754993985241e-01 4.556038083077286749e-01 8.572239714720834014e-01 2.399838173484268589e-01
3.679163901156025096e-01 5.443721767540785628e-01 3.193063444662472827e-01 5.572808940552943513e-01 8.084670632050313666e-01 1.892591155890877286e-01
4.096013042917491798e-01 4.862500800893485020e-01 2.724373627656852537e-01 5.847309153748807553e-01 8.105986144749800504e-01 3.193184642479767604e-02
3.993711095040802794e-01 4.779687546598913039e-01 3.354775481766145706e-01 5.846921934241020580e-01 8.106266485980712089e-01 3.192922691784958605e-02
3.625970015702163485e-01 5.360871393427695253e-01 3.059782710343190715e-01 4.952260094937804835e-01 8.332989375484216588e-01 2.456910258872667119e-01
4.814389937267632424e-01 5.050305146502646059e-01 4.076282941711436569e-01 6.411005580632763712e-01 7.208011443084699765e-01 2.635067073426323181e-01
4.000415713976811505e-01 4.563872217491656835e-01 3.156551682667385061e-01 5.720629515428119483e-01 7.440068648090931713e-01 3.452502926705059982e-01
4.061837396361654973e-01 4.725705415058910619e-01 3.692999641030354496e-01 4.869815443672266819e-01 8.456595156000904501e-01 2.184238062133596336e-01
3.469589589834227161e-01 4.817043414610475693e-01 3.576362936690629657e-01 3.477371071081902798e-01 8.870388456176413472e-01 3.037120193626668962e-01
4.011523776653816986e-01 5.374838785588261780e-01 3.640528995632733578e-01 3.760098485516273348e-01 8.921786086661765980e-01 2.502677047296904544e-01
3.837276752497717491e-01 4.861207747002628254e-01 3.817382586995973215e-01 3.760470946991581465e-01 8.921772228202089483e-01 2.502166774000919580e-01
4.231528572417169731e-01 4.347468190079666894e-01 4.107149371134937721e-01 5.759312869035907445e-01 7.465526869466713178e-01 3.331099493835016911e-01
3.885934393588980074e-01 4.435681880239652486e-01 4.705848746002851968e-01 3.302367923796260540e-01 7.743500572558081885e-01 5.397459122464406400e-01
3.467063700979978180e-01 4.067972643277759093e-01 5.519521111985027373e-01 1.448395646583976737e-01 8.078591217787974843e-01 5.713012689189091997e-01
2.720563591950778681e-01 3.999814264982969325e-01 5.978014420496348125e-01 5.228787766214917365e-01 5.400481916330038823e-01 6.595041589502939061e-01
3.910738334921372017e-01 5.189538039817156445e-01 4.122664616571158902e-01 4.670784492934063059e-01 7.330414061517979141e-01 4.944572975219007627e-01
3.644691718803966252e-01 4.911469850828968364e-01 4.836762355904219435e-01 4.670386155650740334e-01 7.331429475486928027e-01 4.943443638099594972e-01
3.782175216803462248e-01 4.088901250443066071e-01 4.915375896154077218e-01 4.546479231113234043e-01 6.619210627405408554e-01 5.959494716089553945e-01
3.629919458905760954e-01 4.796353552648303098e-01 4.888154624201378473e-01 4.455311384532916197e-01 6.729025716795942191e-01 5.905117557640173764e-01
3.906936840228512064e-01 4.717947538342975866e-01 5.400044644679885542e-01 4.849569110369479352e-01 6.799214573086146407e-01 5.500214598802775079e-01
3.617724129655723875e-01 4.786197432634515248e-01 5.006273438601868131e-01 4.888522812101929182e-01 7.826920702132292851e-01 3.852487123676339720e-01
4.006207691842589846e-01 4.743194374241364031e-01 4.929001937370329212e-01 4.719325418208863976e-01 7.064079977121574538e-01 5.275105844803285038e-01
3.585041030767905368e-01 4.914932545445757084e-01 4.854676723447881592e-01 4.370443077824856526e-01 7.580550498374444279e-01 4.840917417709970083e-01
3.250445241012761555e-01 4.924723401024471703e-01 4.625380645358264098e-01 3.396571739015478153e-01 7.852877828846540620e-01 5.176447645531807584e-01
3.853698320007636902e-01 5.509316186479291666e-01 1.638844685999695239e-01 3.515294266986384586e-01 9.349985504905501399e-01 4.695500767220471550e-02
3.257481333432707959e-01 5.309279054844819878e-01 2.421443704046500334e-01 3.483117394968867075e-01 9.359751094678412375e-01 5.127890975162936044e-02
4.396705985398819960e-01 5.300435254043970312e-01 1.638823260476395538e-01 5.096890630355203067e-01 8.592440060441214333e-01 -4.378124140797434727e-02
4.460249836541984592e-01 4.990984328312065843e-01 1.151719485062185772e-01 4.226111269680462579e-01 8.997898509193978933e-01 -1.085267687957471444e-01
3.336662860942212760e-01 5.798819612054610939e-01 2.095248182757968869e-01 5.713653617427104647e-01 8.206823996949931255e-01 4.692785046139084405e-03
3.870830491926248729e-01 5.516186404300361668e-01 2.267783156818973800e-01 5.150634590252642919e-01 8.522844440513682729e-01 -9.121874590773597358e-02
3.982386776803934492e-01 5.409322752845735494e-01 1.488127867798362813e-01 6.114208458018552950e-01 7.909818310889835669e-01 2.263387297973371362e-02
3.707069119869292328e-01 4.728259687954419199e-01 1.944321872231913606e-01 5.903153956127699109e-01 8.060425774433965795e-01 -4.269774058360710500e-02
4.995276578711146387e-01 5.712798891296427817e-01 1.207104923868868029e-01 6.203047292303377480e-01 7.843535210562274651e-01 -3.405422319694979653e-03
3.189629188083928923e-01 5.667457500335849607e-01 1.349273294858066852e-01 5.104443875046792423e-01 8.584325929212822670e-01 -5.039851858355429148e-02
3.923665817894493868e-01 6.067101510045164181e-01 1.260570448083876971e-01 4.522551407895200604e-01 8.918029730057142057e-01 1.235900350435995693e-02
3.898441603138189659e-01 5.763152642850724039e-01 2.531626764714382527e-01 5.016417410865300353e-01 8.623485304629078252e-01 6.863363321388564475e-02
3.823104697642972782e-01 5.368562562094475465e-01 2.541520437348139816e-01 5.551693478739655463e-01 8.305210522166766030e-01 4.496417469608577494e-02
3.486574943688316996e-01 5.604315624473956703e-01 2.834355978615234473e-01 5.219726102845875237e-01 8.422894137489760347e-01 1.345107341408122714e-01
4.104077217518465326e-01 4.817892503412780636e-01 2.357947724582999394e-01 5.523530055953106421e-01 8.268051569519208055e-01 1.062985872320821867e-01
5.221238298811349265e-01 3.627987698943118122e-01 4.385065679153173912e-01 6.849975260234103525e-01 6.421529049228306141e-01 3.441192177734008761e-01
4.838131127746330140e-01 4.665301470717340138e-01 4.283792398628801235e-01 5.745945631587743296e-01 7.216394263922927266e-01 3.861057190259938876e-01
6.002958090163601490e-01 3.002561167245825779e-01 2.345083107322842308e-01 8.781004086559349719e-01 4.780959840040328590e-01 1.907622597621662017e-02
6.337425526982030100e-01 3.411285833132926548e-01 1.824414076136977314e-01 9.399117582393001769e-01 3.315958273454539529e-01 8.130248465201499186e-02
6.672994977434022479e-01 3.290176961076762829e-01 2.533246760880597526e-01 7.528268853259936222e-01 6.521542842909816562e-01 -8.914297623077610533e-02
6.185007483384159510e-01 3.135806055142276727e-01 2.913673895095056365e-01 6.888481207060119793e-01 7.232186949919976460e-01 -4.942656991808832417e-02
5.334979545704652271e-01 3.683750121265411126e-01 1.554007290084558623e-01 7.222988822311007251e-01 6.865043373163981499e-01 -8.364280945470151107e-02
5.921281733412772086e-01 3.848930361918807552e-01 2.130600674350973667e-01 7.131147373496626862e-01 6.981627860279949749e-01 -6.353027294408405967e-02
5.628424690151182519e-01 4.119003943757119091e-01 8.808887579160001868e-02 6.657960517966227121e-01 6.760001063294348578e-01 -3.158155690503904878e-01
5.787505685904349439e-01 3.115520630503142430e-01 1.989684533468460137e-01 6.222290362983670109e-01 7.446696399988215198e-01 -2.414501059250768744e-01
5.833126082015506197e-01 3.525222501197247116e-01 1.591385547123726762e-01 6.997617974406804553e-01 7.140351234205860598e-01 -2.207417867863971372e-02
5.471801692142196361e-01 3.545476797448469108e-01 1.605762034310354858e-01 7.623917511334962205e-01 6.281611687099221131e-01 -1.554746407893767002e-01
5.851998657905463919e-01 3.528736919255587856e-01 1.612635843096855981e-01 7.618717485065197303e-01 6.287090089729825415e-01 -1.558089242111264094e-01
6.163384792605390849e-01 3.029364564337124754e-01 2.130911845444722896e-01 8.692621941240946670e-01 4.939540033149860676e-01 1.981616702754875406e-02
5.965875472412799363e-01 3.188262795077200784e-01 2.623536082167453043e-01 8.133622740411786678e-01 5.723109632523918355e-01 1.044125112602994482e-01
5.836449253717512775e-01 4.133824760729932213e-01 2.553244520584915245e-01 7.335715514363031486e-01 6.776898057725951885e-01 5.108136720211726295e-02
5.282680187377992720e-01 3.444419056333730134e-01 3.488433356708527944e-01 7.484349555643775576e-01 6.352484864034184664e-01 1.905373396778549111e-01
6.118876034099286487e-01 3.879195135770726610e-01 3.104181362159136870e-01 7.484375691977821488e-01 6.352177501792578562e-01 1.906295225575443397e-01
5.484349565173931573e-01 3.599820174752008106e-01 2.945680958975345765e-01 7.321020720712286822e-01 6.488963880868524603e-01 2.072680235753954492e-01
6.507050593283131290e-01 4.443270745676777267e-01 2.941301018790323796e-01 6.583009615559213268e-01 7.124187118815634712e-01 2.431037288392824125e-01
6.552163585657366784e-01 3.754175415012389605e-01 2.856316056911214485e-01 6.730888374887071812e-01 6.411382414399453555e-01 3.686369110810731597e-01
5.594582769922721299e-01 3.871430877990342800e-01 2.904941667818168316e-01 7.026171578339757140e-01 7.106187904689432733e-01 -3.674321909906729661e-02
5.678527483981429258e-01 3.620946802708865930e-01 2.702885514974154302e-01 8.038494072074252594e-01 5.793293851476390977e-01 1.349206953611247761e-01
6.096100911123506494e-01 3.310120354075395399e-01 2.795695508777029104e-01 8.273893662334890209e-01 5.550100398746166119e-01 8.596913563670147140e-02
6.430905656198568909e-01 3.527003543698730148e-01 2.484931722698422996e-01 7.343797356286710931e-01 6.721666968139575760e-01 9.422492022907946740e-02
5.401601684245609380e-01 3.751623695002707648e-01 3.054940872304240940e-01 7.465135377333026456e-01 6.584267226793166783e-01 9.587381729483446247e-02
5.385683366655348303e-01 4.454653910966858699e-01 2.348344834347164123e-01 7.464660745864094560e-01 6.584791306082923290e-01 9.588343988877408297e-02
5.130640321434011275e-01 4.024846105050390310e-01 3.012305468907564010e-01 6.879402096636648700e-01 7.128564533650532109e-01 1.362862605830480467e-01
5.505433561872025150e-01 4.169043254549675281e-01 2.586552642623118903e-01 6.861838642701468816e-01 7.153386257182187125e-01 1.320695081040992591e-01
5.494848373820752085e-01 3.917378617675827401e-01 3.171709630782726941e-01 7.364473887773831384e-01 6.567041725154131315e-01 1.624342124178901059e-01
5.698539825209431031e-01 3.694508803560055399e-01 2.216806054033551021e-01 7.207549764680544202e-01 6.659170955471777065e-01 1.925271039478475277e-01
6.035343601996778773e-01 3.446328049260811155e-01 1.766160135455968339e-01 6.936819343892404177e-01 7.136884723718451840e-01 9.723239329330329861e-02
4.715333719060759154e-01 5.344167510326780501e-01 1.463131165139864021e-01 5.871718536698400381e-01 8.013341833777780643e-01 -1.144235151015442625e-01
4.844443103040299015e-01 4.758394987370510032e-01 9.573363504962099924e-02 4.532929425087885988e-01 8.772110012483088637e-01 -1.581972425823642281e-01
4.759781353369029189e-01 4.741024809009312113e-01 1.158323911131791950e-01 6.144902083860308561e-01 7.874454861955597629e-01 -4.828447025629364203e-02
5.028048318256551630e-01 4.628778095170144602e-01 1.466957997845959316e-01 6.269426135978700687e-01 7.557656865372250898e-01 -1.891062831002413014e-01
4.979598154199691429e-01 4.915727164963610840e-01 1.731134421170847093e-01 7.383088756551100529e-01 6.604063895426294239e-01 -1.369795779675061498e-01
3.969289104335287921e-01 5.002952216772149630e-01 1.790456863328282744e-01 5.364176118733784415e-01 8.352790236832711157e-01 1.206859489202583291e-01
4.539649005563056172e-01 4.333157662682440847e-01 2.096901667753328646e-01 6.147098123724044072e-01 7.875001988231662420e-01 -4.444416077008337546e-02
5.084159015972904427e-01 5.036210333301130992e-01 1.841038173149884272e-01 5.198162434845654545e-01 8.522448249417090560e-01 -5.890527454881017144e-02
5.734601571776841711e-01 4.158775965336576896e-01 1.930547338520926248e-01 6.878668957090916525e-01 7.237941823729466817e-01 5.441613134554022790e-02
4.538047465228788879e-01 4.311888913650604449e-01 1.850065313658561805e-01 6.863428294498068460e-01 7.262936826495159925e-01 3.782865324377103489e-02
4.641768870547354209e-01 4.713832432830745156e-01 2.098476672106884822e-01 5.756645606746259025e-01 8.164026556747329133e-01 4.579320244898246045e-02
5.574603951835310767e-01 4.539718345337461769e-01 2.419950171195227873e-01 5.872661125715018526e-01 7.692566999535190853e-01 2.517193727184658947e-01
4.943719206803573463e-01 4.098836806691060208e-01 1.705208380360023201e-01 6.153100543808124323e-01 7.521891698052127762e-01 2.358071029583848899e-01
-8.659638496140704966e-02 6.044024257490975272e-01 1.576204332538049258e-01 -2.269286422261771463e-01 9.596913978457036754e-01 1.658186124605523504e-01
-1.268876900202105529e-01 6.552877456091035224e-01 3.357769285209723231e-02 1.103038347790217533e-01 9.921581894747476538e-01 -5.878087351539772187e-02
-7.614306063899242694e-02 6.484979867168589873e-01 6.214531277953454225e-02 2.512289384591544494e-01 9.618934445166772429e-01 1.079121025489186980e-01
-1.531904972615529548e-01 6.104202487253306275e-01 5.656037699551288989e-02 2.509438310284031193e-01 9.619854954323200369e-01 1.077548154219659521e-01
-1.303435642471607175e-02 5.958102116349842658e-01 -1.729473885577162418e-02 -2.132670214437663025e-01 9.760604228681580841e-01 -4.269927955992348229e-02
-7.547184776983320575e-02 6.657258867328786911e-01 1.561256660578309516e-02 1.773242881569863372e-01 9.834586549904369424e-01 3.694821719675812216e-02
-3.503867183131603724e-02 6.461503749719927914e-01 1.503796695440410766e-02 -6.204255803797050633e-02 9.857056919710838194e-01 1.566365532304388464e-01
-2.470386184163610513e-02 6.847756614729635372e-01 2.517403297408613017e-02 -1.234353942822284944e-01 9.923283827829859627e-01 6.934274417292119949e-03
-8.077651534386702525e-02 7.384041978471420631e-01 6.145948033915732411e-02 6.533378597085784736e-03 9.822032653637222666e-01 1.877073799107238095e-01
-8.936759343399568178e-02 6.583760265372877729e-01 -3.896860123172134899e-02 -6.142673620904050280e-02 9.910790899672864418e-01 -1.182750756005683662e-01
-1.144995097482515850e-01 6.291946367942600205e-01 -2.330462505255295746e-02 -2.633840492876990402e-01 9.613060729828812878e-01 -8.074327604851225249e-02
-7.657129368547063719e-02 6.213279352296153801e-01 -2.547161865223898647e-02 -5.608398564992987945e-01 8.091744831369080959e-01 -1.752007739764971095e-01
-6.307413826338365004e-02 6.303144553917388038e-01 -1.154869683668032984e-02 -1.956208374275570372e-01 9.798249313805169614e-01 -4.093399332225728521e-02
-6.625903426060265888e-02 6.005276563996362338e-01 -3.507375468145443320e-02 -2.884212059971915654e-01 9.334718577087309788e-01 -2.131748080729440609e-01
-1.514053647860614249e-01 6.106001205596742754e-01 -1.240996326014242798e-02 -4.444889651631140914e-01 8.735527528057939195e-01 -1.983309050895584458e-01
-1.015258613717730241e-01 6.541262092033611752e-01 2.170473861585766467e-02 -6.396888639619187078e-01 7.670366254807645667e-01 -4.952749230670906028e-02
-1.025042806958294389e-01 6.307010169682670808e-01 -6.561640546245216254e-03 -6.440123660456110732e-01 7.624711658904808065e-01 -6.233613371027038608e-02
-9.298834646882618571e-02 6.104313180096803126e-01 1.702960945206451540e-02 -5.978919926934461726e-01 7.965145438022342983e-01 8.994301854273591135e-02
-1.018940317278547170e-01 6.368484549205305489e-01 9.053163775093669985e-02 -3.128760437530463401e-01 9.265850551744777563e-01 2.086832929890456712e-01
-1.190134683636944884e-01 6.640905375233115970e-01 -2.166181959128135950e-03 -4.570484647567688574e-01 8.894354061779491394e-01 3.370326474898307188e-03
-2.095889911914717296e-01 6.875948232770155988e-01 1.742551513762316540e-02 -5.572165846169564452e-01 8.074332841282411133e-01 1.938070419507426645e-01
-1.325533488276813832e-01 6.795068227664611271e-01 -3.877162934240145631e-02 -2.518634999090982873e-01 9.669601899850004401e-01 3.940518237125002071e-02
-4.194153781802933273e-02 6.275710078604974651e-01 7.164665322852600826e-02 -2.520044398475040359e-01 9.669251484184049339e-01 3.936393848678516882e-02
-1.521578306945669534e-01 6.839736762815685767e-01 -2.399300004944149647e-02 -1.863541028413614187e-01 9.693369255636131721e-01 1.601813756123779964e-01
-1.220618356491062484e-01 6.221765568608965680e-01 5.710800541603167080e-03 -5.124580435312026117e-01 8.391027023973131049e-01 1.824648142785295635e-01
-2.484911728547138654e-03 6.486560594938600710e-01 9.941773513559504227e-02 -1.834938706875015868e-01 9.790419575447367739e-01 8.835635114177267657e-02
-2.876810079127987627e-02 6.334308099929067959e-01 7.371612571621323495e-02 -1.835915355126280513e-01 9.790150670146918754e-01 8.845138012678914474e-02
-6.978179865976662233e-02 5.941894168169259416e-01 7.858413486231782819e-02 -1.834685755024882403e-01 9.790435875665106646e-01 8.839081087977436468e-02
-1.105497058699555224e-01 6.801149013834855150e-01 7.117703641873301956e-02 -1.872104782617275420e-01 9.562980700158918435e-01 2.246024000604086579e-01
-1.839404845231840668e-01 5.884387129057070398e-01 1.794335912208275263e-02 -4.833223795435514503e-01 8.315258206104766403e-01 2.737960684349444174e-01
-1.427780022482908751e-01 6.830116441385386539e-01 4.960329388929478334e-02 1.712415752100538979e-01 9.793621034090692623e-01 1.073601104961376534e-01
-8.804715769713053475e-02 6.581672913301789274e-01 7.176174980016056248e-02 -1.058882404083067719e-01 9.884543899020280522e-01 -1.083771176339448084e-01
-1.569054409421842544e-01 6.660642400424121590e-01 1.184270883137820973e-01 -1.059462109472755903e-01 9.884519774161583117e-01 -1.083424604114288231e-01
-1.177285528508629775e-01 6.256883168265258144e-01 2.067845959261233046e-01 -8.410560681170960173e-02 9.701618182997411299e-01 2.274033711627296284e-01
-8.860114961468693040e-02 6.956735633652680884e-01 1.123267845822692734e-01 -1.115933345439613922e-01 9.795120271492688824e-01 1.676398411932240318e-01
-3.038327710215201621e-02 5.756073329569288966e-01 2.160468381290334972e-01 -1.567219318203777745e-01 9.515693110960649070e-01 2.644883405117312014e-01
1.142808378331770791e-02 6.320766329275271378e-01 2.608947004473862186e-01 -1.567219991647641197e-01 9.515833443544572390e-01 2.644378069130547404e-01
-2.368576523922457516e-02 5.992351740755758049e-01 2.529569514362146609e-01 -1.566510069026838259e-01 9.515845343182812721e-01 2.644755869312613306e-01
-1.941253284505467178e-02 6.369762107717859001e-01 1.926699201319716226e-01 -1.687265430346257256e-01 9.531025907794506979e-01 2.512504828355232589e-01
-7.027581696274971812e-02 6.130708797848760661e-01 2.483135327655108249e-01 -4.833506614406800073e-01 8.685523763953520993e-01 1.094938698870572130e-01
-1.261371962136255687e-01 6.456493908816990368e-01 1.639616668228136842e-01 -6.033205140863164839e-01 7.817798647863478667e-01 1.575582441424842883e-01
-3.251274786842064252e-02 6.333187941727623782e-01 1.496769444443407648e-01 -4.228782510284292417e-01 8.914891333160838149e-01 1.625457166045124746e-01
-3.340093264449595784e-02 6.520648837430002009e-01 1.744637011935041837e-01 -4.241940196586014289e-01 9.024448523410643075e-01 7.518458731011670726e-02
-9.815209568906561877e-02 6.222300075030920974e-01 1.423729921053789871e-01 -2.487052251561195637e-01 9.637737968535400324e-01 9.636274943439088192e-02
-6.319804219088816233e-02 6.647835926133065509e-01 1.276506048232050883e-01 -2.998877800628855228e-01 9.456529963146713680e-01 1.257287951506670942e-01
-9.676479843315656526e-02 6.261480433426702685e-01 1.113221162515769663e-01 -2.238783544318689034e-01 9.618128962403174054e-01 1.574624877318112626e-01
-5.817286927770436850e-02 6.374794626244953966e-01 8.486019429675652204e-02 -3.666827787752021117e-01 9.270460479129126741e-01 7.829025992258484279e-02
-1.181295082196597152e-01 6.339310432180457200e-01 1.684295061430980123e-01 -3.651956459839311719e-01 9.269819474724697583e-01 8.565400874755754734e-02
-7.001643371488101841e-02 6.312574909066158702e-01 9.624320075317828460e-02 -2.515488826867451344e-01 9.677427703912692136e-01 -1.403887368991798591e-02
-8.522747031246334648e-02 5.791744767215667444e-01 1.029531530049718480e-01 -2.502194037985073227e-01 9.446193499284391004e-01 2.123311887205747150e-01
-3.832619121542870100e-01 4.333599321636405488e-01 1.239775333298073767e-01 -8.431583312953725429e-01 5.044888795339622645e-01 1.859435365743330737e-01
-3.053797749893913949e-01 5.346844071330618675e-01 7.041080982656944265e-02 -5.606489358548401025e-01 7.747972092148897039e-01 -2.921678546959844969e-01
-3.056972759540973472e-01 4.597588424849016198e-01 1.171662824441056239e-01 -5.606816936406249230e-01 7.747300221303258239e-01 -2.922831353777106678e-01
-3.414790226114359228e-01 4.990641595775087702e-01 3.335272146579983110e-02 -6.271902914230566006e-01 6.616219187317879946e-01 -4.109607949650774805e-01
-3.028572152930532613e-01 4.300931152805127500e-01 6.104961672896559721e-02 -6.271797883041083654e-01 6.616304701976948310e-01 -4.109630567931758516e-01
-4.207505833828463215e-01 4.575207915646719026e-01 4.306753361476756831e-02 -7.368985716573709377e-01 6.573825046535498595e-01 -1.575713732400400580e-01
-3.505650497739565830e-01 4.139152890284245601e-01 1.636514567311362078e-01 -8.087093005295460380e-01 4.247997953891650136e-01 4.068591907212321668e-01
-3.139179121236660430e-01 4.254929625047314534e-01 1.149992804908036015e-01 -6.511455270174155707e-01 8.195518955261132943e-02 7.545149763593879122e-01
-3.859878184356818620e-01 4.469372267501220408e-01 1.536002829677660109e-01 -5.706255602266541160e-01 2.487029446902843111e-01 7.826450762116877735e-01
-4.141823579880765105e-01 4.891993165375507213e-01 1.964549584088227108e-01 -8.040234473590630593e-01 3.733633124425992378e-01 4.627592603273736338e-01
-4.181778429205229575e-01 4.448564912801563076e-01 1.409172072859146974e-01 -7.894090113712914913e-01 4.087561657540764171e-01 4.579866916448844250e-01
-3.397901613565167400e-01 4.094013668306013543e-01 1.405758334797536369e-01 -7.352412989050437497e-01 2.582071917721163179e-01 6.266971186319446607e-01
-3.349809745919824500e-01 4.613390900523599014e-01 1.086309876572067873e-01 -8.217314329005703799e-01 2.041377429473814897e-01 5.320575477216015203e-01
-3.086241290670042048e-01 5.491408771262481503e-01 1.558453527827845519e-01 -7.048874404015076367e-01 5.757779561934177615e-01 4.142625273011569798e-01
-2.938436217721759891e-01 4.601001197011359567e-01 1.264791569261850546e-01 -5.605352977165665163e-01 8.276967529072026819e-01 -2.680047090394588327e-02
-2.876576745450373784e-01 4.992978811619324664e-01 1.297432863725554442e-01 -6.625366192302226676e-01 7.328748450440820683e-01 1.547245606896309744e-01
-3.654142511739968402e-01 5.326542147939633542e-01 9.745100679745030692e-02 -6.183842321049095592e-01 7.467685418087937066e-01 2.448217442319804149e-01
-3.591603446174039815e-01 5.504350559064314918e-01 5.878542011552884833e-02 -5.431624290600906013e-01 8.346193479425025874e-01 9.157029921090120705e-02
-2.636939466881965677e-02 5.073965225438553661e-01 4.660940734266726948e-01 -1.986209625388450084e-01 9.316390544476788049e-01 3.042998282417817002e-01
-1.902935548248408520e-02 5.760538768801310994e-01 4.399255643472474997e-01 -1.274961470667098085e-01 8.891678236615369046e-01 4.394602528649774742e-01
5.019450463521078765e-02 4.933869298283023452e-01 4.196149962500859143e-01 -2.269638839992293988e-01 8.603414515586742528e-01 4.563989286686570557e-01
-2.698252433914855378e-02 5.305104253307438844e-01 4.253623529230495248e-01 -9.252312060849904318e-02 9.537383289995942093e-01 2.860466254825023702e-01
1.371439777857859643e-01 6.053088900474687950e-01 4.285305307012030607e-01 3.088022781595091137e-01 9.213172648721705826e-01 2.362533607209851561e-01
7.503317068895672126e-02 5.504211023440246375e-01 4.728082828656822167e-01 2.820324167378345792e-01 9.047091765499930549e-01 3.193102281093573858e-01
9.561554316832393541e-02 6.109436591815586848e-01 3.867163616943923299e-01 2.820324997662911337e-01 9.047093809535983189e-01 3.193095756317586020e-01
1.159544153559801116e-01 4.953936551709333669e-01 4.377914211906846487e-01 7.885945777496841669e-02 9.165194839754218226e-01 3.921392882801520985e-01
1.402651165072793527e-03 5.746375817320494850e-01 4.156398309374431665e-01 -3.499989646792098230e-02 9.848302120142589100e-01 1.699542901817571450e-01
1.104813457046170538e-01 5.677881185055766444e-01 4.360966828315775423e-01 1.271398923871477626e-01 9.762017931264826975e-01 1.756858186093125107e-01
7.859798761275957335e-02 5.348494730781314654e-01 4.185138931324915990e-01 2.319131893628598173e-01 9.648976644764655219e-01 1.232427267119997893e-01
9.626501771273111852e-02 5.597570187298950284e-01 4.677308320469262815e-01 2.318168209700805227e-01 9.649121555868782618e-01 1.233105571960878971e-01
5.805419331168281544e-02 5.389092825547203702e-01 3.885639591057975517e-01 3.920545120758030938e-02 9.691343303927332231e-01 2.433959372089817830e-01
5.460765038064918642e-02 5.593996113413737259e-01 3.646956154470595290e-01 -1.142259384950809475e-01 8.510441811822704317e-01 5.125194988005010721e-01
3.436243406711499832e-03 5.326809402998859966e-01 4.597771185030254393e-01 -1.638056189480666947e-01 7.554362681178157235e-01 6.344160811433363634e-01
-1.853537202721385405e-02 5.591747769217708663e-01 4.620536286932421799e-01 -2.098484773380391299e-01 7.917945020651890875e-01 5.736070807253391690e-01
1.784690141472689701e-02 5.993081176682800715e-01 4.429440012254237113e-01 -1.452998167393090012e-01 7.767889640820819785e-01 6.127698332455744357e-01
4.726765866765057084e-02 5.411448329209587182e-01 3.735705652573836910e-01 -1.048909175212870415e-01 8.941773531080191573e-01 4.352525205099670447e-01
2.347679256760322464e-02 5.513025023002089409e-01 4.119818810931346054e-01 -1.022844821316071517e-01 9.653238337764770138e-01 2.401828067496785957e-01
-2.546771622222629428e-02 5.298316680529314704e-01 4.797973835626016537e-01 -1.023126457058602390e-01 9.653043647296128960e-01 2.402490498683094999e-01
-1.376248533605897890e-02 5.248180160971318564e-01 4.014349146773397714e-01 -1.515336098462387870e-01 9.742586460290512118e-01 1.669061284812748402e-01
4.103320728330375755e-04 5.719295084574720356e-01 4.113945868070669198e-01 -1.089258072683984696e-01 9.287923756874049142e-01 3.542314093581683254e-01
-9.046906556102993907e-03 5.555253010936335167e-01 3.303465527930161127e-01 -1.055203765605260691e-01 9.089644012890614189e-01 4.032978642638005984e-01
3.163557248733538108e-02 5.777343051237647797e-01 3.920755022084956298e-01 -1.777292756736871537e-01 9.343540962299177188e-01 3.088603688187924745e-01
-1.761449462988521064e-01 5.686726152126349021e-01 4.139266218935638841e-01 -2.041085320616306820e-01 9.788018690692867896e-01 1.692950814752611916e-02
-1.457844156249190060e-01 5.263707127337619029e-01 3.006582454311255703e-01 -3.880304917178131752e-01 8.654186062130089230e-01 3.169904943646812412e-01
-7.357338568077720353e-02 4.737613814509028520e-01 3.616636044594015997e-01 -4.767217415967493488e-01 7.624000613671286786e-01 4.375871656211600680e-01
-7.217787842243258978e-02 5.830939685949986240e-01 4.231505303640749616e-01 -4.312409999579051578e-01 7.469624988938214916e-01 5.060417227873643675e-01
-1.714951405255971673e-01 6.073961830917646854e-01 3.788982816507875939e-01 -4.311278289341564651e-01 7.469427106460920784e-01 5.061673459748159409e-01
-2.318011795190516311e-01 5.367009623800137463e-01 4.035416284420413335e-01 -2.819423441994433066e-01 9.266308009413745106e-01 2.487244927506528647e-01
-2.149196860937899745e-01 5.894577972267884824e-01 3.227834503559308121e-01 -4.491897290985784608e-01 7.567388050338058614e-01 4.749473320573062707e-01
-1.824860645515364033e-01 4.862231368467266890e-01 3.225816438123283447e-01 -3.675217215120903380e-01 8.282198563529935553e-01 4.230598701831886355e-01
-8.784718890017546855e-02 4.987346902901441670e-01 3.188603362387838480e-01 -5.542033827621686282e-01 6.593226338837341327e-01 5.080868773975417696e-01
-1.674577540251044327e-01 5.511054663051558888e-01 2.883515539554289409e-01 -6.241173228958769581e-01 6.468256489639556683e-01 4.382854630302510102e-01
-1.995783028686061167e-01 5.642358612139091179e-01 3.724789426813458482e-01 -4.788526667751937804e-01 6.742645556645242566e-01 5.621987482170403005e-01
-1.423638578909513508e-01 6.335617461918812143e-01 3.060346092521687988e-01 -6.022886814519408105e-01 7.625115578147934059e-01 2.362720220291418816e-01
-1.159059932203736348e-01 5.788597979145021499e-01 3.444919154333683231e-01 -6.625574093850689072e-01 7.061323243991642906e-01 2.497895508374590179e-01
-1.686182442341991883e-01 6.276712288636253634e-01 2.425841557425101047e-01 -6.626015760162722312e-01 7.060626614282594637e-01 2.498693050328419096e-01
-1.112454071436334430e-01 6.023994904211352752e-01 2.700872183650759317e-01 -6.894926667788014996e-01 6.691382307789139894e-01 2.772253425795009329e-01
-1.021165555880507725e-01 4.716973941713210605e-01 2.891712048203021190e-01 -6.340756649679540891e-01 6.755022726421373580e-01 3.763571850659350182e-01
-7.244190902217664818e-02 5.611767834525112075e-01 3.182734255186200900e-01 -4.954879368524162109e-01 7.376242102899723818e-01 4.586962271785441914e-01
-1.261923689144134331e-01 6.166447850726254343e-01 3.424466275738177190e-01 -4.954523464240653818e-01 7.376599064091858837e-01 4.586772666039587443e-01
-1.351187888847813212e-01 5.265101641279090749e-01 3.298323363799364194e-01 -5.108201925931394882e-01 7.485486517317386790e-01 4.227737537143290703e-01
-1.158218633925193058e-01 5.803347587337829294e-01 3.062704386717160498e-01 -8.514792073384326587e-02 9.922873209568026098e-01 9.008720365886846437e-02
-1.168573316756269243e-01 6.601817078407694606e-01 2.616917816387556717e-01 -2.334502916394747551e-01 9.307079737838775957e-01 2.815734875100162626e-01
-1.383458956965953057e-01 5.624343241561331475e-01 2.703529622813057864e-01 -2.498645982592808956e-01 9.413127187338093949e-01 2.269318137386044376e-01
-1.123278578180898629e-01 5.947013581715892006e-01 2.476576840554750303e-01 -1.579403842965233506e-01 9.532741648467448758e-01 2.575329137100877963e-01
-5.118158911693784785e-02 5.962271775889387282e-01 2.957280903690098772e-01 -9.386335119278262085e-02 9.731800516907482823e-01 2.100244230894415254e-01
-1.604632520759280145e-01 4.648536573559547969e-01 5.475889490332176424e-01 -2.619946488712984745e-01 8.063920782473257276e-01 5.301797997875477009e-01
-1.117990962240294345e-01 4.805219243360472348e-01 5.515745332592180139e-01 -3.822795620807409311e-01 6.990565037583631458e-01 6.043031862968212264e-01
-8.938059491707921189e-02 4.410626261973141782e-01 5.255831071552823364e-01 -3.823133106563288974e-01 6.990827544679304451e-01 6.042514666101594933e-01
-7.473437887652298328e-02 4.150763772150328212e-01 6.436135726550022973e-01 -4.013973342474373984e-01 5.774243479408713853e-01 7.109580173710052797e-01
-6.226597484387390302e-02 4.561781079098754521e-01 5.847388966717947945e-01 -2.363540371195580747e-01 7.613385493914099911e-01 6.037386705751671689e-01
-8.324524863354620940e-02 4.309545314345414879e-01 5.071383247652133663e-01 -2.554223200406494643e-01 7.637030316222120918e-01 5.928887905131068337e-01
-6.046492934328177860e-02 4.175315106250227504e-01 6.274571428734215806e-01 -3.442350619718472782e-01 7.109012581483281634e-01 6.132875534953914354e-01
-7.662056996583059554e-03 4.515815215477750333e-01 6.196400863559298200e-01 -3.442972078867932439e-01 7.108375826736149650e-01 6.133264739925138320e-01
3.986663411665239964e-01 -2.737381640363614199e-01 -2.099769137552115750e-01 6.054683365468724876e-01 2.498745150576121843e-01 -7.556261113565929666e-01
4.020316829436423323e-01 -2.140063859309013772e-01 -2.500793015335815439e-01 5.467588302037651449e-01 2.760304839432862756e-01 -7.904821019657850556e-01
4.878710962595879108e-01 -1.768830069718439479e-01 -2.145202566236161790e-01 5.465960907819461534e-01 2.996572229238851359e-01 -7.819451785716434733e-01
4.307561001661139310e-01 -4.110457034661744169e-01 -2.524675151394935035e-01 7.446814852996928025e-01 1.373357234153244621e-01 -6.531373397118195312e-01
4.054771520523185457e-01 -3.057808714838892716e-01 -1.841099252141421838e-01 6.510085759385165760e-01 2.351005819827695908e-01 -7.217447958980153233e-01
4.690227284437299415e-01 -2.535787253837309962e-01 -2.067864977146947336e-01 6.699065244153382670e-01 2.054669536854450418e-01 -7.134483719856573591e-01
4.904926892200659472e-01 -1.701971948673216550e-01 -1.213291121144095402e-01 6.797431310119758097e-01 2.138692990005419403e-01 -7.015762245024077526e-01
3.947720951294825253e-01 -1.715276881916986407e-01 -1.989777352877175609e-01 6.910679190165693875e-01 2.119038797144910113e-01 -6.910295775638368720e-01
3.875937707692658774e-01 -2.465016081608259746e-01 -1.282433961611930129e-01 6.910370817765218998e-01 2.119332243683393624e-01 -6.910514163350129913e-01
4.870080284581347341e-01 -2.714503885030363772e-01 -1.872711479530207446e-01 7.683428555521055747e-01 1.376466916935843998e-01 -6.250621125838996539e-01
3.670904546085186348e-01 -3.224235333678580617e-01 -1.840787104853198464e-01 7.684146736947982115e-01 1.375774870689116802e-01 -6.249890593460979415e-01
4.601267177581537249e-01 -2.859124494989410681e-01 -2.111120862576827961e-01 7.748230804673508221e-01 1.289279869757571917e-01 -6.188915641285346325e-01
4.211098548794498519e-01 -2.577508570036364244e-01 -1.703607961121353098e-01 7.685950374910999194e-01 1.294455146413645008e-01 -6.265026153842352397e-01
4.245575854805999638e-01 -2.329993836546720432e-01 -1.287661831779837729e-01 7.762868680132927190e-01 1.461964668452965799e-01 -6.131927035052396890e-01
4.612907410451433377e-01 -2.255047190283271663e-01 -1.383357847807897278e-01 8.577129275336491387e-01 4.962294745545726277e-02 -5.117285384141574411e-01
4.382737951403393728e-01 -2.560004779398655228e-01 -1.824118726612239394e-01 8.577204589752066566e-01 4.959203545930351842e-02 -5.117189113901927655e-01
4.005729062211895730e-01 -5.518241628540618837e-01 3.614358852099819330e-05 1.562074335120922086e-01 -3.676394985392444914e-01 9.167553854924322954e-01
4.407245002720727722e-01 -5.670195995516255083e-01 -2.432685943816008389e-02 9.944106350199284350e-01 2.511805740822931760e-02 -1.025503395962179265e-01
4.710704229195698534e-01 -4.922371126745845316e-01 -2.043530071806229087e-01 9.927670756112167982e-01 1.418956397016019749e-02 -1.192148894085352240e-01
4.888700136017808395e-01 -5.285809137884704967e-01 -1.659124564014562153e-01 9.927697647810677095e-01 1.404879240904018112e-02 -1.192091673001324376e-01
4.312832638393546136e-01 -5.515894773654261840e-01 -1.172221802233246735e-01 9.880702139636949877e-01 -8.091768633691428375e-03 -1.537913377213321886e-01
4.247835371368348101e-01 -5.154208537054728589e-01 -1.157189770893695818e-01 9.893377449676522550e-01 -1.380352600103714432e-02 -1.449837544425562896e-01
4.096721452244456163e-01 -5.611733622242734976e-01 -1.345612865141893877e-01 9.870482158974990261e-01 -6.551376870497314930e-02 -1.464368997337605061e-01
4.763957336212137350e-01 -5.126993116992366595e-01 -1.213509359564085149e-01 9.957711541340498185e-01 -3.428640761860033553e-02 -8.523057460297658872e-02
4.259190518661543634e-01 -5.111911320638137246e-01 -7.271005461863772057e-02 9.955381528662412549e-01 2.478519042494208360e-02 -9.104658435807384820e-02
4.271316592008578272e-01 -5.341906755626466552e-01 -1.586448109332530554e-01 9.955283542784804096e-01 2.469558874906436705e-02 -9.117797828378138014e-02
4.128700917525007230e-01 -5.282295744778230384e-01 -1.252787812457863692e-01 9.939155023045097570e-01 -7.475511712613318316e-02 -8.089281020110690446e-02
4.465897047620154825e-01 -4.608886139599359111e-01 -1.135571014718627647e-01 9.903551169107239760e-01 -4.376900401550053166e-02 -1.314572808795210768e-01
3.822241673095656544e-01 -4.780428848930847185e-01 -8.384612925569696895e-02 9.959648248726566955e-01 -3.585183147261629399e-02 -8.227219333673663204e-02
4.412977333730742080e-01 -4.213634293474784465e-01 -1.182031338309836727e-01 9.914998942048995900e-01 -3.930966840825809994e-02 -1.240270525381687861e-01
4.508191428018776814e-01 -4.332005049389159312e-01 -7.188157494843722128e-02 9.959835694443691656e-01 -7.553615403800471861e-02 -4.807305721503696283e-02
4.314956122266925265e-01 -4.698038830584403414e-01 -4.128798466217195595e-02 9.978174998047872890e-01 -6.223957764825818750e-02 -2.205611156775733397e-02
