2.402437723552675597e-01 4.331838960026523355e-01 2.997572137726577379e-01 2.355722045822787603e-01 5.152565965947046855e-01 8.240244996927499344e-01
1.226826856901275103e-01 5.208942385579516943e-01 3.415715552634291385e-01 7.217246223441627084e-02 2.230568179665177175e-01 9.721300281617030192e-01
-3.168343987506606896e-02 9.383019247043543620e-01 -6.211568301312250795e-02 7.210622396804870771e-02 -6.315429691394962575e-01 -7.719806801957798115e-01
-7.655826970649730334e-02 9.404165955877649141e-01 -1.611689309417874971e-01 1.041923123198578854e-01 -7.637600051492020592e-01 -6.370358047927386913e-01
-2.370155367104180566e-01 -2.507256976873508542e-02 2.368338771629720230e-01 -4.042303600336195901e-02 -1.894079687188181815e-01 9.810660525907938245e-01
-3.019530857113436606e-01 -9.414962497891429805e-02 2.971744579660189345e-01 -4.671682563006651634e-02 -1.895007781667923663e-01 9.807685727414138244e-01
-2.205799307970183198e-01 8.155235083365529603e-01 -8.994362622476261004e-02 2.024069607789296121e-01 -4.739045698663886252e-01 -8.569981802127646375e-01
1.348547557523895324e-01 -6.438190193366214453e-01 -3.214452869841160632e-01 6.390131787511730589e-03 4.686483403920069235e-01 -8.833617035300749265e-01
1.998598867014935998e-01 5.463348475872467080e-01 2.963373611381009964e-01 1.788645358120546369e-01 4.760667347287002582e-01 8.610272596808370427e-01
1.092282255184094802e-01 4.851289158823215431e-01 2.886409082931151171e-01 -1.194076395930729903e-03 1.735596259603762459e-01 9.848226390665757446e-01
-2.181450892783745599e-02 -6.070009508514373486e-01 -3.223331564969411644e-01 7.142772359392797477e-02 4.874135297118575849e-01 -8.702448686180330739e-01
2.584578576920213214e-02 -6.831807914191728726e-01 -3.512360200302755420e-01 1.637915521458678178e-02 4.747237362509658110e-01 -8.799824415943650058e-01
-1.280713974109504716e-01 -6.437283068194137314e-01 -3.233264099215019671e-01 8.837283027473998021e-02 4.739606136505424838e-01 -8.761002109218061218e-01
-6.360350826001144320e-01 4.277876980384172079e-01 -2.051839826661722987e-01 3.171697672401393997e-01 5.410419479165936435e-02 -9.468242048314893244e-01
3.420853827917105239e-01 5.078443555281746402e-01 1.732914003279859283e-01 -1.131324472978046253e-01 -2.133397116842037367e-01 9.704056970086841760e-01
1.019851108412895002e-01 4.256141701869428084e-01 3.371540975733556267e-01 3.979747728334846052e-02 3.114139373126835753e-01 9.494406355582708512e-01
-1.689597258192514495e-01 -6.939336108175647722e-01 -3.580526690399936096e-01 7.428182854978732097e-02 4.880872421834775432e-01 -8.696281124509643856e-01
-8.740767676813820941e-02 5.876545254428954257e-01 3.744010054364535489e-02 -2.085872244446614066e-02 5.914127290159612027e-01 -8.060991859913256841e-01
4.000530093091906325e-01 4.259636374173400575e-01 1.222790518219124128e-01 -2.358714126578008996e-01 -4.610178224250295331e-01 8.554690199518023563e-01
3.897660724451779135e-02 5.065812958263965493e-01 3.552014905912920240e-01 3.891421616900119645e-02 2.732629200079966236e-01 9.611519444544944779e-01
3.873960156540593447e-01 4.516436427504783024e-01 1.152289221202663361e-01 -7.051056337647583494e-02 2.261697762855676697e-01 -9.715325484754837593e-01
4.625599466863911102e-01 6.190209692134762687e-01 1.791046370441971569e-01 -2.270576013942964821e-01 -4.000022302489680270e-01 8.879431634090777514e-01
2.968643815820789511e-01 -1.480619825876477724e-01 2.569409301522107558e-01 -9.154312414191635369e-03 -2.544449159278904249e-01 9.670439407403740306e-01
1.068356368171464732e-01 5.090184131207493579e-01 3.200935847450896987e-01 1.597266412227583976e-01 5.490803073781469479e-01 8.203646848403556291e-01
1.478727722759089480e-01 5.192334454254480258e-01 2.768230567992785995e-01 8.918526787833885860e-02 5.376509929038081337e-01 8.384374740092539469e-01
6.692481282357460870e-01 8.928710160696393117e-02 5.132628998979144735e-02 1.356153407992425619e-01 2.321192307230445506e-01 -9.631869715005738630e-01
4.709849127737120167e-01 6.165760867884964025e-01 -2.879000768541727789e-02 1.480119172537434080e-01 8.934762793720538165e-02 9.849413554790283909e-01
2.669185905235769707e-01 -1.743066579924593962e-01 1.693614748562267402e-01 9.692767988920212782e-03 -2.400110646246911006e-01 9.707217619413068821e-01
-3.201372788078457043e-01 -7.292175587145067750e-01 -6.238274845510692612e-02 -3.837970078077654335e-02 -1.307141802865559033e-01 -9.906769411064294539e-01
-6.652213683921102128e-01 4.631795692072239179e-01 1.784586706918787069e-01 2.982210090628494847e-01 -4.654995980468449313e-01 8.332912779885325305e-01
1.046058158687991485e-01 5.352266487251683413e-01 2.530997844380052930e-01 1.039564151092986499e-01 6.227949456458758970e-01 7.754479475990465609e-01
-1.956840514424438293e-01 -2.389123422915814809e-01 1.923946018856852180e-01 -3.155860365343098745e-02 -1.810148231982446621e-01 9.829739001204221838e-01
4.506739444045429477e-01 6.265903139203636840e-01 1.954595426753243936e-01 -2.400514501139388301e-01 -4.634447051693476038e-01 8.529913871480131471e-01
-7.200420811811196753e-01 3.243484375401415321e-01 -1.440178569489340699e-01 4.764949285588033767e-01 -5.104602461982998829e-02 -8.776940733696749763e-01
1.515443509994787719e-01 9.681924807273852851e-01 -1.150031670984347915e-01 2.042790336504268778e-02 -2.129879157441529891e-01 -9.768412606514275121e-01
-5.510342413879894263e-02 9.573455643811623617e-01 -1.687953499253753709e-01 5.170256059606742616e-02 -6.427684594481903879e-01 -7.643137789981349073e-01
-6.208487507481823542e-01 6.188902897804676728e-01 2.015396968799439692e-01 2.194035969357512883e-01 -4.448202751843547964e-01 8.683299974298764878e-01
-1.901428217892071615e-01 -2.049235365282142673e-01 2.120572725048674445e-01 -6.764676946407308100e-02 -2.147336832350806302e-01 9.743271318532450431e-01
-1.859692455693852109e-01 8.952337509119807635e-01 -4.967804377172043567e-02 1.180659592263566676e-01 -8.414370839169634797e-01 -5.272988366014825790e-01
-1.306931113414503687e-01 8.155530356054109253e-01 -1.039176141983155777e-01 1.287452155039374990e-01 -8.337828097996728971e-01 -5.368713957433448591e-01
-9.109195513958676105e-02 8.346641426841356903e-01 -4.855548172041396215e-02 1.276542040560367519e-01 -3.789670376733291213e-01 -9.165633576266952742e-01
-2.707259954895398502e-01 7.743882188748798523e-01 -1.073876842837887258e-01 1.563630478698162241e-01 -6.393532652039518593e-02 -9.856281607602290773e-01
-5.208187116209082035e-01 5.889368007550846995e-01 1.472665257990578569e-01 1.527305172688757928e-01 -4.049333193475867509e-01 9.015000809633502143e-01
5.900832230674131207e-01 4.365174173926381074e-01 -8.722044740410700436e-02 2.186471573622856546e-01 5.953476312354074457e-02 9.739861562451571642e-01
-1.314945531972955828e-01 -2.845582031237429699e-01 2.156053926100863771e-01 -4.988364563253756129e-02 -1.910478468142797759e-01 9.803123696689921562e-01
5.720636940665992931e-01 3.924768177686568937e-01 7.274975715200901472e-03 3.775377619325057665e-01 1.921847428880326183e-02 9.257947334917201454e-01
-1.235723286839479351e-01 -2.527011907401402468e-01 1.926246450281844103e-01 -3.388202655940680125e-02 -1.623022334549231172e-01 9.861592129528432560e-01
-9.101077190403891737e-02 -2.230795722382467594e-01 2.252286056038204365e-01 -4.224977666511196828e-02 -1.603291843759257207e-01 9.861589674130122329e-01
4.221728270600558774e-01 5.865345986819813229e-01 1.515655484379571094e-01 -2.337274252882854675e-01 -4.374613568776754002e-01 8.683311879155625190e-01
-2.866802392915416831e-01 7.133453397723602540e-01 -5.440823238283566676e-02 1.258534808643483327e-01 -1.225734576777965379e-01 -9.844473824574051513e-01
8.678964094891189474e-03 -2.929731947715220608e-01 2.170832363883690441e-01 -3.402653171466062804e-02 -8.078368297181276469e-02 9.961506872481596941e-01
3.358052369413419558e-01 6.268232754915159521e-01 1.146720501836376860e-01 -1.985962627353244636e-01 -4.688515078600133945e-01 8.606612504376817130e-01
6.037261063214992285e-02 9.245578241934183650e-01 -1.519200276090267310e-01 3.235581132226581641e-02 -4.866729422683241935e-01 -8.729848502337084204e-01
1.108357966272178335e-01 -2.188485069242356029e-01 2.197776667038547627e-01 -4.364523098557837599e-02 -1.906664761222410520e-01 9.806841431854306235e-01
-5.778646355865146855e-01 5.498234889344791876e-01 1.543317485371853981e-01 1.828283893962167062e-01 -4.475399957842696175e-01 8.753751951044769219e-01
3.300526012364106143e-01 4.083884305355311439e-01 -3.193503304807112503e-02 -5.009717042308790003e-01 -4.696263921008537734e-01 -7.269652009569260720e-01
-6.566797090601210474e-02 -3.511426876206398262e-01 2.295325252709911057e-01 -4.400589271262454749e-02 -1.840807274080530909e-01 9.819255405597142605e-01
3.392697544578578833e-02 -2.633733116139372887e-01 2.171338084738788088e-01 -4.705571983688335014e-02 -1.862114337347458848e-01 9.813822197172125117e-01
6.821806358878512722e-02 -2.572816925247241038e-01 2.359864703954092369e-01 -4.362052338147567182e-02 -1.816449749161575811e-01 9.823962301574831191e-01
-5.357209211509139646e-01 5.466277223100213245e-01 1.453797596542922010e-01 1.887056473295732617e-01 -4.603602753178331897e-01 8.674437132028888220e-01
3.236480162679924999e-02 -3.066251934396222456e-01 1.775639901432694845e-01 -4.756601253068899748e-02 -1.884749461029076034e-01 9.809254146689423415e-01
6.408365656097033680e-01 2.427830990205429029e-01 -1.012568633174898425e-01 2.721333913591553744e-01 -5.405997874549592352e-02 9.607397857929073082e-01
-1.245663051924803810e-01 9.320238698556310153e-01 -5.024879299221003681e-02 8.251370458210975645e-02 -8.326087104315368359e-01 -5.476807682123498999e-01
-4.343363806883787648e-01 3.876573618924826492e-02 1.148250235806623221e-01 -4.331457244370578996e-02 1.119591634206068276e-01 -9.927683483774938367e-01
-2.065555208387882535e-01 9.806040830374222750e-02 2.841020938237059923e-01 4.002611295341227948e-01 -8.020176556911083887e-01 4.433494199204583985e-01
-2.557901520484366364e-01 6.281761552247626668e-01 -4.115540884646755326e-02 1.721862327897098477e-01 -5.471724044251685681e-02 -9.835435551291278333e-01
-1.834110038888950023e-01 7.490948891739795945e-01 -2.427177010535197174e-02 -2.294401945078157479e-01 6.782265624736964760e-02 9.709568911356295517e-01
2.258243077551393974e-01 6.962150876997086346e-01 5.844105361486215400e-02 -1.371303062000019946e-01 -4.668016322959897546e-01 8.736655625622959942e-01
7.029502755308337791e-01 1.130500766851895780e-02 -1.332997598005365436e-01 2.841748003300592629e-01 -2.188441235637371141e-01 9.334623358438146612e-01
-2.305560497776863449e-01 -5.834397200997670785e-02 2.459620206492666439e-01 9.907273479739252542e-01 9.838623775440372143e-02 9.369882708490462342e-02
2.759202965772630453e-02 9.253730428986679524e-01 -3.419165940005094995e-02 5.089043128942866145e-02 -8.247514190232697606e-01 -5.632009062690498391e-01
7.303587479030320129e-01 6.897783287971515076e-01 -2.057468760148468689e-01 -2.416728593728087182e-01 -8.660085336247274473e-03 -9.703191392343756272e-01
-4.960264705138835994e-01 -4.884482964859242493e-01 -2.638858051186845355e-01 2.072244638876453438e-01 4.037711081872321084e-01 -8.910818782579591479e-01
-3.606057404663668975e-01 7.718477202059124131e-01 2.609029906872678550e-01 -1.354178107396743769e-01 5.931943231701674035e-01 -7.935883766116794691e-01
-2.921734717837393136e-01 -9.043065551831709625e-02 1.325112541823668388e-01 9.228537827147358374e-01 3.679969050172651746e-01 1.136625427606517968e-01
-2.292366640407470790e-01 7.415351705891380929e-01 -6.818571093681254081e-02 1.327017766960899847e-01 -7.272616938923523455e-02 -9.884842653010059710e-01
-4.789762148429171917e-01 5.995021698749523065e-01 -1.537236821596680014e-01 1.932937021355484453e-01 -3.583670355380098871e-02 -9.804862443671155114e-01
-9.085806129413840360e-01 1.345482387717197859e-01 -3.721808938473684658e-01 6.313223287138584883e-02 1.910262579602633182e-01 -9.795525968228413483e-01
-3.968968055343877754e-01 6.456899790581985821e-01 2.106390997506955021e-01 2.040536932806340520e-01 -5.461723862747320801e-01 8.124394221906627855e-01
-1.550395008058809143e-01 -2.115001926799309484e-01 1.741465101582664876e-01 6.408795344682148842e-01 6.880763141289323315e-01 3.403298521060815207e-01
-7.472727478996746275e-02 -1.985532770110072232e-01 2.040239885421359367e-01 5.519847447786488948e-01 8.110484885815175682e-01 1.936832225601525792e-01
5.615751620424532797e-01 -4.773398030128208069e-01 -2.364518929434575312e-01 1.711988237050954542e-01 -3.602304189254350586e-01 9.170196334009415029e-01
7.040342709161203638e-01 -3.930662852169776178e-01 -2.392566909753969795e-01 1.741317843033692858e-01 -3.665563472273594137e-01 9.139554507757260415e-01
5.118639362437419349e-01 -6.771033852019462396e-01 3.254233916242986469e-02 -5.381069614073309415e-01 6.919316243994874105e-01 4.813226830732749706e-01
3.142071630320101838e-01 -4.290587385977829848e-01 -1.560598880245492870e-01 -1.566601061307507647e-01 4.851445856547548785e-01 -8.602861978184807024e-01
5.159693568358149074e-01 -7.630987833582130175e-01 -1.541993402637268848e-02 -5.164067286412890034e-01 6.376701533877071615e-01 5.715775241316792821e-01
5.546626855044715088e-01 -6.498464236715890685e-01 2.365396270972729142e-03 -6.410929002019117862e-01 6.725431569671952436e-01 3.697101504250320803e-01
5.690935511170820416e-01 -6.408234564303033620e-01 2.142924744354015448e-02 -6.733007599456769521e-01 5.740476998754882043e-01 4.659778159142725085e-01
4.038711881671647741e-01 -6.295554156225349196e-01 6.935184981088333978e-02 -5.493485551849531801e-01 5.409346238357081171e-01 6.368719633112494005e-01
-8.061617459077946579e-01 -4.975373471357046884e-01 2.087422945268114713e-02 -7.887695531646090608e-01 -4.990636634270290140e-01 -3.588565895274826723e-01
6.173350265554434779e-01 -6.638138393968653350e-01 2.201503335253145177e-02 -6.078642204404010041e-01 6.257514284238331337e-01 4.888110466570044221e-01
-4.928291303234730303e-02 7.187627009166994707e-01 1.996931326999587808e-01 3.805308956469203446e-02 5.611296155252103457e-01 -8.268527782834808049e-01
6.125314598820451595e-01 -5.975268523690052680e-01 1.569286501647915166e-02 -6.766227165903286878e-01 6.477236109331804270e-01 3.501939794365481751e-01
3.832695918436682114e-02 -6.945638054544528428e-01 -3.556251485137145729e-01 -2.690319744388176837e-02 -4.337682345164595166e-01 9.006227493749918711e-01
6.509164106758666968e-01 -5.567434189658291288e-01 -6.325016338646428926e-02 -6.842678807151650888e-01 5.815846716556469786e-01 4.399281044861422796e-01
7.159345045093125082e-01 -5.318326802627479921e-01 2.178327954187828791e-02 -7.470024528412457787e-01 5.440271128102460718e-01 3.821280361037517337e-01
9.789177624131346900e-02 -7.077067850286191675e-01 -2.896046214308489741e-01 -6.770024455623925227e-03 -4.550061867055730791e-01 8.904625409462901819e-01
6.886557580512133736e-01 -4.749338695260412746e-01 1.129542977303327062e-01 -7.426491973412292502e-01 4.966569476953552331e-01 4.492260522213299967e-01
-2.134936893587803183e-03 -7.574472472874190787e-01 -3.463254861969052301e-01 -4.983677718006179064e-02 -4.473774408059268404e-01 8.929556098139728171e-01
5.618044299376437345e-02 -7.292716777299204090e-01 -3.563556446430919955e-01 -5.319657057454287713e-02 -4.668313421414028719e-01 8.827449364757433692e-01
6.280703515303316387e-01 -5.441862701184493334e-01 2.672364329132660352e-02 -6.781675689457714595e-01 5.116376226596177634e-01 5.275563396542564121e-01
6.292690931887288952e-02 -6.607607524252955278e-01 -2.589955553859086268e-01 2.079155165871064779e-03 -4.863354087338265797e-01 8.737697335828805700e-01
6.657979920900344295e-01 -4.951017592078691409e-01 8.840653535182556311e-02 -6.693162854448979626e-01 2.974812105395847617e-01 6.808235009267432636e-01
6.444811435506918595e-01 -5.958547334252077832e-01 5.110888415307922317e-02 -7.837147564471937944e-01 5.409596477751471566e-01 3.052111400422734544e-01
6.977675550360028511e-01 -5.260612100201358388e-01 5.020940545411659711e-02 -7.845943405978127450e-01 5.357002911776601595e-01 3.121488727098877258e-01
1.149439950462776555e-01 7.471982954559872603e-01 2.479717387718295696e-01 6.791465296564862253e-02 4.629464510357796936e-01 -8.837806194898891743e-01
4.544849940861898085e-01 5.213564224214592979e-01 -4.797832587728476789e-02 -1.538965329837685136e-01 -4.710385617768887462e-04 -9.880868561306992426e-01
6.770175170193311054e-01 -5.387201479165835138e-01 1.538652835086901649e-01 -7.964501983981109312e-01 4.716938294167390411e-01 3.783807774739382235e-01
-3.646082333145968524e-01 -6.095693497165778352e-01 -4.172333725261084814e-01 1.552398191883652967e-01 4.408832703527038599e-01 -8.840376352064817089e-01
-6.380377661794950361e-02 -7.935283405191702055e-01 -3.105026923813599127e-01 -7.389301021035579731e-02 -4.821087675333837752e-01 8.729896673555157527e-01
6.975715696592875714e-01 -4.966792019894078480e-01 5.148981855773295674e-02 -8.109146130522814078e-01 5.034802717564196284e-01 2.982031292430553648e-01
-1.906870690381756994e-01 -7.313827002589072812e-01 -2.872506354350412572e-01 -8.359610364662940774e-02 -4.594532742669525938e-01 8.842592268223603558e-01
7.338306664230973553e-01 -4.409521596410065913e-01 1.221796156024459179e-01 -7.964914663701117004e-01 4.292550408983176191e-01 4.258420527178745640e-01
6.539222981708842086e-01 -4.372687411478784481e-01 5.764809849859986457e-02 -7.151182151711774626e-01 3.613255992071844891e-01 5.983725843385196974e-01
-7.625198722484852198e-02 -7.164440733936393579e-01 -2.530035576000708719e-01 -1.028812545537360901e-01 -5.073932756243378916e-01 8.555509986626478325e-01
7.468546182174818915e-01 -3.755281599479663446e-01 6.587919210245378465e-02 -8.243009749058185509e-01 4.449290909228329483e-01 3.500942827580858507e-01
3.488048746310459802e-02 7.567500942013315468e-01 1.863919223188636176e-01 7.289419879444375416e-02 4.701605634918097354e-01 -8.795655065537641981e-01
-6.256700460694649552e-03 9.143262978293347221e-01 -1.090784039300317920e-01 4.750431232769389972e-02 -8.417921790304294660e-01 -5.377074182429270044e-01
7.319740060834614148e-01 -3.550292547935311460e-01 8.137862263510366179e-02 -8.087095496540516182e-01 3.410681433270871254e-01 4.792299927026216211e-01
7.258534935182980874e-01 -4.282823320097320918e-01 8.237353734189267751e-02 -8.666900970852324804e-01 4.104295482289717634e-01 2.835416398960696194e-01
1.546580310688656645e-01 7.436429359062538547e-01 2.005566629686111602e-01 1.049984832245182825e-01 4.506423079917166175e-01 -8.865082226175058366e-01
-2.160191350487475348e-01 -6.461390102281605596e-01 -2.393965598359449887e-01 -1.152677395147604228e-01 -4.678204017634873257e-01 8.762747399765707934e-01
7.290196365826360214e-01 -3.911874682609361997e-01 5.770442975067434366e-02 -8.029731596280904604e-01 3.651626330065189108e-01 4.710523923860566176e-01
8.136666502433602677e-01 -4.339234452702653844e-01 1.228844620315836939e-01 -8.262071991278985283e-01 2.635593789502594375e-01 4.979137655022067288e-01
4.527168558507912999e-02 -6.376911008060237585e-01 1.317114080789941188e-01 -3.096867838184745245e-02 -8.329096084521744325e-01 5.525418763381895193e-01
-4.722245196614028862e-01 3.450244146598097639e-01 2.077423848056489941e-01 -6.353808047367526246e-01 5.038922213287774232e-01 5.851357639526291177e-01
5.841520647715407744e-02 -6.154960576041802467e-01 -3.699054489816977487e-01 -2.067757774931041834e-02 4.660849375496423641e-01 -8.844983147342719842e-01
7.728940999131385103e-01 -4.751808660552525598e-01 -6.400610384328049574e-03 -8.769664287910156064e-01 3.768748258142522456e-01 2.981530621023527616e-01
-1.232720212249423519e-01 9.113101791030220333e-01 -4.368542566206382732e-02 1.189157367204027316e-01 -3.790532059606439574e-01 -9.177024107036013678e-01
-2.588806117889179137e-01 -6.459560469332252808e-01 -3.363293428162930643e-01 -1.310561362106480443e-01 -4.474009880946281381e-01 8.846788372135315770e-01
-2.254928367928280275e-01 -7.674720655452208495e-01 -3.465574421135561578e-01 -1.275076494013539230e-01 -4.553914276369359082e-01 8.811131862473371434e-01
-6.634798526221971637e-02 -5.680631219580620783e-01 4.427105785180664860e-02 -9.838414999208865142e-02 -9.047076284713782002e-01 4.145173892806292004e-01
-1.000001443811685958e-01 -5.974904673305111436e-01 9.698917228994938938e-03 -1.434571288744520556e-01 -9.884007062571233959e-01 -4.984070671166870858e-02
7.412074692295789191e-01 -3.227601751729394230e-01 1.304023106755677897e-01 -8.804746776664145180e-01 3.249324732646609037e-01 3.452292423974740454e-01
7.271669021767366292e-01 -4.122848503363832906e-01 5.613179331900634839e-02 -8.839071657583560393e-01 3.389020871428528592e-01 3.222630876337659878e-01
7.796094130807154077e-01 -3.548243315144247734e-01 2.135231664678713392e-02 -7.736994565986323735e-01 2.597914739183173616e-01 5.778386807218164334e-01
-1.791639732106649063e-01 8.848245394932583441e-01 -1.397694177774163049e-01 1.012474998237797574e-01 -8.213171872678574903e-02 -9.914652412255398062e-01
-1.248964936429277084e-01 -5.483269859650958811e-01 3.537829274231846233e-02 -1.949086456201927497e-01 -9.803396198500901049e-01 -3.073840618318994175e-02
1.553701228806906309e-01 7.274724579999237717e-01 2.015784558388181713e-01 1.095714301788432432e-01 4.696203153620434056e-01 -8.760427278893523351e-01
-6.688584737209915532e-02 -5.733272440430791095e-01 -8.328544807260744587e-02 -1.441482156059591402e-01 -9.768992533582985249e-01 -1.577629257006115948e-01
-3.552412075113605683e-01 -5.449918667950036655e-01 -4.241661395428019121e-01 -9.810506914274130796e-02 -3.900872081827556626e-01 9.155366543294055637e-01
7.896282486556186475e-01 -2.856929351039118603e-01 1.388707896683444021e-01 -7.734655991992370749e-01 1.643112646532422505e-01 6.121705441814537796e-01
8.173841346779735506e-01 -3.630112164391129381e-01 1.071592440970337845e-01 -9.085759536744407727e-01 3.205144851086277891e-01 2.678809460191816649e-01
-1.507698263708201480e-01 -6.207922670475854998e-01 -9.101964832150484519e-02 -2.514614160212141347e-01 -9.604344088472780427e-01 -1.197201008802835920e-01
-2.131184232307424820e-01 -7.031849832856926774e-01 -7.655190380836714159e-02 -2.214840178762859102e-01 -9.509679618293096492e-01 -2.158813688107097395e-01
8.268481796274146367e-01 -3.365134534484531814e-01 1.365630243033085223e-01 -9.094377350576861030e-01 2.852511897587963197e-01 3.025801791167712085e-01
7.960408866960566598e-01 -3.724290490238790774e-01 -3.579054100420689388e-02 -7.797533941978016525e-01 2.253574321612840659e-01 5.841221379186720686e-01
-1.352711559439548905e-01 -4.957499230823579905e-01 -5.629324050973257693e-02 -2.553278753556308400e-01 -9.339856092065330628e-01 -2.499571120442077299e-01
7.447617922640673571e-01 -2.694487211500752877e-01 -1.356734515708242494e-02 -8.971082829941390280e-01 2.753818347143473511e-01 3.454874436107162050e-01
-1.735853595351426748e-01 -5.685456388923695314e-01 6.064098135917878052e-02 -2.114847291833343301e-01 -8.190279526403576593e-01 5.333548744653937579e-01
6.360608068543580629e-01 5.055803025691902874e-01 -9.513081724136014661e-02 -1.793196411761515396e-01 1.532928893232664291e-02 -9.836714284705464495e-01
-2.698129730881560495e-01 -6.309075252800422362e-01 -3.517968605057111287e-01 -1.132834459638805691e-01 -3.752765735067543074e-01 9.199643222688467237e-01
8.024457900177927039e-01 -3.061680184723787890e-01 1.718382793502094275e-01 -8.559007304506502933e-01 2.105308952147669499e-01 4.723459344316535691e-01
-1.603238410216210608e-01 -5.000783862671108748e-01 9.947139456912622302e-02 -2.076478855241407906e-01 -6.952922923601878580e-01 6.880777454778409519e-01
8.630320016754198242e-01 -3.345950338294601534e-01 7.656049520248318918e-02 -9.211749953613160846e-01 2.675801507274216950e-01 2.825552881433467944e-01
-2.317409253808488390e-01 -6.075711807756866145e-01 4.470455516466458751e-02 -3.702815929034868891e-01 -9.107601437951294843e-01 1.827771934108069207e-01
5.064081525715320442e-01 -1.868367677888737866e-01 -2.506184862202580077e-01 -2.469027168403378769e-01 3.922517291386481975e-01 -8.861024937356856146e-01
7.776564406582947564e-01 -2.154644601310807261e-01 1.979431843663916057e-01 -8.670679930713268702e-01 1.502744145289433009e-01 4.749849426342321324e-01
-2.750431564792841718e-02 -5.122853184178967068e-01 1.597742200415629144e-01 -4.875327945260879425e-01 -5.892198355925868380e-01 6.443071935077460122e-01
-3.180094134456769583e-01 -6.346966908361089121e-01 9.830825051465623063e-03 -3.802421046294038876e-01 -8.963415504353190455e-01 -2.280082604429277404e-01
-2.857882681934321156e-01 -6.129730762769594055e-01 -7.673378398642398401e-03 -4.011490176521366746e-01 -9.157507603764174497e-01 2.190914208130971194e-02
-2.049899175067771973e-01 -5.826223294906928141e-01 -4.754712297730478987e-02 -3.680866040580192400e-01 -8.916013808477979419e-01 -2.637408379135376402e-01
8.133732125324329987e-01 -2.516464228888494192e-01 1.406754527800973542e-01 -9.465127327717904882e-01 2.106193551859131818e-01 2.444445416080042455e-01
-1.848334341980333029e-01 -5.991387510285389739e-01 1.364313820657057086e-01 -3.782365187279477237e-01 -8.744498600662282684e-01 3.037673091870107811e-01
-2.257389487024705765e-01 -6.517307491177158907e-01 -3.445967651763025275e-02 -3.734909569877443714e-01 -8.918377813294470213e-01 -2.552055580150012215e-01
-3.950703405096487320e-01 -5.603569801635240877e-01 -3.672777838931863825e-01 -1.787993975329660590e-01 -3.391827846371964217e-01 9.235723112174843985e-01
-2.607322941373410030e-01 -6.066248061010133252e-01 6.427647580225499813e-02 -4.349024784290832502e-01 -8.749665100065188161e-01 -2.128225566598933027e-01
-3.135722907052576058e-01 -5.235886820409165754e-01 -7.399526877252728119e-02 -4.298299269026055192e-01 -8.632548803111418367e-01 -2.646455092343285576e-01
7.957947957356975577e-01 -2.793955092659869965e-01 1.909466029715240626e-02 -9.236127701372286447e-01 1.720064943833463367e-01 3.425685577069014776e-01
4.765297837573466699e-01 6.494510606187284818e-01 1.463637780544506384e-01 1.746430872223602160e-01 4.442825277245027182e-01 -8.786995093000620205e-01
-2.891008582368533864e-01 -5.913092858538174790e-01 4.532209279654839801e-02 -4.387808684697261929e-01 -8.940753681402807684e-01 9.000325299551253933e-02
4.701129033564407922e-02 9.246141530868041691e-01 -1.855237165682095957e-01 -2.539773208285631481e-02 -5.939666427870124998e-01 -8.040886657958642436e-01
-3.727601203587131984e-01 -6.251322977200142184e-01 -2.753574724776340910e-01 -1.694457705976489259e-01 -3.804064448972613310e-01 9.091639387410808126e-01
-2.720953068861193813e-01 -5.440357974078589010e-01 1.099868836982935694e-01 -3.905512336087408332e-01 -8.130184341321149422e-01 4.318226021042142482e-01
8.896534683197622195e-01 -2.026741936903366792e-01 1.662647976660719396e-01 -8.340191108434393819e-01 7.563789029718655244e-02 5.465263326677953781e-01
7.863931504825585339e-01 -2.383596289580636740e-01 9.880384116861026800e-02 -9.439157046838290155e-01 1.628162053712027268e-01 2.872525469334481496e-01
-9.223986471475599525e-02 -4.033570172657029995e-01 2.375548280583451022e-01 -5.323769536699917149e-01 -2.543859268714624977e-01 8.073800712247028999e-01
-1.340222498628123038e-01 -4.756982612685429768e-01 1.736622317554039341e-01 -8.932690299017244095e-01 -2.857018697539656094e-01 3.470516990846180261e-01
-3.368893772085008731e-01 -5.855095297905748009e-01 2.418222580211182998e-02 -3.813896910070826429e-01 -7.271377888309797921e-01 5.707999120948736849e-01
7.103568630099594827e-01 -1.531042517697595862e-01 7.603048287060744370e-02 -9.262432434585641250e-01 1.340698220745163427e-01 3.522765061088614647e-01
-3.270926526219449793e-01 -4.849259629315221254e-01 2.750101176426704430e-02 -4.783165956167765853e-01 -8.458600666353540687e-01 2.360804566862984011e-01
-3.011922322109982786e-01 -4.403008683221220632e-01 -2.186756079943648692e-02 -5.026667691834596496e-01 -8.594283874966208714e-01 -9.332184054989721422e-02
2.826907199691702233e-01 6.801793145737683455e-01 -3.499181684151032173e-02 1.061072690694051107e-01 1.167925913771301755e-01 9.874718922835462598e-01
4.892570356425182121e-01 6.771857267319761897e-01 2.192731141261850536e-01 1.714702540162503508e-01 4.247896491229307125e-01 -8.889047789193282867e-01
-4.219113186284925016e-02 -3.708371229138971437e-01 1.953135100789836209e-01 -6.867648008297213558e-01 -1.798900710528444913e-01 7.042681809352995259e-01
7.411313132694572481e-01 6.711136204603176392e-01 -1.487064071182837011e-01 3.269153954683329810e-01 7.898449172472401525e-01 -5.189136063975235968e-01
-3.320742284554659141e-01 -5.387238809977937803e-01 -6.208941792741724114e-02 -5.006663722301940567e-01 -8.350653017628596464e-01 -2.280331675646352640e-01
-4.424799353810568991e-01 -5.530533029235452647e-01 -3.559226157986871697e-01 -2.359710230633979000e-01 -4.165015044917882436e-01 8.779773192004963756e-01
5.657928934272485888e-01 -2.905314547807764103e-01 -1.531087955816401169e-01 -2.168642630881896516e-01 3.156365410925744963e-01 -9.237659147870374010e-01
-4.763200081964186205e-01 -6.215610288842260411e-01 -3.161941535370770273e-01 -2.241294516963923400e-01 -4.407929062682474086e-01 8.691763932976244167e-01
8.025929887922175210e-01 -9.857118621338203934e-02 1.816525215640458768e-01 -9.306389790516936822e-01 1.706262269624468642e-01 3.237248543781909849e-01
-2.535308833504876236e-01 6.762792933712106214e-01 -2.129683676200830322e-02 1.648303687612156787e-01 -6.126260870622628890e-02 -9.844175142227760134e-01
-3.136789744843277439e-01 -5.360808627972326601e-01 -9.784791594492621425e-02 -5.226631893964776010e-01 -8.142055438410413792e-01 -2.527697031458001620e-01
3.269693844726158094e-01 3.315233693419079586e-01 1.399091269696410844e-01 4.721104694631855780e-02 1.913915872261449935e-01 -9.803776707908484767e-01
8.638856508380005073e-01 -2.061728271061925022e-01 1.492017353438732929e-01 -7.879692654246145400e-01 -3.473677077278085074e-03 6.157047752890634218e-01
-2.182951799870151005e-02 -4.224480594147308476e-01 2.423508586786898289e-01 -8.054950036005470437e-01 1.569682038390113055e-01 5.714357200579163187e-01
1.140197510259396974e-02 -4.278221530232692027e-01 1.633274695906781204e-01 -9.559197481334220647e-01 7.970329007585615078e-02 2.826036459064508732e-01
-4.107972766783822283e-01 -4.633076923719527396e-01 1.099080961593776745e-01 -5.291356160677430642e-01 -8.247592882211183252e-01 1.994683340823901196e-01
-3.407643163745314729e-01 -4.782407112870177279e-01 4.316700195601672063e-02 -5.306917202486991503e-01 -8.138703756352305696e-01 -2.366036976102553202e-01
7.336937423676695991e-01 -1.754054805955666541e-01 1.464290173555444774e-01 -9.668927658214019338e-01 1.593251504807069174e-01 1.993335792748922031e-01
4.607292844795061182e-01 4.007861068526875625e-01 3.985934814454110409e-02 1.630732102898313496e-01 7.368221286469035444e-03 9.865864571343161415e-01
-3.738543443333037786e-01 -5.612213369834074816e-01 -5.256638258827102395e-02 -5.678201207543188689e-01 -8.149382380426234418e-01 -1.159999079419252871e-01
7.928123451599775606e-01 -9.543470578885578093e-02 1.945584103675988830e-01 -7.457320389035776431e-01 -3.052245821497255596e-02 6.655464714783094760e-01
-4.466960014157091430e-01 -4.493084298617423533e-01 4.656283926430636322e-02 -4.191686466955049095e-01 -7.017858144516784247e-01 5.760158993134245620e-01
-3.964597675009545741e-01 -5.353895324965596281e-01 -6.067228472266338046e-03 -5.600221524004799223e-01 -8.179211555946211964e-01 -1.318338805144299020e-01
-4.028811997177070281e-01 -4.843569880237938441e-01 -1.772751897063268300e-02 -5.752085478115651629e-01 -7.771141230303056924e-01 -2.553992292692937038e-01
-2.693083266451478525e-02 -4.212485151223936408e-01 2.378589820239822294e-01 -7.346286186149891817e-01 4.014973782785821732e-01 5.469192334771723063e-01
6.217474295006148594e-02 8.635805296004657183e-01 -7.436139676807314303e-02 -4.396741827582410778e-02 -3.949150300107379108e-01 -9.176649634816492762e-01
2.558706165363791030e-01 5.251881637905866373e-01 1.940369759490868096e-01 3.892767322738368008e-01 8.323028898820896693e-01 3.946334060924464593e-01
-3.491068782571923323e-01 -5.035968091292288840e-01 1.188649105994259991e-01 -5.817811838306596872e-01 -7.814450572658609984e-01 2.255532678002054314e-01
-2.773533833377499480e-01 -6.075453662697753998e-01 4.774619175653391223e-02 -6.078734555232564452e-01 -7.926084361409737600e-01 -4.755763901178933911e-02
-3.376847025198319585e-01 -4.874330481157581607e-01 -1.141358618935178343e-01 -6.076976394653030855e-01 -7.611079192048751940e-01 -2.267560678613113889e-01
4.279748215029846037e-01 6.224387947442043822e-01 1.178143025241805697e-01 2.157644998716346241e-01 4.313492670955393904e-01 -8.760042753156427331e-01
-3.817422675679254529e-01 -4.331951091206919791e-01 9.093861974064583464e-02 -4.611444687505057982e-01 -6.814105128857754767e-01 5.683533160539825380e-01
-3.582810649153844729e-01 -5.438316035749302113e-01 7.899881900293906356e-03 -5.868390022455365340e-01 -7.730580617802108589e-01 -2.408344214602363420e-01
-5.067146346644139238e-02 2.713888340058633331e-01 7.900263623865946827e-02 1.605310394591481227e-01 -4.534315611127261170e-02 -9.859887339944783946e-01
-2.841190998073648416e-02 9.142650030506390690e-01 -9.453892052146167790e-02 1.312504705134777318e-03 -8.473357679115475216e-01 -5.310559045422120761e-01
-5.152833100403716449e-01 -5.107614831412091716e-01 -3.818619990789339225e-01 -2.460871676838659317e-01 -3.587386979511881235e-01 9.004152666928849635e-01
-4.255455496676815441e-01 -4.943174273561855570e-01 -2.687057116207215435e-01 -2.462990841886884552e-01 -4.416887110878566225e-01 8.626980025625197168e-01
-3.974022746900977565e-01 -4.915489286904304866e-01 7.683387500309281359e-02 -5.357556575617828942e-01 -7.099370237627649072e-01 4.571162846381751077e-01
-4.193253391151167131e-01 -4.979321654309937784e-01 -2.367919898650045485e-01 -2.359128424532994095e-01 -4.256086720914775134e-01 8.736145540260497055e-01
8.789936110415550452e-01 -8.639758964909476091e-02 1.405469084574342276e-01 -8.880897265121627804e-01 6.047555475142293163e-03 4.596303566305503518e-01
-7.713147818401487887e-01 3.752938829399505849e-01 -2.113174434621027942e-01 8.630082372407069657e-01 -3.694259085067782000e-01 -3.445885671037695608e-01
-4.772208182975805624e-01 -4.155980286888468211e-01 5.113412416438931074e-02 -6.579093552475027140e-01 -7.530953359247972712e-01 1.641732661548522690e-03
-3.830334741873082649e-01 -4.141998932969410130e-01 -4.896752704613477336e-02 -6.488528305095482285e-01 -7.160294685219040778e-01 -2.574719490507404451e-01
-4.650789105294670378e-01 -4.077073904390558501e-01 -4.774174177883042103e-02 -6.672367738494400236e-01 -7.188986491989386440e-01 -1.948841189089876580e-01
-6.229565508337403523e-01 4.509787180316308097e-01 -2.016596626253301383e-01 2.859290498118780000e-01 5.497527678368826359e-02 -9.566725131497368917e-01
4.572286801209944906e-01 4.678756824148858073e-01 -1.144497376406299061e-01 -1.775418757072126652e-01 3.260924050040705634e-03 -9.841078440621762180e-01
8.106258319243468957e-01 -8.634484898130527497e-02 1.599980402002341151e-01 -8.896908317584878434e-01 -4.061748154000208860e-02 4.547531682992846380e-01
-2.609359334691854770e-01 5.568108893956800198e-01 2.024864904294417789e-01 -3.621018430611812056e-01 8.114686339446739449e-01 4.586947910927923755e-01
-5.109101379145529753e-01 -4.805474716286372017e-01 5.733606773874792839e-02 -6.807524317282761528e-01 -7.249756987405492348e-01 1.048158524827762506e-01
-4.213299649835989813e-01 -4.922708865232283126e-01 1.035030835292136131e-01 -5.614773978705580593e-01 -6.558767575893548196e-01 5.045481250927227324e-01
8.622028446564294901e-01 -2.154406418596034045e-01 1.080195752960227962e-01 9.545478661465669479e-01 -2.093304304776524016e-01 -2.121771479473611999e-01
-4.667393734271241823e-01 -4.203427876105581551e-01 4.998552502691863686e-02 -6.960876160384041889e-01 -7.129711394327329366e-01 -8.446410559498938875e-02
-4.313676073672234601e-01 3.729526574927018445e-01 4.224306802598817162e-02 7.440354815760727991e-01 -6.580464295936545582e-01 -1.156983087815241507e-01
-4.770073924448536840e-01 -4.426583170759349484e-01 5.265903272679010871e-02 -6.827345704820316774e-01 -6.895219979737272631e-01 -2.417290230382672656e-01
-4.554272434351530063e-01 -3.858583516798553270e-01 -2.211999467402940567e-01 -2.635853120577260622e-01 -4.145464518533863441e-01 8.710189564660457684e-01
-8.003519082179159083e-01 4.697834637936571522e-01 -2.404719142363372641e-01 8.727156109989604449e-01 -3.462187074372733986e-01 -3.442383896940824917e-01
-5.079303944224112799e-01 -3.963268938248407647e-01 -3.258475227037208599e-01 -2.469887181671680809e-01 -3.952560574067464638e-01 8.847424609350530433e-01
2.657992607362905102e-01 -2.387087083589012892e-01 2.253871971243500139e-01 -9.559176078757573025e-01 -1.852091623601305470e-01 2.278576159160556891e-01
-4.534520955856795599e-01 -4.562246281481249777e-01 8.986366146868964011e-02 -5.655690053927030503e-01 -5.959074136181875536e-01 5.701105634295779989e-01
-4.275969204166034654e-01 -4.378568740455334174e-01 3.274271256195202678e-02 -6.713010179818460488e-01 -6.995792253807621153e-01 2.448343331156602465e-01
-4.722165607544061006e-01 -4.394920912569246774e-01 4.675270275726340491e-02 -7.158719143232985527e-01 -6.580694267546310927e-01 -2.333924417240781368e-01
-6.599934066002971500e-02 7.975242558891713074e-01 -8.193876281792884797e-02 8.039547427931009738e-02 -1.113381892948781537e-01 -9.905253027156563084e-01
-5.408305574606380173e-01 -4.702515084968131309e-01 -2.522424277366958068e-01 -2.710216340900044596e-01 -3.817714984712196613e-01 8.836276347026632560e-01
-4.601980258032838944e-01 3.859584647052611839e-01 -1.050814646324497829e-02 7.659232191866891526e-01 -6.342055068447263189e-01 -1.055698697475888348e-01
-2.256281024759844989e-01 7.193717300338206000e-01 -7.220669449380434646e-02 1.059070668950155558e-01 -8.140177654286241682e-02 -9.910385683500720910e-01
-3.707781941825650796e-01 -4.521097284486486623e-01 -2.543150670388544601e-02 -7.194952856022083232e-01 -6.719321757704291853e-01 -1.755952310303833253e-01
-5.354319055495413426e-01 -4.558608013484665711e-01 -2.849136484727770036e-01 -2.680754094602776361e-01 -4.009537076370970343e-01 8.759975451876391705e-01
-6.224843488118658730e-01 -4.257395429666571696e-01 -2.453291082918216959e-01 -3.106849703040592825e-01 -2.783883493989418034e-01 9.088315444272929700e-01
7.866766383029121235e-01 -3.450639009387160977e-02 1.565955673933144277e-01 -9.531939758046704680e-01 -8.434725336597821699e-02 2.903563075590070430e-01
2.862873433802050616e-01 -1.651957669631583248e-01 3.240213970255541587e-01 -8.901683258509072161e-01 -6.039347196847048155e-02 4.516115368271569341e-01
-4.525645695762992582e-01 -4.633768217294904068e-01 7.710047648544715582e-02 -7.398751180739829847e-01 -6.721261086289063158e-01 -2.883233869067090491e-02
-4.433408627340520436e-01 3.490205407981412655e-01 1.557964878415030729e-01 7.965388622185858303e-01 -6.001462770854877338e-01 -7.314565657610749838e-02
2.598908853263645624e-01 3.148070260075140903e-01 1.637750596223976618e-01 3.607106716483942516e-02 2.141314571346077666e-01 -9.761386157605892455e-01
-4.868795414711954428e-01 -3.201252512551814866e-01 9.749170322406400246e-02 -7.183975992548524703e-01 -6.699038767068835609e-01 1.874398179628674610e-01
-5.188991323855004500e-01 2.503678078303639420e-01 1.562214911015765567e-02 7.830555132027045007e-01 -6.139899615982645775e-01 -9.919874142049754651e-02
-2.203384084514738994e-01 5.191245685679586330e-01 2.597644037169479780e-01 -4.266750022906363737e-01 8.277315920612364764e-01 3.644294910185729708e-01
7.088684086208812962e-02 8.990228255429888460e-01 -6.769955449324233099e-02 -2.444266196221005910e-02 -7.747100909168724847e-01 -6.318439928556514040e-01
-6.478187237543715504e-01 -4.002835530713512169e-01 -2.422323398298551755e-01 -2.934372699929174710e-01 -4.020658073166269442e-01 8.673163524146957348e-01
6.059236490324220181e-01 3.751373648966119245e-01 7.501569687426729027e-02 1.114944496438349808e-01 -1.649066028480228041e-01 9.799871427910381572e-01
3.424202116372157545e-01 -1.459706562682484277e-01 2.776604607595269392e-01 -9.297276462490813298e-01 1.539169541092595406e-01 3.345386002210673504e-01
-5.475286449997536220e-01 -3.906666188333728917e-01 4.844281710730744678e-02 -7.591182719716413896e-01 -6.503347312894722787e-01 -2.835818113770489229e-02
-4.697042064296946262e-01 4.049417515193815542e-01 9.467213884326550200e-02 -6.410322345783810993e-01 7.558563610938023869e-01 1.332622813307755560e-01
8.252721520830911262e-01 -3.729394485794922109e-02 2.072207572473736825e-01 -8.897850347093965162e-01 -1.366583350332807867e-01 4.354389641191170335e-01
-4.928236416359431660e-01 4.956352941304482673e-01 -1.736862705459658596e-01 1.948292798755028865e-01 -2.718136018074778990e-02 -9.804604659862208305e-01
-7.351655846472219258e-01 2.680372586350061592e-01 -1.937715242819329498e-01 9.063391790142730775e-01 -2.685657626503952233e-01 -3.262234260683082865e-01
-4.791710575677070039e-01 2.190973646993190915e-01 1.577760109626571150e-01 8.400098824326948099e-01 -5.362730804625455150e-01 -8.242924594233719260e-02
-4.466499891373352238e-01 -4.446378740400167562e-01 1.655610146320400933e-01 -6.620016674193137662e-01 -5.825960652392359052e-01 4.715247788842155119e-01
8.024501233659177002e-01 -4.527670062654428063e-01 1.574785328479703927e-02 8.652376237007517457e-01 -4.205808221078486397e-01 -2.729022290267390516e-01
-5.492780953442373271e-01 5.066010271781695717e-01 -9.034995033281720267e-02 2.554401174131143426e-01 2.875849305464485417e-02 -9.663970692697698706e-01
3.338025348762970190e-01 -1.224506605406084775e-01 2.322404530592519500e-01 -8.281931875355755812e-01 3.592831478253869504e-01 4.301298220402113848e-01
-4.377468749964832928e-01 -3.385681145013233473e-01 1.065277050611497939e-01 -7.440219345878200663e-01 -6.258286610746979228e-01 2.340295875090340760e-01
-5.149686992531995466e-01 -3.523390599061556050e-01 8.653668651537801959e-02 -7.819954336003379636e-01 -5.819192281425431545e-01 -2.232781980987087189e-01
-4.936650302317384664e-01 -5.094133813026953117e-01 -3.901687692498939652e-01 2.179955176494970670e-01 3.933702752564506300e-01 -8.931616767581287419e-01
-4.861066511196291962e-01 -3.992040987033105282e-01 -2.858859619952050513e-01 -2.909184412684229781e-01 -3.373178989093379432e-01 8.953117309660031387e-01
4.396790762586213486e-01 -6.293656689913714741e-01 -1.424806887397254973e-02 1.782482012884381850e-01 -5.879390974312694723e-02 -9.822274965172546057e-01
-4.819128340588527126e-01 -3.606982806924246554e-01 6.450198404396834118e-02 -4.960770743054894183e-01 -4.740058635005230392e-01 7.274791940087562692e-01
-5.147397970183362759e-01 -3.497153780061783013e-01 -2.991353730837768843e-02 -7.836269206962521716e-01 -5.942522219524584148e-01 -1.810887789584867402e-01
-4.995237731785017732e-01 -3.740088254945485580e-01 -2.463124882163156004e-01 -2.837375115777236445e-01 -3.681011798997295137e-01 8.854346649415235637e-01
-5.175226975472438928e-01 2.707353904259529043e-01 -1.935662048222559078e-03 8.599333008979116455e-01 -5.052096737549891525e-01 -7.264918135257394938e-02
-6.585966651338024391e-01 -3.465982317049872141e-01 -2.323864846115989147e-01 -2.782961788236267830e-01 -2.861324110842188850e-01 9.168857508868264450e-01
2.206418153865778720e-01 4.407918979218877764e-01 2.070130357271015575e-01 1.065568742098876587e-01 3.352342184037903072e-01 -9.360895530716161206e-01
8.737383548892491136e-01 1.548853818200424809e-02 2.105777669455542456e-01 -9.497674495262640182e-01 -1.164496162341424057e-01 2.904845584524183844e-01
-5.532302756510900643e-01 -4.041152263665123145e-01 3.616597066815676470e-02 -7.697526121036205593e-01 -5.891294278276018037e-01 2.457792371767301420e-01
-3.267258572704008768e-01 5.623144235220290943e-01 -9.436889029847586596e-02 -2.348728105683885181e-01 4.816589992917654633e-02 9.708320189094087338e-01
-7.906257093350320397e-02 8.149222141119839558e-01 -1.014744824092791986e-01 9.404057381570869734e-02 -4.195049577053659440e-01 -9.028687395945388383e-01
2.360797162663286763e-01 -1.950437704178660803e-01 2.992720523246288344e-01 -7.276448592280364558e-01 2.734360560754829361e-01 6.290991035416408916e-01
-5.516394023833097737e-01 -3.838089478675462130e-01 -1.994785882310469993e-01 -3.103620611102382854e-01 -3.367840386715512668e-01 8.889611365630579742e-01
-5.366716273799816417e-01 1.819778275380212196e-01 6.688158135150729100e-02 9.022262068883266650e-01 -4.300092739362978977e-01 -3.286177007831805191e-02
-4.452291287540081077e-01 -4.026792835051241637e-01 1.784971114409777612e-02 -8.208484034703450449e-01 -5.696908465800802901e-01 -4.074601628450578994e-02
-5.117216938643665003e-01 -3.662132622303768681e-01 1.379526254176333955e-01 -6.475436028222729679e-01 -5.205699103041996345e-01 5.565017977777142466e-01
-5.046921162912348935e-01 -3.784733563045122318e-01 -7.474043484560558004e-02 -8.176167930780688931e-01 -5.600145630031760913e-01 -1.337403039517107428e-01
-6.044555864620254626e-01 -3.562003115507248463e-01 -3.364896015196392476e-01 -2.836254625705956767e-01 -3.359726514516306883e-01 8.981530907691498422e-01
8.919601270983266161e-01 4.037618496097208909e-02 2.374266101084280267e-01 -9.843524283275507658e-01 -1.257222713689552795e-01 1.234674342791843432e-01
-5.416738557384389585e-01 -3.723633747729780397e-01 -2.532595767266438425e-01 -4.507510118812603217e-01 -4.310341171814443539e-01 7.816860719711161698e-01
6.067903531489365898e-01 2.352911726165593798e-01 5.476599782997478016e-03 2.139481697465224486e-01 -6.755868131541263588e-02 9.745060314031083193e-01
-1.909062994571398067e-02 8.092125162403970284e-01 -4.654492430538439973e-02 2.830436243004910007e-02 -7.256522355693898474e-01 -6.874792331995017713e-01
-6.411257065269851951e-01 -4.283649777434321293e-01 -3.129248516979770134e-01 -2.726664807732817608e-01 -2.631151193561830359e-01 9.254314800291240095e-01
9.058144131864547255e-01 1.647448667201637518e-01 2.132351456999902750e-01 -8.863400637237430768e-01 -1.876655894716919848e-01 4.233000330338204664e-01
5.665461053792084645e-01 1.997686303741074698e-01 1.340736847392393072e-02 2.411277373601959373e-01 -1.311392580166970967e-01 9.615923820842084968e-01
-5.225853428716207283e-01 -3.423549060368217822e-01 5.194484335428643275e-03 -8.199676866548074594e-01 -5.349369111352080264e-01 -2.037044279025027882e-01
-7.181208487295681619e-01 -2.209500297771544164e-01 -2.022457434765590478e-01 3.117190543392534541e-01 2.940591686261402882e-01 -9.035266661857550563e-01
-5.314734023649592132e-01 2.557458063429478567e-01 5.153154081010144494e-02 9.053289781567607220e-01 -4.232299803326219911e-01 -3.543762206023226558e-02
9.170638978145680131e-02 9.512672969638779064e-01 -1.288803003236612954e-01 -8.889343074280056656e-02 -6.740470172685609773e-01 -7.333202414239844424e-01
-5.672174306971140556e-01 2.650565662806816936e-01 -8.923063846665851839e-02 9.185210765198407179e-01 -3.918366122433243337e-01 -5.275510680974350441e-02
1.357828299245806836e-01 2.112987667376090561e-01 9.829115485523311213e-02 6.831854781457744052e-02 2.255171154601959549e-01 -9.718408340150254121e-01
-4.897174429063321788e-01 -2.983059238121430479e-01 -1.822768723226680931e-02 -8.520056908745863300e-01 -5.177616067547420320e-01 7.751916723021917699e-02
-7.809902927946231477e-02 7.966045702351249869e-01 -1.082280166071774991e-01 6.992823440368839405e-02 -1.392438862406333855e-01 -9.877860001932546874e-01
-5.191846157057165012e-01 -6.834394188068195763e-01 -3.890590197812553858e-02 -5.752293331858949754e-01 -6.502115619809509806e-01 -4.963226157539090133e-01
-5.785118508112552238e-01 -6.559376037894488753e-01 -6.689897670646638428e-02 -5.156523877091255814e-01 -6.541282334848012026e-01 -5.533704628979858597e-01
-5.314352041722716358e-01 -2.693137122081574741e-01 4.776517737333293989e-02 -8.704720725212427013e-01 -4.724706069241944584e-01 -1.380213626698984508e-01
7.698784936487689246e-01 2.926798771041686509e-01 5.993234075519694032e-02 2.856587952093783134e-01 2.834413313272696189e-01 -9.154562056237051104e-01
