8.399338566767081127e-02 -6.682216092600533619e-01 -2.317078103716221360e-01 0.000000000000000000e+00 0.000000000000000000e+00 -1.000000000000000000e+00
1.945650751933404587e-02 -6.351803615698592420e-01 -2.501901800411810428e-01 0.000000000000000000e+00 0.000000000000000000e+00 -1.000000000000000000e+00
2.862328416128633313e-01 -2.846874269982783701e-01 -2.291871074411151454e-01 0.000000000000000000e+00 0.000000000000000000e+00 -1.000000000000000000e+00
2.165662151144278624e-01 -3.132910465681663092e-01 -2.676496244706404459e-01 0.000000000000000000e+00 0.000000000000000000e+00 -1.000000000000000000e+00
1.783006514545970311e-01 -2.352683655327947876e-01 -2.229341804047057229e-01 0.000000000000000000e+00 0.000000000000000000e+00 -1.000000000000000000e+00
1.582098854504324636e-01 -3.215270402990830223e-01 -2.056268564443970992e-01 0.000000000000000000e+00 0.000000000000000000e+00 -1.000000000000000000e+00
1.917950752558001543e-02 -2.794339265722869947e-01 -2.697436905508743821e-01 0.000000000000000000e+00 0.000000000000000000e+00 -1.000000000000000000e+00
3.867112703584150990e-02 -1.614861820161587747e-01 -2.092502530893370349e-01 0.000000000000000000e+00 0.000000000000000000e+00 -1.000000000000000000e+00
3.788389818678628007e-01 -5.875912099040981884e-01 -1.846015606009121512e-01 0.000000000000000000e+00 0.000000000000000000e+00 -1.000000000000000000e+00
3.590497224954933286e-01 -4.687044253767069790e-01 -2.173044761413651660e-01 0.000000000000000000e+00 0.000000000000000000e+00 -1.000000000000000000e+00
-4.688523993745493113e-01 -2.156820680693658510e-01 -1.830534065403117139e-01 0.000000000000000000e+00 0.000000000000000000e+00 -1.000000000000000000e+00
-4.261262498538760934e-01 -3.408827964945552180e-01 -2.144859160538661602e-01 0.000000000000000000e+00 0.000000000000000000e+00 -1.000000000000000000e+00
-4.730422257320657797e-01 -2.673737482419566436e-01 -2.080612199741362911e-01 0.000000000000000000e+00 0.000000000000000000e+00 -1.000000000000000000e+00
-6.008779802895924949e-01 -3.110266613231055799e-01 -1.600303255520971746e-01 0.000000000000000000e+00 0.000000000000000000e+00 -1.000000000000000000e+00
-6.564156341106003323e-01 -5.837533656938494186e-02 -2.296465554495817907e-01 0.000000000000000000e+00 0.000000000000000000e+00 -1.000000000000000000e+00
-5.907661049943599973e-01 -1.135983688066990599e-01 -1.849996464629073689e-01 0.000000000000000000e+00 0.000000000000000000e+00 -1.000000000000000000e+00
-3.340715931914668424e-01 -6.305032304418735078e-01 -2.045592309529579711e-01 0.000000000000000000e+00 0.000000000000000000e+00 -1.000000000000000000e+00
-2.320601160009500008e-01 -6.466708853709680627e-01 -2.075595934323168079e-01 0.000000000000000000e+00 0.000000000000000000e+00 -1.000000000000000000e+00
-2.879120983223311114e-01 -4.293628231985411325e-01 -2.150385671311288438e-01 0.000000000000000000e+00 0.000000000000000000e+00 -1.000000000000000000e+00
-8.012633209579703153e-02 -6.661473200905705383e-01 -1.944823370546742425e-01 0.000000000000000000e+00 0.000000000000000000e+00 -1.000000000000000000e+00
-1.499878052787969596e-01 -6.241608229906562277e-01 -2.744830856048778300e-01 0.000000000000000000e+00 0.000000000000000000e+00 -1.000000000000000000e+00
-6.783767181485115261e-01 -4.647526724952874555e-01 -2.820173853192982083e-01 0.000000000000000000e+00 0.000000000000000000e+00 -1.000000000000000000e+00
-6.270602395895844561e-01 -4.827047138777162960e-01 -2.709403870779723000e-01 0.000000000000000000e+00 0.000000000000000000e+00 -1.000000000000000000e+00
-4.681954546809966033e-01 -6.127032973326732579e-01 -1.748696532287233874e-01 0.000000000000000000e+00 0.000000000000000000e+00 -1.000000000000000000e+00
-5.822712088869013147e-01 -6.686407516738209766e-01 -1.644782287763241202e-01 0.000000000000000000e+00 0.000000000000000000e+00 -1.000000000000000000e+00
-5.981510035634373113e-01 -6.530843854961516648e-01 -1.908379859686286650e-01 0.000000000000000000e+00 0.000000000000000000e+00 -1.000000000000000000e+00
-2.686740527580288584e-01 6.902068905747160699e-02 -2.236973786989498447e-01 0.000000000000000000e+00 0.000000000000000000e+00 -1.000000000000000000e+00
-3.458780434406588666e-01 2.166940126297142166e-01 -2.066243633388939460e-01 0.000000000000000000e+00 0.000000000000000000e+00 -1.000000000000000000e+00
-1.124647726924663665e-01 2.079172055292359544e-02 -1.926633413051485888e-01 0.000000000000000000e+00 0.000000000000000000e+00 -1.000000000000000000e+00
-1.562566771782407660e-01 7.443238819723388411e-02 -1.862485944956552564e-01 0.000000000000000000e+00 0.000000000000000000e+00 -1.000000000000000000e+00
-6.610744490193837253e-01 2.619586903159583646e-01 -1.960498756467926318e-01 0.000000000000000000e+00 0.000000000000000000e+00 -1.000000000000000000e+00
-6.554021912890692914e-01 2.525233272209457813e-01 -2.492402704516427647e-01 0.000000000000000000e+00 0.000000000000000000e+00 -1.000000000000000000e+00
-3.952698986903843692e-01 8.144289349573499703e-02 -1.868154124988295195e-01 0.000000000000000000e+00 0.000000000000000000e+00 -1.000000000000000000e+00
-4.707002064482527781e-01 4.342137181900329601e-02 -2.208050874277812103e-01 0.000000000000000000e+00 0.000000000000000000e+00 -1.000000000000000000e+00
-4.608470053120996557e-01 1.010115683424724076e-01 -2.084151149004969117e-01 0.000000000000000000e+00 0.000000000000000000e+00 -1.000000000000000000e+00
-6.219198960718875790e-01 1.267494681726346606e-01 -2.307275524739391126e-01 0.000000000000000000e+00 0.000000000000000000e+00 -1.000000000000000000e+00
-6.683168021704716244e-01 2.819424816788814597e-02 -1.698632225143547059e-01 0.000000000000000000e+00 0.000000000000000000e+00 -1.000000000000000000e+00
-6.090039806055035365e-01 7.891601449824231507e-02 -2.188467128175486387e-01 0.000000000000000000e+00 0.000000000000000000e+00 -1.000000000000000000e+00
-4.899054040589523873e-01 4.128137911588556919e-01 -2.243181082835657703e-01 0.000000000000000000e+00 0.000000000000000000e+00 -1.000000000000000000e+00
-6.859949385477516204e-01 3.907497184300019466e-01 -1.933324221383841413e-01 0.000000000000000000e+00 0.000000000000000000e+00 -1.000000000000000000e+00
-6.552239176260779008e-01 5.583037784035945750e-01 -2.093472052919814475e-01 0.000000000000000000e+00 0.000000000000000000e+00 -1.000000000000000000e+00
-6.358657069069256762e-01 6.311634913028464355e-01 -2.516542459881965232e-01 0.000000000000000000e+00 0.000000000000000000e+00 -1.000000000000000000e+00
-6.173092518595748590e-01 5.225959474198003107e-01 -2.467702249866331465e-01 0.000000000000000000e+00 0.000000000000000000e+00 -1.000000000000000000e+00
4.628497012173012348e-01 2.719118790947464004e-01 8.568155698929294517e-02 8.164840341916630440e-01 0.000000000000000000e+00 5.773680125449515144e-01
4.889829708915119921e-01 2.910046540648732472e-01 -1.369001995971251551e-02 8.164840341916630440e-01 0.000000000000000000e+00 5.773680125449515144e-01
4.934526077854435866e-01 2.950365617719807876e-01 6.425650454069244122e-02 8.164840341916630440e-01 0.000000000000000000e+00 5.773680125449515144e-01
4.092463300268283088e-01 4.670454634365528990e-01 8.547228196614975460e-02 8.164840341916630440e-01 0.000000000000000000e+00 5.773680125449515144e-01
4.380848368345719446e-01 3.390409011595147404e-01 2.249405453267900035e-01 8.165089845643328514e-01 0.000000000000000000e+00 5.773327273987870489e-01
6.205901770994656230e-01 1.487264762009411490e-01 1.480565035970060617e-02 8.164840341916630440e-01 0.000000000000000000e+00 5.773680125449515144e-01
6.257129580593588924e-01 1.020824691778575155e-01 -2.103939565410110346e-01 8.165079666449465146e-01 0.000000000000000000e+00 5.773341670171053819e-01
5.749180461771832285e-01 5.506867701123516756e-01 -3.871095293939269544e-02 8.164840341916630440e-01 0.000000000000000000e+00 5.773680125449515144e-01
5.923991358206008861e-01 5.612882852429468272e-01 -6.170435288053324752e-02 8.164840341916630440e-01 0.000000000000000000e+00 5.773680125449515144e-01
7.034887064519099731e-01 4.332467151040494402e-01 -2.890621411462258594e-01 8.165094707326475687e-01 0.000000000000000000e+00 5.773320398210128879e-01
3.046989337820947830e-01 -1.771388261814582643e-03 3.221803145559641868e-01 8.164836353414075543e-01 0.000000000000000000e+00 5.773685765779770218e-01
3.354750355835453557e-01 -9.069381086860657526e-02 3.136225718658152140e-01 8.164836353414075543e-01 0.000000000000000000e+00 5.773685765779770218e-01
2.407541338350714100e-01 -1.703648979261757623e-01 4.727306919346496716e-01 8.164836353414075543e-01 0.000000000000000000e+00 5.773685765779770218e-01
3.530201517533363420e-01 -2.372695143612717772e-01 2.822171023757879538e-01 8.164836353414075543e-01 0.000000000000000000e+00 5.773685765779770218e-01
3.521669941692167072e-01 -2.902309559024245922e-01 3.246067137241440137e-01 8.165089845643328514e-01 0.000000000000000000e+00 5.773327273987870489e-01
3.051259557175997617e-01 -2.102617295248478124e-01 2.876728244967931003e-01 8.164836353414075543e-01 0.000000000000000000e+00 5.773685765779770218e-01
1.900806884482789116e-01 1.852834221776725188e-01 4.812462292965561939e-01 8.164836353414075543e-01 0.000000000000000000e+00 5.773685765779770218e-01
3.373725251066176933e-01 9.338614048087090502e-02 3.191591772405920624e-01 8.165089845643328514e-01 0.000000000000000000e+00 5.773327273987870489e-01
2.568865981398045784e-01 1.006411235246623126e-01 3.469384291877729565e-01 8.164836353414075543e-01 0.000000000000000000e+00 5.773685765779770218e-01
2.679030343210249687e-01 2.173624775167993239e-01 2.893362344198292524e-01 8.164836353414075543e-01 0.000000000000000000e+00 5.773685765779770218e-01
1.338085213772358395e-01 -7.276758030305686964e-02 6.137376613181430018e-01 8.165274388786518678e-01 0.000000000000000000e+00 5.773066269828099895e-01
1.362205404685463139e-01 -6.122209008179355788e-02 5.049122969699232355e-01 8.164380874503074370e-01 0.000000000000000000e+00 5.774329825706913111e-01
1.292683986918701788e-01 9.393731404268720886e-02 5.173975386564231282e-01 8.165274388786518678e-01 0.000000000000000000e+00 5.773066269828101005e-01
2.704098698752291363e-02 -6.393432885757349693e-02 6.666845928111913011e-01 8.165443575551256661e-01 0.000000000000000000e+00 5.772826969041138234e-01
5.957010319308533308e-01 -1.233678356497529133e-01 -4.330691430511213885e-02 8.164840341916630440e-01 0.000000000000000000e+00 5.773680125449515144e-01
5.970062301266877425e-01 -1.813178412664021855e-01 -1.049783283387174249e-01 8.164840341916630440e-01 0.000000000000000000e+00 5.773680125449515144e-01
6.387516234359397194e-01 -8.824100690129076108e-02 -1.938568521412507017e-01 8.165094707326476797e-01 0.000000000000000000e+00 5.773320398210129989e-01
4.688291816953634727e-01 -2.531323558976688037e-01 3.524500170288919626e-02 8.164840341916630440e-01 0.000000000000000000e+00 5.773680125449515144e-01
4.960609025584181153e-01 -2.128942407431880790e-01 5.467548198243483981e-02 8.164840341916630440e-01 0.000000000000000000e+00 5.773680125449515144e-01
3.770149921748228161e-01 -3.555556446824590933e-01 2.186184225844234885e-01 8.165089845643328514e-01 0.000000000000000000e+00 5.773327273987870489e-01
6.114546051885637601e-01 -4.803675034640133013e-01 -2.159931631367489335e-01 8.165094707326475687e-01 0.000000000000000000e+00 5.773320398210128879e-01
6.830274268011253813e-01 -4.961336538402570939e-01 -1.806369423678471919e-01 8.165079666449466256e-01 0.000000000000000000e+00 5.773341670171053819e-01
6.233105178444772188e-01 -4.125859379284406714e-01 -1.746671163800405935e-01 8.165079666449465146e-01 0.000000000000000000e+00 5.773341670171053819e-01
6.558188355258374180e-01 -6.151696823801409142e-01 -1.843535018857142549e-01 8.165079666449465146e-01 0.000000000000000000e+00 5.773341670171053819e-01
6.646152462989125542e-01 -5.998228209033535929e-01 -1.766026519247039239e-01 8.165094707326475687e-01 0.000000000000000000e+00 5.773320398210129989e-01
-7.783693584406765897e-02 -3.654620054300983245e-01 2.575706181609529466e-01 0.000000000000000000e+00 -8.165089845643328514e-01 5.773327273987870489e-01
-9.904380624960766599e-02 -3.440105237915984104e-01 3.104589159168145707e-01 0.000000000000000000e+00 -8.164836353414075543e-01 5.773685765779770218e-01
-1.210180848544331889e-01 -1.843809153841948767e-01 4.747101242067386928e-01 0.000000000000000000e+00 -8.164836353414075543e-01 5.773685765779770218e-01
-3.397677433405650871e-01 -3.075287605263161139e-01 2.840393374218749267e-01 0.000000000000000000e+00 -8.164836353414075543e-01 5.773685765779770218e-01
-2.121241167247358839e-01 -3.069489713418647181e-01 3.703445624645885226e-01 0.000000000000000000e+00 -8.164836353414075543e-01 5.773685765779770218e-01
2.091873323038009880e-01 -2.497730326659673983e-01 4.288939902964268303e-01 0.000000000000000000e+00 -8.164836353414075543e-01 5.773685765779770218e-01
1.401681275448209418e-01 -2.772299649393079601e-01 4.260658079210459248e-01 0.000000000000000000e+00 -8.164841671414885260e-01 5.773678245341267168e-01
1.615891597888319819e-01 -3.186304958821618571e-01 2.903047876468531352e-01 0.000000000000000000e+00 -8.164836353414075543e-01 5.773685765779770218e-01
-1.056531849587900584e-01 -1.029710845381917872e-01 5.126856286201121327e-01 0.000000000000000000e+00 -8.165274388786518678e-01 5.773066269828101005e-01
4.387236239110874070e-02 -1.056503179114929303e-01 6.143778030435058657e-01 0.000000000000000000e+00 -8.165274388786518678e-01 5.773066269828101005e-01
3.796252588609629747e-02 -9.391263270758473669e-02 6.534458190816796463e-01 0.000000000000000000e+00 -8.164199972843829700e-01 5.774585595816970063e-01
-1.807923280631664187e-01 -5.053494663648142593e-01 -3.920381508951033267e-02 0.000000000000000000e+00 -8.164840341916630440e-01 5.773680125449515144e-01
-1.950717821345487046e-01 -5.736760373481792907e-01 -8.111405380037563229e-02 0.000000000000000000e+00 -8.164840341916630440e-01 5.773680125449515144e-01
-2.301449282492792903e-01 -6.464070353764648225e-01 -1.813876326135704375e-01 0.000000000000000000e+00 -8.165094707326475687e-01 5.773320398210129989e-01
-2.447974313276752578e-01 -6.607405850812319015e-01 -1.941318651042900911e-01 0.000000000000000000e+00 -8.165079666449465146e-01 5.773341670171053819e-01
-1.196467210498880912e-01 -6.922662409459954258e-01 -2.109169185854609940e-01 0.000000000000000000e+00 -8.165094707326476797e-01 5.773320398210129989e-01
-2.402590073262469705e-01 -4.645437594294554717e-01 8.642509523446587072e-02 0.000000000000000000e+00 -8.164840341916630440e-01 5.773680125449515144e-01
-4.060005588054423908e-01 -3.791345290843676219e-01 2.515220602709884457e-01 0.000000000000000000e+00 -8.165089845643327404e-01 5.773327273987869379e-01
-4.466284674704173452e-01 -6.530239452169793735e-01 -1.684387285526866285e-01 0.000000000000000000e+00 -8.165094707326475687e-01 5.773320398210128879e-01
-4.266192887421285662e-01 -6.292733499971507882e-01 -2.268984784115306574e-01 0.000000000000000000e+00 -8.165079666449466256e-01 5.773341670171053819e-01
-4.673598441833640704e-01 -5.666216558963979022e-01 -7.617873649216165555e-02 0.000000000000000000e+00 -8.164840341916630440e-01 5.773680125449515144e-01
-5.908364525363034581e-01 -6.494215717912863450e-01 -1.588009797654560407e-01 0.000000000000000000e+00 -8.165079666449465146e-01 5.773341670171053819e-01
-5.827408496999241239e-01 -6.205556663370779269e-01 -1.864331163704500693e-01 0.000000000000000000e+00 -8.165094707326475687e-01 5.773320398210129989e-01
1.997323452068346938e-01 -4.738172918817369350e-01 8.292641827121813303e-02 0.000000000000000000e+00 -8.164840341916630440e-01 5.773680125449515144e-01
2.314570433031742924e-01 -4.852054254817453893e-01 1.641322788288482326e-02 0.000000000000000000e+00 -8.164840341916630440e-01 5.773680125449515144e-01
3.261826080298199648e-01 -4.789337614136517374e-01 2.327497553110642603e-02 0.000000000000000000e+00 -8.164840341916630440e-01 5.773680125449515144e-01
4.399742447602803530e-01 -5.064937850718808088e-01 1.535878070647420934e-01 0.000000000000000000e+00 -8.164840341916630440e-01 5.773680125449515144e-01
4.812358015855668358e-01 -4.434262154356221064e-01 1.012561012357937607e-01 0.000000000000000000e+00 -8.164840341916630440e-01 5.773680125449515144e-01
3.617242212269400348e-01 -3.779929753168562723e-01 1.607963823416766469e-01 0.000000000000000000e+00 -8.165097366074486329e-01 5.773316637992714773e-01
2.973903003997128147e-01 -6.696102983690166432e-01 -2.466292089858004299e-01 0.000000000000000000e+00 -8.165094707326475687e-01 5.773320398210129989e-01
1.491248709116237969e-01 -5.845436276108836315e-01 -4.734499735074898519e-02 0.000000000000000000e+00 -8.164840341916630440e-01 5.773680125449515144e-01
8.996203929334473104e-02 -6.812247479269000205e-01 -1.995069361151535214e-01 0.000000000000000000e+00 -8.165094707326476797e-01 5.773320398210129989e-01
1.118656619825941778e-01 -6.733970284529363637e-01 -1.641644351225876597e-01 0.000000000000000000e+00 -8.165079666449465146e-01 5.773341670171053819e-01
5.004475950557153441e-01 -5.306104736675283373e-01 9.070424204708896210e-03 0.000000000000000000e+00 -8.164840341916630440e-01 5.773680125449515144e-01
4.382920620802522316e-01 -6.738455797223639188e-01 -1.851438695760725672e-01 0.000000000000000000e+00 -8.165079666449466256e-01 5.773341670171053819e-01
5.774874641924157004e-01 -7.240418166298686620e-01 -1.492822190161904317e-01 0.000000000000000000e+00 -8.165094707326475687e-01 5.773320398210129989e-01
5.913017470093840933e-01 -6.754889939592356729e-01 -1.563586000186573677e-01 0.000000000000000000e+00 -8.165079666449466256e-01 5.773341670171053819e-01
-2.507007882931583942e-01 2.894895251924887725e-01 3.441917394020613807e-01 -8.164836353414075543e-01 0.000000000000000000e+00 5.773685765779770218e-01
-3.159020543033920214e-01 2.902917610563720552e-01 2.778158476711712899e-01 -8.165089845643328514e-01 0.000000000000000000e+00 5.773327273987870489e-01
-2.950387437131505863e-01 2.205546945332065578e-01 2.923079137385390380e-01 -8.164836353414075543e-01 0.000000000000000000e+00 5.773685765779770218e-01
-3.292971533585095645e-01 -2.557714336650599579e-02 2.927093087406185679e-01 -8.165089845643328514e-01 0.000000000000000000e+00 5.773327273987870489e-01
-2.844512445571279469e-01 -1.964346773887402642e-01 3.063614098002313546e-01 -8.164836353414075543e-01 0.000000000000000000e+00 5.773685765779770218e-01
-1.219280698376080940e-01 7.067498978875680349e-02 6.036433442188657850e-01 -8.165274388786518678e-01 0.000000000000000000e+00 5.773066269828101005e-01
-1.611521016737875733e-01 -1.100730541969404119e-01 5.677565144365883665e-01 -8.165274388786518678e-01 0.000000000000000000e+00 5.773066269828099895e-01
-9.184149490017899653e-02 -8.630831576939781979e-02 5.853170048378685264e-01 -8.165274388786518678e-01 0.000000000000000000e+00 5.773066269828101005e-01
-2.618294483025118344e-02 -2.536351279566434122e-02 7.207205182852119973e-01 -8.165443575551256661e-01 0.000000000000000000e+00 5.772826969041138234e-01
7.357781773732863240e-03 4.169724263854698160e-02 6.822628737207017124e-01 -8.164199972843829700e-01 0.000000000000000000e+00 5.774585595816970063e-01
-5.616576833039772509e-01 1.323316039263873478e-01 -6.071928128945825592e-02 -8.164840341916630440e-01 0.000000000000000000e+00 5.773680125449515144e-01
-5.948055328488808247e-01 1.634095910861053103e-01 -4.231000786389448043e-02 -8.164840341916630440e-01 0.000000000000000000e+00 5.773680125449515144e-01
-6.816193928711081762e-01 2.421984351208478214e-01 -1.716269808116064333e-01 -8.165094707326475687e-01 0.000000000000000000e+00 5.773320398210129989e-01
-7.098718708157936153e-01 2.251103826931121765e-01 -2.476034464927978906e-01 -8.165079666449465146e-01 0.000000000000000000e+00 5.773341670171053819e-01
-6.906203099459926609e-01 8.390791375490851134e-02 -1.969370001478577548e-01 -8.165094707326476797e-01 0.000000000000000000e+00 5.773320398210129989e-01
-6.057581968279888152e-01 4.170640681452706389e-01 4.100776453985397613e-02 -8.164840341916630440e-01 0.000000000000000000e+00 5.773680125449515144e-01
-4.841805039216141027e-01 4.284622931347595309e-01 9.565874356763161279e-02 -8.164840341916630440e-01 0.000000000000000000e+00 5.773680125449515144e-01
-3.387786737389969494e-01 3.421066882055862068e-01 2.340585679830954058e-01 -8.165089845643327404e-01 0.000000000000000000e+00 5.773327273987869379e-01
-7.251838848725422615e-01 3.959909838010407523e-01 -1.811000304817270146e-01 -8.165094707326475687e-01 0.000000000000000000e+00 5.773320398210128879e-01
-6.277927704969867850e-01 4.575141123881441563e-01 -2.335680562298067531e-01 -8.165079666449466256e-01 0.000000000000000000e+00 5.773341670171053819e-01
-5.739855436792705712e-01 4.273863995598771170e-01 -3.965443948546079622e-02 -8.164840341916630440e-01 0.000000000000000000e+00 5.773680125449515144e-01
-5.356048903052658128e-01 5.486040048738818342e-01 -9.032084871756995703e-02 -8.164840341916630440e-01 0.000000000000000000e+00 5.773680125449515144e-01
-6.358943133697437800e-01 5.879801044575434510e-01 -1.075572365037070627e-01 -8.165079666449465146e-01 0.000000000000000000e+00 5.773341670171053819e-01
-7.213952685767442974e-01 5.855512563288950423e-01 -2.230989526938061407e-01 -8.165094707326475687e-01 0.000000000000000000e+00 5.773320398210129989e-01
-6.272700253990168839e-01 5.653681008999719149e-01 -2.228863869303412959e-01 -8.165079666449466256e-01 0.000000000000000000e+00 5.773341670171053819e-01
-4.296295318006251862e-01 -2.711180173422864659e-01 9.485238378161919837e-02 -8.164840341916630440e-01 0.000000000000000000e+00 5.773680125449515144e-01
-7.174951981641323195e-01 -2.908245508009461577e-01 -1.621214274907953334e-01 -8.165094707326475687e-01 0.000000000000000000e+00 5.773320398210129989e-01
-6.750926228122741124e-01 -3.187805644611572120e-01 -1.250201186309495283e-01 -8.165079666449465146e-01 0.000000000000000000e+00 5.773341670171053819e-01
-6.823891673705902994e-01 -1.492615786038722914e-01 -1.448571538619628785e-01 -8.165079666449465146e-01 0.000000000000000000e+00 5.773341670171053819e-01
-6.423557407595269497e-01 -1.231315916516314557e-01 -5.958386969389194848e-02 -8.164840341916630440e-01 0.000000000000000000e+00 5.773680125449515144e-01
-5.346913122891633341e-01 -1.478160524042922974e-01 -1.304435197922697298e-02 -8.164840341916630440e-01 0.000000000000000000e+00 5.773680125449515144e-01
-6.441458499028703821e-01 -1.559982691686442186e-02 -1.430104194305844567e-01 -8.165079666449464035e-01 0.000000000000000000e+00 5.773341670171052709e-01
-6.606728098676640792e-01 -1.005861990881710827e-01 -1.793191635084205870e-01 -8.165079666449465146e-01 0.000000000000000000e+00 5.773341670171053819e-01
-6.577022349509781263e-01 -4.471857162749057757e-01 -1.283997655723923548e-01 -8.165079666449466256e-01 0.000000000000000000e+00 5.773341670171053819e-01
-6.443773405660945253e-01 -5.086736555717658037e-01 -1.632934907874805108e-01 -8.165079666449465146e-01 0.000000000000000000e+00 5.773341670171053819e-01
-3.032841651925128890e-01 5.682718173955976226e-01 2.470793102082866413e-02 0.000000000000000000e+00 8.164840341916630440e-01 5.773680125449515144e-01
-4.186479128310315323e-01 4.803792361576549874e-01 4.142047311712402508e-02 0.000000000000000000e+00 8.164840341916630440e-01 5.773680125449515144e-01
-4.673308125860132778e-01 4.683973616551084795e-01 9.307253329789713647e-02 0.000000000000000000e+00 8.164840341916630440e-01 5.773680125449515144e-01
-2.973168835995599335e-01 6.493367374693360672e-01 -1.105121545902343627e-01 0.000000000000000000e+00 8.165079666449465146e-01 5.773341670171053819e-01
-2.116305768179848057e-01 5.611985110824865286e-01 -4.252765705616609604e-02 0.000000000000000000e+00 8.164840341916630440e-01 5.773680125449515144e-01
-1.010930811467161822e-01 6.259261395164161801e-01 -1.298168699173979090e-01 0.000000000000000000e+00 8.165079666449464035e-01 5.773341670171052709e-01
-1.101110265518051579e-01 7.730078914106265353e-01 -2.373157063653293652e-01 0.000000000000000000e+00 8.165094707326476797e-01 5.773320398210129989e-01
-7.699441451612469567e-02 6.948630350089147756e-01 -2.162518567921914991e-01 0.000000000000000000e+00 8.165079666449465146e-01 5.773341670171053819e-01
-4.737044276272941445e-01 5.770848793206453387e-01 -5.176099930930142673e-02 0.000000000000000000e+00 8.164840341916630440e-01 5.773680125449515144e-01
-4.911699472607530814e-01 6.122996991579667814e-01 -5.508907486239268680e-02 0.000000000000000000e+00 8.164840341916630440e-01 5.773680125449515144e-01
-4.117982749565574641e-01 6.825590631710830580e-01 -1.884435281784335170e-01 0.000000000000000000e+00 8.165079666449465146e-01 5.773341670171053819e-01
-6.423472840989865595e-01 6.594976261887119939e-01 -2.123325998571304329e-01 0.000000000000000000e+00 8.165079666449465146e-01 5.773341670171053819e-01
5.837584974609522775e-02 3.253355138005438185e-01 3.520860122737093922e-01 0.000000000000000000e+00 8.164836353414075543e-01 5.773685765779770218e-01
1.200627127049888471e-01 2.798611273661070209e-01 3.697078891950303370e-01 0.000000000000000000e+00 8.164836353414075543e-01 5.773685765779770218e-01
2.310932661348417683e-01 1.666038628046215553e-01 4.534559686425382319e-01 0.000000000000000000e+00 8.164836353414075543e-01 5.773685765779770218e-01
-1.852867791311632040e-01 2.431658154034196107e-01 4.035781966808408283e-01 0.000000000000000000e+00 8.164836353414075543e-01 5.773685765779770218e-01
-1.920488471597723845e-01 2.182024817593229971e-01 4.451603003825397309e-01 0.000000000000000000e+00 8.164836353414075543e-01 5.773685765779770218e-01
-1.085913647004922711e-01 3.058296671708028436e-01 3.120821963509564090e-01 0.000000000000000000e+00 8.164836353414075543e-01 5.773685765779770218e-01
-2.452373041639280271e-01 3.004994893779032172e-01 2.751378999281509641e-01 0.000000000000000000e+00 8.164836353414075543e-01 5.773685765779770218e-01
1.352963959740260957e-01 9.554541217302253697e-02 5.034755604136239571e-01 0.000000000000000000e+00 8.164380874503074370e-01 5.774329825706913111e-01
-1.121745612878865817e-01 9.254431189965291182e-02 5.719788916772273746e-01 0.000000000000000000e+00 8.165274388786518678e-01 5.773066269828101005e-01
3.926900105892552895e-02 4.976623703847599806e-02 6.797367025512294214e-01 0.000000000000000000e+00 8.165443575551256661e-01 5.772826969041138234e-01
2.780904677056749708e-01 6.283598962199112847e-01 -1.496646560301388706e-01 0.000000000000000000e+00 8.165079666449465146e-01 5.773341670171053819e-01
2.766205819626114115e-01 6.617676838043469179e-01 -2.215922416440118392e-01 0.000000000000000000e+00 8.165094707326475687e-01 5.773320398210129989e-01
2.759639484705436185e-01 6.647127020615444248e-01 -1.350424191132046092e-01 0.000000000000000000e+00 8.165079666449465146e-01 5.773341670171053819e-01
4.570414292866366579e-01 5.160918728778768338e-01 6.053531010244601884e-02 0.000000000000000000e+00 8.164840341916630440e-01 5.773680125449515144e-01
4.582293337771959352e-01 4.893317171999426174e-01 1.274942866663645452e-02 0.000000000000000000e+00 8.164840341916630440e-01 5.773680125449515144e-01
4.034108825501164786e-01 5.123313978899531884e-01 7.211665476489795279e-02 0.000000000000000000e+00 8.164840341916630440e-01 5.773680125449515144e-01
3.942921953271137925e-01 3.697390089467335605e-01 2.088953955952452535e-01 0.000000000000000000e+00 8.165089845643327404e-01 5.773327273987869379e-01
4.518377438237916599e-01 6.232171086401634419e-01 -1.057634307704177767e-01 0.000000000000000000e+00 8.165079666449465146e-01 5.773341670171053819e-01
6.690256143012038859e-01 6.294888873362816106e-01 -1.590006656432244037e-01 0.000000000000000000e+00 8.165079666449465146e-01 5.773341670171053819e-01
5.803989602992641883e-01 6.252282891486240501e-01 -1.365471856926264438e-01 0.000000000000000000e+00 8.165094707326475687e-01 5.773320398210129989e-01
5.800198825639378830e-01 6.284238240697966882e-01 -1.447739530085052628e-01 0.000000000000000000e+00 8.165079666449466256e-01 5.773341670171053819e-01
2.282124454276998060e-01 2.510333155509785752e-01 -2.140890972728701769e-01 0.000000000000000000e+00 0.000000000000000000e+00 -1.000000000000000000e+00
1.631144247791324886e-01 3.149516180160340517e-01 -2.494352383641972315e-01 0.000000000000000000e+00 0.000000000000000000e+00 -1.000000000000000000e+00
2.204437431990793894e-01 1.710190588830943492e-01 -2.173076653520733259e-01 0.000000000000000000e+00 0.000000000000000000e+00 -1.000000000000000000e+00
2.717121099756297231e-01 2.411028561449565510e-01 -1.947183002041461553e-01 0.000000000000000000e+00 0.000000000000000000e+00 -1.000000000000000000e+00
2.097740114705732573e-01 2.095703552879318587e-01 -2.575281721042398386e-01 0.000000000000000000e+00 0.000000000000000000e+00 -1.000000000000000000e+00
2.262711814606886696e-01 2.316274699419816063e-01 -1.977661146222701727e-01 0.000000000000000000e+00 0.000000000000000000e+00 -1.000000000000000000e+00
2.700380594192856032e-01 2.103331766788537061e-01 -1.980615765719700438e-01 0.000000000000000000e+00 0.000000000000000000e+00 -1.000000000000000000e+00
-2.790892100105586415e-01 -1.710695131042577755e-01 -1.762430631071091602e-01 0.000000000000000000e+00 0.000000000000000000e+00 -1.000000000000000000e+00
-2.945356616753718182e-01 -2.288312624749442026e-01 -1.831597432173528717e-01 0.000000000000000000e+00 0.000000000000000000e+00 -1.000000000000000000e+00
-1.556705034866234238e-01 -1.672253419656742623e-01 -1.292441674402349250e-01 0.000000000000000000e+00 0.000000000000000000e+00 -1.000000000000000000e+00
-1.701207096580366340e-01 -2.809351194329403612e-01 -2.103492142102477702e-01 0.000000000000000000e+00 0.000000000000000000e+00 -1.000000000000000000e+00
-1.915306926946941379e-01 -2.871511211129402219e-01 -2.116599445369556076e-01 0.000000000000000000e+00 0.000000000000000000e+00 -1.000000000000000000e+00
4.755431227916940284e-01 -6.055185147096574239e-02 1.498997951289410824e-01 8.165088516266300056e-01 0.000000000000000000e+00 5.773329154096119575e-01
4.623546839747297854e-01 -3.116870736500381572e-02 1.177634080889760487e-02 8.164840341916630440e-01 0.000000000000000000e+00 5.773680125449515144e-01
4.322387040133252034e-01 5.977542855437877750e-02 4.029409031256246665e-02 8.165088516266300056e-01 0.000000000000000000e+00 5.773329154096119575e-01
-8.216154703197917075e-02 -4.446215813826968621e-01 3.487442736533789833e-02 0.000000000000000000e+00 -8.164840341916630440e-01 5.773680125449515144e-01
1.359121122508837737e-02 -5.227232608286138671e-01 2.195618047100452580e-02 0.000000000000000000e+00 -8.164840341916630440e-01 5.773680125449515144e-01
-6.132319654423026845e-03 -4.598392579404150249e-01 8.747716398284427486e-02 0.000000000000000000e+00 -8.165088516266300056e-01 5.773329154096119575e-01
-3.654100024907803723e-01 2.291662197258508352e-02 1.861255152362150944e-01 -8.165089845643327404e-01 0.000000000000000000e+00 5.773327273987869379e-01
-4.340455611856776086e-01 9.189148025315092838e-02 1.666394284044518947e-01 -8.165089845643328514e-01 0.000000000000000000e+00 5.773327273987870489e-01
2.064930360092211148e-02 4.135431720666249977e-01 1.632672844803473300e-01 0.000000000000000000e+00 8.165089845643327404e-01 5.773327273987869379e-01
1.161585946562214769e-02 4.531636527169254913e-01 6.399108689470872635e-02 0.000000000000000000e+00 8.164840341916630440e-01 5.773680125449515144e-01
-7.907194563933733766e-02 4.376056508627497732e-01 1.382258154188866495e-01 0.000000000000000000e+00 8.165089845643328514e-01 5.773327273987870489e-01
4.232616440173676553e-01 -1.796875561747153793e-01 -1.907630808786698884e-01 0.000000000000000000e+00 0.000000000000000000e+00 -1.000000000000000000e+00
3.835722632019668565e-01 -1.610946513066018326e-01 -2.283384997744940248e-01 0.000000000000000000e+00 0.000000000000000000e+00 -1.000000000000000000e+00
4.562197097278814506e-01 -1.429032198616892457e-01 -1.892963688092617058e-01 0.000000000000000000e+00 0.000000000000000000e+00 -1.000000000000000000e+00
4.449936442357589894e-01 -3.114821212655558003e-01 -2.391755996793613337e-01 0.000000000000000000e+00 0.000000000000000000e+00 -1.000000000000000000e+00
4.456814076813216396e-01 -2.507614909515903379e-01 -2.715704162658313936e-01 0.000000000000000000e+00 0.000000000000000000e+00 -1.000000000000000000e+00
-1.917186180954446595e-01 4.065288734759052724e-01 -1.942190487799137777e-01 0.000000000000000000e+00 0.000000000000000000e+00 -1.000000000000000000e+00
-1.366985020139245555e-01 3.449233427159427157e-01 -2.209066250500086870e-01 0.000000000000000000e+00 0.000000000000000000e+00 -1.000000000000000000e+00
-2.813906597945283750e-01 4.429418346434048637e-01 -2.902322498633457815e-01 0.000000000000000000e+00 0.000000000000000000e+00 -1.000000000000000000e+00
5.705313106824699831e-01 3.483353362654936780e-01 -2.197149360520389283e-01 0.000000000000000000e+00 0.000000000000000000e+00 -1.000000000000000000e+00
4.346822428296653884e-01 5.586203848774501379e-01 -1.976852642290674311e-01 0.000000000000000000e+00 0.000000000000000000e+00 -1.000000000000000000e+00
2.132840392538950247e-01 -4.453051669098185283e-01 -1.746476264950566903e-01 0.000000000000000000e+00 0.000000000000000000e+00 -1.000000000000000000e+00
3.382583777855489582e-01 -5.363814325747781053e-01 -1.776631088885192444e-01 0.000000000000000000e+00 0.000000000000000000e+00 -1.000000000000000000e+00
-4.399230669063365906e-01 -4.161090138153442641e-01 -1.817338665274497167e-01 0.000000000000000000e+00 0.000000000000000000e+00 -1.000000000000000000e+00
-5.369407313783985947e-01 -4.486901298735987975e-01 -2.062108567745407905e-01 0.000000000000000000e+00 0.000000000000000000e+00 -1.000000000000000000e+00
-3.430945252751059771e-01 -5.239080689995329054e-01 -2.197196295184006831e-01 0.000000000000000000e+00 0.000000000000000000e+00 -1.000000000000000000e+00
-5.634671944086094841e-01 -3.770491475596148279e-01 -2.770898711020534089e-01 0.000000000000000000e+00 0.000000000000000000e+00 -1.000000000000000000e+00
-3.524001495245144833e-01 2.259363925800195738e-01 -2.872334968900435714e-01 0.000000000000000000e+00 0.000000000000000000e+00 -1.000000000000000000e+00
-4.681003442904581036e-01 2.582379248806585537e-01 -2.241055998095201340e-01 0.000000000000000000e+00 0.000000000000000000e+00 -1.000000000000000000e+00
5.393258197150831990e-01 3.342987406742974898e-01 -3.139891619793323124e-03 8.165095704357587802e-01 0.000000000000000000e+00 5.773318988128167684e-01
6.165853798124875107e-01 3.916864779918813877e-01 -9.328707899715918406e-02 8.165080995831466293e-01 0.000000000000000000e+00 5.773339790061885468e-01
6.025083390232215397e-01 2.781404457662917107e-01 -1.471469625420595562e-01 8.165080995831466293e-01 0.000000000000000000e+00 5.773339790061886578e-01
5.908646762464899727e-01 3.810582268522350602e-01 -9.621252371350902388e-02 8.164917888923710620e-01 0.000000000000000000e+00 5.773570460913557412e-01
6.316321577730258374e-01 3.698245723587498257e-01 -4.324554539208755322e-02 8.165080995831467403e-01 0.000000000000000000e+00 5.773339790061886578e-01
2.332604098592496733e-01 -5.077898227859073410e-02 4.764830597678723079e-01 8.165093605858906312e-01 0.000000000000000000e+00 5.773321955993965249e-01
5.183324396675911272e-01 -2.862114758911924461e-01 -1.809481134763088819e-02 8.164917888923710620e-01 0.000000000000000000e+00 5.773570460913557412e-01
5.915498431565097137e-01 -3.380364377427921285e-01 -7.449758372715295507e-02 8.165080995831466293e-01 0.000000000000000000e+00 5.773339790061885468e-01
5.100669546620792971e-01 -3.028544314731888565e-01 -2.973690787505967742e-03 8.165095704357587802e-01 0.000000000000000000e+00 5.773318988128167684e-01
5.210429638719696888e-01 -3.764303131661284052e-01 6.373455590359042300e-02 8.165080995831467403e-01 0.000000000000000000e+00 5.773339790061886578e-01
5.529819298353395585e-01 -4.379021699886578856e-01 -4.393692764779609516e-02 8.164917888923710620e-01 0.000000000000000000e+00 5.773570460913557412e-01
-4.560664159157087894e-02 -2.742938983751190274e-01 4.601388142594931008e-01 0.000000000000000000e+00 -8.165093605858906312e-01 5.773321955993965249e-01
-2.831670497021196442e-03 -2.375715970197249116e-01 5.160505565638308090e-01 0.000000000000000000e+00 -8.165093605858906312e-01 5.773321955993965249e-01
3.476373262259956076e-02 -1.926971050026293208e-01 4.831649875741928502e-01 0.000000000000000000e+00 -8.165274388786519788e-01 5.773066269828101005e-01
-3.032492068723091627e-01 -5.896545478746080260e-01 -4.036425350340117763e-02 0.000000000000000000e+00 -8.165080995831466293e-01 5.773339790061885468e-01
-3.444688508105420710e-01 -5.512098750594259799e-01 -1.198196091964529864e-01 0.000000000000000000e+00 -8.165080995831466293e-01 5.773339790061886578e-01
-3.840102350493171390e-01 -6.434472850083780004e-01 -3.989093933324762420e-02 0.000000000000000000e+00 -8.165080995831467403e-01 5.773339790061886578e-01
3.683356623770530081e-01 -5.194034564186265079e-01 5.811787411023303616e-03 0.000000000000000000e+00 -8.165080995831467403e-01 5.773339790061886578e-01
2.692993335458853665e-01 -5.841366262787059949e-01 -8.372894292023240481e-02 0.000000000000000000e+00 -8.165080995831466293e-01 5.773339790061886578e-01
4.283268011503332806e-01 -5.913179011070769375e-01 -9.697640464756171474e-03 0.000000000000000000e+00 -8.164917888923710620e-01 5.773570460913557412e-01
3.935575688801731253e-01 -5.922695350114511870e-01 -6.796521913229028322e-02 0.000000000000000000e+00 -8.165080995831467403e-01 5.773339790061886578e-01
-2.810492904964121408e-01 -3.155896253564020870e-02 4.286688557247648745e-01 -8.165093605858906312e-01 0.000000000000000000e+00 5.773321955993965249e-01
-2.872724433693976120e-01 -2.585954680955823010e-02 3.995224125936118753e-01 -8.165093605858906312e-01 0.000000000000000000e+00 5.773321955993965249e-01
-2.285572040388674508e-01 -2.962514149523061413e-02 4.777010347513438449e-01 -8.165274388786519788e-01 0.000000000000000000e+00 5.773066269828101005e-01
-2.326749132171229972e-01 2.710386026594805570e-02 4.897674118423862577e-01 -8.164380874503074370e-01 0.000000000000000000e+00 5.774329825706913111e-01
-5.963796338876733438e-01 4.248244210618082883e-01 -7.770033623431839287e-02 -8.165080995831467403e-01 0.000000000000000000e+00 5.773339790061886578e-01
-5.304238275008937853e-01 -3.222140574121211687e-01 -8.190798842470541075e-02 -8.164917888923710620e-01 0.000000000000000000e+00 5.773570460913557412e-01
-5.288205120659356107e-01 -3.645449534773651523e-01 -5.847552473208655899e-02 -8.164917888923710620e-01 0.000000000000000000e+00 5.773570460913557412e-01
-5.375177566211274405e-01 -4.278093491815604388e-01 -1.031392276693605115e-01 -8.165080995831467403e-01 0.000000000000000000e+00 5.773339790061886578e-01
-3.946295190906082828e-01 5.656245398205547170e-01 1.987198571595839153e-03 0.000000000000000000e+00 8.165095704357588913e-01 5.773318988128168794e-01
-3.895684261450245156e-01 5.705719463856366858e-01 -5.533051360852587336e-02 0.000000000000000000e+00 8.164917888923710620e-01 5.773570460913557412e-01
9.341527591114542894e-02 2.607831426627982285e-01 3.906044482781503291e-01 0.000000000000000000e+00 8.165093605858906312e-01 5.773321955993965249e-01
-9.761938081108834098e-02 2.304635181547832756e-01 4.188344657060405485e-01 0.000000000000000000e+00 8.165093605858906312e-01 5.773321955993965249e-01
5.831323666389320870e-02 1.850540479168708008e-01 4.919047038926442350e-01 0.000000000000000000e+00 8.165274388786519788e-01 5.773066269828101005e-01
-2.987266605511195924e-02 2.646359905867680662e-01 4.268777083180711474e-01 0.000000000000000000e+00 8.165274388786519788e-01 5.773066269828101005e-01
3.208288450101257072e-01 6.213682238607842745e-01 -7.721523098182703215e-02 0.000000000000000000e+00 8.165080995831466293e-01 5.773339790061885468e-01
3.502155249425144001e-01 6.059819819344419711e-01 -2.603456012980088011e-02 0.000000000000000000e+00 8.165095704357588913e-01 5.773318988128168794e-01
4.112325486679345721e-01 6.107242089321599510e-01 -6.289785057764563092e-02 0.000000000000000000e+00 8.164917888923710620e-01 5.773570460913557412e-01
1.342378926227446312e-01 4.761793106396800535e-01 -2.518605585689438486e-01 0.000000000000000000e+00 0.000000000000000000e+00 -1.000000000000000000e+00
1.093310877013063676e-02 5.197948551902473735e-01 -2.335289501483762686e-01 0.000000000000000000e+00 0.000000000000000000e+00 -1.000000000000000000e+00
9.400630102175007441e-02 4.991395742608048525e-01 -2.422068199695059931e-01 0.000000000000000000e+00 0.000000000000000000e+00 -1.000000000000000000e+00
1.439106869840621472e-01 5.154530545311396539e-01 -1.815715517084939279e-01 0.000000000000000000e+00 0.000000000000000000e+00 -1.000000000000000000e+00
1.695416145179296508e-01 4.385662873103184922e-01 -2.252356075736924590e-01 0.000000000000000000e+00 0.000000000000000000e+00 -1.000000000000000000e+00
5.569201788070908821e-01 1.142088823006102011e-01 -1.650693110447629119e-01 0.000000000000000000e+00 0.000000000000000000e+00 -1.000000000000000000e+00
4.020564765027864196e-01 1.748469476415074331e-01 -2.590562840517832144e-01 0.000000000000000000e+00 0.000000000000000000e+00 -1.000000000000000000e+00
4.069423966880830745e-02 1.342505979129271776e-01 -2.279779502229836996e-01 0.000000000000000000e+00 0.000000000000000000e+00 -1.000000000000000000e+00
-5.185209681756883793e-01 -1.125047326232092165e-01 -2.367833665633967688e-01 0.000000000000000000e+00 0.000000000000000000e+00 -1.000000000000000000e+00
-4.615797265628992507e-01 -1.869316546480309926e-01 -2.235535143627399024e-01 0.000000000000000000e+00 0.000000000000000000e+00 -1.000000000000000000e+00
-4.469603663726290921e-01 -1.102005546483667275e-01 -2.695270760491907946e-01 0.000000000000000000e+00 0.000000000000000000e+00 -1.000000000000000000e+00
-4.095357162660103190e-01 -9.729846054373927910e-02 -2.155187112344030542e-01 0.000000000000000000e+00 0.000000000000000000e+00 -1.000000000000000000e+00
-3.600172613587188652e-01 -2.398483105959624551e-01 -2.347775621885578035e-01 0.000000000000000000e+00 0.000000000000000000e+00 -1.000000000000000000e+00
-8.743434675267296174e-02 -6.059984737341192473e-02 -2.080399257929989310e-01 0.000000000000000000e+00 0.000000000000000000e+00 -1.000000000000000000e+00
-1.225134253231559833e-01 8.380337077977952076e-03 -2.068004387279514800e-01 0.000000000000000000e+00 0.000000000000000000e+00 -1.000000000000000000e+00
-1.049112815458780323e-01 -1.462930960195608088e-01 -2.705922338377360625e-01 0.000000000000000000e+00 0.000000000000000000e+00 -1.000000000000000000e+00
-1.933930881100381360e-01 -1.217552438582146235e-01 -2.309798102457584490e-01 0.000000000000000000e+00 0.000000000000000000e+00 -1.000000000000000000e+00
-5.510503641256637997e-02 -4.356090882019379995e-01 -1.291200452902619145e-01 0.000000000000000000e+00 0.000000000000000000e+00 -1.000000000000000000e+00
-4.040727489766088310e-02 -5.037893690452248663e-01 -2.498223828427516557e-01 0.000000000000000000e+00 0.000000000000000000e+00 -1.000000000000000000e+00
-1.246290511819130864e-01 -4.518869383867618050e-01 -2.008760936293214339e-01 0.000000000000000000e+00 0.000000000000000000e+00 -1.000000000000000000e+00
-1.373359222149589387e-01 -5.242245936096735504e-01 -2.663585958857840885e-01 0.000000000000000000e+00 0.000000000000000000e+00 -1.000000000000000000e+00
-1.491075237270496345e-01 -4.498699188292393236e-01 -2.269393916080214568e-01 0.000000000000000000e+00 0.000000000000000000e+00 -1.000000000000000000e+00
-1.159381602796669408e-01 -3.533930342611283359e-01 -1.912434928274701351e-01 0.000000000000000000e+00 0.000000000000000000e+00 -1.000000000000000000e+00
4.129584446894341010e-01 -2.283528020001101277e-01 1.972701174277209923e-01 8.164839012417078878e-01 0.000000000000000000e+00 5.773682005558682384e-01
4.205237369673296421e-01 -1.528352210786771415e-01 2.386271329419259735e-01 8.164660847728841819e-01 0.000000000000000000e+00 5.773933948493327195e-01
5.736152067431854462e-01 1.015298892803696840e-02 -7.979503896471275282e-02 8.165080995831466293e-01 0.000000000000000000e+00 5.773339790061885468e-01
6.121801899485648235e-01 5.801435754450639387e-02 -1.385784356103998416e-01 8.165080995831467403e-01 0.000000000000000000e+00 5.773339790061886578e-01
5.714910265576451653e-01 -7.087418565484884456e-03 2.072879947697442785e-02 8.165080995831466293e-01 0.000000000000000000e+00 5.773339790061885468e-01
4.752252857988131240e-01 1.534025195153890242e-01 1.576710260638282679e-01 8.164839012417078878e-01 0.000000000000000000e+00 5.773682005558682384e-01
3.460580920718603903e-01 1.710686325394594753e-01 2.264227258615985616e-01 8.164839012417078878e-01 0.000000000000000000e+00 5.773682005558682384e-01
3.387164983909501936e-01 2.099748804899662924e-01 2.501095800585284579e-01 8.164831491978573608e-01 0.000000000000000000e+00 5.773692640554650701e-01
4.021745708253908758e-01 9.753406667507164007e-02 1.925564561963540033e-01 8.164660847728841819e-01 0.000000000000000000e+00 5.773933948493327195e-01
2.312282390402380094e-02 -5.377817977472988398e-01 3.068738918828667339e-03 0.000000000000000000e+00 -8.164917888923709510e-01 5.773570460913556301e-01
1.443329981433309241e-02 -5.886362304131103063e-01 -2.304876145021947376e-02 0.000000000000000000e+00 -8.165080995831466293e-01 5.773339790061885468e-01
-2.846926537564734710e-02 -5.110958125655635786e-01 3.300404270029153042e-02 0.000000000000000000e+00 -8.165080995831466293e-01 5.773339790061885468e-01
2.359794300903744202e-01 -3.920771563798754467e-01 2.269729259535790966e-01 0.000000000000000000e+00 -8.164660847728841819e-01 5.773933948493327195e-01
2.647357416869388080e-01 -4.686794499432077044e-01 2.003066006586922132e-01 0.000000000000000000e+00 -8.164839012417078878e-01 5.773682005558682384e-01
1.235818838134453701e-01 -3.551694224294635882e-01 2.073936808369747087e-01 0.000000000000000000e+00 -8.164839012417078878e-01 5.773682005558682384e-01
2.039001467592903294e-01 -3.879808596092878537e-01 2.163435099534261052e-01 0.000000000000000000e+00 -8.164839012417078878e-01 5.773682005558682384e-01
1.608258604626904564e-01 -3.730574935006098491e-01 2.506035936027347644e-01 0.000000000000000000e+00 -8.164831491978573608e-01 5.773692640554650701e-01
1.209001953739523016e-01 -4.270550374538637506e-01 1.517948368707933704e-01 0.000000000000000000e+00 -8.164839012417078878e-01 5.773682005558682384e-01
-1.887462693090099231e-01 -4.216317084551100547e-01 2.225729577527837955e-01 0.000000000000000000e+00 -8.164839012417078878e-01 5.773682005558682384e-01
-1.462724888411180701e-01 -3.699443214341197050e-01 1.992060207226525048e-01 0.000000000000000000e+00 -8.164839012417078878e-01 5.773682005558682384e-01
-1.551851649144939116e-01 -3.914785107329648572e-01 2.018936996267144957e-01 0.000000000000000000e+00 -8.164839012417078878e-01 5.773682005558682384e-01
-2.288783480395115422e-01 -3.767813570339709761e-01 1.673096359634624053e-01 0.000000000000000000e+00 -8.164660847728841819e-01 5.773933948493327195e-01
-7.653637697312391797e-02 -3.468247590946321179e-01 1.920529965429657315e-01 0.000000000000000000e+00 -8.164660847728841819e-01 5.773933948493327195e-01
-5.901113264182534790e-01 3.205706208783951072e-02 -2.411188795078132024e-02 -8.164917888923709510e-01 0.000000000000000000e+00 5.773570460913556301e-01
-5.532683822180406441e-01 6.052466564408044009e-02 -8.965435911974917182e-02 -8.165080995831467403e-01 0.000000000000000000e+00 5.773339790061886578e-01
-5.330502975178501579e-01 -1.192915566662543780e-01 -6.214061059981434987e-02 -8.165080995831467403e-01 0.000000000000000000e+00 5.773339790061886578e-01
-3.667131528340674684e-01 -2.100236101312495385e-01 2.254732057523118616e-01 -8.164660847728841819e-01 0.000000000000000000e+00 5.773933948493327195e-01
-4.291976465513246408e-01 -1.866968448648992918e-01 2.659650197215883694e-01 -8.164839012417078878e-01 0.000000000000000000e+00 5.773682005558682384e-01
-2.963460226283290977e-01 -1.483108913836281573e-01 3.121128964116662297e-01 -8.164831491978573608e-01 0.000000000000000000e+00 5.773692640554650701e-01
-4.354641723511681883e-01 -1.532772576642555395e-01 1.549095711311234136e-01 -8.164839012417078878e-01 0.000000000000000000e+00 5.773682005558682384e-01
