-3.676207883562740975e-01 3.575553622279835086e-01 9.765416234960844211e-02 3.828455247734458000e-01 8.142834350481376049e-01 4.363161601031417813e-01
-3.850921207946852443e-01 4.357877050665258101e-01 1.204315281268602822e-01 3.826972743476916294e-01 8.133485306564148809e-01 4.381859923433181758e-01
-3.235627062008109567e-01 3.352146394484219472e-01 1.685134906436894786e-01 3.839126517590936705e-01 8.121177695729666635e-01 4.394039191485785700e-01
-7.899093011132577447e-01 3.427364200632629920e-01 1.557771371769948454e-01 -8.317043299153307201e-01 6.552980355896441400e-02 5.513381470981436605e-01
-3.218193963858507756e-01 3.271901076556384957e-01 5.294972876996555111e-02 3.856586002226081722e-01 8.128674907124021631e-01 4.364789646904659870e-01
-2.935370057807732969e-01 3.486463911093633516e-01 1.359119144323647776e-01 3.852842032940337891e-01 8.134745455134203551e-01 4.356779160042609234e-01
-2.314887463623727937e-01 3.510264203354077073e-01 1.432103315187139847e-01 3.872457733834457905e-01 8.123440393260720205e-01 4.360480165853963808e-01
-2.360477032565334310e-01 3.949430725402447440e-01 1.149028629240670812e-01 3.917403916270815745e-01 8.101684694511342988e-01 4.360808602484950169e-01
-1.963001840104213747e-01 2.907701966233122715e-01 2.048505735034907016e-01 3.937440767429616351e-01 8.084256277578327765e-01 4.375084072497198440e-01
-7.514927874926725648e-01 2.961045640317563898e-01 1.870175123507448744e-01 -8.335013932005064241e-01 6.654203328050281585e-02 5.484957477863536823e-01
-7.852949691961100820e-01 2.837556242166205944e-01 1.227257740010623682e-01 -8.328120161486434192e-01 6.726435332821172064e-02 5.494539585167887985e-01
-1.860851178710807574e-01 3.213361753793452236e-01 1.439569302575279541e-01 3.917218976898279581e-01 8.077419580963403067e-01 4.405756280151798543e-01
-1.307022446315369568e-01 3.141303797649482865e-01 1.105522871062811774e-01 3.914667702978870123e-01 8.078400148631657007e-01 4.406226028455890176e-01
-1.893898522728057476e-01 3.462195428695324928e-01 1.567461957209642376e-01 3.920735745749793222e-01 8.067581371235541532e-01 4.420629144193513049e-01
-7.048037079614352107e-01 2.518911085933377980e-01 1.211115341489149566e-01 -8.336460356314538966e-01 6.799632370222684352e-02 5.480974249519355856e-01
-1.586318694723592160e-01 2.719130180841332067e-01 1.426546035938585921e-01 3.913208310770407983e-01 8.068238285365978424e-01 4.426096664903746980e-01
-9.483706379240205986e-02 2.709570442889460140e-01 1.264479408504460278e-01 3.890537906375126642e-01 8.069638280172970468e-01 4.443495563880453525e-01
-9.930383853425663043e-02 2.821186357530645616e-01 1.776878540649166338e-01 3.929229641205879697e-01 7.995802981548872923e-01 4.541837635464664458e-01
-8.619851794014751767e-02 3.045932664928029387e-01 2.334287428442285151e-01 3.944627291023130033e-01 7.962898279450184580e-01 4.586084007739590906e-01
-1.847127930315575761e-02 2.631243010815079719e-01 9.799839042449479121e-02 3.950494319136207966e-01 7.943872985914325335e-01 4.613943716402830186e-01
-7.425055563847404727e-01 1.775236269110983256e-01 1.749087551204941693e-01 -8.344187875965137779e-01 6.456620768565958512e-02 5.473358125785818817e-01
-1.514048825037826729e-01 2.974246062405836444e-01 1.681637875574170660e-01 3.969710150771636470e-01 7.921747480676678554e-01 4.635441529267013694e-01
-6.896128013532613898e-02 2.083844032878195141e-01 1.199264654121773577e-01 3.877417805039367615e-01 8.016007934135631618e-01 4.550741474203766068e-01
-1.193711992127755306e-01 2.609873104189651127e-01 1.605959725188174370e-01 4.149036029265300018e-01 7.681999769015912527e-01 4.875692727879588073e-01
-5.504796813570687897e-02 2.359006444579916373e-01 2.259356751692671028e-01 7.903825729901224895e-01 3.369525705836984852e-01 5.116232534693385681e-01
-1.176327544778060438e-02 1.726767784799619065e-01 1.315479796512904476e-01 6.038616611070438678e-01 -1.792438504635575081e-01 7.766741506681162921e-01
-7.749302169732807943e-01 1.763783195910101909e-01 1.978012678543359937e-01 -8.329701745655833101e-01 6.504594136937807969e-02 5.494813134179842296e-01
-2.953808925878211727e-02 1.394296455120175027e-01 1.529613543382755680e-01 4.898011091143130158e-01 -3.442784149375890945e-01 8.009789301339018674e-01
-8.112670537350102906e-01 1.677651545708634950e-01 2.023752180127721123e-01 -8.362088900691875271e-01 6.325980872782578646e-02 5.447502994666237885e-01
-7.091161888977734473e-02 2.271857289271133618e-01 8.474349394314530104e-02 4.279484990936359146e-01 -4.972299027995812915e-01 7.547334005365226028e-01
-5.912111912376687151e-02 1.191922423531074915e-01 1.339973370840560341e-01 4.243955085650966130e-01 -5.263305725275285729e-01 7.367934450934108259e-01
1.212442435555734915e-02 1.666978342667224111e-01 1.640054365595249308e-01 4.256662054239129245e-01 -5.270365231462486033e-01 7.355547463173091050e-01
-1.253992449557375828e-02 3.878414017162262750e-02 9.027421774906072005e-02 4.343288787019041197e-01 -5.349124486517307098e-01 7.247255324624326533e-01
-8.374834316994957117e-02 1.583566835709504239e-01 1.279664416580278408e-01 4.189597689245959655e-01 -5.587259928367211970e-01 7.157499402383971088e-01
-7.606412086605855993e-01 1.624914035581785932e-01 1.760523018301339282e-01 -8.364951927696834266e-01 6.943345748629567438e-02 5.435575291123366792e-01
-4.787876857185763280e-02 1.613678182649123660e-01 1.476557292061206061e-01 4.141296417350854298e-01 -5.556554522544155938e-01 7.209324921352280313e-01
-1.633069930260543923e-01 1.319778670190155656e-01 1.819853042450992608e-01 4.056581287588594820e-01 -5.890191688590441510e-01 6.989262488191877454e-01
-1.328664837145058508e-01 4.582207658887352264e-02 2.518651072204922681e-01 3.827931322543597914e-01 -5.855674409200656294e-01 7.145489416640552482e-01
-7.839421134227967380e-01 8.304092540087572305e-02 1.430646713820867000e-01 -8.361978137882852824e-01 6.414653551902442519e-02 5.446636009470420259e-01
-9.915132279229307843e-02 8.154908093256739432e-02 9.545727157964595255e-02 4.013982113634213533e-01 -6.010615861782593328e-01 6.910893180589041673e-01
-1.977531749010752182e-01 7.889884876899465327e-02 1.727776544462723829e-01 4.130760030406183114e-01 -6.102479766719337562e-01 6.759923244237305839e-01
-1.776289978525093793e-01 9.154552262849192934e-02 1.608197081906425352e-01 4.076274152565315667e-01 -6.224990508516126120e-01 6.680829454641996623e-01
-8.151537644669746285e-01 1.255878213127994414e-01 1.188849441359529496e-01 -8.362550151864356351e-01 6.031449095668181548e-02 5.450134968568858262e-01
4.142527083975940799e-02 7.821462951049913681e-02 1.474568087952023154e-01 -1.771066661136846687e-01 4.593013190148295677e-01 8.704455911596851170e-01
7.813931764006967762e-02 1.385878067042145001e-01 1.097035371183633923e-01 -1.729137650487484190e-01 4.572482567254507191e-01 8.723673891074805731e-01
6.911654484632472062e-02 3.754940922373751350e-02 1.203201769953010092e-01 -1.558131202874525612e-01 4.558935714865058886e-01 8.762895200922843353e-01
-7.500889744996322994e-01 8.752724247340870622e-02 1.034303909220777029e-01 -8.352769420477880180e-01 6.083965429033724726e-02 5.464530780855099135e-01
-2.148536373582265180e-01 4.788372623021722174e-02 1.157405366165236149e-01 4.139371573369219348e-01 -6.277617844127800772e-01 6.592201239394246404e-01
-1.905382597811482170e-01 6.516074881678203534e-02 1.482398608106673121e-01 4.031397981806991160e-01 -6.374740933463982628e-01 6.565859299703372676e-01
-2.277219857360128150e-02 5.078824638263911007e-02 1.230979281016544441e-01 -1.762948577770196146e-01 4.562761713231410221e-01 8.721996208460974787e-01
4.145706754456680854e-02 1.164624047989626376e-01 1.806465526755092754e-01 -1.776638640867381491e-01 4.580460582119178503e-01 8.709933179733890807e-01
8.931075415879553836e-02 9.973407997506276990e-02 1.900358676328207375e-01 -1.659828210345712929e-01 4.629850720613292170e-01 8.706862386472931092e-01
9.668350348653624582e-02 2.389005089292104561e-02 2.108617168286186228e-01 2.349472861658187528e-01 5.820478529800029444e-01 7.784729086902675288e-01
-1.754914685143676434e-01 5.259222266570688642e-02 1.473095030713207632e-01 4.141333023105708833e-01 -6.251228149544636459e-01 6.616003885584929023e-01
5.800496705181884538e-02 2.884884678621443821e-02 9.385295143859496980e-02 -1.398765701887222934e-01 4.636489108814516591e-01 8.749081280629886770e-01
8.081672639394006652e-02 3.212271900236486621e-02 2.103903841528620977e-01 3.618291233354156700e-01 5.169239685684158259e-01 7.758023564193422539e-01
-7.654722555558568509e-01 8.692523345553815339e-02 1.825694490776677281e-01 -8.345278450058497555e-01 6.152044936651836909e-02 5.475203285903038619e-01
8.199150700003987602e-03 8.036915360173468859e-02 9.001510466632112184e-02 -1.785706374073220415e-01 4.604733753783930017e-01 8.695267667090946784e-01
-2.700388904279782398e-02 2.818443325807908767e-02 1.230936939118252582e-01 -1.729214633712992111e-01 4.533491692818696350e-01 8.743984779360991499e-01
1.996072523166335377e-02 3.538596548149704202e-02 1.431753532073682389e-01 -1.764049180486493285e-01 4.540598733924873787e-01 8.733332332294744260e-01
2.329064242492267373e-02 7.360507231567686715e-02 1.060035758214925017e-01 -1.777957997318413697e-01 4.539896276463419866e-01 8.730876654650728819e-01
7.229336144039413825e-02 3.956682430531899275e-02 1.723452475199784562e-01 1.311812106861721672e-01 3.035662071923030392e-01 9.437367470930596580e-01
2.315139792241825700e-02 -1.568201935540727149e-02 1.520599153844462981e-01 7.923295169744231092e-01 4.145151270473516614e-01 4.476506963917240012e-01
-7.950053823065811320e-01 1.947334956028363984e-02 1.463982841226752762e-01 -8.347074869968392763e-01 6.064657954729495148e-02 5.473439535983156690e-01
-2.277926242609613905e-01 3.877236232889262613e-03 1.522717685760491546e-01 3.953941433822337759e-01 -6.555152858572713681e-01 6.433997057712176337e-01
-1.101489025114466003e-01 7.236487318452411444e-02 1.507088656353967882e-01 -1.820373013130913153e-01 4.613483898827309138e-01 8.683432985192311993e-01
-4.457460622369150555e-02 5.136122418567344583e-02 1.131767390651430838e-01 -1.802115496164334585e-01 4.606547272477546917e-01 8.690920662675160058e-01
-2.061230315702408666e-02 6.303733444886522319e-02 1.651806596377304037e-01 -1.780389132803429086e-01 4.589251554404272238e-01 8.704538167312119157e-01
-6.967714162067924211e-02 3.227909983102141694e-02 1.408920938718744020e-01 -1.757104682623641667e-01 4.573899171256713414e-01 8.717340735882659342e-01
9.543054259732164368e-02 3.710574207613665659e-02 8.676969319528579638e-02 9.198608043461065087e-01 3.448615941733960133e-01 1.868865471132625522e-01
-3.310153429228595012e-01 -2.536731821181416324e-02 1.445785650713791726e-01 4.023298367998846548e-01 -6.259637415585721509e-01 6.680569561606041207e-01
-1.628050444508994110e-01 3.180758439483383909e-02 1.435986912855177489e-01 3.582122971965427394e-01 -5.178810245400524703e-01 7.768418079368035745e-01
-1.391004181241443094e-01 -8.367797683318002611e-04 1.265702260791284062e-01 -1.889270033073990607e-01 4.599744242193621879e-01 8.676002054433551436e-01
-1.648654043337018649e-01 1.674689840345582048e-02 1.085702021663270400e-01 -1.830295485503813102e-01 4.605326227465210143e-01 8.685677220249748975e-01
-7.059720616887815714e-02 7.181150942712491436e-02 1.621442641267774876e-01 -1.766945322797375539e-01 4.564007683340034482e-01 8.720535424654705103e-01
1.523395439452373545e-01 -1.159800389796684580e-02 1.586275336652833712e-01 9.189471215560285344e-01 3.345898826336172749e-01 2.087721203204874199e-01
-8.114151112834104840e-01 -4.148930189670820001e-02 5.455636405952116186e-02 -8.362864124754626483e-01 6.086519519708925852e-02 5.449040872690721349e-01
-2.046129805464033946e-01 -1.145616030443492722e-01 1.232339423290134128e-01 4.008627370248446509e-01 -6.232086371927745283e-01 6.715058157553626117e-01
-2.557369406523204436e-01 -4.568443070803189510e-02 1.689556881768896346e-01 3.219746236696814923e-01 -4.956753459844907006e-01 8.066215302704995427e-01
-1.717199206459059380e-01 -6.578308475377377812e-04 1.695183288015353340e-01 2.585264699434163260e-01 -3.387813546933807762e-01 9.046497985688790600e-01
-1.727737804317033832e-01 -1.504236207627236525e-03 1.712127728672050708e-01 -1.849211061337807105e-01 4.571098970995889355e-01 8.699739803464596744e-01
-5.019660767715188043e-02 2.871415658904451218e-02 2.207615423502752305e-01 -1.782261653850754357e-01 4.581714206669853517e-01 8.708124845545842652e-01
-2.721471042381796712e-01 5.095318915684160510e-02 8.587569760074618974e-02 3.851134551211415347e-01 -5.835794464295502859e-01 7.149284274594458477e-01
-2.752096358953615152e-01 -4.986724078776629682e-02 1.097206755899415576e-01 1.770037809492568115e-01 -2.760702693536010721e-01 9.446982946468663878e-01
-2.096956809314643733e-01 -9.192532600070661697e-02 1.574227374051677675e-01 1.049750032031843000e-01 -2.288338560847328340e-01 9.677888793594825456e-01
-1.484317579190838066e-01 -2.785189956794939178e-02 1.350877283684620289e-01 -1.703184837603183011e-01 4.700765870935473822e-01 8.660367292188414501e-01
-1.318710231140970413e-01 -4.004021845531676588e-02 1.188032033948149407e-01 -1.901728608950239707e-01 4.666558044525433435e-01 8.637514938625295846e-01
-1.501004865890712692e-01 -2.187943169283146014e-03 1.498991428424076011e-01 -1.837194747301395814e-01 4.625183415392493669e-01 8.673660924573105557e-01
-1.121632903718433605e-01 1.209497108837546617e-02 1.730077804172833189e-01 -1.855511761683456828e-01 4.616813222891439916e-01 8.674221104352199951e-01
-1.052052014155686332e-01 5.582244750129923549e-02 1.458872065171320787e-01 -1.861024626539225513e-01 4.601129060546709226e-01 8.681370785055034789e-01
-1.228172169076520159e-01 -6.105827474588313396e-03 1.378930797111493356e-01 -1.843177080799795475e-01 4.588873538234862770e-01 8.691659099326329851e-01
-1.375744348492778935e-01 4.220226742505087114e-02 1.505174354450524998e-01 -1.802086308060795450e-01 4.585645066395088731e-01 8.701973584385681582e-01
1.294213929665442575e-01 -1.020272692397750439e-02 1.641906940844117258e-01 9.255744351313248686e-01 3.387448504527811877e-01 1.690085539937303816e-01
-2.015514896678483325e-01 -1.787989192653116361e-03 1.144103551658132989e-01 2.282410367169740995e-01 -3.306277616003903130e-01 9.157463144438401370e-01
-2.558952660054604200e-01 -6.230075627688201612e-02 1.454348455376127114e-01 -1.655561630074272594e-01 4.062274315532011792e-01 8.986492256403203482e-01
-1.912239422686658474e-01 5.802307703797625685e-03 1.474611044499909429e-01 -1.644565718904882068e-01 4.506988727723327259e-01 8.773964679913963671e-01
-2.221092614164526802e-01 -2.374650682471042204e-02 1.702880344560653014e-01 -1.853604241057233148e-01 4.754684133395519208e-01 8.599833144263412388e-01
-1.016498214057261068e-01 -4.622139027145848872e-02 1.750487440655337512e-01 -1.818440256514472220e-01 4.674575057395187194e-01 8.651105308934017302e-01
-1.079416798251557619e-01 -5.100419103708689339e-02 2.072457840225032932e-01 -1.834853643326972150e-01 4.661731017471611449e-01 8.654569661647701917e-01
-1.771789789155661654e-01 -3.515284421801370685e-02 1.546887921385644571e-01 -1.834941930922940057e-01 4.668823351257479493e-01 8.650726941991273566e-01
-2.888915193616942712e-01 -8.456177077750484661e-02 1.421947502829606080e-01 3.776084581892489855e-01 -4.708296836611039482e-01 7.973275746438993616e-01
-2.883104490303188827e-01 -2.431496575106125921e-02 1.245741953267386903e-01 2.601766220675669206e-01 -6.791208595064281150e-02 9.631698053361843481e-01
-1.956461731894228451e-01 2.360320592533093897e-02 1.822948374406108130e-01 8.387619343679636854e-04 1.914387951516476893e-01 9.815041946875738832e-01
-2.477347862236312093e-01 1.392341847625614554e-02 1.780482716671271115e-01 -1.850172948806160511e-01 4.619464220390466780e-01 8.673950102233595194e-01
-1.488288500600090103e-01 -3.418813694220829841e-03 1.542594470850676969e-01 -1.845009537681517875e-01 4.637742804331517199e-01 8.665291771587120273e-01
2.012187642884555316e-01 4.601272218275468534e-02 1.415013597764466780e-01 9.343858482438633928e-01 3.244665925306352561e-01 1.471207562961612536e-01
-6.245145628193063958e-01 5.053190063186654424e-01 2.649393043376681578e-01 1.417379475479354778e-01 8.057543132987685652e-01 5.750394254530107885e-01
-2.827073712025854890e-01 -5.790838822801874786e-02 1.799221426635314314e-01 1.622536078833566320e-01 -1.829902194474424537e-01 9.696330988138815998e-01
-3.070692016578331351e-01 -2.487658467289355010e-02 6.024193336189992420e-02 4.617563767565964483e-02 1.039197718789181685e-01 9.935132065040102045e-01
-2.796976654854483879e-01 -9.640931796021387501e-02 1.476447348917126201e-01 -1.180497798387650926e-01 2.920340327565338345e-01 9.490945017183352039e-01
-2.433257514738206562e-01 9.624923592878205370e-03 2.123956969228170122e-01 -1.730300476813603772e-01 4.457157862905399837e-01 8.782926849580336981e-01
-2.092132526287782956e-01 4.050140562621613871e-02 1.020014875526532305e-01 -1.838945148707488986e-01 4.907949349636399616e-01 8.516473091688181452e-01
-1.700504752013582144e-01 -1.983605489329249086e-02 9.097004177779430267e-02 -1.855375060773138407e-01 4.628521803345340691e-01 8.668008381388302430e-01
2.019948153051292217e-01 -2.310125271712863693e-02 1.227735310158417636e-01 9.345176265968230256e-01 3.263080430452053315e-01 1.421262348190834301e-01
-3.594311372627105872e-01 -6.727463002863470765e-02 1.255248610809908405e-01 9.315519035952776750e-02 2.071302413389217445e-01 9.738681500244067424e-01
-1.844353312523610566e-01 -1.915196465095615752e-03 1.544669538385686769e-01 -1.495884750009216779e-01 4.167192047939959898e-01 8.966428455649207985e-01
-2.914770964519927676e-01 -8.944342431281587791e-03 1.881633413755928741e-01 -1.692077346579074770e-01 4.542075586885224725e-01 8.746795048257114402e-01
-1.723363597347588316e-01 -3.218330103337199710e-02 9.127138776673771048e-02 -1.789927046766380536e-01 4.628401200237240998e-01 8.681823742561044499e-01
-2.967118505398878558e-01 -1.059597689822826955e-01 7.511617704830919617e-02 -1.868626119988550938e-01 4.627392418287619713e-01 8.665764584320921893e-01
8.380606949747633483e-02 -6.553034177126844384e-02 8.200118870810467475e-02 9.350310133780860289e-01 3.272651681990282890e-01 1.364350164173815383e-01
1.335735265685189799e-01 -9.517469595969646479e-02 1.551647969459068466e-01 9.359909137409599955e-01 3.273677628139946560e-01 1.294270345195427940e-01
-3.133817370070344777e-01 -4.094175900508210952e-02 1.632355412137336259e-01 -1.720701056988895583e-01 5.059128915628871015e-01 8.452479073474545856e-01
1.719506357589757062e-01 -5.571567051858396236e-02 7.105262045527684089e-02 9.353901498119270297e-01 3.297304008905586614e-01 1.277620067288089412e-01
1.377897612774458824e-01 -1.498806166421095820e-01 1.594556446378675441e-01 9.343163483127622237e-01 3.327255705970790234e-01 1.278540415722290158e-01
1.834302515500424169e-01 -1.408232951903193308e-01 1.204648025321534144e-01 9.330185742759667944e-01 3.369569808166607561e-01 1.262391901707349828e-01
2.129497010236659771e-01 -1.321942661821762233e-01 1.399780092371939455e-01 9.351274565038474318e-01 3.315832685461357898e-01 1.248566222228766481e-01
2.435577645071223263e-01 -2.106826049411780200e-01 1.190751848077782893e-01 9.400011235931243769e-01 3.177833215830387914e-01 1.241436593923132409e-01
2.765487199605340396e-01 -2.081611639688664417e-01 1.707521774780029478e-01 9.373935217813175180e-01 3.243545840371896416e-01 1.268364661147591554e-01
2.638799218978396532e-01 -2.057499729603382566e-01 1.635274181288516593e-01 9.391516084064938097e-01 3.175443573166968347e-01 1.309955631455575475e-01
2.303578864093137335e-01 -2.160993092354269729e-01 2.247368572511363460e-01 9.396440691325235184e-01 3.174985318740467521e-01 1.275292343029558739e-01
2.566633003209654595e-01 -2.837612194378243413e-01 1.513933362492417833e-01 9.404238521874327406e-01 3.170089501640834806e-01 1.229158401216675356e-01
2.421318263805598281e-01 -3.194583399412247449e-01 1.360244814614618714e-01 9.395240339205795932e-01 3.204770925250938207e-01 1.207850274341325247e-01
2.019385382052773237e-01 -3.608613841585222581e-01 1.120661753688548257e-01 9.391335421447061238e-01 3.217776499357904441e-01 1.203633416806682982e-01
3.035591347624740921e-01 -3.373529728933074567e-01 1.551008540728147089e-01 9.405187949199402819e-01 3.156271375081570185e-01 1.257135890456962668e-01
2.825753699665388696e-01 -3.077195799554249822e-01 1.614561312297856654e-01 9.419373147205863939e-01 3.115672418816932132e-01 1.252196027912764187e-01
3.228834849640579985e-01 -4.410605727337416626e-01 1.686614690138927564e-01 9.420553351522175101e-01 3.106119168906336658e-01 1.266964190368813359e-01
3.102774542587575235e-01 -4.144731239654847466e-01 1.753526266935736821e-01 9.405829818616457949e-01 3.139031805771941297e-01 1.294930401827694422e-01
3.005764752949412477e-01 -5.595556099620959678e-01 1.483868141834644994e-01 9.419645535592333641e-01 3.085597317627459257e-01 1.322636449386473123e-01
3.961632270087579455e-01 -4.389658688247947693e-01 1.300707249444255642e-01 9.416323070029528619e-01 3.090069994398880193e-01 1.335787135192353092e-01
3.404101509350536126e-01 -5.061593791206284720e-01 1.025076428367523995e-01 9.418497739826890980e-01 3.091417962183009016e-01 1.317207389885135249e-01
3.659077545285885913e-01 -5.935537313439084306e-01 2.167185409326593259e-01 9.434933212251329637e-01 3.049667770171888281e-01 1.296750466331763607e-01
3.760038631411076193e-01 -6.682850275955128927e-01 1.855215168389628133e-01 9.448106992507706581e-01 3.007850718442617310e-01 1.298502334880919373e-01
3.012232327164681700e-01 -5.905863681712831825e-01 1.903438772611012464e-01 9.468069827733431865e-01 2.906298156773735597e-01 1.381696334618212896e-01
2.958697668632955247e-01 -5.993480461637952228e-01 1.294051216498746104e-01 9.466781362442784342e-01 2.911455170258550607e-01 1.379666418842141196e-01
-2.856081215135753415e-01 3.414381416096868294e-01 3.366001254861897274e-01 4.020404473043096005e-01 7.959920956093468059e-01 4.525042126420381616e-01
-6.348130020333163648e-01 2.931031505344851018e-01 3.406782774948818870e-01 -8.406998242907565144e-01 6.631819953567774650e-02 5.374250662630439823e-01
-2.970944542426063872e-01 2.529606344384071059e-01 2.921234639428643698e-01 3.952979957303754954e-01 8.007808948300895180e-01 4.499882810103713604e-01
-6.132741263383651997e-01 4.981651397950344062e-01 2.970207397038114316e-01 3.283030231271467092e-01 8.143426792038921391e-01 4.786053967859149605e-01
-3.177633350093775344e-01 4.925663206126113525e-01 -8.856314178944285631e-02 3.604111074676241699e-01 8.346808565312284767e-01 4.164273062063236774e-01
-6.270902918602921927e-02 4.473965738326543540e-01 -1.910602972063318861e-02 4.410214931561099588e-02 5.722888295453129048e-01 8.188653711101717692e-01
-1.353257979032217451e-01 5.042872211882343247e-01 -5.844610508408708271e-02 -2.009599744341327432e-01 5.094215923291615100e-01 8.367226123060463872e-01
-8.745304063211264967e-03 5.315603775462396374e-01 1.830909680635009473e-02 -2.008826818976890416e-01 4.964906751569829746e-01 8.444780385514800702e-01
-1.125257802834879473e-01 4.824605918740412225e-01 -1.058672274620771070e-01 -2.177484779688456940e-01 4.889288508373159092e-01 8.447095235411714587e-01
-3.456957896469617930e-01 4.655996809817404269e-01 -8.962579905801354441e-02 3.568423019159798204e-01 8.410934005126601276e-01 4.064793514772362393e-01
-9.035070740636151621e-02 5.539967439789761361e-01 -9.956171270172549381e-02 -1.921240175865931155e-01 5.044415245514839441e-01 8.417999228881891671e-01
-1.451917513043270991e-01 5.578517713105094478e-01 -8.092331746082817578e-02 -1.960853388394713237e-01 5.114445487351042541e-01 8.366450940879024412e-01
-1.649892444779665901e-02 4.759284141098565901e-01 -8.477398622415008300e-02 -2.021668322004544216e-01 5.105008236603471028e-01 8.357735823775124251e-01
-5.868157657494467161e-01 5.214239363182402442e-01 6.860568876215512868e-02 3.954956726781249099e-01 8.243777919861504655e-01 4.049499092146050527e-01
-4.851696303685566480e-01 4.296909037761850181e-01 6.501064025542135916e-02 3.848067054159912681e-01 8.311435370440996007e-01 4.014028155067103643e-01
-4.762670396899157943e-01 4.890579384992058687e-01 1.029588572265162233e-01 3.878399956361660017e-01 8.301542173049107909e-01 4.005297907469677621e-01
-5.169856125654708201e-01 4.698666415649361272e-01 1.191920697138199869e-01 3.938012332362425538e-01 8.254485574559069505e-01 4.044196677902506254e-01
-4.716109142510192531e-01 5.362102983629422059e-01 -9.448094781174767864e-03 3.965253062430867947e-01 8.239346343889368818e-01 4.048449082836477197e-01
-4.848452011198701728e-01 4.958723117335474551e-01 6.658951067377227861e-02 3.923247665750414503e-01 8.242739923283356474e-01 4.082323641052311158e-01
-3.607311463408490737e-01 4.412265912509434340e-01 3.745925470543338964e-02 3.844074879177739046e-01 8.188440124593927560e-01 4.262925832009614169e-01
-3.831031638607168555e-01 4.673743224851470424e-01 4.486326148842340045e-03 3.809644225670954509e-01 8.172642269642601542e-01 4.323717058997150753e-01
-3.192994149971137841e-01 4.293473091998192825e-01 6.100487338619704769e-02 3.771345160615500736e-01 8.152607230944761696e-01 4.394536496315536445e-01
-3.260606879723786378e-01 4.309332429977774104e-01 6.108447502906434734e-03 3.804465220956427807e-01 8.142843317624515187e-01 4.384078818537677225e-01
-3.564371372474988697e-01 3.705114821526844238e-01 9.938875399231220098e-02 3.818890101031015560e-01 8.142549967516250486e-01 4.372065692867437847e-01
-2.769042555456128207e-01 4.057480370110151391e-01 1.059027724448387275e-02 3.855843866995644076e-01 8.113908914769489833e-01 4.392829406678147586e-01
-5.667283671752174623e-01 4.515818589494340896e-01 2.393974989393063413e-01 3.817046174753351839e-01 8.117729679542353693e-01 4.419572756463909236e-01
-6.142371974003524304e-01 4.117919380993077527e-01 2.346819152585252755e-01 3.863720086953096322e-01 8.117405254079187449e-01 4.379429075886804301e-01
-5.253108764824191423e-01 4.131821769026300939e-01 2.070486501729297824e-01 3.847130498593890335e-01 8.153755403736945295e-01 4.326183045459272014e-01
-2.128969799462774037e-01 4.433511697412527153e-01 1.109899567511044155e-01 3.898087572314625215e-01 8.088114197266887961e-01 4.403103679285337302e-01
-2.471516999509293377e-01 4.078768572657404112e-01 3.277904080553908917e-03 3.891089706206219967e-01 8.090260223211156454e-01 4.405350203897913652e-01
-2.465062672926632281e-01 3.673695121946040643e-01 6.055373326359977243e-02 3.888761897297177694e-01 8.097537043776176224e-01 4.394021475914999253e-01
-2.469824077813908836e-01 3.417372932319302503e-01 1.023865904750822925e-01 3.874020914669242255e-01 8.113401099489175872e-01 4.377748799498790699e-01
-1.841835483350939273e-01 3.434054736754902359e-01 7.049967808503863897e-02 3.874806948873290025e-01 8.112773551138426908e-01 4.378216122681938827e-01
-5.595738617116744473e-01 4.774013736823947140e-01 2.558691125359932039e-01 3.884236010107527393e-01 8.129324274476589229e-01 4.338985763768949955e-01
-1.923080861623654991e-01 3.019305663242993765e-01 1.665923065027087591e-02 3.846368589403942329e-01 8.113844668766085899e-01 4.401246796713735310e-01
-1.668381320488976083e-01 3.712755730312611857e-01 3.252914327025559910e-02 3.837177250872287892e-01 8.113368934412179545e-01 4.410137784639338587e-01
-6.322808165654977275e-01 3.889371771366937902e-01 2.653253786135125747e-01 -7.687586642699307804e-01 3.204931296364899596e-01 5.534385873479730211e-01
-1.605967399277560270e-01 3.194761018487258242e-01 6.090124277443856315e-02 3.851422566889567967e-01 8.107329910736401635e-01 4.408825912840362848e-01
-7.456835354741798705e-01 3.502238899005492567e-01 3.501604637021510369e-02 -8.371721926271821212e-01 6.731522333541400949e-02 5.427811535039696045e-01
-7.920883803684293234e-01 2.580998672476490507e-01 7.144061516315527993e-02 -8.350209148431089190e-01 6.932569847373455663e-02 5.458333255726570687e-01
-1.062002603804485107e-01 3.386903354126832300e-01 3.278331822367276660e-02 3.889287706994102312e-01 8.028783553561307240e-01 4.517972530050182733e-01
-4.288780033135096426e-02 2.938405970503758513e-01 6.909124018028511838e-02 3.950644606181675234e-01 8.039061317497879777e-01 4.445885775540900364e-01
-5.602191270713325483e-02 3.304122553267808127e-01 1.319956444031300524e-02 3.948212791551535261e-01 8.041213470937556007e-01 4.444153650296218672e-01
-1.091687402979110016e-01 2.736772180701500523e-01 -9.524772298690670214e-03 3.905385558010820435e-01 8.078756448327198969e-01 4.413803109778710598e-01
-8.647179170164954742e-01 3.484179047371556148e-01 6.180455567429746222e-02 -8.340299950695481135e-01 7.009833239194281085e-02 5.472478333626898950e-01
-6.357141354978106118e-03 2.709953719606621458e-01 8.742366079631073983e-02 3.885348696323112638e-01 8.073156042669572541e-01 4.441645755650495686e-01
1.230512738231406139e-02 2.343832326296724500e-01 5.185103700829745560e-02 3.880949667075076492e-01 8.074757300338988308e-01 4.442580806496610468e-01
-3.269094993728835497e-02 2.687595800934581280e-01 1.109258883836520826e-01 2.972108911485398797e-01 7.817703746578167356e-01 5.481795029824335641e-01
4.186313224977306069e-02 3.001743471762169935e-01 2.805292554176485459e-02 3.523048337650716011e-01 6.755875961876625091e-01 6.476594043037907644e-01
-8.273813443887243491e-01 2.780465207258402960e-01 1.056705233673019273e-02 -8.333889054112523231e-01 6.984408467707871326e-02 5.482560863073531188e-01
4.462129118998767185e-02 2.236799788898895525e-01 8.255860187790543814e-02 1.931524736469336367e-01 6.956656156420361059e-01 6.919114633661286318e-01
2.485639488192450952e-02 3.067026550009989139e-01 3.225695414732919486e-02 2.940317176984229564e-01 6.844791651665121934e-01 6.671084030652509878e-01
-8.220714424793554853e-01 2.220826718820820278e-01 8.279757137833924918e-02 -8.340057788031117747e-01 6.972410794316043214e-02 5.473325403212798701e-01
6.111876196941840034e-04 1.987850247019933292e-01 3.783796687246335222e-03 4.973270435412850965e-01 6.753902226529043817e-01 5.445308612992885156e-01
-1.597014383871997456e-04 1.745241629780783787e-01 5.638166806348678117e-02 5.711443627123521383e-01 7.065929913679095398e-01 4.177564619388314249e-01
-8.653107903642313081e-01 1.874205826483289206e-01 6.854121914887328915e-02 -8.348812849373815625e-01 6.467755183096920990e-02 5.466169173657716707e-01
-8.706960432432947483e-01 1.930277749697543732e-01 4.736013880389443320e-02 -8.383005385534307852e-01 6.199007583604942972e-02 5.416728141220201742e-01
8.240078844681010539e-02 2.009526478600704991e-01 5.155586393624714964e-02 5.518511213738621635e-01 5.583592302778983552e-01 6.194314407598985328e-01
-8.616939705885172662e-01 1.659156849420352353e-01 1.195172398328894353e-01 -8.388497315179253011e-01 5.092999783148170756e-02 5.419753345431783664e-01
1.653068229329633376e-01 1.465149464943095170e-01 1.572578837115148898e-02 5.239862293484049971e-01 3.254644901883402275e-02 8.511046704780236283e-01
-7.672778972621908666e-01 2.071842451470079782e-01 5.812454701059911744e-02 -8.387202928463320939e-01 5.197003760920787530e-02 5.420769184891205406e-01
9.229126753535918382e-02 1.330567873280327773e-01 5.048258093868011886e-02 5.468738482965065373e-01 -2.889462253338671016e-01 7.857729143427379936e-01
-8.424791021011728276e-01 8.961894366098706322e-02 9.932075398175718717e-02 -8.385861817709989730e-01 5.910395377827867835e-02 5.415532645922395139e-01
1.102889901292705838e-01 1.619145023916244985e-01 -2.546787951794041160e-02 7.399106795401553249e-01 -2.042575711358412260e-01 6.409454196233189682e-01
1.365367696265942232e-01 1.372589225791910339e-01 6.676607763495860659e-02 4.950401173708369185e-01 -4.219005923166508909e-01 7.595624874862680898e-01
-8.748020401716353200e-01 1.972957254078736844e-01 2.109310260013037841e-02 -8.368033494683700946e-01 8.455504415857124922e-02 5.409349303066488535e-01
4.100944651972493471e-02 1.469726158859942788e-01 8.590016881498538370e-02 8.263181005360569209e-01 -4.540984677263413399e-02 5.613700584663995352e-01
1.597286153104607587e-01 1.383637884511169924e-01 4.349791662014016597e-02 9.439308049217035590e-01 2.645185955269768185e-01 1.975463189743122960e-01
-7.924889152494720701e-01 1.037782964284567483e-01 5.211338281886343515e-02 -8.348598175091239693e-01 7.455610301795130568e-02 5.453902021593426408e-01
1.094137760098140427e-01 1.402555429403631315e-01 2.481183532653060547e-02 9.533609676252883247e-01 2.500548019862666171e-01 1.690427798286076588e-01
-8.650175841849325753e-01 8.154825160618420221e-02 4.092684388294228620e-02 -8.351156348060612133e-01 6.731036607617080225e-02 5.459406479839739035e-01
1.063646044148677805e-01 6.808819942595253916e-02 1.776225784762928972e-01 9.407686640656893751e-01 2.976981944042618178e-01 1.622655408905425145e-01
1.643033485009169903e-01 5.014603274971750346e-02 3.243991170089435827e-02 9.442857146167631388e-01 3.010032708873156548e-01 1.331221998234934367e-01
7.807877821564024323e-02 1.402734459803252065e-01 6.947974910960610928e-02 9.338111777141003822e-01 3.374037872583064424e-01 1.189763368067636995e-01
1.370322212550189322e-01 1.168437116198304052e-02 4.462155707387953363e-02 9.373647009559645804e-01 3.247802969796491634e-01 1.259570406747716476e-01
-5.714165324515976252e-01 3.427909092790079604e-01 3.101218511642807041e-01 3.936333523916381028e-01 8.094064579118445124e-01 4.357911997453847719e-01
1.512463483515766594e-01 -2.424018048230548034e-02 2.059514609605164748e-02 9.390085608361914415e-01 3.185159545122843161e-01 1.296553485108610237e-01
1.066923624209398236e-01 -7.163745479097977098e-02 2.884123899513966680e-02 9.395993178241649479e-01 3.149114051987315088e-01 1.341041715239480181e-01
2.648885425331415910e-01 -4.626281188960245511e-02 5.874214414578284027e-02 9.398683952789792517e-01 3.139696611911644286e-01 1.344263791345361170e-01
1.904410430050083036e-01 -4.434952124948597640e-02 9.718406825399414362e-02 9.393969292470520926e-01 3.169990940997981510e-01 1.305564386045988956e-01
2.420738267615853978e-01 -8.561148458569550757e-02 3.672270194994502190e-02 9.376868922358856384e-01 3.225564609754572043e-01 1.292308848998369730e-01
2.144909212642994722e-01 -1.900561996530888420e-01 7.767628612449953285e-02 9.380256446957173644e-01 3.235070047559999162e-01 1.243024849590123326e-01
2.296054220743710128e-01 -1.362030867949746427e-01 8.731462654059754525e-02 9.375611644581973714e-01 3.255670749673558184e-01 1.224138170182971774e-01
2.538239010850289468e-01 -2.280152935312828588e-01 1.164436976670467083e-01 9.390737279537592075e-01 3.218741371621036684e-01 1.205718594580851150e-01
2.712966271502267879e-01 -1.787583032523791249e-01 7.796185403087550758e-02 9.373293176358629131e-01 3.274755411727420795e-01 1.190525944022525623e-01
2.822215697621938690e-01 -2.160097072147333930e-01 1.434779097169134460e-02 9.402739672645525904e-01 3.204864192088624497e-01 1.147750913188936295e-01
2.001427908972955860e-01 -2.447681879083523082e-01 4.793772514999790346e-02 9.402516536941227798e-01 3.200318921687191343e-01 1.162171059714387916e-01
2.057380873674166111e-01 -2.485853979394019309e-01 1.415691907284435391e-01 9.406699218376597393e-01 3.183875398903586729e-01 1.173433960327396886e-01
2.145623652338818355e-01 -2.806305390657705678e-01 5.623477027702048631e-02 9.408600449559632040e-01 3.158792111384265966e-01 1.224855084327450966e-01
3.024737496986765195e-01 -3.093454077902089705e-01 6.952381784693478783e-02 9.395112476562405002e-01 3.193847752775607063e-01 1.237415890002882685e-01
2.138621571169299629e-01 -2.373925085090941023e-01 7.923994847311635614e-02 9.395566523702209016e-01 3.192440631344112267e-01 1.237599496618180667e-01
2.776073398612718401e-01 -3.497184990622497214e-01 5.889434242710171047e-02 9.393420086039022676e-01 3.194363391058344659e-01 1.248880143594603698e-01
3.525651565351480832e-01 -3.225858302918400700e-01 2.781626397026479292e-02 9.388716903392528845e-01 3.210709990034856243e-01 1.242310857974674443e-01
2.407039472040639894e-01 -3.760736713193365555e-01 6.549681497335946290e-02 9.391032761263379269e-01 3.209367989841343527e-01 1.228194114405228160e-01
2.926302581199062280e-01 -3.818358084499221539e-01 5.437415858923065615e-02 9.386961719693641681e-01 3.207789134742959902e-01 1.262948352083812509e-01
2.863944420832492121e-01 -4.274157068668318349e-01 6.573897020396390900e-02 9.403362865003462856e-01 3.165816827319427595e-01 1.246744017404952387e-01
3.281327616166949679e-01 -4.638864757890068802e-01 2.157280154585294873e-02 9.384291230918909710e-01 3.211667457278710169e-01 1.272898360889561931e-01
3.107509627219740000e-01 -4.445837659749364845e-01 1.164767704152006311e-01 9.383495093810317877e-01 3.221787498249329418e-01 1.253038363563553359e-01
3.678915512994153092e-01 -4.331951669525480053e-01 1.004352072108942590e-01 9.442103593416875107e-01 3.067195422829565588e-01 1.199579913702089468e-01
3.061891683069160042e-01 -4.850983162817446570e-01 8.637304721343160019e-02 9.434307977338906026e-01 3.082977870425804845e-01 1.220278836653437698e-01
3.460788015288148722e-01 -5.251307149351126524e-01 1.987384239086420479e-02 9.415468465959644373e-01 3.123862739050532467e-01 1.261124559308564874e-01
3.007589543922191688e-01 -5.468911133085651022e-01 4.593543056561925908e-02 9.412082527876625138e-01 3.110885306816084661e-01 1.317230084789806910e-01
3.444373506187707323e-01 -5.412722433533955213e-01 3.595176446818105359e-02 9.412805271189991219e-01 3.098520105057632201e-01 1.340995930348622689e-01
3.617327012100772787e-01 -5.353431102135340902e-01 7.488090649114313713e-03 9.428008041890889590e-01 3.048390504627669362e-01 1.349066230152018153e-01
3.579564176910577378e-01 -6.343303972815473868e-01 4.291966220690994482e-02 9.427799797620574074e-01 3.049049531800228086e-01 1.349032219264713617e-01
3.586302668943558980e-01 -5.703273396721156852e-01 1.221672199333130593e-02 9.434463119324612013e-01 3.049439108014712629e-01 1.300702416625009739e-01
3.770662403895111425e-01 -5.343574127326025103e-01 4.598083612293842048e-02 9.437114343417916107e-01 3.045170408267580120e-01 1.291437204771217762e-01
2.889647712658083289e-01 -6.096276582535899990e-01 3.560775127969632858e-02 9.436688731455767920e-01 3.036500843923458648e-01 1.314750322482499401e-01
-5.985937849467191096e-01 2.953743766921055336e-01 3.200528019876909824e-01 -8.397950687462591990e-01 6.947577597261592186e-02 5.384397450620345138e-01
-3.999244470791638584e-01 2.234371668197489003e-01 3.258150583403633949e-01 3.975910807178992257e-01 8.001653109047406343e-01 4.490621424238439019e-01
-1.421592140442468899e-01 -7.399915823530359149e-02 1.722809134568546174e-01 -1.859123074898726968e-01 4.732453944152158476e-01 8.610896646625006978e-01
-6.776612943766284480e-02 -5.824006506352638612e-02 2.278075933500404160e-01 -1.851132090023903942e-01 4.738586947538838690e-01 8.609245247168785253e-01
-4.659548296860538397e-02 -1.645734818787005643e-02 1.680228135728561445e-01 -1.811855070086731134e-01 4.722284774297357823e-01 8.626540889339154861e-01
-1.319163142360369745e-01 -4.794238925471174667e-02 1.616153529520318599e-01 -1.792551608921994222e-01 4.727064410440479092e-01 8.627955771148699826e-01
4.231210693915555821e-01 -6.020378445419490854e-01 -8.068964741269456925e-03 9.465571939121019129e-01 2.919444936456085937e-01 1.371054020936316176e-01
4.386645470760754395e-01 -7.104666931927471341e-01 3.885798139663915185e-02 9.446321362011138589e-01 2.986948568023907735e-01 1.358363345203321970e-01
3.534964608666705255e-01 -6.455317069215924519e-01 6.810145236612465125e-02 9.440031515400965079e-01 3.008435801233294571e-01 1.354665648082342966e-01
3.912077916326506810e-01 -5.691387914975595264e-01 -2.483476198988641970e-02 9.420631094372554637e-01 3.047049562644160159e-01 1.402568624535354969e-01
-4.167343000517241824e-01 5.591694425591082762e-01 3.991150486697563060e-02 3.734334991639887136e-01 8.334697250624283349e-01 4.072783312508774234e-01
-3.440924884949216334e-01 4.784914520663937632e-01 -2.335795255015793784e-02 3.631673972054105803e-01 8.354053361924362875e-01 4.125619539757028886e-01
-3.646250995610955670e-01 4.765703476573809327e-01 2.231246833727730181e-03 3.597093707092214876e-01 8.327318308257211088e-01 4.209119463184888277e-01
-4.498916610473883138e-01 4.560723507090060358e-01 -3.309491832746601359e-02 3.626825536698860541e-01 8.299041328263988548e-01 4.239345416230590469e-01
-3.585746169609522749e-01 5.017852971035243748e-01 -2.755046766012593518e-02 3.738753615435770894e-01 8.193929451682975262e-01 4.345255060857567408e-01
-3.321704486499574283e-01 4.248638814205293324e-01 -6.926790641034520635e-02 3.772255718248069267e-01 8.184374977535785467e-01 4.334292678538319010e-01
-2.850027944538552349e-01 3.221335924859941580e-01 -4.431500393962441164e-02 3.866352708857347387e-01 8.152121051207897873e-01 4.312103790166061379e-01
-3.128991580778964776e-01 3.931145175737915110e-01 -1.076268702557484948e-02 3.845044844072041390e-01 8.158292266106516033e-01 4.319478839844180795e-01
-2.905296391240159704e-01 3.852569071945213253e-01 2.124110645493970662e-02 3.857887918003785610e-01 8.087691243676665698e-01 4.439138560472764561e-01
-1.780529888890651224e-01 4.015318246051310380e-01 -5.950689707354273050e-02 3.753723183328347979e-01 8.153403316152569857e-01 4.408126203626162587e-01
-2.028283214414790259e-01 4.101583565487144645e-01 -8.370009467983503815e-02 3.764352992952298971e-01 8.121031693704086063e-01 4.458530113647858895e-01
-1.940768280917151700e-01 4.221864934482243981e-01 -1.549539183826622799e-02 3.871938207742911531e-01 8.063739764345445593e-01 4.470368612131965236e-01
-1.097627054731689644e-01 4.511394482978685616e-01 5.345040105993051349e-02 3.828456143768748654e-01 8.132789454244856442e-01 4.381855685455988692e-01
-1.370576528481420309e-01 3.928494956788457504e-01 5.050364459427834213e-02 3.886963235509320325e-01 8.116342873346152897e-01 4.360790658594150271e-01
-1.747101137445369184e-02 3.804750543690050280e-01 -4.493410002492587499e-03 5.402466100732433024e-02 7.324985084143693648e-01 6.786215964539942247e-01
-4.363642003235423256e-02 3.723644188023694790e-01 -5.016414976242147133e-02 -1.802080726067206706e-01 4.907079613383064642e-01 8.524850422421346163e-01
-1.519065219258428634e-01 3.611710452342501432e-01 1.078278376621383781e-02 3.746537785596211201e-01 7.730153685567463517e-01 5.119392407171734494e-01
2.043158276134318663e-02 3.319446254391907325e-01 -4.110407426422706817e-02 -8.559128254733520957e-02 6.748016747686257366e-01 7.330189848028223487e-01
-4.656961245281268647e-02 3.901770763306819934e-01 -6.826464015798539009e-02 -1.494808485883195315e-01 5.750348019877595807e-01 8.043571671889385710e-01
-9.637220308726254792e-02 3.213047184502150766e-01 6.162998914196811395e-03 -1.750348017935502154e-01 4.985291731049081299e-01 8.490179513558173685e-01
4.749819297138100499e-02 3.703770078723271908e-01 -2.849099002817143123e-03 -1.512813093934782527e-01 5.144396787513345615e-01 8.440768817793901091e-01
3.592254275926471535e-02 3.335801837145387916e-01 3.129673084072024866e-03 1.645268086907996918e-01 4.700440217258264886e-01 8.671733084348431930e-01
9.326334033637115328e-02 3.635041594197109260e-01 7.907148743263688051e-02 3.511391569460450834e-01 6.067027313348363204e-01 7.131711493393926293e-01
1.856012058719115967e-02 2.936002517267997658e-01 -2.919119431127099873e-02 6.541340953877107234e-01 6.100748601181008590e-01 4.471210689546858963e-01
3.525796615014641089e-02 2.937891897666667917e-01 3.234931241481915631e-02 8.743196301230397038e-01 3.046220883090700604e-01 3.778499274787971429e-01
5.220171692178524753e-02 2.658497002328322201e-01 -1.514021748751235782e-02 8.697629149509978896e-01 4.479199437825859831e-01 2.070753383137366455e-01
5.882618587620024736e-02 2.110679986297512023e-01 -4.251151981471752717e-02 4.888119988477682698e-01 8.029989054379841340e-01 3.409627364505522507e-01
1.050401708769317100e-01 2.513761936740478986e-01 7.342173352560972532e-02 3.726971339654781001e-01 8.167288776273742279e-01 4.405119598642562306e-01
1.051326715299121528e-01 1.852683907987346112e-01 -3.404245814022120037e-02 4.036467358341137568e-01 8.018341802339405966e-01 4.406032910215603726e-01
-5.599855332254427553e-01 3.496564439332211505e-01 2.427096381260863689e-01 3.917526721218809738e-01 8.117529037092250377e-01 4.331132267721775064e-01
-4.770502190688535316e-01 3.837144751444170887e-01 2.401710432782530880e-01 3.922583819113459325e-01 8.115456791955252269e-01 4.330438458162939042e-01
2.105883014966706268e-01 2.163325755719757992e-01 -7.763132290905190580e-02 4.219295715225321874e-01 7.678789332786730704e-01 4.820138799885533287e-01
1.434752652679368023e-01 1.990492342836467921e-01 -6.635855908324986285e-02 4.394836882217793561e-01 7.326464846989787505e-01 5.196953109709677721e-01
-8.692218122371710987e-01 1.733216465572628984e-01 8.273137165423473383e-03 -8.389928229573826446e-01 4.645166357628353893e-02 5.421561453834105038e-01
-9.123015436945471901e-01 2.010825569208723462e-01 6.996357781459038028e-03 -8.341600227061027883e-01 6.012887399089198587e-02 5.482349633428548197e-01
2.033211003925032012e-01 7.818076641720153597e-02 4.577012639207229949e-02 5.247727001989866968e-01 2.095739295769444288e-01 8.250408360605809843e-01
-9.299268670727519615e-01 1.894160693136917317e-01 -4.299107440591565937e-02 -8.301564815166859734e-01 9.421095922408631584e-02 5.495129765145804202e-01
1.855374145837372923e-01 1.554101307766156403e-01 -4.364172848780294156e-02 4.532731691529031659e-01 -5.015237976582156421e-01 7.368970854254784930e-01
2.762386963572914245e-01 1.366852758399720591e-01 -5.193508085113396691e-03 4.191058165945867331e-01 -5.381103154229145424e-01 7.312917358565158565e-01
-4.654185936195491813e-01 4.470518054189880908e-01 2.310354895016108467e-01 3.949721975625772319e-01 8.090091878288158123e-01 4.353172373811406426e-01
1.902865742634414215e-01 1.238491027446626258e-01 -2.806314170438247574e-02 4.081673090653768488e-01 -5.640998017427282241e-01 7.177679718990976898e-01
2.098060572788679190e-01 1.081651121771220470e-01 3.598828893533923684e-02 4.046649190424446707e-01 -5.898194612721369134e-01 6.988270933507215732e-01
1.402245900265066958e-01 1.025158137565770206e-01 1.726077808450443216e-02 4.508596464698066408e-01 -5.665452961521101338e-01 6.897477847684897467e-01
-4.886079774094972406e-01 4.441701451455372096e-01 3.235093180703748628e-01 3.983262468372549270e-01 8.082056883741749465e-01 4.337508113654338637e-01
-4.870059710203872294e-01 3.799417626170787932e-01 2.884202571189581343e-01 4.005433719435171347e-01 8.093933732433269412e-01 4.294733688389837933e-01
1.294059896532663012e-01 1.015661628653076465e-01 1.129814477195543662e-02 9.354863420558148235e-01 -2.632778938588670181e-01 -2.356905904618812331e-01
1.526866124599422503e-01 1.037163122705635626e-01 8.239556841835176532e-03 9.313347815012443798e-01 2.774115271501998436e-01 2.359202606183360418e-01
1.510143363707490971e-01 -8.761196317078237539e-03 -5.543122797239397048e-04 9.516562323317012684e-01 2.718093491765758429e-01 1.430737333141113288e-01
1.231906740794129762e-01 -3.629845316756150075e-02 -1.075154126245343733e-01 9.461795235648369218e-01 2.984815992333093027e-01 1.251121261338971613e-01
2.005774105265533402e-01 -4.670735245939260094e-02 2.663093004241328526e-02 9.418070847972479509e-01 3.168370859659249139e-01 1.123106227492774167e-01
2.107125978711471559e-01 2.653454204769345459e-02 -5.486546776303288103e-02 9.384643603744412532e-01 3.313326650246252170e-01 9.748491880629699124e-02
1.919620130254770241e-01 -7.837019568468589492e-02 -5.177204613168200076e-02 9.379859929347040826e-01 3.296384758436711193e-01 1.073347674416751940e-01
1.930779181451317272e-01 -1.235472155413938483e-01 7.287487708669110331e-02 9.395192719871502396e-01 3.241780313107692213e-01 1.105085588550015624e-01
2.119015058714218136e-01 -1.936451724371709981e-02 5.249333923988395295e-02 9.389561119320936067e-01 3.186629740583578618e-01 1.296739327299351596e-01
