-4.630207795738903176e-01 -4.103975508506118031e-01 3.680157072525013229e-01 -8.913532511726276475e-01 -4.298547284739786534e-01 -1.439246123237733488e-01
-4.859251495334480087e-01 -3.646861109363117026e-01 4.307425819527572752e-01 -8.913532511726276475e-01 -4.298547284739786534e-01 -1.439246123237733488e-01
-4.666416932052933064e-01 -3.758659123756767917e-01 3.356312238000706549e-01 -8.884264823039070835e-01 -4.408592422946326361e-01 -1.278339314286618122e-01
-4.447748640313233803e-01 -3.374068096029524400e-01 3.643118537438354010e-01 -8.656267008416402842e-01 -5.006854310847790313e-01 -2.124591599881256974e-03
-4.696969323287059628e-01 -3.473911749742741306e-01 3.121524083036814057e-01 -8.788486784531199802e-01 -4.561966448288992670e-01 -1.396768471438980808e-01
5.847594045337417556e-01 -3.880859709298064564e-01 4.079602642720593919e-01 8.879043009775330342e-01 1.232642757978668208e-01 4.432063521855547639e-01
5.067977701666895873e-01 -4.230807813246402760e-01 3.690789243377390338e-01 8.879043009775330342e-01 1.232642757978668208e-01 4.432063521855547639e-01
4.350576737038583941e-01 -4.061450123134403567e-01 3.771597172499525641e-01 8.584284580231530404e-01 -4.981771214023009674e-03 5.129091190567419689e-01
5.794464889879892278e-01 -3.286066205289485120e-01 4.185979493868267620e-01 8.812089643615989010e-01 1.315009574907052281e-01 4.540685623425012030e-01
5.575206095343135937e-01 -3.155277309587418699e-01 4.918380804406959350e-01 8.697794234555379367e-01 1.622875063565838716e-01 4.659898280154984862e-01
4.795183018170120492e-01 -2.674043587569971403e-01 3.333376287197354904e-01 8.516145720988576029e-01 3.370441214567965887e-02 5.230837726318740000e-01
5.598105649333766642e-01 -3.027096547348755440e-01 4.594005823122708776e-01 8.675214491925870020e-01 1.222962669435332175e-02 4.972494056524454087e-01
-5.969100133663802765e-01 -3.220577125176173894e-01 3.814083538431355391e-01 -8.989455822417866671e-01 -4.338263258364956632e-01 -6.075820256707634148e-02
-6.748166126263434039e-01 -3.860783231201992405e-01 4.803907969703773428e-01 -8.931105545911359744e-01 -4.277833058891339357e-01 -1.391221782480322744e-01
-5.656653855301735367e-01 -1.886278507167013230e-01 3.147811438713026266e-01 -8.960568873639114251e-01 -4.331064809041119679e-01 -9.747220530261359317e-02
-5.752355683276403342e-01 -2.757448384945962450e-01 4.374647272422239608e-01 -8.960568873639114251e-01 -4.331064809041119679e-01 -9.747220530261359317e-02
-6.180607020394278672e-01 -1.904813518774092218e-01 4.165368300660020617e-01 -8.790050944854763681e-01 -4.649753055238575183e-01 -1.055841329062942729e-01
-6.548171339811935665e-01 -1.929376326117574481e-01 2.948308444165521069e-01 -8.944658289309173060e-01 -4.354763868980749408e-01 1.014455387344609938e-01
-6.301164049191332328e-01 -1.819689197007068326e-01 2.917091919885892448e-01 -8.802916057584947440e-01 -4.716140989118663973e-01 -5.164136460899289294e-02
-6.728561557425867257e-01 -2.261161114329877653e-01 3.620249285479059664e-01 -8.802916057584947440e-01 -4.716140989118663973e-01 -5.164136460899289294e-02
-6.385871607707697128e-01 -2.536929423735611588e-01 2.966415818995934428e-01 -9.083614742857258895e-01 -4.175271052080055667e-01 2.346376888066942917e-02
-6.330491516349202596e-01 -3.155807103135156999e-01 3.217730932799983123e-01 -9.083614742857258895e-01 -4.175271052080055667e-01 2.346376888066942917e-02
-6.271623347311108265e-01 -4.009440531246326045e-01 3.480209800603052406e-01 -8.862898172356122872e-01 -4.453430465610672684e-01 -1.271217162571844916e-01
-5.601468103421279876e-01 -3.075990094166155542e-01 3.428633581308309086e-01 -8.936229424004730193e-01 -4.476034748137887598e-01 -3.300251733039307606e-02
-4.260348413918692567e-01 -4.486496828345790666e-01 3.137101701891668037e-01 -8.841226009583974532e-01 -4.672040466112263868e-01 -6.899659749097258009e-03
-5.543037796498837544e-01 -2.450239842563804171e-01 4.367618895135423895e-01 -8.712402020934779667e-01 -4.899234827506833700e-01 -3.025708686500720029e-02
-5.246888407829134460e-01 -2.074915419260949800e-01 3.171189897209453212e-01 -8.769474033319482054e-01 -4.764644890923221410e-01 -6.280798057051027727e-02
-6.198441087139555661e-01 -4.004821643050309188e-01 4.127334999324628328e-01 -8.919180838699420910e-01 -4.341411392118406654e-01 -1.265053473558170050e-01
5.684207734514283850e-01 -2.052656047586986776e-01 3.628019967492451814e-01 7.223365737915741214e-01 -5.328308355256105022e-01 4.408187551320040809e-01
5.325203757359473489e-01 -2.737713679615186302e-01 3.795984190538002068e-01 8.065072630940964826e-01 -2.499911241303327536e-01 5.357709141345042836e-01
5.850227143060936497e-01 -2.117341450184716811e-01 3.874603953307350634e-01 8.451664114906753955e-01 -3.088062000050225686e-01 4.362710943054012858e-01
4.173228738223549450e-01 -2.165193323851279938e-01 4.193632709854818175e-01 6.154980740643561932e-01 -5.791463099029537931e-01 5.345574548623001077e-01
5.826735444451809354e-01 -2.284913271170630478e-01 2.917592353553208895e-01 7.209577311388075671e-01 -4.912347957510861951e-01 4.887824928887811171e-01
5.462600275268946204e-01 -2.263392461131630840e-01 3.752186308603365772e-01 8.184760328348218428e-01 -1.317602183115174630e-01 5.592282436943549762e-01
5.338183009058773409e-01 -2.889722693910065088e-01 3.535260127154061793e-01 8.353881546326588081e-01 -1.548330605574758656e-01 5.274024596623019256e-01
4.707526821253713578e-01 -9.594416386768170324e-02 2.761390245813780120e-01 7.626239160451627752e-01 -2.364124519489317344e-01 6.020912848060788747e-01
5.908971277854344617e-01 -1.809113543462460560e-01 3.340110417672634835e-01 7.583527103768401556e-01 -5.756155532781714879e-01 3.058887076836363517e-01
7.422686512224666577e-01 -1.552051270649009995e-01 2.672125572319294373e-01 -2.628666349323938167e-01 -5.098662617842535383e-01 -8.191077629551991590e-01
7.139933286468890250e-01 -2.484742751839540686e-01 3.563883254529848221e-01 -3.568314812572969119e-01 -6.009317313717112974e-01 -7.152288782021603009e-01
6.838005699121604275e-01 -1.375552303193494363e-01 4.921762610468845556e-01 -4.966096763888949717e-01 -6.381789888079862916e-01 -5.883080889813881997e-01
7.727970922329709946e-01 -2.109395037120974647e-01 3.480844152606600850e-01 -4.075887276282170735e-01 -3.708117643979604305e-01 -8.344879055411662527e-01
9.025848268230640681e-01 -1.037117465585595533e-01 3.633697427123013801e-01 -3.669596346649574015e-01 -4.139664821815487450e-01 -8.330500454095146612e-01
7.637122980021124885e-01 -1.903271836947304507e-01 3.622529544758260056e-01 -5.620138443963256236e-01 -4.915264954375899165e-01 -6.652384106391509011e-01
8.467166540036292766e-01 -3.091387337918192202e-01 3.625482955008993979e-01 -4.878008984614383148e-01 -5.301114681670455742e-01 -6.935647877293029673e-01
7.722300330795045520e-01 -2.384884450663604105e-01 4.140206814884678233e-01 -5.800751608229589573e-01 -4.069238356530197054e-01 -7.056385758826202448e-01
7.009846131735842922e-01 -2.479308701397554271e-01 3.033388223609621570e-01 -5.289668039446668857e-01 -3.413962669162513563e-01 -7.769444698691226892e-01
8.922786460980067780e-01 -2.831834371666595573e-01 2.698303019220323895e-01 -5.521668704869049371e-01 -2.440820956721092283e-01 -7.972049157581811984e-01
8.667063624564468327e-01 -1.052863078242063655e-01 2.068748903550502449e-01 -5.732567286514368421e-01 -1.690891715271820583e-01 -8.017390941747222222e-01
8.495058782551800913e-01 -3.220453181530337217e-01 3.901817770261846730e-01 -5.885378255845457041e-01 -2.908654632976644949e-01 -7.543344815907927492e-01
8.870682241032362692e-01 -2.005229161308257901e-01 3.826006319580892434e-01 6.375890907364556437e-01 7.619526478798039903e-01 -1.136147603210748425e-01
9.456009651626632317e-01 -1.816740662408384832e-01 2.447362560914501939e-01 5.315121679262128085e-01 8.447254494654922174e-01 -6.271945768020990852e-02
9.780198997740647826e-01 -2.851113073379675233e-01 2.418315430148844092e-01 5.315121679262128085e-01 8.447254494654922174e-01 -6.271945768020990852e-02
8.789968670960839336e-01 -1.754643349139059227e-01 2.850190845114136118e-01 6.198712353854831658e-01 7.786330044222964375e-01 -9.741815008499825346e-02
-5.914766509814207707e-01 -1.038731666663339215e-01 2.286461350275306170e-01 -9.188819375572422343e-01 -3.877275759788916254e-01 7.296102834103375401e-02
-5.397743166816940663e-01 -1.729601668473514375e-01 3.889690362849741456e-01 -9.031718485485261683e-01 -4.271434225611641100e-01 -4.276807865888770932e-02
-6.324198936087681577e-01 -1.208258508462933811e-01 3.928438521751310697e-01 -9.031718485485261683e-01 -4.271434225611641100e-01 -4.276807865888770932e-02
-7.256294699696063111e-01 -3.379445682168032150e-03 2.246351156897883339e-01 -9.112021150212290532e-01 -4.116611841330172217e-01 -1.567721464549572813e-02
-6.278289234091651849e-01 -8.938959656540770848e-02 2.266400944854206623e-01 -9.112021150212290532e-01 -4.116611841330172217e-01 -1.567721464549572813e-02
-6.414666084664377710e-01 -5.920600467686026880e-02 3.439643140987274639e-01 -8.984606360893476751e-01 -4.386362656872715982e-01 -1.914972119509712398e-02
-7.320510648180511559e-01 -1.046705447819932799e-01 3.344030548904319833e-01 -8.984606360893476751e-01 -4.386362656872715982e-01 -1.914972119509712398e-02
-7.134355667595889683e-01 -8.032513321115587746e-02 4.138543587470365215e-01 -8.790902861935163681e-01 -4.668430752493453739e-01 -9.621752341406164533e-02
-6.404495272050350074e-01 -8.978472315098841305e-02 3.434279775253026301e-01 -8.685923566164777121e-01 -4.801691617743626961e-01 -1.224128020606486816e-01
-5.912814483070223393e-01 -1.258473014068239512e-02 2.410076291027160034e-01 -8.835907205846528223e-01 -4.603277743261823818e-01 -8.582411479646821773e-02
-7.700292820299665664e-01 -8.882206052745358904e-02 3.252913528971856372e-01 -8.835907205846528223e-01 -4.603277743261823818e-01 -8.582411479646821773e-02
-6.571166391624119196e-01 -1.112200343424359084e-01 4.259016776959103634e-01 -8.848645686000129462e-01 -4.559621684203253311e-01 -9.546306199650078650e-02
-6.481714882841984604e-01 -2.786517785973739031e-02 4.697861242241646584e-01 -8.848645686000129462e-01 -4.559621684203253311e-01 -9.546306199650078650e-02
-6.505049807152225583e-01 -1.251214987611730667e-01 3.053863824504285951e-01 -8.848645686000129462e-01 -4.559621684203253311e-01 -9.546306199650078650e-02
5.988419289162870696e-01 -1.744670079267203189e-01 4.148532183384162075e-01 4.730531397336222299e-01 -8.025882249565867710e-01 3.634183101457568732e-01
4.754679959902525233e-01 -2.010282368214881821e-01 4.249501276041323661e-01 2.352699980953765480e-01 -8.940264493206069307e-01 3.812672762136684046e-01
6.885978418918830002e-01 -1.698883102891641239e-01 4.212387750857671254e-01 -3.991486158291526753e-01 -7.808861130343822676e-01 -4.805177009764837748e-01
7.031956485681492008e-01 -2.822830443646052734e-01 3.249532289973113830e-01 -1.269165615510821910e-01 -7.992640202460414844e-01 -5.874259207288913265e-01
7.128814371369804892e-01 -1.531692888465986946e-01 3.549741517722603823e-01 -2.064707116943960974e-01 -6.968723394093572221e-01 -6.868324306397735057e-01
6.840860159555586240e-01 -1.528110849400601823e-01 4.621896734359772774e-01 -4.223136041716935019e-01 -8.656360827437306060e-01 -2.689338059515823387e-01
6.177163611349805183e-01 -1.163153205121467831e-01 3.227313315396060922e-01 -4.464965616347590580e-03 -9.451982105373151200e-01 -3.264665478714506852e-01
6.021244728269601332e-01 -8.253258037684900461e-02 4.665555546192679537e-01 -3.050227825581400265e-01 -8.857346818032848512e-01 -3.499073814187455000e-01
6.251409734248010164e-01 -1.659559634991620847e-01 2.069591527687011379e-01 5.783424109423813686e-01 -8.157939542649353948e-01 5.290464385323965157e-04
5.788394805300207668e-01 -1.747505231144796389e-01 3.030428285717534642e-01 2.107889857555326207e-01 -9.350522825748449618e-01 -2.850354931157279004e-01
5.886103480769705465e-01 -1.405977180405842963e-01 3.478333637279949486e-01 5.097692312375906587e-01 -8.273331796303043939e-01 2.359134179444787593e-01
5.992686068124251086e-01 -1.565691646957217964e-01 3.095626276058699999e-01 4.772050496320093815e-01 -8.780847576079943151e-01 3.524910016186470069e-02
5.960411213537080144e-01 -9.301761780120894330e-02 3.567442468832875413e-01 -1.316257045494148847e-01 -9.907635058133409389e-01 -3.259370261765437427e-02
5.827861490803888378e-01 -1.446593217934769027e-01 4.670189161000035671e-01 -1.394220390963968326e-02 -9.956757324400110631e-01 -9.184471013721784427e-02
7.881683364190147367e-01 -1.430420907092633254e-01 3.348930045860177840e-01 7.553604345503288631e-01 6.379142040612603148e-01 -1.499869400075451720e-01
8.033635123050083537e-01 -6.229012986616045550e-02 4.065882362823761143e-01 7.553604345503288631e-01 6.379142040612603148e-01 -1.499869400075451720e-01
8.551684204185970861e-01 -1.399811106376422920e-01 4.583373234375951455e-01 7.553604345503288631e-01 6.379142040612603148e-01 -1.499869400075451720e-01
8.037874473818951149e-01 -1.496469056914302431e-01 3.396219333478950331e-01 7.553604345503288631e-01 6.379142040612603148e-01 -1.499869400075451720e-01
8.410080178347489888e-01 -1.780425800680727477e-01 4.247414697998745936e-01 7.302527465046986244e-01 6.682096778778969792e-01 -1.422207882577706528e-01
7.641663382877836863e-01 -1.936781190676366282e-01 3.990790597898803416e-01 8.903305064383963685e-02 -8.000375631140433930e-01 -5.933068459908368286e-01
7.026117632253452427e-01 -5.949588348117601511e-02 2.603079590298370549e-01 -1.544196519987469096e-01 -5.608705027699524281e-01 -8.133749751493259961e-01
8.210289032744797488e-01 -1.998331599967742012e-01 3.464726061402765289e-01 7.419517904624458593e-01 6.558622762435785125e-01 -1.391122396849491516e-01
7.715411289647716719e-01 -1.967673558104658382e-01 3.104695657990949043e-01 7.748022415785214001e-01 6.154202128470325217e-01 -1.447046926129620659e-01
8.756950747350945585e-01 -2.259686214860655018e-01 4.217214852190483976e-01 6.950486839865306354e-01 7.062804894917396048e-01 -1.344440294393937085e-01
8.364149452994563694e-01 -1.676910165376199746e-01 3.554828401954459038e-01 6.950486839865306354e-01 7.062804894917396048e-01 -1.344440294393937085e-01
-7.238088447255648372e-01 1.211471351834773370e-02 3.706664171262045726e-01 -8.125730873787360142e-01 -5.630657228930053826e-01 -1.506053431016521615e-01
-7.741153290869846604e-01 5.006023978992720641e-02 4.408945086378813216e-01 -8.125730873787360142e-01 -5.630657228930053826e-01 -1.506053431016521615e-01
-7.385393436605778295e-01 4.598695696924853804e-02 4.592394185199187850e-01 -8.125730873787360142e-01 -5.630657228930053826e-01 -1.506053431016521615e-01
-7.612352539233777637e-01 1.163445177232743655e-01 4.484826502972970586e-01 -8.125730873787360142e-01 -5.630657228930053826e-01 -1.506053431016521615e-01
-6.520599369481702157e-01 1.252945888521229678e-01 2.524843865210422700e-01 -7.992322767743864631e-01 -5.810766813873188275e-01 -1.535501810807489431e-01
-8.010359021348104624e-01 1.693422467682473842e-01 3.753442019436840082e-01 -8.006934124213708204e-01 -5.826225978897506819e-01 -1.394308708042029388e-01
-7.675691619784674735e-01 -4.575511664971951276e-02 3.048656676641721686e-01 -8.006934124213708204e-01 -5.826225978897506819e-01 -1.394308708042029388e-01
-7.110820109085542740e-01 5.682080880318386013e-02 4.263922811114605471e-01 -8.006934124213708204e-01 -5.826225978897506819e-01 -1.394308708042029388e-01
-6.560566072849131070e-01 -5.986671988847886566e-02 4.193920010962721712e-01 -8.589949521742503702e-01 -4.982805877001764139e-01 -1.176610728334736011e-01
-6.784443687297229131e-01 -8.387738739418799938e-02 3.238455351664585868e-01 -8.589949521742503702e-01 -4.982805877001764139e-01 -1.176610728334736011e-01
-6.543525124737392673e-01 -1.939719012052693384e-03 3.368516406138211128e-01 -8.589949521742503702e-01 -4.982805877001764139e-01 -1.176610728334736011e-01
-7.027376920688054307e-01 -6.107534520605824302e-02 3.467867257546187743e-01 -8.643409593335141805e-01 -4.923486185750380884e-01 -1.025063110528906390e-01
-6.439782328407872569e-01 -1.064003972375201085e-01 3.186961105493473778e-01 -8.643409593335141805e-01 -4.923486185750380884e-01 -1.025063110528906390e-01
-7.288398575979424532e-01 -1.324812348668591433e-02 3.197975203470765915e-01 -8.643409593335141805e-01 -4.923486185750380884e-01 -1.025063110528906390e-01
-7.609752032372657515e-01 1.121007819172865905e-01 3.571384126983244700e-01 -8.643409593335141805e-01 -4.923486185750380884e-01 -1.025063110528906390e-01
-7.477464500710684359e-01 9.239247186607535411e-02 3.325140364404753912e-01 -8.444104176597384548e-01 -5.178804662784769475e-01 -1.370068217093334817e-01
-8.083704659214689947e-01 3.252893761825989549e-02 3.207268987412177363e-01 -8.444104176597384548e-01 -5.178804662784769475e-01 -1.370068217093334817e-01
7.115165501415375848e-01 -1.141772888738348118e-01 4.281770187167778796e-01 8.529435466288332046e-01 5.070385522806406531e-01 -1.240935645606951465e-01
7.316487962885797058e-01 3.749579302396834415e-03 2.816943610511480900e-01 8.529435466288332046e-01 5.070385522806406531e-01 -1.240935645606951465e-01
6.951035745739062577e-01 3.429424959435026926e-02 4.063617283695318272e-01 8.570919451866317873e-01 4.984943418206532195e-01 -1.299876481400807360e-01
6.832976266888445283e-01 2.781006153955204244e-02 3.529929243403822081e-01 8.867824209418148085e-01 4.582347667957966664e-01 -6.031447925810030225e-02
6.601627369188103334e-01 4.625929367818325255e-02 3.495408726788754583e-01 8.867824209418148085e-01 4.582347667957966664e-01 -6.031447925810030225e-02
6.386601024712696972e-01 2.083799355731011382e-02 3.452716298168547193e-01 8.763780718005852455e-01 4.726346740168200222e-01 -9.261717002857869363e-02
6.284511231324944047e-01 -2.088220526498605484e-02 3.042942199111849377e-01 8.553543966726093739e-01 5.049484201650953352e-01 -1.157408703337369782e-01
7.216512022080487920e-01 -8.965760377159527617e-02 4.067132010584816326e-01 7.998791537970167953e-01 5.831818418048179131e-01 -1.417472352820636494e-01
6.708696712230434178e-01 -6.213872114123010493e-02 3.198638296355359456e-01 7.998791537970167953e-01 5.831818418048179131e-01 -1.417472352820636494e-01
8.557582202239482072e-01 -1.062804379583441039e-01 4.632856101302427199e-01 7.998791537970167953e-01 5.831818418048179131e-01 -1.417472352820636494e-01
7.080442260240514818e-01 -3.776381228876483226e-02 3.184570647686424394e-01 8.287589186188645263e-01 5.442144271213301687e-01 -1.303430555215455977e-01
8.270480537318127823e-01 -3.671210796444235314e-02 2.825230445489337883e-01 7.924596030766486443e-01 5.908843337907285775e-01 -1.512067510803902504e-01
6.623820382287687325e-01 -8.001013755395167126e-02 3.193088350836019162e-01 8.123817203053079750e-01 5.624078459705883493e-01 -1.540563380861405540e-01
7.099244123615704449e-01 9.814445414485016561e-02 3.145733987401200804e-01 8.292337109840279830e-01 5.429565959669744313e-01 -1.325503204960784831e-01
-8.674949850692846853e-01 2.802115263327656924e-01 3.480264421856654744e-01 -6.581933550252752063e-01 -7.442624191250410970e-01 -1.133797110541117092e-01
-8.638443628540518615e-01 2.330908158668874020e-01 2.898212215781994505e-01 -6.475821046106834400e-01 -7.547224137759085405e-01 -1.050309284556902034e-01
-7.789201138861288065e-01 1.434499664162050547e-01 2.853999703429433987e-01 -6.904075500630928452e-01 -7.127963411185055387e-01 -1.235264785539876148e-01
-7.887220871654937460e-01 1.077023887727037166e-01 2.638378022727343453e-01 -6.971889439434513225e-01 -7.041245753527036744e-01 -1.346705566461717518e-01
-7.681336370416336212e-01 3.038832718468511551e-01 4.232687203350924410e-01 -6.977655462200166303e-01 -7.034438424057490868e-01 -1.352405378934784519e-01
-8.643984651280711695e-01 1.404925900047176435e-01 3.515287824333555577e-01 -7.510391430253164913e-01 -6.436567835679533056e-01 -1.471263083569866181e-01
-8.549596115431645771e-01 8.654664383722031340e-02 4.716760292411619759e-01 -7.510391430253164913e-01 -6.436567835679533056e-01 -1.471263083569866181e-01
-7.153944941083172360e-01 8.097216464774972811e-02 3.460891045474469019e-01 -7.510391430253164913e-01 -6.436567835679533056e-01 -1.471263083569866181e-01
-8.149166101730205281e-01 1.540856303619413115e-01 3.280822221857647158e-01 -7.272661360400518582e-01 -6.729574570033788339e-01 -1.349526896097974771e-01
-7.011941940731617473e-01 1.720407204736420781e-01 2.768634194718280761e-01 1.520181719950633170e-01 5.550945078463914717e-01 -8.177778199132400561e-01
-8.160503662271442193e-01 7.433524404052038737e-02 3.168207056140584510e-01 -7.560568448054744151e-01 -6.389121220240946419e-01 -1.420188288694823608e-01
-6.821892716577281357e-01 1.507688587177660744e-01 2.864525797237914562e-01 1.883357007461397281e-01 8.683277603313932502e-01 -4.588426358375245484e-01
-7.160778741802855674e-01 1.492156546476489654e-01 3.433563385891932329e-01 -7.474880794749420854e-02 9.001891221995667047e-01 -4.290363154605940088e-01
-7.027251413017071568e-01 1.850733343153047328e-01 3.964776848801129239e-01 1.967169598257947349e-01 7.251007282882723226e-01 -6.599480067040991438e-01
-6.683303974354464216e-01 1.414554079293184885e-01 4.480687128594086910e-01 4.136348784488693697e-01 8.381930738502840761e-01 -3.554413570196935379e-01
-5.994316902461904739e-01 1.129136810180209893e-01 3.686024071326337581e-01 2.092040983404961363e-01 9.575589431242716998e-01 -1.982788835964836571e-01
-6.818164302695342016e-01 1.660869095879719259e-01 3.672955164236475500e-01 1.072874727574052167e-01 9.502232168168812665e-01 -2.925153609838417879e-01
-7.061419428785767893e-01 1.939910540975035846e-01 3.110538651944593780e-01 -6.467297708705944670e-01 7.413204571958806888e-01 1.794006221075020446e-01
-7.231462202023856145e-01 9.860449567365400791e-02 3.774345753277022486e-01 -4.125467163714138796e-01 8.981361610512599292e-01 -1.521730693101429888e-01
-5.588158379735856940e-01 1.668496129200900124e-01 3.286115431729294545e-01 -4.061049790697657813e-01 9.075152463585692830e-01 1.072139151485967390e-01
-5.122023221201476018e-01 1.931549911509265194e-01 4.118074330413542539e-01 1.901031156820663925e-01 9.817638340379442052e-01 7.613035443803082593e-04
-5.776057183954591556e-01 9.589906538550495296e-02 4.147083582798788415e-01 -2.941107245800395065e-01 9.097691256767752588e-01 2.929488345297180940e-01
6.373437045647549759e-01 2.187813275263378321e-02 2.009470572479525874e-01 9.145277577693954330e-01 4.024053728317009138e-01 -4.133879758122460668e-02
6.247621153452836973e-01 -1.697893511137198164e-02 2.590132751028110247e-01 9.145277577693954330e-01 4.024053728317009138e-01 -4.133879758122460668e-02
6.834505786124736026e-01 1.202129651128573951e-01 3.174647532209912137e-01 8.853609333908504242e-01 4.560238810834187917e-01 -9.043360828197677392e-02
6.805285098771454155e-01 6.832830668084609316e-02 3.360880876546073481e-01 9.011809257014991026e-01 4.334298409184045298e-01 -3.392956415235418022e-03
6.276837128488448325e-01 1.128586859119938002e-01 2.291889780787988717e-01 9.011809257014991026e-01 4.334298409184045298e-01 -3.392956415235418022e-03
6.092668176495330545e-01 1.943580921760117708e-01 4.203863983263562698e-01 8.849972482536022644e-01 4.569067396807111048e-01 -8.953268575160039378e-02
6.938178252079479913e-01 1.013893942549653621e-01 4.055165064385760632e-01 8.849972482536022644e-01 4.569067396807111048e-01 -8.953268575160039378e-02
5.596413982216468241e-01 2.633622088645999892e-01 3.324061872105990023e-01 9.031944268478308002e-01 4.290601130635620652e-01 1.213452466732485753e-02
5.245351433421212572e-01 1.690691603454744785e-01 3.573360779164445056e-01 9.031944268478308002e-01 4.290601130635620652e-01 1.213452466732485753e-02
5.845622331996556120e-01 2.344962347229669897e-01 4.661747122784049013e-01 8.907503763567073962e-01 4.430151018058835488e-01 -1.014957466710145612e-01
6.555949888237915246e-01 2.497957911449805168e-01 4.574141416380284042e-01 8.845131508203305515e-01 4.578041261898704861e-01 -8.973220196462629306e-02
5.514145774583875115e-01 1.937229947618305803e-01 3.417637167064483950e-01 8.845131508203305515e-01 4.578041261898704861e-01 -8.973220196462629306e-02
-7.815169213184152142e-01 1.653318454189073861e-01 3.728460805032965952e-01 4.503249051975807271e-01 4.229778217607432778e-01 -7.863187916216469731e-01
-7.091291294962336345e-01 2.077030685388585041e-01 2.679614451234617056e-01 -7.127600201802060109e-01 6.151680407286479468e-01 3.369591003353206715e-01
-7.751808910212220072e-01 1.497215808825667072e-01 3.030429120917145780e-01 4.165662208751031992e-01 6.015112687067901698e-01 -6.816573752587016255e-01
-5.141890064823766426e-01 2.629999446975792576e-01 3.365964797042755863e-01 -8.134257671088835906e-01 4.098290147057092603e-01 4.127695484270509363e-01
-5.600510133187299733e-01 2.555083876270511922e-01 3.287732713575907129e-01 -6.271513553124128393e-01 6.662247469076552076e-01 4.035167457958025450e-01
-5.948643160395771234e-01 3.035700748569324370e-01 3.633374162019419873e-01 -7.846961402057551771e-01 3.276140668162674241e-01 5.262328294303730836e-01
-5.454884914234223725e-01 2.565857388162500197e-01 3.926119823005676523e-01 -7.373952696428177633e-01 4.402658398915317850e-01 5.122638056050810018e-01
-6.004438778814257249e-01 2.552867777723057396e-01 4.024513448434732243e-01 -6.671200346215936383e-01 4.811465046045531047e-01 5.687256812500244285e-01
-4.659793806301915642e-01 2.085080928113561272e-01 4.550052549210255037e-01 -7.724259085543523362e-01 2.819492139017014676e-01 5.690894978596914289e-01
-4.943717596226914202e-01 3.680577999082618179e-01 4.418162524107842049e-01 -8.443343680444678201e-01 1.038525947369972474e-01 5.256558888715527900e-01
5.361509076495614146e-01 3.179148103610592302e-01 3.695027188371566296e-01 8.776860217286986954e-01 4.632361290161353118e-01 -1.227987623561278135e-01
5.186692632606781928e-01 2.660673499533998676e-01 3.910471213137781121e-01 8.818171988613993095e-01 4.459613516756036344e-01 -1.533522109521215926e-01
5.039888106835688220e-01 1.779649086138627156e-01 4.094383332997130753e-01 8.971513878040968670e-01 4.235477115648212942e-01 -1.254062334550637703e-01
5.105853215881263063e-01 4.007557163409599665e-01 3.714318976911787917e-01 8.798525203145983742e-01 4.659788828092721324e-01 9.339819736949975248e-02
5.637693543751415293e-01 3.448165711747252504e-01 2.055983076638787099e-01 8.798525203145983742e-01 4.659788828092721324e-01 9.339819736949975248e-02
5.304184891296218618e-01 2.549271847629580590e-01 3.121313608143319041e-01 8.965684533760863717e-01 4.348825004883706269e-01 -8.391793121731876137e-02
5.328064828879939263e-01 3.954506534884002500e-01 3.698746895974401871e-01 8.979040664422194284e-01 4.401623269157163842e-01 -5.041173540792913410e-03
5.949607359025033126e-01 3.472197427233271738e-01 2.999903382404313645e-01 8.979040664422194284e-01 4.401623269157163842e-01 -5.041173540792913410e-03
6.453717488986918660e-01 2.253391158175845344e-01 3.572029316949482114e-01 8.803836405581804136e-01 4.624663694916648082e-01 -1.051166139424379309e-01
5.785012519763630401e-01 3.186831400022769323e-01 2.994617661556261967e-01 8.884482857158896296e-01 4.588827875664800993e-01 9.286058567200721967e-03
6.164260799432769167e-01 2.586134976306058153e-01 3.712415460965620140e-01 8.735188209176154572e-01 4.864201316422384069e-01 -1.898222947512440140e-02
5.348722505350042011e-01 2.041390573722856872e-01 3.102871915627548605e-01 9.028204500648638886e-01 4.297229360767769735e-01 -1.591958398422853652e-02
6.936384104098478609e-01 2.722698248445704072e-01 4.632475209290284890e-01 9.028204500648638886e-01 4.297229360767769735e-01 -1.591958398422853652e-02
6.442925025938035510e-01 1.711769761280791669e-01 4.507126953424179794e-01 8.953022873434520745e-01 4.277265102776671157e-01 -1.244341057880499340e-01
5.060394220240520546e-01 2.558879007278928586e-01 4.456263135761434069e-01 9.006863516256367053e-01 4.288027059921262207e-01 -6.994523092484525306e-02
6.983305990571275768e-01 2.827738254147891261e-01 4.545905007107023388e-01 8.785795593833789496e-01 4.605478629289046499e-01 -1.264658996936585400e-01
-6.466517377893803431e-01 2.822696266954720090e-01 3.862104508863437036e-01 -8.203716979960824496e-01 9.705602672378481344e-02 5.635338541770287257e-01
-5.101804037952590853e-01 2.645960768957684173e-01 4.432659091398730156e-01 -8.262889584889071548e-01 -6.403138928232101051e-04 5.632460803924299597e-01
-5.050530046158818731e-01 2.265089812027979987e-01 3.322120011713976528e-01 -8.262889584889071548e-01 -6.403138928232101051e-04 5.632460803924299597e-01
-5.357999406404149179e-01 3.488243110753339593e-01 3.967262884928270950e-01 -8.599054769991633096e-01 -8.570439812155851433e-02 5.032070416532968826e-01
-5.853738695148977822e-01 3.402930792877235100e-01 3.288083879994841419e-01 -8.599054769991633096e-01 -8.570439812155851433e-02 5.032070416532968826e-01
-4.283175566368426779e-01 3.939782319249354181e-01 4.090703301028745242e-01 -8.888110868180891799e-01 -8.836360550925236035e-02 4.496740210092778356e-01
-5.261007674006582535e-01 3.274499252995498599e-01 4.025465561069092590e-01 -8.991656432775299024e-01 -2.035721632373908851e-01 3.873751673818999763e-01
-5.741927668439846810e-01 3.494852769080015742e-01 4.893629771547474139e-01 -8.991656432775299024e-01 -2.035721632373908851e-01 3.873751673818999763e-01
-5.742244188923606441e-01 3.801839281602055198e-01 4.967739613775301599e-01 -8.967625015861967475e-01 -1.439120379003013539e-01 4.184570958846901556e-01
-5.323760697480183213e-01 4.408583543349225975e-01 3.099132117944036757e-01 -8.967625015861967475e-01 -1.439120379003013539e-01 4.184570958846901556e-01
-4.854393381959049569e-01 3.104004861399232706e-01 5.015214828445687667e-01 -8.667631903885432143e-01 -1.576975490100903099e-01 4.731311180039673991e-01
5.222104666772147130e-01 4.215244528095111187e-01 3.316203017117122509e-01 8.604423549645089375e-01 5.021912735402924710e-01 -8.627211926867796310e-02
5.556471042466646360e-01 3.896568462633313579e-01 3.274975822327907404e-01 8.834191517663286808e-01 4.685759570020366915e-01 -2.678583970311697315e-03
4.253809942348714679e-01 4.834189037297623170e-01 2.502503301664655289e-01 8.834191517663286808e-01 4.685759570020366915e-01 -2.678583970311697315e-03
4.428083499721346961e-01 2.898927784553896880e-01 3.611332862901789897e-01 8.966625469814638594e-01 4.187482053791417580e-01 -1.436879164455467373e-01
4.201435668805256762e-01 4.286474586352876370e-01 3.540866309703588066e-01 8.894311091267893543e-01 4.506102612772656668e-01 -7.656823459584106983e-02
4.903931231200228669e-01 4.971270887034258679e-01 4.745074260251567200e-01 8.993477980423602025e-01 3.877963681566868881e-01 -2.019591914245085773e-01
5.817790010634676934e-01 4.350411820801635132e-01 3.744666126638700465e-01 8.667072039820142848e-01 4.729364848916383091e-01 -1.585865814752948910e-01
5.337218958851819295e-01 4.446340460205331357e-01 3.228012883324108406e-01 8.667072039820142848e-01 4.729364848916383091e-01 -1.585865814752948910e-01
-5.605802057271692673e-01 5.447384447546280706e-01 3.622475596357865868e-01 -8.832332679121482899e-01 -3.007340735035712309e-01 3.598027396882574891e-01
-5.295043400927045285e-01 5.553046071000399264e-01 3.349960167804727496e-01 -8.814541557284264472e-01 -3.025179909564639225e-01 3.626588431249836431e-01
-5.549331789513075597e-01 6.480059296826223836e-01 4.141789383249327994e-01 -8.864912714724060283e-01 -3.023361372164038441e-01 3.503228307380219508e-01
-4.908364700026979777e-01 6.320558083858016651e-01 4.764058158706172552e-01 -8.864912714724060283e-01 -3.023361372164038441e-01 3.503228307380219508e-01
-5.450470619250087356e-01 6.174943466016704630e-01 4.106194058797815183e-01 -8.936080708082964064e-01 -2.462816050428363879e-01 3.752465680106867874e-01
-5.218036296964508880e-01 4.396455156955503818e-01 4.153533803377678635e-01 -8.956402463417904025e-01 -1.977215407760189725e-01 3.984152876659906584e-01
-6.343846962127405176e-01 5.599672457070721254e-01 3.370383201878592860e-01 -8.977139521279984269e-01 -2.723429163984952828e-01 3.463220986917986410e-01
-5.530794754749950304e-01 4.601505810392110818e-01 3.038104026949781100e-01 -8.848569048236805124e-01 -2.544597784881909575e-01 3.902287522948516552e-01
-4.531928542973975849e-01 5.153912268749061276e-01 3.716567860927325606e-01 -8.848569048236805124e-01 -2.544597784881909575e-01 3.902287522948516552e-01
-4.427458088540158210e-01 5.284908226209610316e-01 3.937655710302774281e-01 -8.802518842423938672e-01 -2.102310876705615061e-01 4.253933592154065524e-01
-4.873396076088710172e-01 3.961894467503629946e-01 4.787035544101676532e-01 -8.844888572133470239e-01 -2.490780882164999321e-01 3.945118089941552775e-01
-5.136033656662061242e-01 4.682320823345029748e-01 3.569918978971395873e-01 -8.875663669621091101e-01 -2.813144031367583731e-01 3.648124872115701689e-01
-4.757245935979431684e-01 4.367962441806756968e-01 3.894481420372358782e-01 -9.003968736464812439e-01 -2.366830896645526205e-01 3.650569613012247805e-01
-1.171829875883361599e-01 5.043253284505834211e-01 5.096777666411387298e-01 1.704330873692516679e-01 8.745096142708804754e-01 4.540765324012911441e-01
-5.584361110847443910e-02 4.801497595068769941e-01 4.581281480932823946e-01 5.939303587558413255e-01 7.932975065187469754e-01 1.338872477097650948e-01
-8.073215487326687589e-02 4.582176369680864836e-01 3.990280705060472721e-01 -1.575920194394181406e-01 7.317473212914982206e-01 6.631067886786582433e-01
4.439329558637327144e-01 4.886143453915854917e-01 4.713859722825152754e-01 8.835878430082296786e-01 3.937917726355304460e-01 -2.533783011479688319e-01
3.864463942997322654e-01 5.720393178693379266e-01 4.182991414151008835e-01 9.050488325289814950e-01 3.025494919254554382e-01 -2.989153988565598774e-01
3.264909678764994494e-01 6.166391341916463986e-01 3.254288230581646735e-01 9.050488325289814950e-01 3.025494919254554382e-01 -2.989153988565598774e-01
4.506113635063097589e-01 6.609118858241962435e-01 3.714853813153973783e-01 8.976602951534861097e-01 3.192115213242776028e-01 -3.038256064896383557e-01
4.642269171162456964e-01 5.136435211494123632e-01 3.906661596308646511e-01 8.983353290969254834e-01 3.104858869665132470e-01 -3.107927774111490793e-01
3.403694765475139272e-01 5.378912344046807847e-01 3.599333827553681253e-01 8.906381735734927307e-01 3.862371740592798752e-01 -2.399676835500445526e-01
4.872871061125366721e-01 5.279122398700729635e-01 3.677117030718704549e-01 8.767336579106987937e-01 4.293965012883061982e-01 -2.166950340175968215e-01
5.381540131799881221e-01 5.598417080739090945e-01 3.305906713043112455e-01 8.404878741056360791e-01 5.334794105031768208e-01 -9.476208129083737997e-02
4.891922552549321512e-01 5.068914689362150616e-01 2.943847289727861138e-01 8.638493166557681402e-01 4.672298632325874168e-01 -1.883098856061999893e-01
4.772502200977489228e-01 5.516357869829379146e-01 4.834869059140008973e-01 9.026558622226462658e-01 3.103020128698089075e-01 -2.982030435861380835e-01
5.234114881008844478e-01 5.125116117836323593e-01 4.588161110347890870e-01 8.977005911672869543e-01 3.666603768563337362e-01 -2.443231807698051927e-01
4.420334341271832113e-01 5.352014974963303917e-01 3.502872873254689878e-01 8.874072267964129290e-01 3.759820915301020916e-01 -2.667318516378384130e-01
7.101048431098356817e-01 4.725867727995161083e-01 2.577300951346200297e-01 -7.798770980530529418e-01 -4.628065119189097021e-01 4.214283384607649952e-01
7.585729824043506708e-01 3.988719143675506507e-01 3.629507594886834942e-01 -7.773109528777923938e-01 -4.676318122071751460e-01 4.208422159765482506e-01
7.460920326216150533e-01 4.940167275851480300e-01 3.100998720949176835e-01 -8.029839240857348237e-01 -4.667864634791322742e-01 3.705768681023137168e-01
-6.727924289371822741e-01 6.880739552418647653e-01 3.489770198637768828e-01 -8.767228634227810513e-01 -3.792711349030206680e-01 2.958216134448838353e-01
-5.794379701776690705e-01 5.759008801374322362e-01 3.542948297688282566e-01 -8.738930182094131194e-01 -3.200238048675793645e-01 3.659176916232934063e-01
-6.365888390937077812e-01 7.051356883450190516e-01 3.182722372922148768e-01 -8.738930182094131194e-01 -3.200238048675793645e-01 3.659176916232934063e-01
-5.530750213589618047e-01 6.011795651536722129e-01 2.262349728927781078e-01 -8.738930182094131194e-01 -3.200238048675793645e-01 3.659176916232934063e-01
-6.201270357983644788e-01 5.572213240232630760e-01 3.118597463918891255e-01 -8.738930182094131194e-01 -3.200238048675793645e-01 3.659176916232934063e-01
-5.155336147586450091e-01 5.850504164733879575e-01 4.459515517469373469e-01 -8.924406783286414901e-01 -3.535278106819796928e-01 2.802993448774369623e-01
-5.021351080672940004e-01 6.625858106848390161e-01 3.384783476853177597e-01 -8.783503207283517300e-01 -3.794687199604315220e-01 2.906960691994188162e-01
-6.419655911943624726e-01 6.811687038894324031e-01 4.962066760725517556e-01 -8.832068904227875494e-01 -3.737313440891271710e-01 2.833204389998096318e-01
-6.273048591135366170e-01 6.639344978150306664e-01 4.588991190127452713e-01 -8.832068904227875494e-01 -3.737313440891271710e-01 2.833204389998096318e-01
-1.248169891406585713e-01 6.375406144011347420e-01 2.951187685351759349e-01 8.059679898819354094e-01 5.277287910515330305e-01 -2.681751710747287687e-01
-1.761652508012132856e-01 7.340140008506824687e-01 2.872047218910782629e-01 8.543682277753148480e-01 3.413268896989927748e-01 -3.918556950415285622e-01
-2.676186655203232068e-01 7.274038721758204762e-01 3.002552598791060623e-01 8.278953118618201934e-01 4.033286435488310229e-01 -3.897632074609909125e-01
-2.661077214896606646e-01 6.526036687080126741e-01 2.622707132883420056e-01 7.297434870996034606e-01 6.311998541429317822e-01 -2.627949527020114751e-01
-1.482603408409401968e-01 6.073456735448645727e-01 3.202909034363294882e-01 2.554699244920179968e-01 9.026608857499228700e-01 3.463213002649525585e-01
-1.816718222446819242e-01 5.266833271809477912e-01 4.216876180335670243e-01 5.949343037716778859e-01 8.037726208508636505e-01 -1.657759404339865378e-03
-8.544326654116587982e-02 5.228901478112399914e-01 3.946474602383774344e-01 2.820613201742995790e-01 9.436934703577448680e-01 1.728700253534069808e-01
-7.693393693532676880e-02 6.123583661166781544e-01 3.410005750879243624e-01 6.938595667245319731e-01 7.030730641744022957e-01 -1.557150220667924412e-01
-2.064598523179173306e-01 6.746362493495881019e-01 3.942799047027445991e-01 7.126121885469982598e-01 6.747153802515798438e-01 -1.922056825024257565e-01
-2.122430464803186645e-01 6.464484593449093541e-01 3.102538797590507769e-01 6.660360592416734171e-01 7.158347177626801505e-01 -2.097060433927594447e-01
-2.421375405012248794e-01 5.765222637189764132e-01 3.944905895981761779e-01 6.161900683566889914e-01 7.872833157484717681e-01 -2.224365983086022333e-02
-5.191037743669221771e-02 5.348176889785667409e-01 3.538013752066451745e-01 -4.584396430312055459e-01 6.239848519765734958e-01 6.328317297680280396e-01
-3.525970508284939631e-02 6.076881803551323902e-01 2.895860865548803287e-01 -3.562632072863320953e-01 7.582203145809953693e-01 5.460572146677969974e-01
-1.013964960772326118e-01 6.509606845892375038e-01 3.949884161663079207e-01 -5.704875930457196098e-01 5.633256202133166690e-01 5.976689315935566071e-01
-1.561151124061244400e-01 6.065403986207744680e-01 3.958231197740370022e-01 -5.192940486130496192e-01 5.249220737204576270e-01 6.743815741819181309e-01
1.840453731655498915e-03 5.744345793849915394e-01 3.646007448039691456e-01 -7.190279532653254257e-01 2.577805921118413446e-01 6.454052748107544923e-01
4.067357838484465110e-02 6.489786350941605386e-01 3.293131595563756342e-01 -8.954893801379772977e-01 -8.000304919303105611e-02 4.378336238571889361e-01
7.865288658707106362e-02 6.066779042606423866e-01 4.646564567077731134e-01 -8.572022891593923388e-01 2.694713273257027045e-02 5.142743309726733880e-01
3.371370273335975998e-02 7.015032731361925400e-01 4.205872855181314041e-01 -7.698389586982207211e-01 1.489164933991214690e-01 6.206221520894564803e-01
9.421062020066905962e-02 5.374223429111361083e-01 4.312255705657125904e-01 -7.166611576192064570e-01 2.082310426154627692e-01 6.656099593990284502e-01
4.016369286330211952e-01 5.253742198532306285e-01 3.541816690253059563e-01 8.699393628551801427e-01 4.255105768418497303e-01 -2.492915039684258649e-01
3.957577263017031388e-01 6.671161427929656051e-01 2.984350116618204041e-01 8.920475243734482529e-01 3.315990195627592230e-01 -3.070721486625237473e-01
4.229194775116744687e-01 5.838756532381722542e-01 4.581184081671994535e-01 8.899025523591154174e-01 3.273134835057921466e-01 -3.177095069714397924e-01
3.552764183477054027e-01 5.975106415199568088e-01 3.278919387896092053e-01 8.899025523591154174e-01 3.273134835057921466e-01 -3.177095069714397924e-01
4.310414383600330024e-01 5.978667037921936434e-01 2.706328595882651067e-01 9.028222945026237456e-01 3.233281650071503366e-01 -2.834974466589189612e-01
3.744345605910247565e-01 6.991164639055312824e-01 2.145455788553152499e-01 9.028222945026237456e-01 3.233281650071503366e-01 -2.834974466589189612e-01
3.723003376738061032e-01 6.441429127288950118e-01 2.699773978350862857e-01 9.136397276939394185e-01 1.928345019137331640e-01 -3.578788941122776901e-01
4.686944871045055083e-01 6.537198031143289789e-01 4.208938070676786491e-01 9.136397276939394185e-01 1.928345019137331640e-01 -3.578788941122776901e-01
3.785623364733699536e-01 6.899590736983127748e-01 3.566071768494413763e-01 9.101312104404447600e-01 2.177551646884056946e-01 -3.524824364897296003e-01
4.559365188617063303e-01 7.236544961608282200e-01 3.191485712282990939e-01 9.116788277510865512e-01 1.045237192278681421e-01 -3.973870998776614094e-01
4.183309711831706412e-01 7.418127961325750030e-01 4.272906817996905970e-01 8.970633938648704397e-01 2.256794539050342441e-01 -3.799290084644314502e-01
3.864290191598190316e-01 6.794474714594606057e-01 3.588282674845164055e-01 8.970633938648704397e-01 2.256794539050342441e-01 -3.799290084644314502e-01
3.154179633445990394e-01 6.823122367750642514e-01 3.745162554660490528e-01 8.970633938648704397e-01 2.256794539050342441e-01 -3.799290084644314502e-01
3.617899769472794902e-01 7.309653076461567478e-01 3.488240996383258352e-01 8.970633938648704397e-01 2.256794539050342441e-01 -3.799290084644314502e-01
6.579859236534965072e-01 5.210134223624652838e-01 4.567881295838517319e-01 -8.460701757309718740e-01 -4.447733163149736879e-01 2.938400157104927857e-01
7.042164267710488978e-01 5.394824447294586101e-01 2.854329609837119031e-01 -8.124115022036787481e-01 -4.535350811164623464e-01 3.664607499908358323e-01
-4.850550712740643311e-01 7.514305579469333640e-01 5.214664735893133063e-01 -5.712242144618068229e-01 6.662106646255290254e-01 4.794436850681240148e-01
-5.256991446227257114e-01 7.601872513631185990e-01 3.726929299817649532e-01 -5.255934962458386206e-01 7.281030387970462980e-01 4.400198195520088618e-01
-5.334591112241253708e-01 7.702752529231134959e-01 5.258396373897556986e-01 -5.599033038861469525e-01 6.965835156122375249e-01 4.486420578531093439e-01
-5.826239147066314406e-01 7.208893537059376522e-01 4.187820540929423352e-01 -5.865921415680708240e-01 7.063496949201917285e-01 3.962067237399393704e-01
-4.823053395170933677e-01 6.900792281647100124e-01 4.483265420932923684e-01 -5.264711680630335122e-01 7.396762712552203967e-01 4.191743347824611887e-01
-5.610333740261430613e-01 8.150338316017563534e-01 4.300071687826429456e-01 -5.264711680630335122e-01 7.396762712552203967e-01 4.191743347824611887e-01
-5.595608355097968500e-01 7.594945948140483516e-01 3.333912434167063399e-01 -5.702715473612495201e-01 7.386523442577963561e-01 3.594204732519674095e-01
-5.248254661353988215e-01 7.540496581576130453e-01 3.173608766483648203e-01 -5.633562645543409575e-01 7.304122286864260793e-01 3.861705521822029197e-01
-5.655557142668418136e-01 7.718981217428552144e-01 3.494141244208391339e-01 -5.478674843010598039e-01 7.697538605500565678e-01 3.275976401226234347e-01
-4.977225475045616854e-01 7.760383586604087114e-01 3.470622365220590311e-01 -5.478674843010598039e-01 7.697538605500565678e-01 3.275976401226234347e-01
-5.210526457891098140e-01 7.454531124927440411e-01 3.676843153573791101e-01 -4.873052225494575729e-01 7.837482467687815202e-01 3.850614311546724511e-01
-5.032706933401088767e-01 7.479825716292685112e-01 4.037996087328863948e-01 -4.873052225494575729e-01 7.837482467687815202e-01 3.850614311546724511e-01
-4.735201815952235216e-01 7.715749292604512366e-01 3.679507614736975407e-01 -4.618196781777705873e-01 8.307878648106701291e-01 3.106671989945322676e-01
-4.594054003555484433e-01 7.724099690555779052e-01 2.448051573625805721e-01 -4.618196781777705873e-01 8.307878648106701291e-01 3.106671989945322676e-01
-5.558625872875335716e-01 7.858424042866796189e-01 3.426627433870359507e-01 -4.929523258706141609e-01 7.926336294752888145e-01 3.587895397633302230e-01
-4.535879006696290072e-01 8.232938241693825709e-01 3.308571836677783873e-01 -4.929523258706141609e-01 7.926336294752888145e-01 3.587895397633302230e-01
-2.447289720570323956e-01 8.906519413072863101e-01 3.585949357540003657e-01 9.226864187253179805e-01 3.792281604442465648e-02 -3.836816815057866870e-01
-2.539201443534353508e-01 8.212174176290101268e-01 3.471936535712500382e-01 9.173080274652253285e-01 5.171168212122766172e-02 -3.948061355653564863e-01
-2.987668475883412667e-01 9.968361325103143322e-01 2.646236015440794898e-01 -2.748145444619854993e-01 9.071496748348594208e-01 3.186792017047236913e-01
-4.038018468286509455e-01 7.975365385620288849e-01 3.921212100087360097e-01 -3.476680992631385192e-01 8.832770582980866703e-01 3.145608542699409593e-01
-3.826660441710907357e-01 9.171524399113659687e-01 2.056914508951628306e-01 -3.476680992631385192e-01 8.832770582980866703e-01 3.145608542699409593e-01
-4.331977163311140910e-01 8.765777272457577762e-01 4.299161273329721311e-01 -3.476680992631385192e-01 8.832770582980866703e-01 3.145608542699409593e-01
-2.307110952861360365e-01 8.868143083269949267e-01 3.867241577085839266e-01 -2.812200880651107293e-01 8.819146776300305079e-01 3.783408033101512968e-01
-2.715669762230762396e-01 8.616769218633499872e-01 3.701611910272454287e-01 -2.940361055360486420e-01 8.950162838393163067e-01 3.353932323462326393e-01
-5.102206644879108133e-01 8.643859727473675036e-01 2.272960870833357072e-01 -3.832593173076048187e-01 8.549278350040878660e-01 3.495864594519242918e-01
-4.249987191201917147e-01 8.713068955701184226e-01 3.068506458295465200e-01 -3.832593173076048187e-01 8.549278350040878660e-01 3.495864594519242918e-01
-4.255088079216823860e-01 7.409199205888035156e-01 3.747890002392571529e-01 -4.172960932688993263e-01 7.997456610341201477e-01 4.315910659404481597e-01
-3.422140113369305237e-01 7.824382147967035017e-01 4.945929880943509271e-01 -4.172960932688993263e-01 7.997456610341201477e-01 4.315910659404481597e-01
-4.722867229963068070e-01 8.405757009450608441e-01 3.961565304394721321e-01 -4.172960932688993263e-01 7.997456610341201477e-01 4.315910659404481597e-01
-3.509841666671144611e-01 8.756776074784794472e-01 2.977082424988322096e-01 -3.016801776731473095e-01 8.573104935952081673e-01 4.171424073031159696e-01
-3.072872281819958862e-01 8.620803630525462058e-01 5.461853850839781810e-01 -3.016801776731473095e-01 8.573104935952081673e-01 4.171424073031159696e-01
-2.676576853679049073e-01 8.490416298279145346e-01 3.377413161087380322e-01 -3.781751966500427886e-01 8.456919150469169866e-01 3.765484105171333917e-01
-4.808136081042741483e-01 8.955984875909994702e-01 3.819931378201134597e-01 -3.781751966500427886e-01 8.456919150469169866e-01 3.765484105171333917e-01
-3.915099984081388262e-01 8.431203404895595277e-01 4.873188326778017387e-01 -3.781751966500427886e-01 8.456919150469169866e-01 3.765484105171333917e-01
-2.571985892579047306e-01 8.924085012492309898e-01 3.374887955546203577e-01 9.092785899299293817e-01 8.958585074900256295e-02 -4.064318162258174216e-01
-1.733066309180215092e-01 7.593817818027348565e-01 4.260668608857060558e-01 9.147726922706885810e-01 1.012882617254550893e-01 -3.910647126914826299e-01
