4.209692471889201482e-01 -4.317708404631330210e-01 -2.194332315282406520e-01 2.793314883513729474e-01 -2.872362557954548090e-01 -9.162255469981258615e-01
4.914963603405943515e-01 -5.337900895031566506e-01 -2.432856262131233016e-01 2.899941896693294385e-01 -2.739130569059750608e-01 -9.169923703141990012e-01
5.761551919076415285e-01 -4.493774891546202799e-01 -2.337468101170309676e-01 3.088556848801506383e-01 -2.718813939436764415e-01 -9.114212382561953651e-01
4.987660078612589643e-01 -4.460309896681103337e-01 -1.616455404234025395e-01 3.372334547427713880e-01 -2.717404570396931840e-01 -9.013493889775006096e-01
6.234767672254782900e-01 -4.587093688922395107e-01 -1.267042186135121651e-01 3.372334547427713880e-01 -2.717404570396931840e-01 -9.013493889775006096e-01
5.411378028584510336e-01 -4.563639231147849085e-01 -1.383886018226184178e-01 3.386988573488529108e-01 -2.731228364610654991e-01 -9.003815859034677294e-01
6.028937126903922694e-01 -4.450686306992838737e-01 -2.749401153808004317e-01 3.386988573488529108e-01 -2.731228364610654991e-01 -9.003815859034677294e-01
5.150030303374690810e-01 -4.099339207504371085e-01 -1.507578687754259628e-01 3.417374091730662200e-01 -2.707844318924969018e-01 -8.999396283175543632e-01
6.367248298353664904e-01 -4.620557963449495320e-01 -1.663608942857970063e-01 3.427166821265443808e-01 -2.718467274979687320e-01 -8.992467028245465510e-01
-6.083239043783341682e-01 -4.166351336189794141e-01 -1.180964504952237148e-01 -8.944960180450824971e-01 4.411193355707060393e-01 -7.273654849627167462e-02
-5.014982784551643702e-01 -4.057841689798555862e-01 -1.482814253433760721e-01 -3.295600344379555624e-01 -2.439500209154314425e-01 -9.120737749747079848e-01
-5.171688329156785002e-01 -4.404494946356183882e-01 -1.473196544242445505e-01 -3.303340419246044157e-01 -2.580803667709763438e-01 -9.078953381492340657e-01
-5.396291204098035976e-01 -3.429016980716447782e-01 -1.251775177319624233e-01 -3.377638647674437444e-01 -2.670799783898545887e-01 -9.025429944333038801e-01
-5.031555474284983287e-01 -4.551642923667477136e-01 -1.863274009476782733e-01 -3.176868018786330183e-01 -2.571682156218472737e-01 -9.126552496896082056e-01
5.616391657222382650e-01 -4.690126959913973326e-01 -2.160088223259611639e-01 3.075179572481911983e-01 -2.576038147044347193e-01 -9.160092688502792235e-01
5.542912002267084137e-01 -4.146090077346636926e-01 -2.340206456529000667e-01 3.075179572481911983e-01 -2.576038147044347193e-01 -9.160092688502792235e-01
5.195523164661564053e-01 -3.440443069853976743e-01 -2.517924175928886177e-01 3.285655771956741966e-01 -2.445049388580564920e-01 -9.122839450281318152e-01
5.332957124617531131e-01 -3.211756780912203291e-01 -2.295904112517624662e-01 3.389499814273114198e-01 -2.497194770292553434e-01 -9.070573812514071133e-01
6.177118167442466889e-01 -4.437055210308277764e-01 -2.109583181716703781e-01 3.413547805944485147e-01 -2.527704280356276034e-01 -9.053088006177789637e-01
5.566756901559427595e-01 -3.909923761256725028e-01 -1.880982442180794967e-01 4.288003292462632121e-01 -2.522932129962949799e-01 -8.674551356204551755e-01
-5.545729914375789882e-01 -3.703386428523160467e-01 -1.586504679942548623e-01 -8.616660784463214817e-01 2.239720473609652651e-01 -4.553768672823369501e-01
-5.532459531440785394e-01 -3.703088830487964445e-01 -2.608204478735536291e-01 -9.092426978244347868e-01 4.150718807931140231e-01 -3.151269946879503570e-02
6.383872886919769174e-01 -3.674768690955635408e-01 -2.375364541024143628e-01 8.891487315166828331e-01 1.419390501632863677e-01 -4.350492377662763532e-01
5.611367734614893799e-01 -3.873893532360516145e-01 -1.676856930115715461e-01 8.905213035590942017e-01 4.544341688976298865e-01 -2.148008486324306382e-02
-5.208502747464208715e-01 -3.464158389871551669e-01 -1.836759580239650247e-01 -8.736348858428604203e-01 4.865820013174946834e-01 2.055047298280798232e-04
5.919119836864714657e-01 -3.409392431412028301e-01 -2.917073209607213280e-01 8.756205834991198644e-01 4.829471774919067428e-01 7.114598039370334005e-03
-5.649576697285451088e-01 -2.739393620571586307e-01 -1.588639175737711906e-01 -8.645747733987716455e-01 5.025041900872655454e-01 -1.213276226326568641e-05
-4.722586158867557726e-01 -2.519912651452071439e-01 -1.530425934587110737e-01 -8.646788945287450234e-01 5.023248583999947448e-01 3.820863418564593873e-04
-4.968256234374757718e-01 -2.025075808266937616e-01 -1.239862225252112427e-01 -8.628924399521546995e-01 5.053565744828371065e-01 5.600866039283373780e-03
-5.656616930771545260e-01 -2.376943655570143421e-01 -1.375379748799696322e-01 -8.628924399521546995e-01 5.053565744828371065e-01 5.600866039283373780e-03
-1.645430086475986042e-01 -2.484897864631221420e-01 -1.700833994786163372e-01 5.052194141890190698e-02 9.987217459612564019e-01 -1.551637639624122355e-03
-1.505750450660963413e-01 -2.770075224195926444e-01 -1.592908586295652129e-01 5.052194141890190698e-02 9.987217459612564019e-01 -1.551637639624122355e-03
-6.408747068644427003e-02 -2.945613509195956770e-01 -1.919365909855757779e-01 -2.446866440896849071e-01 9.696019048686679298e-01 -7.695967637758845473e-04
1.469766087469492888e-01 -2.835264673514354961e-01 -1.531320824338433806e-01 2.433690472690191731e-01 9.699337320031291565e-01 2.497075328274521357e-04
1.545360502773686084e-01 -2.091610964382204507e-01 -1.319217834715352144e-01 2.420832027917243223e-01 9.702550566234124929e-01 -9.208815337875551942e-04
1.586036885197579516e-01 -2.663183414385432157e-01 -1.841300650493455371e-01 -5.383822795973956798e-02 9.985495784860012325e-01 -4.295527724837771774e-04
1.360939348944134875e-01 -3.343111943595874491e-01 -1.302820247763229189e-01 -5.313674817304252229e-02 9.985872320450644990e-01 1.612146747373431111e-04
5.536413807495186301e-01 -3.534041403298520678e-01 -2.400100160633442670e-01 8.596529668243690914e-01 5.108487615594741182e-01 5.506309400285371719e-03
5.817946151963795387e-01 -2.180730258584239745e-01 -1.184954779457094848e-01 8.596529668243690914e-01 5.108487615594741182e-01 5.506309400285371719e-03
4.329890327282442386e-01 -2.329756900623513316e-01 -2.083926212224244123e-01 8.564740620962685291e-01 5.161900395063703240e-01 1.551474429331241626e-04
5.820555809546993364e-01 -2.488393543961541499e-01 -2.209056705019813993e-01 8.663679099939732842e-01 4.993672648544387194e-01 6.243342411837974129e-03
-4.984837314598108415e-01 -2.825307618983095015e-01 -1.952190225595941409e-01 -8.654604763442005355e-01 5.009294342830578062e-01 6.918508143028592738e-03
-5.412090433127036970e-01 -2.770432636882446675e-01 -9.164916336100661920e-02 -8.654604763442005355e-01 5.009294342830578062e-01 6.918508143028592738e-03
-4.534812489344154929e-01 -3.022303551361181784e-01 -1.413239176628623417e-01 -8.654604763442005355e-01 5.009294342830578062e-01 6.918508143028592738e-03
-5.271389697847741473e-01 -1.564780389284391449e-01 -1.564928128907623339e-01 -8.688192887493519923e-01 4.951280421934678433e-01 -1.124869207447544298e-03
-2.014476910516721786e-01 -3.544569429049684306e-01 -1.926876715930179451e-01 8.687434688003585759e-01 4.952623320694262143e-01 8.859951398594023155e-05
-2.054355715486828049e-01 -2.949551991262324702e-01 -1.172133798045371100e-01 4.717806629253430972e-01 8.817159386867245985e-01 -9.775229813186341640e-05
-1.339326993838491076e-02 -3.070271079557420624e-01 -9.003228864389381525e-02 -4.498731234249401245e-01 8.930924689082407886e-01 -1.216522562927770064e-04
-6.902468110991594186e-02 -2.626255183026645623e-01 -1.183877632005668618e-01 -4.501992428091586840e-01 8.929279896051223187e-01 4.971456674242297593e-04
-8.232881272227310365e-02 -2.092836576885552247e-01 -1.324266545450972221e-01 -5.935028885781050700e-01 8.048318139423203954e-01 -2.692875034319832197e-04
-7.536448880882667956e-02 -2.885854104773643569e-01 -9.133818146733856114e-02 -5.933424288064610419e-01 8.049501610194945700e-01 2.127767507553643265e-05
8.698434177423093605e-02 -2.394620444573447304e-01 -1.863501894540493253e-01 5.932129112856534547e-01 8.050456147437526910e-01 8.114957970748428169e-06
6.937372781183295811e-03 -1.718432427604254520e-01 -6.483189419430063216e-02 5.932129112856534547e-01 8.050456147437526910e-01 8.114957970748428169e-06
7.845752896558491618e-02 -1.765571816060435006e-01 -1.340944160690211717e-01 5.930555463994329202e-01 8.051615009995073402e-01 -2.760309593690357904e-04
8.397800958764758961e-02 -2.502862428088412083e-01 -1.855963748736242369e-01 4.493261914775828481e-01 8.933676565576287310e-01 4.515185282590428281e-04
4.783967498926894324e-02 -2.811691494630221277e-01 -1.882688675496008990e-01 4.496250672242109170e-01 8.932173787585703240e-01 -1.149229855503804772e-04
2.559860267544908363e-01 -2.768602374581147219e-01 -2.019140154497816586e-01 -4.717696689336048355e-01 8.817210655497028648e-01 1.158464575843354228e-03
1.947913993939067445e-01 -2.165660401943035884e-01 -1.833849903580897500e-01 -8.691851955304968902e-01 4.944841566250892662e-01 -1.585786046769585437e-03
1.758400996805474792e-01 -2.610615507216977882e-01 -8.807869823419056665e-02 -8.680934361927752363e-01 4.964004400901186331e-01 6.237927192247967644e-04
5.110893351156459152e-01 -2.303015119546621414e-01 -2.869705711807378212e-01 8.686544739371242496e-01 4.954182365645394270e-01 4.192711530725787869e-04
4.899954437658463058e-01 -2.925574331496202385e-01 -1.766993080536602700e-01 8.691708095866742534e-01 4.945114401137896687e-01 -7.344106693839524665e-04
-5.229680651318153739e-01 -2.087319989638667939e-01 -2.397101905819523371e-01 -8.959069203538105874e-01 4.442181795561418456e-01 -4.582468109902487416e-03
-5.069069066785469868e-01 -2.451015496302495211e-01 -2.101708959697721479e-01 -8.959069203538105874e-01 4.442181795561418456e-01 -4.582468109902487416e-03
-4.302384549063630326e-01 -2.071956666869423647e-01 -1.710563298285085188e-01 -9.563147586747632323e-01 2.923385286957511098e-01 5.167018802432235243e-04
-4.647770694551080495e-01 -1.544226219794680999e-01 -1.946318216917097554e-01 -9.557862381465960233e-01 2.940543981453379585e-01 2.162845570418795577e-03
-2.271606900546863095e-01 -2.189297966288026587e-01 -2.031314927346573318e-01 9.992442207668768006e-01 3.872153025238635887e-02 3.410331202476461765e-03
-2.870573423336154617e-01 -1.978974058440787498e-01 -1.235528279090308129e-01 9.993715146404408278e-01 3.542059827958675411e-02 -1.398907712249758970e-03
-1.121210599585628909e-01 -2.635262115886818357e-01 -1.177262369616842441e-01 -6.865726364890856193e-01 7.270612180107353106e-01 -9.443093791483330853e-06
-5.681447319661560302e-02 -2.380862586688224924e-01 -1.769594413153373624e-01 -6.865391015821856735e-01 7.270928799789236896e-01 -7.669862934182579439e-05
-5.747320849110724300e-02 -2.781664831827116435e-01 -1.416770031494022364e-01 -6.865391015821856735e-01 7.270928799789236896e-01 -7.669862934182579439e-05
-4.794017281512776008e-02 -2.784295607174128717e-01 -1.950720850402183626e-01 -7.511733567184116778e-01 6.601049602605710831e-01 1.720342518224639500e-04
-4.139625597813215152e-02 -1.869510598970451909e-01 -1.374314961866208717e-01 -7.512026525829870183e-01 6.600716409712856780e-01 5.947905585411827759e-05
6.365904657569312897e-02 -1.766218315885906831e-01 -1.167078104711870290e-01 7.511506985973626094e-01 6.601307639886074830e-01 4.932049992127433521e-05
3.656804925242068682e-02 -1.928076940534296790e-01 -1.767182940102223210e-01 7.511326056116551797e-01 6.601513526151138178e-01 -2.067561309215242224e-05
1.317163707038087606e-01 -2.008266362494501578e-01 -1.836803102281486522e-01 6.863828796011042233e-01 7.272403355456662499e-01 1.922132225313699563e-04
2.454214690056484294e-01 -2.004336410003181856e-01 -9.910784358062421640e-02 -9.993692633424496874e-01 3.551145013222440500e-02 -1.113367686169959022e-04
1.868943773912899453e-01 -2.321123230789873815e-01 -1.547118314635047842e-01 -9.993692633424496874e-01 3.551145013222440500e-02 -1.113367686169959022e-04
2.209979838833609767e-01 -1.731199368049379794e-01 -1.911588267237840921e-01 -9.993712906581029287e-01 3.545409926562387293e-02 -1.739356806646356109e-04
2.382951920312620375e-01 -1.759151029957045920e-01 -1.268671748689981782e-01 -9.993712906581029287e-01 3.545409926562387293e-02 -1.739356806646356109e-04
4.464037580556877161e-01 -1.818957446190824778e-01 -1.209357508747879728e-01 9.497476102752626659e-01 3.126147199324653680e-01 -1.585918213447020178e-02
4.090413971255051351e-01 -1.705482852088044399e-01 -2.461781336626653327e-01 8.965621112343410415e-01 4.429084291460792522e-01 -2.916177356307244391e-03
-4.922831369730849560e-01 -9.660426956143125521e-02 -1.432193869787296847e-01 -9.985054607654767489e-01 -5.418878690202220960e-02 7.100717964436566512e-03
-2.752741936171907988e-01 -1.847073775961439457e-01 -1.426957982037194705e-01 9.658714849789807877e-01 -2.590168770503269435e-01 1.591196906233873333e-03
-1.433779461745721684e-01 -1.807499627477323345e-01 -7.690283821879673187e-02 9.655265938631392153e-01 -2.603041800206419842e-01 -3.611188525419726267e-04
-1.428229698640214734e-03 -2.130360328957965343e-01 -1.981987516309562658e-01 -6.966913926246620647e-01 7.173709643153615145e-01 -5.477186700700750993e-05
2.724744328734689941e-02 -1.825661558563612952e-01 -2.258720408210336816e-01 -6.966891243290687097e-01 7.173731669704713765e-01 -5.789949736901628196e-05
-1.078149524740662328e-02 -2.339140683349213712e-01 -5.798662710788428376e-02 4.024942242559822049e-04 9.999998371167023725e-01 4.046788457711432288e-04
2.430280211839592336e-02 -1.069826414662705671e-01 -1.510921638467717654e-01 6.967813816156983586e-01 7.172835224776773488e-01 2.337000931922033188e-04
2.150046906828627646e-01 -1.149892476008785303e-01 -1.565770761286474633e-01 -9.656406344349849347e-01 -2.598806003140425314e-01 4.885779493811459855e-04
4.785320590258615447e-01 -1.872685707581062398e-01 -1.773761979666539645e-01 9.996533083917815699e-01 -2.152687816808407720e-02 1.516102033842290156e-02
4.801265493437619769e-01 -1.347974305085278823e-01 -1.720454847676161914e-01 9.992165955630106788e-01 -3.920314248903233878e-02 -5.413757516859177797e-03
-5.145657678730486406e-01 -9.483534964396372891e-02 -1.080574718458413158e-01 -4.582034033996962297e-01 -8.888204046890644250e-01 -6.923100555587169760e-03
-5.677341549100072271e-01 -4.908049179414070151e-02 -2.391371373133937550e-01 -4.535749595840972148e-01 -8.911931635357732695e-01 6.670929874107270861e-03
-5.406517844617502178e-01 -1.708943281172536910e-02 -2.058644478420357249e-01 -4.535749595840972148e-01 -8.911931635357732695e-01 6.670929874107270861e-03
-4.209790530222696225e-01 -6.974975049683586337e-02 -1.004856163124715346e-01 -5.842949933046638344e-01 -8.114339442131107694e-01 -1.320283976488257488e-02
-4.800002277983058119e-01 -1.213619898443731721e-01 -1.764899937392687135e-01 -5.987111895139152207e-01 -8.009543215121706083e-01 4.133570104779838057e-03
-5.372010868938067452e-01 -1.507142137379000046e-01 -2.786141895058303897e-01 -8.255769723623626044e-01 -5.640754217964304429e-01 -1.554288358619275272e-02
-4.763260898993965653e-01 -1.335510511504615638e-01 -1.388394463085576014e-01 -8.438370353752002728e-01 -5.365339701290412489e-01 8.387885714646908797e-03
-2.059472216069176687e-01 -1.132006941862314098e-01 -1.483928496160819011e-01 9.097049372932758393e-01 -4.152551625557479587e-01 2.775518624149976642e-04
-1.927344782772464071e-01 -1.233788402017484409e-01 -1.977380716546931483e-01 8.597728153296798626e-01 -5.106767131091437539e-01 2.661047536572804759e-05
-1.165432205378919006e-01 -9.745993731385242664e-02 -1.808549925854052720e-01 8.597728153296798626e-01 -5.106767131091437539e-01 2.661047536572804759e-05
-1.092575056801575323e-01 -1.124160538372294404e-01 -1.502669486175194358e-01 8.597826233575798227e-01 -5.106601979383958989e-01 5.304598288013976271e-05
2.380226207956824824e-01 -2.876994429228652006e-02 -1.501701499565556985e-01 -8.594442166984874731e-01 -5.112295110252034203e-01 -1.595006419043114439e-04
1.962425280454942467e-01 -1.407202235841121252e-01 -1.809507682707655052e-01 -8.594091056614008295e-01 -5.112885565612574901e-01 3.218348861514910082e-05
1.186527060951973467e-01 -9.482967799098816764e-02 -1.871612318928294327e-01 -8.594091056614008295e-01 -5.112885565612574901e-01 3.218348861514910082e-05
2.798499059997929805e-01 -8.216513708801211069e-02 -2.018086707845218597e-01 -9.092380927597448759e-01 -4.162763502068823063e-01 3.015510880205072783e-04
2.607409466198301606e-01 -1.198459508120703482e-01 -1.047120437485949684e-01 -9.092380927597448759e-01 -4.162763502068823063e-01 3.015510880205072783e-04
1.211432219594925780e-01 -9.498010842491763639e-02 -1.820344018576069423e-01 -9.091427506049820639e-01 -4.164846421297567769e-01 4.350236689426203979e-05
4.270452932426804238e-01 -1.311379984800935816e-01 -1.679534451404368911e-01 8.526013034081330044e-01 -5.225472709488556688e-01 3.920082990959090040e-03
5.022147779448229432e-01 -1.488715987652610706e-01 -2.212043662982809966e-01 8.592935222336414158e-01 -5.114287467062245129e-01 -7.435031257697191642e-03
3.923044342738367662e-01 -1.594096479906407238e-01 -2.504261463411087130e-01 6.026568830620134820e-01 -7.979948607702586072e-01 2.980517108535017147e-03
4.285744518665010605e-01 -1.661848935838261543e-01 -1.433348109810438364e-01 6.045561156126542102e-01 -7.965624735592967687e-01 3.588766273990837466e-04
4.694218471616107835e-01 -8.536505729998339342e-02 -1.097241424983640828e-01 4.578485736468301259e-01 -8.890207609036833158e-01 -4.095154673422285105e-03
4.885076822522481099e-01 -9.483807192787806206e-02 -1.736764481176343022e-01 4.621762909918159523e-01 -8.867841922498249652e-01 2.621530254195631512e-03
-6.123844832064533339e-01 -3.962906059185467011e-02 -4.983108731385636758e-02 -4.054880689389389614e-01 -9.140999034746852825e-01 8.901773650682935461e-04
-5.753788181419130510e-01 -5.994450289854120345e-02 -2.099771596776089655e-01 -3.988666570542472867e-01 -9.170089336221171061e-01 -7.448219232306302947e-05
-5.895822696465869983e-01 4.363036686705559775e-02 -1.862295960547898088e-01 -3.985306226704078414e-01 -9.171548391373371967e-01 -5.863794866400174992e-04
-5.834875560611245682e-01 -6.295775604190315122e-02 -2.040165788591818963e-01 -4.046913311232677724e-01 -9.144505664000437406e-01 -2.255687105285246810e-03
-5.704493797350249640e-01 -1.300462549196090833e-01 -2.088965960992101856e-01 -4.077260296788123850e-01 -9.131010473334323363e-01 2.441737279329884124e-03
-1.889565643868751643e-01 -6.234028252426500327e-02 -2.263872562456662740e-01 9.122210011338899305e-01 -4.096984779744262117e-01 -4.728342567666455904e-05
-1.125616025398691461e-01 -4.650835331273598522e-02 -1.867548949075161779e-01 9.122757167084839525e-01 -4.095766242989866135e-01 7.437653247697587663e-05
1.331301957395246427e-01 -6.697372464471737508e-02 -1.971543201636585529e-01 -9.131843713490479519e-01 -4.075466880766006050e-01 3.101029073455476069e-05
1.337349764734508395e-01 -2.448468269795877131e-02 -2.102853994892600886e-01 -9.131594514986438593e-01 -4.076025184100057763e-01 -5.589737806083031925e-05
1.729375598142746107e-01 -7.264086148574894208e-02 -1.327775571091086571e-01 -9.131594514986438593e-01 -4.076025184100057763e-01 -5.589737806083031925e-05
6.071688911664046007e-01 -6.291182849299724322e-02 -1.473747717271160218e-01 4.107916534735827074e-01 -9.117276508989092809e-01 -1.705292583871231490e-03
5.213913287159730459e-01 -5.654660593125255402e-02 -1.609611564707227327e-01 4.071217908157529486e-01 -9.133724510267611230e-01 1.616523535634400467e-03
5.353570825649075493e-01 -1.000600709782315523e-01 -1.907773970661967300e-01 3.990029031921698000e-01 -9.169496512138398669e-01 -1.427691742792720319e-04
6.002497819172190052e-01 -1.437250784753040661e-02 -1.950688674106107190e-01 3.986998523304064457e-01 -9.170814656058071668e-01 1.148652115018524686e-04
5.934749457606594003e-01 -9.817451644233848862e-02 -2.069551390642823951e-01 4.049338820714936671e-01 -9.143456697389144017e-01 7.398514754302049990e-04
6.083846571700726180e-01 -3.602617837906056664e-02 -1.002627184406893190e-01 4.046252925322944560e-01 -9.144825702764790565e-01 -3.610650047786377853e-05
-6.947462514010833701e-01 2.362922434983047090e-02 -5.620950516734567193e-02 -4.503326197793978136e-01 -8.925174897108455463e-01 -2.476009133413772587e-02
-6.168235126036185623e-01 -5.330599872166673185e-03 -1.264844181510489107e-01 -3.936674895237295413e-01 -7.736069828343943022e-02 -9.159919377664756945e-01
-6.930054492896702278e-01 -7.837061745124604406e-02 -9.421537011502761905e-02 -3.936674895237295413e-01 -7.736069828343943022e-02 -9.159919377664756945e-01
-6.595905224469579275e-01 3.017288169502706924e-02 -1.622784881970298354e-01 -4.720188040883161462e-01 -8.815508970367220698e-01 -8.140302253998093693e-03
-6.483628041194305913e-01 -2.993555221973132063e-02 -1.938080599496097012e-01 -4.350320683441611380e-01 -9.003338593639214071e-01 1.208475051740088083e-02
-6.717793809323241438e-01 -1.813694037242054302e-03 -1.396090743353518848e-01 -4.184832181809076679e-01 -9.081987449322416195e-01 6.843668932079133294e-03
-7.024824972382889277e-01 2.759634957870603367e-02 -1.551277123598535645e-01 -4.184832181809076679e-01 -9.081987449322416195e-01 6.843668932079133294e-03
-2.109370168101369902e-01 2.029485373813871493e-02 -1.568691204654356353e-01 4.017395293641924381e-01 9.157539785752020212e-01 -3.563601292992169597e-05
-2.194404335541388917e-01 -3.023769649968404208e-02 -6.559997361967472018e-02 4.017395293641924381e-01 9.157539785752020212e-01 -3.563601292992169597e-05
-1.169741204904336807e-01 -6.244241544693301948e-03 -1.844990429953504429e-01 4.018109705080193383e-01 9.157226191888697686e-01 1.693672925256139408e-04
-1.713543197340943736e-01 3.382286949079014310e-02 -1.762222716682304013e-01 4.018109705080193383e-01 9.157226191888697686e-01 1.693672925256139408e-04
-1.651145954062833154e-01 1.026318733945886380e-02 -1.479399172272178042e-01 7.939017178144609499e-01 6.080456923755892529e-01 7.059991064845105684e-04
-1.626748527313753856e-01 -1.573118231857752874e-02 -1.139816224161403213e-01 7.945798548258716787e-01 6.071596532124303724e-01 -9.907501183061859327e-05
1.144557293520418184e-01 -1.009043554831605682e-01 -1.977342728296506424e-01 -8.042079697379508341e-01 5.943479610961939219e-01 2.062783560885285698e-04
2.239852204720159667e-01 -2.297993534766260698e-02 -6.968037186105739689e-02 -4.028135150111231133e-01 9.152820706613674639e-01 -5.701072909860970428e-05
6.714863823190314607e-01 -5.879676344629415630e-02 -1.988708053345362159e-01 4.183438162539947491e-01 -9.082887458065940223e-01 -7.512075829543534019e-05
7.111367606818794762e-01 -7.751271394657308078e-02 -1.913379373119785398e-01 4.133251799667285731e-01 -9.105645243075508599e-01 5.877301934977813627e-03
5.912091432248186562e-01 -1.034427488298125114e-02 -1.434878837267182794e-01 4.133251799667285731e-01 -9.105645243075508599e-01 5.877301934977813627e-03
-7.447224284136411132e-01 -3.021533141666719532e-02 -2.047317250626782270e-01 -5.023762100740349901e-01 -7.786120535423608768e-02 -8.611363284941789820e-01
-6.495827897653292382e-01 -2.824197302405516419e-02 -1.878171683689832672e-01 -4.105327786028820092e-01 4.337768809659680973e-03 -9.118355232465726878e-01
-7.343809319419269954e-01 7.836520370117211476e-02 -1.727379747639568586e-01 -4.136510837882225178e-01 -8.092046249962751110e-04 -9.104351300717167250e-01
-1.404402529528803178e-01 -4.438948862129907247e-02 -2.111679874341337859e-01 6.529161482007418416e-01 7.574300699554380456e-01 4.388006462261154119e-04
-1.959661452971335760e-01 9.225478815510063102e-02 -1.223734953812181392e-01 6.529161482007418416e-01 7.574300699554380456e-01 4.388006462261154119e-04
-3.482802985834734799e-01 4.728454898105061838e-02 -1.791179181283366617e-01 6.529161482007418416e-01 7.574300699554380456e-01 4.388006462261154119e-04
-2.902938689754280821e-01 7.941977693754542766e-02 -2.197970429243000512e-01 6.521486785987774537e-01 7.580876785626069481e-01 -2.274338019241483287e-03
-2.624806957351863979e-01 4.697754300731869087e-02 -2.407581928120762216e-01 5.252156331837356529e-01 8.509684792202937276e-01 1.089051379943393755e-03
-3.000084324205191666e-01 2.312086502143200287e-02 -1.138018511489000406e-01 5.262456172662698384e-01 8.503325406500338302e-01 -3.473034711600133263e-04
-2.029608131662858084e-01 8.811563460101454887e-03 -1.251145668286491319e-01 4.248841155463430885e-01 9.052476933157275196e-01 3.195355321093545399e-04
-2.071928593553133691e-01 2.601062036301674679e-02 -1.458992424949016320e-01 4.256707914184152952e-01 9.048777213222024551e-01 -8.287267090629332669e-04
-2.298358541546510203e-01 -9.146320810282470778e-03 -1.745943706108912530e-01 4.256707914184152952e-01 9.048777213222024551e-01 -8.287267090629332669e-04
2.189279347215875859e-01 -5.532500384166563062e-02 -1.398846701817576532e-01 -4.255759111753947832e-01 9.049227268867288121e-01 -4.680939354281910621e-05
2.134094400244277157e-01 -1.239311995084806800e-02 -1.049991922525967680e-01 -4.256057006766198469e-01 9.049087178006206544e-01 0.000000000000000000e+00
2.943349640077661533e-01 8.204138703894085782e-02 -1.352605813461230932e-01 -4.256057006766198469e-01 9.049087178006206544e-01 0.000000000000000000e+00
2.631908032932832597e-01 -7.354340050818180402e-03 -2.137192424546066061e-01 -5.267183153670285112e-01 8.500397304668523280e-01 5.223837292558012159e-04
2.704298943232820718e-01 4.609738784030374681e-02 -1.734761493206933847e-01 -5.267183153670285112e-01 8.500397304668523280e-01 5.223837292558012159e-04
2.122363435322251191e-01 -5.466410044134438484e-02 -2.176528272890184967e-01 -5.264261843012393305e-01 8.502208374781445865e-01 0.000000000000000000e+00
1.613391285548280707e-01 -5.013600009125133983e-02 -1.768043172517905770e-01 -6.543277648587058071e-01 7.562101801229734743e-01 -1.157416688224276700e-03
2.761644000182784109e-01 6.316320125619498405e-02 -1.899509564921508797e-01 -6.532350121895859063e-01 7.571549785898158413e-01 5.977008677250614547e-04
6.898019523327911795e-01 2.706245945686394302e-02 -1.368953526277654209e-01 4.144424880739220884e-01 1.043887788888567779e-02 -9.100156338808239598e-01
8.045559880230092054e-01 1.557782648935762682e-02 -9.878800244880119041e-02 4.749176725804396537e-01 -8.797318342935034341e-01 -2.291514785826747475e-02
6.882678317057621120e-01 8.843720810861810389e-02 -1.301116735178712291e-01 4.358625769489246071e-01 1.503545710751769300e-02 -8.998876313434976959e-01
7.559503253328190286e-01 2.241361045154929149e-02 -2.010458576251916152e-01 4.358625769489246071e-01 1.503545710751769300e-02 -8.998876313434976959e-01
7.746821233856899802e-01 5.880848822621867478e-02 -1.104045317910642698e-01 4.500828446539467120e-01 -6.491788384568063230e-02 -8.906239954690250427e-01
7.894084932237233065e-01 -5.288626335114809951e-02 -1.037364158659908886e-01 4.500828446539467120e-01 -6.491788384568063230e-02 -8.906239954690250427e-01
-7.371922941081596736e-01 7.948796962481542716e-02 -1.498481747474735559e-01 -4.438386736303105984e-01 1.834546251548628895e-02 -8.959189002332630380e-01
-7.471229226699264148e-01 -6.950491969515543156e-02 -1.215370140254307119e-01 -4.438386736303105984e-01 1.834546251548628895e-02 -8.959189002332630380e-01
-7.579570781154931769e-01 4.828758447237863766e-02 -1.720893208076989811e-01 -4.527604369435409004e-01 2.836980517682816810e-02 -8.911807565768702366e-01
-6.400435280097458435e-01 5.343620278936339618e-02 -1.182545331967062574e-01 -4.291737627080992046e-01 1.347763574706973937e-02 -9.031213842765773991e-01
-7.154319238464403874e-01 2.187367278847912599e-03 -1.506636718161532829e-01 -4.354243994698503983e-01 1.852541567011690288e-02 -9.000346667326596384e-01
-6.564049005132677195e-01 4.502665558851793454e-02 -1.755109453663347974e-01 -4.095800263359423710e-01 3.415459942287695644e-02 -9.116346117633488122e-01
-6.594456923341941446e-01 3.130020465946157376e-03 -2.186728157443129927e-01 -4.187336530160817305e-01 1.392692108972618491e-02 -9.080022955371689353e-01
-2.583328471024955442e-01 2.739842292461725295e-02 -1.730653059651507952e-01 8.443913442918431489e-01 5.357151321524806775e-01 3.543284897375303250e-03
-3.173939486793088127e-01 8.092213445273026273e-02 -1.775509818160068976e-01 8.461334078386471003e-01 5.329699515513687258e-01 -1.134408519692462185e-03
2.600928843348352393e-01 3.945952422755487354e-02 -1.691222597452584075e-01 -8.478270285930747940e-01 5.302709783240777686e-01 -1.420962442509379189e-03
3.864316521173917218e-01 7.809504377497503147e-02 -1.846769012229238505e-01 -8.467722469378752281e-01 5.319549716615341595e-01 8.184988445046549772e-04
2.679374609844448196e-01 1.082543328229784024e-02 -2.107255002263146992e-01 -8.467722469378752281e-01 5.319549716615341595e-01 8.184988445046549772e-04
6.593350847886867427e-01 1.282651158947332726e-01 -2.520754792845772418e-01 4.192105293452062509e-01 3.169857631134341547e-02 -9.073355125563785650e-01
6.596869957886807301e-01 5.080586552304806186e-02 -1.861536518716044863e-01 4.108585106598542924e-01 1.420841066381884482e-02 -9.115883968572519036e-01
7.283823797644234377e-01 1.380432781481771148e-02 -1.712373386686600329e-01 4.376572844812497420e-01 2.041442991188809411e-02 -8.989100913839331852e-01
7.232383603535016414e-01 5.476496976725837157e-02 -1.855411348438414376e-01 4.265004730467871208e-01 3.251098205913998535e-02 -9.039028612281393427e-01
7.180049999872306632e-01 -8.611352189664973900e-03 -8.493091189105780869e-02 4.490698820968134775e-01 2.230748146990269021e-02 -8.932181241242387326e-01
-7.403826089122007570e-01 9.334668169832273377e-02 -1.500652090837367170e-01 -4.437531778817795369e-01 5.075712607995361281e-02 -8.947104734336832621e-01
-7.681259556768639252e-01 1.496552409148725893e-01 -1.544368247543411454e-01 -4.509496257491510396e-01 5.869166190741650913e-02 -8.906176081008313483e-01
-7.052566027580335906e-01 1.283186090991925848e-02 -2.106171892463583328e-01 -4.261705939358456652e-01 4.237048664457940261e-02 -9.036500244706852092e-01
-6.952705090217859984e-01 1.015459151681858824e-01 -1.588095288122044202e-01 -4.331809474953844941e-01 5.067058123423374971e-02 -8.998815249378030456e-01
-7.516296373541976328e-01 1.332288630417110264e-01 -1.548493198026431317e-01 -4.079647302859794600e-01 6.021593343419647665e-02 -9.110097805201305965e-01
-3.130433901863466928e-01 1.565293963109530562e-02 -1.742135886021418112e-01 9.999347850819659822e-01 -1.127797727159949789e-02 1.798002153418146393e-03
-3.141008759362274305e-01 1.349077081314122295e-01 -1.436987423712702272e-01 9.999170684882284776e-01 -1.287254980174723680e-02 -3.919279382249525124e-04
2.799134486008234002e-01 1.028617115162629297e-01 -2.599718360203547851e-01 -9.998553296630484644e-01 -1.693732515237829361e-02 -1.564212606791458597e-03
6.935918852074322016e-01 1.457968776839164704e-01 -9.810029559393247667e-02 4.153201166162489577e-01 5.845989610549973126e-02 -9.077949334961060712e-01
8.067097733375787616e-01 -5.200423476507855247e-02 -2.205466560950029575e-01 4.091067663279792099e-01 4.278104929625704128e-02 -9.114830966977804927e-01
7.704562856278572847e-01 1.374567767594423173e-01 -2.018954617657907624e-01 4.338714080462844902e-01 4.969090654391051382e-02 -8.996034765866453009e-01
7.613019464641056500e-01 1.063806025929322774e-01 -1.459656017828618868e-01 4.259111298584339345e-01 5.917052945345446097e-02 -9.028280887892832229e-01
7.300430097524349682e-01 5.053391376510198152e-02 -2.407201555374348378e-01 4.550936092689321089e-01 3.645318171947484892e-02 -8.896971239388735686e-01
7.280006765160467186e-01 5.672884544923619682e-02 -1.881128154272247444e-01 4.431306776618018084e-01 5.044278516914968424e-02 -8.950367187659795665e-01
-6.992459878704586629e-01 1.790542076970321472e-01 -2.024778270410997894e-01 -4.433387247734434933e-01 7.753222319106599369e-02 -8.929946973433311452e-01
-7.520142852037058345e-01 1.534988267022741604e-01 -1.282556258172021235e-01 -4.495051124094558981e-01 8.461780080906251833e-02 -8.892609187994264808e-01
-7.057672208324191621e-01 1.568160994014618781e-01 -2.255697261459153613e-01 -4.247309482157388127e-01 7.034900045654028655e-02 -9.025822066507432906e-01
-7.300810850634001925e-01 8.328817686971240475e-02 -1.977065371220325940e-01 -4.247309482157388127e-01 7.034900045654028655e-02 -9.025822066507432906e-01
-7.425335058433363278e-01 1.380866829632313164e-01 -2.088597484065771726e-01 -4.247309482157388127e-01 7.034900045654028655e-02 -9.025822066507432906e-01
-7.608380558942553495e-01 1.552031654812078554e-01 -1.481494862998777307e-01 -4.301660606856122504e-01 7.745948773826319411e-02 -8.994204734124902068e-01
-6.417863550866320654e-01 1.412531679147547570e-01 -1.747997358018531788e-01 -4.025463395188235149e-01 8.434569358687916962e-02 -9.115054846315211456e-01
-7.089444650268700299e-01 6.346822841570406992e-02 -1.134592876001213058e-01 -4.143787407740348039e-01 6.869282375497064164e-02 -9.075084325553640641e-01
-3.008018512374735498e-01 1.186429169606351697e-01 -1.721961618777525793e-01 7.090088310962051610e-01 -7.051994775066920962e-01 4.175546447701107772e-04
-2.923725631090398069e-01 1.993090009389477113e-01 -1.117206100882288389e-01 7.090088310962051610e-01 -7.051994775066920962e-01 4.175546447701107772e-04
-3.346615003061640947e-01 1.134291026862090518e-01 -1.810457732660710473e-01 7.098790188484229713e-01 -7.043207513007141429e-01 -2.014419518852616185e-03
-3.564673090950974954e-01 1.371102761529521541e-01 -1.654554542119152649e-01 7.098790188484229713e-01 -7.043207513007141429e-01 -2.014419518852616185e-03
-2.850592253988110669e-01 2.621996478849438761e-01 -1.831891741691905329e-01 3.061475001299448495e-01 -9.519829919137620111e-01 1.446122784369915579e-03
-3.033872749104966071e-01 1.495375614248283525e-01 -1.472305369361101568e-01 3.053006721651956301e-01 -9.522559815334964428e-01 -2.126244506478750982e-04
-2.740529658976526006e-01 1.247386715457242251e-01 -1.627921297862273409e-01 3.053006721651956301e-01 -9.522559815334964428e-01 -2.126244506478750982e-04
-2.688831467081991278e-01 6.251510324847420197e-02 -1.524470913297377161e-01 3.053006721651956301e-01 -9.522559815334964428e-01 -2.126244506478750982e-04
-1.693491165353112615e-01 1.425811774432324541e-01 -1.598662517569347241e-01 -9.027157787220060903e-02 -9.959171828633557322e-01 8.429697736661558515e-05
-1.825282492395551570e-01 1.195607852882325794e-01 -1.771331354741789155e-01 -2.100340409973862066e-01 -9.776940734368859687e-01 1.971540301669796286e-05
-1.385999680425157587e-01 9.045737082596339018e-02 -1.298838849413083141e-01 -2.099731106816598858e-01 -9.777071568991925199e-01 -9.021510396798437098e-05
-2.021729112959994024e-01 1.034155265448871430e-01 -1.934450734395611327e-01 -2.099731106816598858e-01 -9.777071568991925199e-01 -9.021510396798437098e-05
-1.742723501299365263e-01 5.713355094854262461e-02 -2.078651959225695789e-01 -1.368024084033990506e-01 -9.905982991410622329e-01 3.328571224343185309e-04
-1.260686221910029270e-01 1.658525000591935528e-01 -2.000938252647444793e-01 6.506895112248907154e-01 -7.593437060379478742e-01 5.441346040901635711e-04
1.563277843922891708e-01 1.437046105258644457e-01 -1.205574192743716216e-01 -6.621663648192203100e-01 -7.493568609514441592e-01 1.571932790409337352e-05
1.991406615816918579e-01 1.364185719565196298e-01 -1.699422489512090739e-01 -6.619669133119902016e-01 -7.495330036253494699e-01 2.866296530509390597e-04
1.186829999129059288e-01 8.403973078761334259e-02 -1.671870859827547517e-01 1.349512355288254584e-01 -9.908522393083142310e-01 6.234535083680408014e-05
1.273914363794891036e-01 1.014652947718323317e-01 -1.906783357909296317e-01 1.350092608957939033e-01 -9.908443366453173473e-01 -3.205017582990156798e-06
1.544161462192244205e-01 2.012290388963628995e-01 -1.869291527546371734e-01 2.104475204536472022e-01 -9.776049944859485086e-01 -5.620418491456990627e-04
1.881527479073677178e-01 5.596479974642003252e-02 -1.857175755198162692e-01 2.104475204536472022e-01 -9.776049944859485086e-01 -5.620418491456990627e-04
1.102710016734971682e-01 1.264239471093926426e-01 -1.248061179755572681e-01 2.101340219311698954e-01 -9.776725897859175340e-01 2.885712768011261203e-06
2.710621648417748109e-01 1.663392210142539684e-01 -1.444231811737201610e-01 9.054392598575244921e-02 -9.958922946098308637e-01 5.787951731216533016e-04
1.647717165778781467e-01 1.512428443849904436e-01 -1.884251157615699501e-01 9.025489919820858797e-02 -9.959186960012583745e-01 -6.423297198755110581e-05
1.865518165629389546e-01 1.429968979854241706e-01 -1.390684439618382062e-01 9.025489919820858797e-02 -9.959186960012583745e-01 -6.423297198755110581e-05
2.062706270484852555e-01 1.571378645526045059e-01 -2.279174801759681901e-01 -3.037316102376619309e-01 -9.527576328853291088e-01 -4.383128683575636034e-05
2.798041792773519054e-01 1.204903244985238708e-01 -2.062191707787947303e-01 -3.035257726783696652e-01 -9.528231076131801203e-01 4.805396558216126616e-04
3.180028188849435833e-01 1.497637646002510647e-01 -1.691350063201688125e-01 -7.063617874311431954e-01 -7.078506023069924824e-01 -7.416675188170884650e-04
2.763695050768755768e-01 1.644539666063538075e-01 -1.638561951432149777e-01 -7.068926946628617536e-01 -7.073207787880174680e-01 1.847349202245159559e-04
3.087401563656053671e-01 1.421673253910504808e-01 -1.016539098585927114e-01 -7.068926946628617536e-01 -7.073207787880174680e-01 1.847349202245159559e-04
6.264974940908699663e-01 9.177939990497091527e-02 -2.338678946251467050e-01 4.127382632493178383e-01 8.435348470243093921e-02 -9.069352874756244631e-01
7.191505591633332584e-01 8.768475915861115300e-02 -2.045200699638374531e-01 4.070771949097818365e-01 6.790739036331019940e-02 -9.108659307046392817e-01
7.258974160671307629e-01 1.088089086891520091e-01 -2.450530534785768655e-01 4.316747148832490999e-01 7.552076419582118283e-02 -8.988623669426508700e-01
7.851160765149408638e-01 8.419939937520991291e-02 -1.526006265206668877e-01 4.503393001096751558e-01 6.701707994859641693e-02 -8.903388263868377006e-01
-6.973197121639356233e-01 1.935966846905075867e-01 -1.959201699839322464e-01 -4.464674811067635973e-01 1.074936690189384481e-01 -8.883197056437669437e-01
-7.155590234147867212e-01 9.727801889361713250e-02 -1.911798922924493327e-01 -4.250510307278144162e-01 9.733759058440684397e-02 -8.999205602365384360e-01
-7.289887909356165263e-01 4.812418393961620522e-02 -1.389647507338041821e-01 -4.304648505426545424e-01 1.033024721533456342e-01 -8.966764253030728993e-01
-6.498599844382055846e-01 1.863082161224801359e-01 -2.382881190808095739e-01 -3.942045148954751443e-01 9.872148374944175742e-02 -9.137050230147210073e-01
-6.778115150023417135e-01 1.514114857130730851e-01 -2.117061004998900264e-01 -4.101017170014986113e-01 9.968262266884557465e-02 -9.065759518376180770e-01
-6.719486757708436064e-01 2.191993859517658849e-01 -1.319473144963106415e-01 -3.899222252743786976e-01 1.130492404581910776e-01 -9.138821190224167834e-01
-2.793095643785931670e-01 1.750397727027029615e-01 -2.096379083494672169e-01 9.843042185104684816e-02 -9.951439038178084839e-01 -2.504964617428455192e-04
-2.632504864007750300e-01 2.443419595396632560e-01 -1.881944470442676320e-01 3.138010227043745400e-05 -9.999999894576943049e-01 1.417741174425975323e-04
-5.131395647049903641e-02 1.346146881442608634e-01 -1.643823781259443895e-01 9.919024576517656566e-01 -1.269801076356935343e-01 -2.359400181222875894e-03
-9.987702780408924674e-02 2.152540472923331338e-01 -1.276533346182090467e-01 9.923051077530714581e-01 -1.238147584481358171e-01 6.918942080085323547e-04
9.929270911426885116e-02 1.737599731397854175e-01 -7.892403665350791742e-02 -9.919706925019762256e-01 -1.264679575954594792e-01 3.031143494341996934e-05
4.544475538774219586e-02 2.492873334503979688e-01 -1.899374901901735302e-01 -9.919706925019762256e-01 -1.264679575954594792e-01 3.031143494341996934e-05
2.085929629159984922e-01 1.386506348972807168e-01 -1.739093213658265136e-01 4.358947250691164936e-04 -9.999998765091382413e-01 -2.386995956494601342e-04
2.708546132618830371e-01 1.758728802317800211e-01 -1.912511760683713036e-01 -9.657149624809421851e-02 -9.953257771299847123e-01 -7.372197747001256679e-04
7.104188465953226173e-01 1.543368919751865187e-01 -1.494654642498829955e-01 3.947545004464032559e-01 1.081347441634789158e-01 -9.124010968220115370e-01
6.720314240585948395e-01 1.286452775477330557e-01 -1.749053594125095923e-01 4.037977731980836316e-01 9.216485124813157681e-02 -9.101939345846460361e-01
6.895599963434755342e-01 1.944272902850180673e-01 -1.849228412236128272e-01 4.285718345417922071e-01 1.009353215492184430e-01 -8.978520164822477723e-01
7.083443372718403186e-01 1.840519237346018300e-01 -2.083490730467258412e-01 4.285718345417922071e-01 1.009353215492184430e-01 -8.978520164822477723e-01
7.679806086870835102e-01 2.009464736160417320e-01 -1.543998220829872481e-01 4.390896570214791739e-01 1.022883997094970465e-01 -8.926014543913929344e-01
-8.177221016766774708e-01 1.837992415272466373e-01 -1.995566477559959917e-01 -4.345413846567834359e-01 1.366639345163531138e-01 -8.902228676141022978e-01
-7.226869006701369669e-01 2.125233631100501286e-01 -1.358112904465855197e-01 -4.308652429226313973e-01 1.247400392737116337e-01 -8.937533580598254757e-01
-6.725106304631881526e-01 1.739389762112658888e-01 -1.105247591896202780e-01 -4.274896944015321720e-01 1.218181168233515160e-01 -8.957750317987751565e-01
-7.211244115353421247e-01 2.027133903200989407e-01 -1.382377174885375259e-01 -4.062724943787856535e-01 1.181418526186457374e-01 -9.060823157810077300e-01
-7.127350087327494199e-01 2.849526366568430613e-01 -2.280152683433693817e-01 -4.113285353511779152e-01 1.242243643472574904e-01 -9.029823604635776046e-01
-6.583558566559331027e-01 2.059035386917945076e-01 -2.121065425024196149e-01 -3.940477279066542105e-01 1.180436247790532106e-01 -9.114779705404981724e-01
-2.044606764402076560e-02 2.525096907952462111e-01 -2.018252860400112647e-01 9.925049260170843990e-01 -1.222000411045052332e-01 -1.059143936917448592e-03
-8.388865177933252371e-02 1.750816355749725550e-01 -1.206392400225271277e-01 9.925049260170843990e-01 -1.222000411045052332e-01 -1.059143936917448592e-03
-1.349614460154693885e-01 1.798531339222303183e-01 -1.003405064990504497e-01 9.925049260170843990e-01 -1.222000411045052332e-01 -1.059143936917448592e-03
-1.677121711121271619e-01 1.905274128662076683e-01 -1.586938348319947845e-01 9.925049260170843990e-01 -1.222000411045052332e-01 -1.059143936917448592e-03
1.019627861362960713e-01 2.386244535107527043e-01 -1.929933753410348340e-01 -9.926460255859580473e-01 -1.210531589862375024e-01 -2.424570648093625814e-05
7.421432966777809226e-02 1.874252741277749046e-01 -1.670733126213799491e-01 -9.926729924380393033e-01 -1.208314925247406663e-01 2.837223149561615525e-04
6.355618925134282060e-01 2.073186501415222871e-01 -1.055745107062931593e-01 3.944047418825011864e-01 1.315937121488721662e-01 -9.094657742342354689e-01
6.566291246478552779e-01 2.427375112748558772e-01 -1.882863784452148137e-01 4.129321171911827792e-01 1.225536441613267330e-01 -9.024786262814129545e-01
6.645958408199741374e-01 1.862955452569372561e-01 -1.401292979970697739e-01 4.383001308549784314e-01 1.254732548742457654e-01 -8.900277847369549855e-01
6.847381949337656426e-01 2.270534152008524820e-01 -1.696510802425272857e-01 4.217888545942432010e-01 1.213982660996050233e-01 -8.985302572134596932e-01
7.501130143730604383e-01 2.204405731816257707e-01 -1.552793065825183172e-01 4.443033820380102306e-01 1.132203068423042330e-01 -8.886932355026230246e-01
-7.323336839146277200e-01 2.449768778261733337e-01 -1.476834972273129987e-01 -4.208469023222925487e-01 1.525834456063473732e-01 -8.942070101115431324e-01
-7.121548987812733600e-01 1.992480974235005253e-01 -2.100020247967529785e-01 -4.259057003310654510e-01 1.590102086247773827e-01 -8.906851789373221306e-01
-6.667976669953235014e-01 2.902098780965781666e-01 -1.714613023140640624e-01 -4.053321707212765856e-01 1.461086197612802007e-01 -9.024179201510970083e-01
-6.411886685946915909e-01 2.344706135153680759e-01 -1.556688822750311729e-01 -4.086090694887618002e-01 1.506425200977742629e-01 -9.001919014688588572e-01
-6.138616719654594878e-01 1.708228912750567319e-01 -1.839334298822659919e-01 -3.909329216595230916e-01 1.435646209949494878e-01 -9.091538100680904844e-01
-6.196546725610048156e-01 2.687157078597498527e-01 -2.154894518665643743e-01 -3.909329216595230916e-01 1.435646209949494878e-01 -9.091538100680904844e-01
-6.480448787067493166e-01 2.210448970596553542e-01 -1.647566683681195576e-01 -3.909329216595230916e-01 1.435646209949494878e-01 -9.091538100680904844e-01
-4.706687944009332186e-02 2.527035173730830531e-01 -1.641784225207662262e-01 9.634359581475463452e-01 -2.679361051956865580e-01 1.182404704643317400e-03
-5.109348727971446680e-02 2.358919332177392136e-01 -1.398588542473418739e-01 9.630707559904554405e-01 -2.692483235236510231e-01 -2.433838036423968080e-04
9.633509015976975121e-02 2.269424785124839472e-01 -1.615046759882706184e-01 -9.630734664248464805e-01 -2.692373043436444568e-01 -8.787594652610515892e-04
6.767663126943426755e-02 2.039304265864342047e-01 -2.544767621633035048e-01 -9.630734664248464805e-01 -2.692373043436444568e-01 -8.787594652610515892e-04
2.747075613445595921e-02 2.817931326894292932e-01 -1.590049442882428554e-01 -9.634061329771516080e-01 -2.680457973368958191e-01 2.710572608693631157e-04
6.214673273145385757e-01 2.514679366204116140e-01 -2.089936279563057164e-01 3.865031488714042451e-01 1.581009967204594635e-01 -9.086360056416906694e-01
6.110451113416573987e-01 2.322510040930451380e-01 -1.660202324988316047e-01 3.817626529192235108e-01 1.437957721488353213e-01 -9.130060529636135902e-01
7.046481074458453842e-01 2.131347329781835276e-01 -2.078067441701982876e-01 3.817626529192235108e-01 1.437957721488353213e-01 -9.130060529636135902e-01
5.966896566617305719e-01 2.671164203701482109e-01 -2.908612117028970268e-01 4.098256188588595417e-01 1.506065688376682643e-01 -8.996447207369682175e-01
6.851151997269178118e-01 2.265264577593010253e-01 -1.773453404295548264e-01 4.098256188588595417e-01 1.506065688376682643e-01 -8.996447207369682175e-01
6.726892959353181212e-01 3.341445226682316916e-01 -1.466347234320310167e-01 3.968187239955033863e-01 1.615994749991453427e-01 -9.035599094507131834e-01
7.063335868191520373e-01 2.265502457087270882e-01 -1.696596997021306563e-01 4.163259583776009465e-01 1.521848332367675138e-01 -8.963885725028345464e-01
-6.575505332008917403e-01 3.611824967905543082e-01 -1.816435452894326896e-01 -4.110665110841276171e-01 1.898408886372102422e-01 -8.916191790593993582e-01
-6.468467188289577230e-01 3.438837865752937817e-01 -2.014306402490126102e-01 -4.024422411647815556e-01 1.729620126401302249e-01 -8.989573875939521619e-01
-6.511289519245100355e-01 2.967903242948458642e-01 -1.424910083057754351e-01 -3.810327457938536555e-01 1.716553766797357938e-01 -9.084869169612376227e-01
-5.866658538188127547e-01 2.501187013094602341e-01 -2.071892937376969279e-01 -3.865534731543885383e-01 1.765093217397207259e-01 -9.052186872415213248e-01
-6.086821443014276412e-01 2.457374117759333898e-01 -2.539692740340993016e-01 -3.865534731543885383e-01 1.765093217397207259e-01 -9.052186872415213248e-01
-1.563782209185108352e-01 2.462083804724529701e-01 -1.705420332589956955e-01 9.099729751068873496e-01 -4.146675242305171705e-01 1.700695549093443734e-04
-1.194424386667101434e-01 2.202363840701044295e-01 -1.654338098491950904e-01 9.101222832773071536e-01 -4.143395133391860607e-01 -4.440359758138341011e-04
-9.175622834083121959e-02 2.774514630251257441e-01 -1.212163115451876660e-01 7.938094551607542959e-01 -6.081665129325488639e-01 -2.035800834485544078e-04
8.559368774451153739e-02 3.257320089170356869e-01 -2.136824401316244071e-01 -7.933148662941383877e-01 -6.088115176135254769e-01 -2.427711459506477504e-04
3.047649231049964769e-02 3.162056504873506091e-01 -1.825156159578940618e-01 -7.928650990355344819e-01 -6.093954278839378569e-01 1.465334611742842357e-03
3.924025349127427398e-02 2.589650990835550282e-01 -8.794954858519815621e-02 -9.096739763531543899e-01 -4.153226134925843693e-01 -6.192475516069631926e-04
