2.866970162181678994e-01 7.386450233236019347e-01 -2.190288284111684691e-01 7.445360567863696932e-01 5.307642560317022973e-01 -4.049140213231908758e-01
2.282635009962977191e-01 7.257006632828221226e-01 -2.195378917605352587e-01 7.445360567863696932e-01 5.307642560317022973e-01 -4.049140213231908758e-01
-7.485843513594758747e-01 1.807457403128049367e-01 3.293953103675563154e-01 -5.595853229136360518e-01 3.184299997400699689e-01 7.651578932777082231e-01
-7.355801111222919353e-01 3.709446680091044168e-04 2.810859495767915051e-01 -5.595853229136360518e-01 3.184299997400699689e-01 7.651578932777082231e-01
2.324175177852948471e-01 7.236804339661462304e-01 -1.766813452765391146e-01 7.005699419357979130e-01 5.446627308499180087e-01 -4.610252336685947694e-01
1.924345710526264575e-01 7.525012525301981725e-01 -1.831926656647719087e-01 7.005699419357979130e-01 5.446627308499180087e-01 -4.610252336685947694e-01
2.629909005297129121e-02 -8.655562713240793071e-01 7.632700582345074147e-02 1.106965162019103444e-01 -6.486178215515685519e-01 7.530213827418565931e-01
-7.421409837490948735e-01 1.964689661631626449e-01 2.554942718133322299e-01 -5.400374345830095679e-01 5.199803416447539295e-01 6.618005844300884899e-01
-5.463062168842746091e-01 3.016678386058108674e-01 3.297786532645667901e-01 -5.400374345830095679e-01 5.199803416447539295e-01 6.618005844300884899e-01
-5.764213546676220101e-01 2.208421989555154064e-01 3.541314097601295785e-01 -5.400374345830095679e-01 5.199803416447539295e-01 6.618005844300884899e-01
-7.608573803383508194e-01 1.788010548487078966e-02 -2.751281460121793865e-01 -5.313132213442288698e-01 1.490452903275318874e-01 -8.339614872738428941e-01
4.011625512107078739e-01 6.527067189051490859e-01 -1.193202401583306760e-01 7.903851547312474857e-01 5.543186751136901513e-01 -2.608104936551922104e-01
-5.220962693883508532e-01 2.814181785181527617e-01 -2.116458432687025881e-01 -5.436977662961519631e-01 6.768677253018825501e-01 -4.962285978953956400e-01
-5.048127960287006610e-01 3.450328007745382952e-01 -2.499349271752207002e-01 -5.436977662961519631e-01 6.768677253018825501e-01 -4.962285978953956400e-01
-5.056249473043704645e-01 4.146241807926432377e-01 -2.498581715537430137e-01 -5.436977662961519631e-01 6.768677253018825501e-01 -4.962285978953956400e-01
-5.394226722544984698e-01 3.463801257127614441e-01 -3.297932615917473775e-01 -5.436977662961519631e-01 6.768677253018825501e-01 -4.962285978953956400e-01
-5.554753523842823615e-01 3.745427810935463842e-01 -6.215280497565815743e-02 -6.170356064328047507e-01 7.657854814649152075e-01 -1.812171536352145396e-01
-5.563689628755316141e-01 4.354941563242786806e-01 -1.584261210773998951e-01 -6.170356064328047507e-01 7.657854814649152075e-01 -1.812171536352145396e-01
-6.404510108287330139e-01 -9.116423951635570233e-02 -3.394665628557105297e-01 -5.504030457581809976e-01 3.182792739676831850e-02 -8.342921971693990635e-01
-5.155972796884236153e-01 1.167970635649868139e-01 -4.490696471645327370e-01 -6.433151453534072806e-01 2.473503888444787135e-01 -7.245435866098116628e-01
6.463231387909974812e-02 -3.011899299069560332e-01 -8.477687331361126732e-01 2.131138884885283857e-01 -7.840203607407010278e-01 -5.830047551069547085e-01
-6.261363509386551618e-01 -2.651107211510413397e-01 -2.975537179930812237e-01 -5.416415956231677153e-01 -5.569052491248007719e-01 -6.296673132599724942e-01
-5.130750119471546578e-01 -2.712214118204193669e-01 -3.348659946918489672e-01 -5.416415956231677153e-01 -5.569052491248007719e-01 -6.296673132599724942e-01
-6.531267043734393374e-01 -2.073964075038794985e-01 -3.658686848439032246e-01 -5.450550933960850442e-01 -5.400860869957980759e-01 -6.412659072464027554e-01
4.500518085998387319e-01 4.807991812684503929e-01 -2.580389830968769505e-01 6.531152593968175823e-01 5.994883687074892276e-01 -4.626598682914492278e-01
4.078464710466381260e-01 3.988480675295511535e-01 -1.977711079924043269e-01 6.531152593968175823e-01 5.994883687074892276e-01 -4.626598682914492278e-01
4.165967625180869716e-01 4.301294817793073211e-01 -3.445335605232359710e-01 6.531152593968175823e-01 5.994883687074892276e-01 -4.626598682914492278e-01
-4.827539067753227053e-01 1.797591199020104613e-01 3.589228672702802769e-01 -5.632159366365566688e-01 3.446208070132369405e-01 7.510155178770617779e-01
-6.844818990749198528e-01 -4.390385931451172841e-01 1.240431782817338728e-02 -5.694701068873657679e-01 -8.217835600359663095e-01 1.937983014130042342e-02
3.772279163210359720e-01 4.416895097318777608e-01 -2.025947484076042193e-01 6.859970390604788193e-01 6.044941935352220463e-01 -4.049627543150818298e-01
4.247611142480439694e-01 4.650577245502022228e-01 -1.724845928113415416e-01 6.883335861210306827e-01 5.956863881123366511e-01 -4.139499984725695803e-01
4.135865640650174813e-01 4.623040217628604509e-01 -2.332492107776666102e-01 6.883335861210306827e-01 5.956863881123366511e-01 -4.139499984725695803e-01
4.462678275685970086e-01 5.499036260102480034e-01 -2.701464446016491050e-01 6.883335861210306827e-01 5.956863881123366511e-01 -4.139499984725695803e-01
3.336351406878875769e-01 6.513843025030425782e-01 -1.197448017143300236e-01 7.736380207752432403e-01 5.611764724450325481e-01 -2.942196111497563660e-01
2.769353716028787327e-01 7.187025475066162183e-01 -1.151538079086087407e-01 7.736380207752432403e-01 5.611764724450325481e-01 -2.942196111497563660e-01
-4.750592466891083721e-01 -3.813496513848975145e-01 -2.135380193365694068e-01 -5.868853984798400036e-01 -6.935808982434660264e-01 -4.177452173789021894e-01
-7.865763103105224419e-01 2.718055577898932929e-01 2.551262472325406538e-02 -5.328904276346859703e-01 8.297333963867608020e-01 1.660430156791063427e-01
-6.712790253866074419e-01 3.619694778894159137e-01 1.413851471901909906e-02 -5.147679201327010068e-01 8.452056759242492223e-01 1.436709914620417639e-01
-4.425849027603125374e-01 2.077898683066205510e-01 4.595989665821147985e-01 -6.303909687177658983e-01 3.740440253913124846e-01 6.802192981885619716e-01
3.224791418495109308e-01 6.550927897352530893e-01 -2.157109432576846952e-01 7.623434431488106400e-01 5.381431900219919573e-01 -3.594918381840822574e-01
-8.721219693998591982e-01 -1.123692382148993307e-01 8.123001057780789014e-02 -5.944813958996887360e-01 -6.809478140722665662e-01 4.276703689050244117e-01
-7.238279690325524207e-01 5.102945833518175711e-02 3.068406867995569498e-01 -5.570479908772295596e-01 1.165040586450521165e-01 8.222678031997070480e-01
-7.385433044898082056e-01 7.450061785626113653e-02 2.653226319556270529e-01 -5.570479908772295596e-01 1.165040586450521165e-01 8.222678031997070480e-01
3.233304337188328548e-01 5.410226092970958911e-01 -2.221795553127375311e-01 7.596598879299212292e-01 5.410219002411892353e-01 -3.608492179979223002e-01
3.868726955916950150e-01 4.253827301177590670e-01 -1.124924380102930721e-01 7.288357078641711784e-01 5.680438697093077582e-01 -3.822625707910826676e-01
-5.775588195554963722e-01 -2.175672588124138163e-01 1.558262608812128192e-01 -5.256135396693151218e-01 -6.093563218096198497e-01 5.936457529427329183e-01
-6.769663441699071971e-01 -2.168799164848672634e-01 2.693031191247475253e-01 -5.256135396693151218e-01 -6.093563218096198497e-01 5.936457529427329183e-01
-1.037302417024570100e-02 3.221378893348098571e-01 -7.836306287996295250e-01 2.452301467833216952e-01 8.048914784925718102e-01 -5.403812385331975277e-01
2.669373281247908181e-02 2.733152411119140757e-01 -7.343214460398838073e-01 2.452301467833216952e-01 8.048914784925718102e-01 -5.403812385331975277e-01
-8.305060288871742857e-01 -9.950469282280247074e-02 1.516641638867809172e-01 -6.604999680499957782e-01 -3.190679332951952829e-01 6.796583304489746125e-01
-9.698091271789147649e-01 -5.609202309088912042e-02 1.359145663122309500e-01 -6.604999680499957782e-01 -3.190679332951952829e-01 6.796583304489746125e-01
-5.824799272827980712e-01 2.275908013900892202e-01 3.023120470015569494e-01 -5.719362172794392185e-01 4.456672078678926563e-01 6.886724208179987317e-01
-4.958494169660865314e-01 -4.093634504607474023e-01 1.476101197770355034e-01 -6.158316600555603371e-01 -7.350180213682356856e-01 2.837249984353450993e-01
-5.340861758507683410e-01 -3.594647410770091533e-01 1.756489806046117874e-01 -6.158316600555603371e-01 -7.350180213682356856e-01 2.837249984353450993e-01
-5.623457915582974476e-01 -3.360563771641267294e-01 8.923517079102681604e-02 -6.168603924737985356e-01 -7.349748865315616220e-01 2.815939849588216526e-01
-5.204960302100829495e-01 -4.642808856068280088e-01 9.311529415987859770e-02 -6.864295607559626200e-01 -6.981408462613378774e-01 2.035038498453510258e-01
1.778315455484141827e-01 9.346959015887928990e-01 7.760583681476553031e-02 5.249244886673122279e-01 6.847455315139778786e-01 5.055470683022509348e-01
2.152194905205622733e-01 8.498795248243806721e-01 7.043815953352611237e-02 5.249244886673122279e-01 6.847455315139778786e-01 5.055470683022509348e-01
-8.345747305155283291e-01 1.408931314725656025e-01 2.839115474566844544e-01 -5.555243882285570978e-01 3.687736992667628999e-01 7.452507046708471972e-01
3.008799148418932479e-01 9.312801452718090234e-01 8.785009713777591767e-02 6.898744732361030696e-01 6.723201497932034254e-01 2.684377532301556180e-01
-1.975919453167002127e-01 -8.308388757046414330e-01 1.232963543781641497e-01 -7.654604692125489551e-01 -5.584227302939690496e-01 3.197410270264566257e-01
-2.022042485977132709e-01 -7.532330024319099371e-01 1.369480977123513910e-01 -7.654604692125489551e-01 -5.584227302939690496e-01 3.197410270264566257e-01
-4.850962874851303397e-01 2.206809568955134804e-01 3.770281648112444595e-01 -5.663790220205797699e-01 4.517324616775619806e-01 6.893131265845309219e-01
-4.153491664590883148e-01 2.304485720912874402e-01 4.193002745348919369e-01 -5.663790220205797699e-01 4.517324616775619806e-01 6.893131265845309219e-01
-4.146085972470137659e-01 2.818115192020519966e-01 3.936572537584587805e-01 -5.940568475895376954e-01 4.869726260562876607e-01 6.402765990599874613e-01
-4.497441760181712378e-01 2.571281322368684785e-01 3.891896548835638292e-01 -5.940568475895376954e-01 4.869726260562876607e-01 6.402765990599874613e-01
-3.930655692350938368e-01 2.297672262218421191e-01 3.116160997721633130e-01 -5.940568475895376954e-01 4.869726260562876607e-01 6.402765990599874613e-01
7.353729107377383611e-01 4.782595592779284588e-02 -2.724793103914793790e-01 5.336867285422097762e-01 2.073769739081426922e-02 -8.454279529828905293e-01
-1.830286594534870914e-01 2.726451309476534690e-01 -6.841029014171311484e-01 -4.015915359763577164e-01 7.383831017829425303e-01 -5.417699080177401649e-01
-2.100213588042659785e-01 3.358744364318727582e-01 -6.171391126188896514e-01 -4.015915359763577164e-01 7.383831017829425303e-01 -5.417699080177401649e-01
-9.859245916007255972e-02 1.649738804471880815e-01 -5.910672193665089669e-01 -4.015915359763577164e-01 7.383831017829425303e-01 -5.417699080177401649e-01
-6.653027233421703324e-01 -9.575124641551707727e-02 4.284013494668449384e-01 -5.548572883648330567e-01 -7.150735245707150189e-02 8.288667492987062957e-01
-5.809347158638433761e-01 -2.045748272044262128e-01 3.384722692739866590e-01 -5.548572883648330567e-01 -7.150735245707150189e-02 8.288667492987062957e-01
1.186911676298628843e-01 9.285638782978226091e-01 2.526179204196531136e-02 6.153455390201787445e-01 7.443268478813866995e-01 2.594752611154380606e-01
-6.277356804641773813e-01 -1.077773583363021703e-01 3.393373063887836771e-01 -5.706616515354039354e-01 -1.365009897834425501e-01 8.097609272217484166e-01
2.492121327269591902e-02 1.049456095521491994e+00 4.959290047641966293e-02 5.749659041936687753e-01 7.744815167586869276e-01 2.638040735354940103e-01
-4.289296574779404292e-01 3.880396957120770263e-01 3.080818983867070204e-01 -5.784605440036126867e-01 5.494468276888627711e-01 6.029026310887105611e-01
-3.686385091216914933e-01 3.415339159085488130e-01 3.404492747817767229e-01 -5.784605440036126867e-01 5.494468276888627711e-01 6.029026310887105611e-01
-4.977731313571738259e-01 2.467779590322217997e-01 3.756084781776130033e-01 -5.784605440036126867e-01 5.494468276888627711e-01 6.029026310887105611e-01
-7.600304320245593326e-01 -2.074883173484280696e-01 2.882934532436551844e-01 -5.332445252964843618e-01 -1.409746326131428029e-01 8.341321413306866939e-01
-7.001388522306957185e-01 -1.327877831647836793e-01 1.345277134720018197e-01 -5.343207854699136838e-01 -4.146814720678850819e-01 7.365735366807758533e-01
-6.458219664028410634e-01 -1.359602259399229907e-01 2.253199236873069666e-01 -5.343207854699136838e-01 -4.146814720678850819e-01 7.365735366807758533e-01
-8.028784234318584456e-01 -1.717348317094195276e-01 2.100728599101578664e-01 -5.499065061555147294e-01 -4.416268770652464482e-01 7.089206838154974433e-01
-6.828332797365576079e-01 -1.628203136218941138e-01 2.211617656224013351e-01 -5.515398091515274492e-01 -4.411933163572618888e-01 7.079211089682081459e-01
1.108910637731043702e-01 9.736896341404062127e-01 -4.812312343020450078e-02 7.340247047502556077e-01 6.784647923463636987e-01 2.988742817148419897e-02
8.119400781956435942e-02 5.998537577873156446e-01 3.382698395856227891e-01 6.563416127885103590e-02 5.436720610254150987e-01 8.367274627580949531e-01
6.132400031954982067e-02 6.482612512285965689e-01 3.119802692468345295e-01 6.563416127885103590e-02 5.436720610254150987e-01 8.367274627580949531e-01
1.582259346071113737e-01 9.702414090387230239e-01 -2.339186538761606898e-02 7.404299253185865348e-01 6.672991036235779161e-01 8.047006894418552714e-02
1.885661310342957309e-01 8.271920564208824489e-01 2.761153052563142252e-01 3.082548540917547930e-01 5.594023896847979405e-01 7.694464967389275101e-01
7.616317071263700722e-02 1.484777548494190247e-01 8.967201667283062338e-01 2.475709907753697592e-01 7.132874011646085366e-01 6.556902377390870784e-01
1.511033329509741119e-01 5.975885590678741144e-01 3.349035046509567515e-01 4.599194657987022428e-01 5.505654032204476689e-01 6.966719613678608036e-01
1.938886195191196204e-01 8.851417925956068800e-01 -2.700166786885275366e-02 7.186328888041846330e-01 6.772563646326098530e-01 1.577675115274814188e-01
2.386953741450448252e-01 8.600497780770746115e-01 5.074342408030547286e-02 7.186328888041846330e-01 6.772563646326098530e-01 1.577675115274814188e-01
5.503365865761247061e-02 2.279960694698783541e-01 7.439873172751688690e-01 -5.816373464580317648e-02 8.163699628408942477e-01 5.745929548325576786e-01
2.406933985423180544e-01 7.603034128482502041e-01 2.170757090396551459e-01 7.827221725945013864e-01 5.514263321560749498e-01 2.885740818816577291e-01
2.136222425195362651e-01 8.101942378970075076e-01 9.582644557897064541e-02 7.827221725945013864e-01 5.514263321560749498e-01 2.885740818816577291e-01
-2.041354732251964288e-01 4.393773251492800735e-01 4.892882640133319749e-01 -1.899552688697269121e-01 7.700630465196274255e-01 6.090319369405351457e-01
-6.753190737853567716e-02 3.798851385306060702e-01 4.688114243610005394e-01 -1.899552688697269121e-01 7.700630465196274255e-01 6.090319369405351457e-01
1.995685071886138529e-02 9.300844334793472168e-01 7.871531713766806437e-02 -2.493453696464368805e-02 9.925128770990900851e-01 1.195677952412166622e-01
-6.551032344522131345e-02 1.002047742348926684e+00 8.383075242243384628e-02 -2.493453696464368805e-02 9.925128770990900851e-01 1.195677952412166622e-01
4.524252356009654252e-01 5.612567076539046740e-01 -6.750479687577470855e-02 8.279818149723437992e-01 5.587611133365183447e-01 4.724544737895729207e-02
6.361292387694937600e-02 9.668920577836970232e-01 3.027685411692897233e-02 -2.889680979037170111e-02 9.698963126349414710e-01 -2.417976780721500796e-01
4.722115756813921594e-01 3.867711188259975730e-01 9.803044757904232076e-02 6.757362587398866305e-01 6.396207899661656704e-01 3.664229164057282162e-01
7.377765135685146469e-02 9.288806069297038670e-01 -9.055214521383087023e-02 2.308075136864812527e-01 9.711490050792080941e-01 5.997917604909964312e-02
9.942961797217463038e-02 9.481863169852993156e-01 2.198248900856241556e-02 4.359691549312861292e-01 8.683917675227118549e-01 -2.362766049512323718e-01
3.630229967634402977e-01 6.151813626785819222e-01 -3.408641710650128082e-02 8.386594675208783878e-01 5.429729424961414752e-01 -4.278646111422099163e-02
3.157959691904176358e-01 7.376925974370466266e-01 4.199825073033602862e-02 8.386594675208783878e-01 5.429729424961414752e-01 -4.278646111422099163e-02
5.885078018502593739e-02 9.997010551404099665e-01 -7.080811413016338540e-02 3.731399629870732482e-01 8.948520553065663075e-01 -2.449619707946922298e-01
2.289197008684795975e-01 6.431180263646096851e-01 -2.314931255026795587e-01 7.314950011951149023e-01 5.488379172196042877e-01 -4.045886847757926286e-01
3.050438152356219068e-01 6.528616409621239569e-01 -2.628508928606572703e-01 7.255243341993226069e-01 5.363363071008785399e-01 -4.312282529821322430e-01
2.448537474763938793e-01 6.663423145726509178e-01 -3.128080466149624761e-01 7.255243341993226069e-01 5.363363071008785399e-01 -4.312282529821322430e-01
1.221570986538796089e-02 9.514152093218528616e-01 -8.749691830922665114e-02 5.365628105740957166e-01 8.270077653665470763e-01 -1.678049651597275649e-01
5.657898699707906987e-02 1.741377702678779116e-01 7.154398946345976729e-01 1.748837883238350266e-01 8.267530648160517082e-01 5.346915282653817991e-01
5.358382731215553113e-02 2.947402602611635114e-01 7.685832705135872134e-01 1.748837883238350266e-01 8.267530648160517082e-01 5.346915282653817991e-01
1.283351242056349761e-01 9.613862515831612665e-01 -8.418117059649253553e-02 3.916309042307057342e-01 9.174388288466804875e-01 -7.022271837426195817e-02
-9.847021380612286379e-02 -9.089499850593991681e-01 1.597818884485735780e-01 6.555404524162775082e-02 -6.723993417635711900e-01 7.372799958959791455e-01
4.046457291478883778e-01 7.051773227992129689e-01 -2.426983974971838876e-01 6.673586885240551103e-01 5.305344401766687312e-01 -5.226524549238066308e-01
3.220766480810273169e-01 5.910906551042146573e-01 -1.760742697879896235e-01 6.673586885240551103e-01 5.305344401766687312e-01 -5.226524549238066308e-01
-9.665773200816632493e-02 2.448450238432459819e-02 1.071536702354217496e+00 -4.608288956734584718e-01 1.242692947648562640e-01 8.787456237677806481e-01
1.470070503732534284e-01 9.570860838863233244e-01 -6.447455723755340928e-02 4.629964580997026902e-01 8.830093548896336131e-01 -7.699843481865767392e-02
-1.658609828188362667e-01 -2.020285540159705573e-01 9.103390468195680096e-01 -5.508109782537331522e-01 -5.199145651746825969e-01 6.529135556521906691e-01
8.566244705220833755e-02 9.255545521877390769e-01 -4.414846047837625576e-02 6.990894672018412859e-01 7.149047150008570606e-01 -1.360754632507675359e-02
2.296653464417562074e-01 5.734628249910931341e-01 -3.973021743252601046e-01 6.546591172259478286e-01 5.622280180056310472e-01 -5.052930793137807575e-01
3.978793517875005570e-01 5.614411004277056749e-01 -3.020186685244907188e-01 6.546591172259478286e-01 5.622280180056310472e-01 -5.052930793137807575e-01
1.443738262332416034e-01 7.208662920957660258e-01 -2.713605625269503441e-01 2.841684203870293302e-01 5.328291163110658868e-01 -7.970830832892573659e-01
2.255439141228781919e-01 8.254517518217994176e-01 -2.832372800198300622e-01 2.841684203870293302e-01 5.328291163110658868e-01 -7.970830832892573659e-01
9.651201631981280726e-02 7.766477149001488334e-01 -1.795816510527001864e-01 2.841684203870293302e-01 5.328291163110658868e-01 -7.970830832892573659e-01
1.394859622405272004e-01 8.533720875717446530e-01 -5.837079154564960015e-02 6.770103529144756438e-01 7.359710052308325867e-01 -1.913506241130689131e-03
-1.267777206080278884e-01 -8.767602714787896545e-01 8.214600713949099520e-02 -7.572485796009588155e-01 -5.844050972563075153e-01 2.916252235201473031e-01
-2.520162208327751396e-01 -5.383250796454720766e-02 9.498780785205664934e-01 -8.137687576177435878e-01 -3.230869456510436499e-02 5.802900631415058852e-01
1.953969363131841941e-01 4.888894903454385488e-01 -3.976971011591893812e-01 3.153605149817688691e-01 6.102583463675965714e-01 -7.267272502659576361e-01
1.616066458055995803e-01 4.355414478667804512e-01 -3.912636288130042495e-01 3.153605149817688691e-01 6.102583463675965714e-01 -7.267272502659576361e-01
1.795154777825945513e-01 5.745077482714470163e-01 -4.240684442161393175e-01 3.153605149817688691e-01 6.102583463675965714e-01 -7.267272502659576361e-01
1.651309894179772975e-01 9.071349141765502333e-01 -4.095001401423321169e-02 6.463552476117593315e-01 7.585615932465721301e-01 8.251789585273819339e-02
1.343966747888757640e-01 4.811951236664862575e-01 -4.655946430851474749e-01 2.767015762752753072e-01 7.042769469807225180e-01 -6.537814769770479151e-01
5.934998269231074597e-02 5.002615139167598812e-01 -4.327710692709780815e-01 2.767015762752753072e-01 7.042769469807225180e-01 -6.537814769770479151e-01
2.455357063687538532e-01 4.303191136897857594e-01 -5.332906317787254880e-01 3.490522477505492160e-01 6.435031698995830052e-01 -6.812240444005756013e-01
-3.939215386978631717e-01 -1.130024783321184473e-01 6.119279183364945141e-01 -7.864580043573883295e-01 -2.052046756706197295e-01 5.825588798268463986e-01
9.493775480735856531e-01 -7.104415309284506375e-02 -9.485806771552304784e-02 9.553866540417044195e-01 -1.866664334175797690e-01 -2.288929529587070133e-01
2.556575445838022570e-02 7.079766274888791289e-01 -2.419237650268254991e-01 -8.712545417524204805e-02 5.290660736206654891e-01 -8.440961112209736106e-01
-3.166929267625584465e-01 -2.296545403335251145e-01 5.771976163387738668e-01 -6.869063889094393360e-01 -4.685051967679584872e-01 5.555740216000121245e-01
-3.083727019283008519e-01 -2.410576908085958758e-01 5.839238087394083010e-01 -6.869063889094393360e-01 -4.685051967679584872e-01 5.555740216000121245e-01
6.893269633581126932e-02 8.862328178052922834e-01 -1.255935405607077338e-01 4.743849092452279703e-01 6.589805883344510562e-01 -5.836981600782870094e-01
5.089250507578212124e-02 8.875054055309914425e-01 -1.746016251002434350e-02 4.743849092452279703e-01 6.589805883344510562e-01 -5.836981600782870094e-01
-2.129681782073521434e-01 -9.321302102760378738e-02 8.178667064715067214e-01 -7.495029090854901099e-01 -3.423780582572791831e-01 5.665886113366228605e-01
1.054812769563678865e-01 8.781421132071975943e-01 -1.487928750948621093e-01 6.081501562693276686e-01 6.077220734359363163e-01 -5.107125109964691934e-01
2.268917403434456692e-01 8.867075217330221415e-01 -1.730511803540751570e-01 6.081501562693276686e-01 6.077220734359363163e-01 -5.107125109964691934e-01
-2.877424955252486649e-01 6.633720370500756358e-01 -1.780396601617550700e-01 -5.659855506870777875e-01 5.376455973313064574e-01 -6.249780540816676222e-01
-2.654779497686065026e-01 1.558837154641033174e-01 6.978241476067880145e-01 -7.109505755814000683e-01 4.603346230296984642e-01 5.316402109703342038e-01
-2.928042003722337583e-01 2.127476596106692985e-01 7.982774580591740499e-01 -6.416616166935847909e-01 5.189874621013575995e-01 5.647321345945942594e-01
-2.903306513413562301e-02 6.330946748551586900e-01 3.919880379226329814e-01 5.447686539560726154e-02 6.302761121914209896e-01 7.744574188020515448e-01
2.473174451976426491e-01 9.012376549142733229e-01 3.862099090327618389e-02 7.488269411930678077e-01 6.319456751687008156e-01 -1.997570418758963240e-01
1.081376391855084634e-01 8.901291473136034860e-01 9.315829365889427560e-03 7.079814159932090734e-01 6.527356840218756506e-01 -2.696264849986826362e-01
-5.778198087965602525e-02 -7.351998691503219829e-02 9.796171733370107049e-01 -1.159560722072685152e-01 -4.864179097297615106e-01 8.659975787566569494e-01
1.886305307790835106e-01 8.662141466778022769e-01 -6.511220152565459773e-02 7.188035228285563072e-01 6.438707820499088852e-01 -2.622058572795350484e-01
1.179667504249787557e-01 8.477311236803964922e-01 -1.432304962460516362e-01 7.188035228285563072e-01 6.438707820499088852e-01 -2.622058572795350484e-01
-2.920248141554500632e-01 6.073657914685934855e-01 -7.031013796059779053e-02 -8.281911856832494534e-01 5.534118393617794007e-01 -8.851381819120442140e-02
-3.819626555132120682e-01 6.596646211864255482e-01 -2.973124987838642042e-02 -8.281911856832494534e-01 5.534118393617794007e-01 -8.851381819120442140e-02
-3.263325302426770547e-01 6.110542768642034384e-01 -4.226772113417048837e-02 -8.315039380392181823e-01 5.554470487545133395e-01 -8.931800220187685949e-03
5.377162848602649869e-02 -2.250162195097378248e-01 7.923993999708126568e-01 -1.435914788904706640e-01 -7.703036424079469091e-01 6.213000770023269226e-01
-4.983530388286028234e-01 5.494988936108419209e-01 -2.356247376190703791e-01 -7.193046138547833923e-01 6.003626456431769842e-01 -3.495219109062352447e-01
-4.759698904115371443e-01 4.979113311109594764e-01 -1.414872057595680244e-01 -7.193046138547833923e-01 6.003626456431769842e-01 -3.495219109062352447e-01
-3.963806448705117780e-01 5.557158326756482802e-01 -1.839352051946797628e-01 -7.193046138547833923e-01 6.003626456431769842e-01 -3.495219109062352447e-01
9.492785419518881551e-02 9.139153438461343759e-01 1.483250653167606653e-02 6.786454654928122388e-01 7.149191102901834016e-01 -1.683181449159208143e-01
-4.617516372336101793e-01 3.345748604924189129e-01 -1.873325353096193524e-01 -7.025340924154165334e-01 6.638406180108743504e-01 -2.564400180802273721e-01
4.911443222131514630e-02 -1.670319954562847764e-01 7.857165013678506504e-01 4.762496528693339198e-02 -8.201914812161895663e-01 5.701033211811796786e-01
-3.814421117911116488e-01 5.078521054154352399e-01 -3.242184809917402766e-01 -6.608996987157694791e-01 6.185727759282948490e-01 -4.249462426210741106e-01
-3.397892489803259197e-01 4.319387058369246191e-01 -2.226938932861322606e-01 -6.604333768352954603e-01 6.207041864818381161e-01 -4.225565851407929729e-01
-5.566267681496315234e-01 4.974972243822211593e-01 -2.920877066280425094e-01 -6.604333768352954603e-01 6.207041864818381161e-01 -4.225565851407929729e-01
-2.928055125232749689e-01 4.700472432274970802e-01 -1.629974163858375347e-01 -6.798092801995024859e-01 6.443997580735806308e-01 -3.501546720370085075e-01
-4.422358344700007549e-01 4.532426475972312074e-01 -1.029747409978631623e-01 -6.798092801995024859e-01 6.443997580735806308e-01 -3.501546720370085075e-01
-5.191184667050408041e-01 8.090144299450915955e-03 4.427226692148394926e-01 -6.476363609268896981e-01 -5.925967414674190858e-02 7.596416490855391057e-01
-4.355000141745312692e-01 -7.031608108843480365e-02 4.169101755385672958e-01 -6.992994100465941276e-01 -8.754026182994249783e-02 7.094484038090653755e-01
-4.060388940105917888e-01 7.589921116648321586e-01 5.160813477546716266e-02 -8.480114637620410623e-01 5.288882978268970581e-01 3.396653868041416696e-02
1.631704989101423475e-01 -2.830610669248901923e-01 7.671681799019014480e-01 3.175001470087229216e-01 -7.691281692832606653e-01 5.546490024009952391e-01
-1.793418692106299797e-02 6.915273885096706596e-01 -3.852312648223384928e-01 8.420819250455600924e-02 5.177954890483161821e-01 -8.513499937372002169e-01
3.989057974566547621e-02 -8.385429566238900012e-01 1.696047676538160187e-01 -5.244289995390585130e-02 -6.480385906234346072e-01 7.597997942268851501e-01
-2.317409478805748657e-02 -8.900333208099526772e-01 2.240819278580390428e-01 -5.244289995390585130e-02 -6.480385906234346072e-01 7.597997942268851501e-01
-1.680115968603382651e-02 6.191361144058331600e-01 -3.029249675482146853e-01 -1.615719194953849080e-02 5.441998970070677233e-01 -8.387999864364583669e-01
3.537866074268198324e-01 -1.716829985152239224e-01 -6.408114428697098131e-01 8.086219822204813168e-01 -2.087946120037468822e-01 -5.500320898529688085e-01
-1.513742987020402775e-01 -9.826845426675334672e-02 8.700169231058645369e-01 -5.392250710307923134e-01 -5.079271613921292339e-01 6.717487041237749645e-01
-1.717718719387505977e-01 -2.218470979136473731e-01 7.103698884671599822e-01 -4.547426758609481867e-01 -7.112430371024482945e-01 5.360433200069839588e-01
1.381283480070159553e-01 -6.129582073015102939e-01 2.587139759927917226e-01 4.983787988097705957e-01 -5.537208642074615828e-01 6.670920307111097847e-01
2.947285510954356647e-01 -5.493989078288231687e-01 2.749634759154508945e-01 4.983787988097705957e-01 -5.537208642074615828e-01 6.670920307111097847e-01
-2.009850753153536174e-01 -2.093122929918916353e-01 6.447136170866443194e-01 -5.025614967262460597e-01 -6.628701225344415526e-01 5.550091374558167034e-01
-2.059158514282995456e-01 -1.954221392853240924e-01 7.081245449213190435e-01 -5.025614967262460597e-01 -6.628701225344415526e-01 5.550091374558167034e-01
-2.413746910819506430e-01 -1.041139489527463657e-01 7.777548491470129832e-01 -5.025614967262460597e-01 -6.628701225344415526e-01 5.550091374558167034e-01
2.376963188506392433e-02 -9.981541087867873419e-01 -6.874929625175457693e-02 4.722808949513679910e-01 -8.527341283430479590e-01 -2.231485214447024856e-01
1.622482847010204288e-01 6.821689546529345616e-02 9.306356423249788623e-01 6.133797880950234704e-01 2.795751355623556367e-01 7.386494291149182656e-01
-1.109290514534854583e-02 -8.368111067059563757e-01 1.685054368200263608e-01 -3.773433074286681316e-02 -6.627695383659545358e-01 7.478720875240413291e-01
4.082071911383809704e-02 6.861820361043163841e-01 -3.543564611258133157e-01 2.187196602966456627e-01 5.040913275112512970e-01 -8.354960465063040465e-01
6.464087119536693349e-02 -9.910862581026166906e-02 9.162194969252277499e-01 4.546563657203522291e-01 -1.992638206852111182e-01 8.680907319375628095e-01
-1.937833382762972900e-01 -8.158117594409970419e-01 2.360690637776197143e-01 -4.023201193700828293e-01 -5.751394983364944702e-01 7.122872166501991176e-01
-1.748528933657889084e-01 -8.495491066089471133e-01 2.536437588014687772e-01 -4.023201193700828293e-01 -5.751394983364944702e-01 7.122872166501991176e-01
5.251230366948641398e-02 -1.892515151979274890e-01 -9.201931302603836293e-01 -7.884624999216427454e-02 -5.682681068930754975e-01 -8.190571576821321642e-01
-2.989270060742749147e-01 -6.683743190445246007e-01 3.217718128317981208e-01 -5.780621126881566596e-01 -5.402150165550262395e-01 6.115651476032276657e-01
3.193509657058431206e-02 5.565488671683247457e-01 -5.670577833111849486e-01 4.130604607815994977e-02 6.809716116594773938e-01 -7.311439493501145082e-01
-2.967361676841444584e-01 -6.797406882217552626e-01 3.729098392499986536e-01 -5.109553455734106020e-01 -5.405898441908256746e-01 6.683466579460807244e-01
-2.264796738213329941e-01 -6.010096072895098063e-01 3.262185630727704733e-01 -5.109553455734106020e-01 -5.405898441908256746e-01 6.683466579460807244e-01
-2.396492640285909914e-01 -5.904406306554517148e-01 2.821812994551535225e-01 -5.109553455734106020e-01 -5.405898441908256746e-01 6.683466579460807244e-01
1.026214766468785955e-02 5.201911926441256107e-01 -3.652709510157161055e-01 1.188764640218395591e-01 6.752540881649807814e-01 -7.279425133333979892e-01
3.547246033347544181e-01 2.870940679903690729e-01 5.520023020580050455e-01 6.760827312642585518e-01 4.730438344923464378e-01 5.649262528286660423e-01
-3.073896059650580437e-01 -6.753306460342559658e-01 2.806086408904205354e-01 -5.759107884860430460e-01 -5.413216001612494166e-01 6.126154494495290592e-01
-2.386417375114036621e-01 -6.513940639029340840e-01 2.638894786099383882e-01 -5.759107884860430460e-01 -5.413216001612494166e-01 6.126154494495290592e-01
2.132437183728620178e-01 -6.834053524873409113e-01 -1.914107989356157447e-01 6.138938991162280479e-01 -5.221068668526483991e-01 -5.920630880347003133e-01
-7.920537388407505874e-01 -1.830317831586353861e-01 1.678933814933052660e-01 -6.024668196125756436e-01 -5.363781841311440202e-01 5.910432935530903764e-01
-7.901328785839704105e-01 -1.671293515669811658e-01 1.539279409671070742e-01 -6.024668196125756436e-01 -5.363781841311440202e-01 5.910432935530903764e-01
4.575452452345082216e-02 4.911066837598089818e-01 -4.703424365661560969e-01 1.016272438489413260e-01 6.700800734176104445e-01 -7.352989857985101629e-01
2.956001028372587033e-02 5.295562079733191485e-01 -4.606614331721202715e-01 1.016272438489413260e-01 6.700800734176104445e-01 -7.352989857985101629e-01
1.007565366165121962e-01 4.647979698843750507e-01 -4.644753728521109903e-01 1.016272438489413260e-01 6.700800734176104445e-01 -7.352989857985101629e-01
3.497029572360441096e-02 6.365206311512972004e-01 -4.896521464370549026e-01 1.338276599299918490e-01 6.040613556788805294e-01 -7.856207965762207479e-01
1.677403159878639721e-02 5.952507991522102415e-01 -4.377651008840383606e-01 1.338276599299918490e-01 6.040613556788805294e-01 -7.856207965762207479e-01
2.753969709082768613e-01 2.073885656129410282e-01 7.427936567697562831e-01 7.327307110297246462e-01 4.231853539374215711e-01 5.329351380109341729e-01
2.028797784622124734e-01 -7.640127328430346143e-01 -1.243906716984749666e-01 7.864821309376698322e-01 -5.538272563944923732e-01 -2.733518388273457611e-01
7.657047681196435529e-02 4.590351527575379231e-01 -4.905373827266775177e-01 9.986705841889979840e-02 6.251036817416029123e-01 -7.741265773217251844e-01
1.258404050425570020e-01 4.307821160673051542e-01 -3.770773320342249435e-01 9.986705841889979840e-02 6.251036817416029123e-01 -7.741265773217251844e-01
3.536534405504045964e-01 -1.486708966950397448e-01 5.988569301668750233e-01 8.099529487451883059e-01 -1.073047125648236844e-01 5.765951087898292249e-01
-7.552192193557167865e-01 1.357431748479782235e-02 8.094189516683802932e-02 -5.810759924945201327e-01 1.882642536236937003e-01 7.917747544308432195e-01
-7.651141747493868106e-01 6.792205843257899389e-02 1.169524034725452633e-01 -5.810759924945201327e-01 1.882642536236937003e-01 7.917747544308432195e-01
4.354604588877097893e-01 -5.806267822944928547e-02 5.380831810210915389e-01 8.042612152059239738e-01 -8.844108933809473327e-02 5.876581246202434716e-01
2.734573117643696594e-01 5.003140834980157603e-03 6.184779022765825029e-01 8.042612152059239738e-01 -8.844108933809473327e-02 5.876581246202434716e-01
3.649167475354735957e-01 -5.070630105521423125e-01 1.887610520618947796e-01 7.066114798215130666e-01 -5.489687919763401869e-01 4.464677838551054379e-01
3.071125413384162561e-01 -6.300861346758527270e-01 2.196453089136251591e-01 7.066114798215130666e-01 -5.489687919763401869e-01 4.464677838551054379e-01
2.695382192734727678e-01 -5.723703669508815040e-01 1.241434918375946550e-01 7.066114798215130666e-01 -5.489687919763401869e-01 4.464677838551054379e-01
3.356878254719079802e-02 -2.438863083415412081e-01 -8.586435345406971953e-01 -1.265572755464159649e-01 -7.916821481725376808e-01 -5.976810456014015616e-01
-1.584387164981074930e-02 -1.699867618569967931e-01 -8.934156333416501949e-01 -1.265572755464159649e-01 -7.916821481725376808e-01 -5.976810456014015616e-01
3.043594973991554653e-01 -6.379476306557003706e-01 2.811482709266455715e-01 6.917350816320250173e-01 -5.397517689904856031e-01 4.797609870666613707e-01
-2.293987874359463275e-01 -8.601404761309798808e-01 1.726808542952609216e-01 -7.266904322089897672e-01 -5.531526020251125164e-01 4.073612826579854351e-01
3.044408064107297363e-01 -5.678164670681765669e-01 3.374220703078248396e-01 5.509291442631570890e-01 -5.430118904281233672e-01 6.337311455618550582e-01
2.968751340560497054e-01 -6.476676275034157770e-01 2.491320382864742056e-01 5.509291442631570890e-01 -5.430118904281233672e-01 6.337311455618550582e-01
3.273356657555041016e-01 -2.195259250115690064e-01 6.202158383932636632e-01 6.721338340621303420e-01 -5.034157746337832862e-01 5.429628596495422732e-01
2.310253269269259835e-01 -6.101887715574019211e-01 2.852197676809686278e-01 6.277106728062799013e-01 -5.469097729690450826e-01 5.539575899615736265e-01
8.271805843107177258e-02 4.684094931215079249e-01 -3.852703390083513924e-01 1.851054958315186683e-01 6.198348509877753543e-01 -7.625881673052170573e-01
2.918062468952207222e-01 -5.640698912839491319e-01 3.043496439664492570e-01 6.161047347409939201e-01 -5.612972952316019892e-01 5.525941568596406395e-01
3.588213738190889623e-01 -5.375550779436752968e-01 2.844504420692039459e-01 6.161047347409939201e-01 -5.612972952316019892e-01 5.525941568596406395e-01
-4.851979360677070863e-02 -6.871281188862234934e-01 -2.141535883509488036e-01 -2.473799539672471293e-01 -5.567620431644988432e-01 -7.929812013323236375e-01
-1.649270878938126628e-01 -8.093245761860916598e-01 -2.086240845554407919e-01 -2.473799539672471293e-01 -5.567620431644988432e-01 -7.929812013323236375e-01
-7.119267893394937152e-02 -6.679597369581101729e-01 -3.583927066813173967e-01 -1.097357759623290435e-01 -5.679083010547127941e-01 -8.157439678398457072e-01
-7.570898939937378835e-02 -7.121874983677908277e-01 -3.617580806728475373e-01 -1.097357759623290435e-01 -5.679083010547127941e-01 -8.157439678398457072e-01
8.888461122330645336e-01 2.771512569285172756e-01 -1.763475529985479573e-02 6.505250312086685582e-01 7.069486634643983303e-01 -2.775621930250257718e-01
1.171384058113909277e-01 -6.624980321865506783e-01 -3.302037157954215152e-01 8.788053346364838037e-02 -5.341677750715558837e-01 -8.407983110789700731e-01
7.217163822723417221e-02 -6.296241823710453378e-01 -2.763864019879254119e-01 8.788053346364838037e-02 -5.341677750715558837e-01 -8.407983110789700731e-01
-5.919298835182357221e-06 -6.062991482407837918e-01 -3.099655600006094858e-01 8.788053346364838037e-02 -5.341677750715558837e-01 -8.407983110789700731e-01
9.626444385091921518e-03 -6.634753119174635616e-01 -3.709576398765213057e-01 1.688979772523182318e-03 -5.295120562582867896e-01 -8.483007306518419721e-01
7.495951913286188484e-01 1.684706630438317365e-01 8.539471135702447757e-02 5.656200224500094187e-01 8.217059740242789179e-01 6.980889955057437146e-02
1.254562122276042802e-01 6.939714614756754552e-01 -3.481637260799408384e-01 2.462975944064285383e-01 5.479409969871600339e-01 -7.994361505525776623e-01
2.428424525911741239e-01 -6.175760404816088567e-01 -3.241769120641341817e-01 4.720415181642957925e-01 -5.420738925288450805e-01 -6.952213317841826612e-01
2.132758194700603432e-02 5.739084064992118206e-01 -3.619598547565663904e-01 1.214148434524891795e-01 5.667078630878589207e-01 -8.149236980870050440e-01
1.029533000253501501e-01 6.214165532591967578e-01 -2.965145277952361269e-01 1.214148434524891795e-01 5.667078630878589207e-01 -8.149236980870050440e-01
5.612072567793690014e-01 5.048261718796790420e-01 9.034827894971624029e-02 6.179514927555712633e-01 7.613115029181292126e-01 1.963179770823354486e-01
5.854687963235700732e-01 4.774328490391723800e-01 1.617070463999907004e-01 6.179514927555712633e-01 7.613115029181292126e-01 1.963179770823354486e-01
5.144943243079410644e-01 4.312678415659467746e-01 5.193595558816808261e-02 6.306712427829117562e-01 7.689509570037939001e-01 1.047292187004518621e-01
5.644443997413333136e-01 4.173799077726603746e-01 7.601350085395727763e-02 6.306712427829117562e-01 7.689509570037939001e-01 1.047292187004518621e-01
2.632972545542655030e-01 -6.886494270352674363e-01 -2.605216366576323384e-01 5.647602040330836903e-01 -5.419708162086618319e-01 -6.223451986788575141e-01
8.277508341126975366e-02 1.650868671967739010e-01 8.126494201413159146e-01 5.289103456590023011e-01 5.401074063453412677e-01 6.546280133524559064e-01
1.794693517443295971e-01 7.178212161924679702e-02 7.849130540210628171e-01 5.289103456590023011e-01 5.401074063453412677e-01 6.546280133524559064e-01
1.696573093739000559e-01 5.434098202618350415e-01 -4.213741144151784135e-01 1.866296771719067049e-01 5.853799802742455372e-01 -7.889864652152366320e-01
5.904887771951247699e-02 6.274348099275898205e-01 -4.239090394043676935e-01 1.713786460024419867e-01 5.739424053411760207e-01 -8.007618091827023443e-01
-3.958261448770678537e-01 -4.094356671029636963e-01 1.585507529155688877e-01 -7.300448782316670826e-01 -6.131163205657503834e-01 3.018656211356746111e-01
2.522600527167400131e-01 5.266783821386740172e-01 -2.718421090361474168e-01 6.013138458156337407e-01 5.480204409243419894e-01 -5.814595903065854499e-01
2.766471036315624188e-01 5.890954340445730963e-01 -1.999132409646985631e-01 6.013138458156337407e-01 5.480204409243419894e-01 -5.814595903065854499e-01
-4.840453094061364925e-01 -5.053798182503363989e-01 1.425242423204042541e-01 -7.127966996614482076e-01 -6.515631935088193050e-01 2.595886550223953093e-01
5.389319784570757443e-01 4.035217987186017763e-01 -1.958429966723914395e-01 5.980425935986349861e-01 7.270311582745515588e-01 -3.372992012142658202e-01
3.411296700600587317e-01 -6.808721926924728995e-01 -1.921987420706602612e-01 7.463145867882755580e-01 -5.609131028810503405e-01 -3.583169387056627797e-01
3.541239147059910830e-01 -5.723466851029368474e-01 -1.796339887984862715e-01 7.463145867882755580e-01 -5.609131028810503405e-01 -3.583169387056627797e-01
5.422382455661830525e-01 3.714279461796008985e-01 -1.681507804536958028e-02 6.162396389938761265e-01 7.875014393816939240e-01 -9.496857609634597186e-03
6.315812940218709093e-01 4.967131540279497992e-01 2.203182424339283213e-02 6.162396389938761265e-01 7.875014393816939240e-01 -9.496857609634597186e-03
5.273014959086327336e-01 4.685606409542735218e-01 -3.676016480045497803e-02 6.162396389938761265e-01 7.875014393816939240e-01 -9.496857609634597186e-03
-5.680095266207403348e-01 -4.754165118388841704e-01 2.234452614791482827e-01 -6.917960721503179089e-01 -6.307516760711996406e-01 3.515259843749314883e-01
-2.903233296816318809e-01 -7.262546823878348601e-01 -2.325988371665787813e-01 -6.907923791442035499e-01 -5.410276011460620760e-01 -4.796822111715507986e-01
-2.524976474414035721e-01 -6.813221798116275707e-01 -2.403261475981454953e-01 -6.907923791442035499e-01 -5.410276011460620760e-01 -4.796822111715507986e-01
-2.683443651425371224e-01 -5.496913859740329977e-01 -2.482854002530373305e-01 -6.712348832997981907e-01 -5.338514592410299464e-01 -5.142434743462763747e-01
-3.229754575218533041e-01 -5.679158658402785331e-01 -2.922208308755621653e-01 -6.712348832997981907e-01 -5.338514592410299464e-01 -5.142434743462763747e-01
1.071869299902993289e-01 6.988401187770102441e-01 -3.630370354171537084e-01 2.541010575361450918e-01 5.507871318963786234e-01 -7.950259039153215745e-01
1.320632856100330543e-01 5.658608356024286135e-01 -2.749016829411805585e-01 2.541010575361450918e-01 5.507871318963786234e-01 -7.950259039153215745e-01
-2.879336031299205012e-01 -5.512524807763952150e-01 -1.616368888945494131e-01 -6.145059418143390406e-01 -5.530009963629438641e-01 -5.626476210706515824e-01
1.227053343504234673e-01 6.255076348970081135e-01 -3.577790107599488900e-01 3.194474528944263314e-01 5.605008571563017128e-01 -7.640628992212056270e-01
-3.688907500045633392e-01 -1.077533416550747331e-01 -6.896302343671476542e-01 -8.104678483119208687e-01 -2.163629696320895912e-01 -5.443610311407572899e-01
-2.621925417364287525e-01 -1.423722377900898395e-01 -5.348959358615890114e-01 -8.104678483119208687e-01 -2.163629696320895912e-01 -5.443610311407572899e-01
1.575478031573177562e-01 4.768072053884387929e-01 -3.050433163414840720e-01 3.387585200011426489e-01 5.730339768248728927e-01 -7.462403945987557963e-01
7.731129900583920689e-01 -3.206630711522048122e-02 1.284461968117801833e-01 5.763823612250027484e-01 -4.030820568608064342e-02 8.161854092196570987e-01
-1.527308490326164392e-01 3.914355437482259226e-01 5.612470141169885185e-01 -2.905456010086905350e-01 7.325818523133720284e-01 6.155542895599116493e-01
-1.554850491395972506e-03 8.463492335617419648e-01 -2.667119910016650386e-01 -3.186307292464581834e-03 5.187776166564603830e-01 -8.549032880402791523e-01
5.844808716748471633e-02 7.784106799379222341e-01 -2.747835459085348764e-01 -6.580084921589360314e-02 5.352078624639158289e-01 -8.421536630563767334e-01
3.556465112914283105e-02 -9.853784767156460456e-01 1.243306781125885774e-02 1.480029080388902685e-01 -9.484072199647690660e-01 2.803905924433450214e-01
5.802552876630024947e-01 -1.854171879723714722e-01 3.998889386245454980e-01 5.642657082726968421e-01 -5.175812687599559148e-01 6.432059084743749766e-01
4.769350549840911113e-01 -3.813422802690029090e-01 2.855641641474785386e-01 5.642657082726968421e-01 -5.175812687599559148e-01 6.432059084743749766e-01
-8.140416370102010468e-02 3.410493732763718033e-01 6.590993817502862617e-01 -1.610820288712965231e-01 8.203433765336830552e-01 5.487160691578319982e-01
5.740231307156036245e-01 -1.871366293271047032e-01 4.140763981604708155e-01 5.609463896499027324e-01 -4.358679296825441196e-01 7.038169476596827234e-01
5.357026039785584004e-01 -1.949860676071090149e-01 3.187713371351992842e-01 5.609463896499027324e-01 -4.358679296825441196e-01 7.038169476596827234e-01
5.679050393738239721e-01 -1.411004211138829068e-01 3.375206709443346886e-01 5.609463896499027324e-01 -4.358679296825441196e-01 7.038169476596827234e-01
5.970512068377640258e-01 -2.348059276491854253e-01 4.025803059536783857e-01 5.609463896499027324e-01 -4.358679296825441196e-01 7.038169476596827234e-01
-1.428088776893013945e-01 3.017544001982444546e-01 6.360459798721653790e-01 -4.344511746603222924e-01 6.957709195666903490e-01 5.719746535656874409e-01
-8.141827386495875674e-02 7.852493974805184740e-01 -1.817299259762879537e-01 -1.737555873723279909e-01 5.618755134554574981e-01 -8.087675211308026357e-01
-1.309434150282638709e-01 8.252440379263807912e-01 -2.485528333817833002e-01 -1.737555873723279909e-01 5.618755134554574981e-01 -8.087675211308026357e-01
7.524351223568801483e-01 1.711307702251154694e-01 1.342843030869882714e-01 5.399171415273560370e-01 4.814859934311336298e-01 6.904061981287270555e-01
1.231664906081837013e-01 -9.295923023267649299e-01 -2.017674288469552268e-01 7.365014774620739502e-01 -6.181447116256584273e-01 -2.747047309119622915e-01
7.963601187289931493e-01 1.731289814055421428e-01 2.954555967108771219e-01 5.611132257973001636e-01 5.132584301303630969e-01 6.493979763869480726e-01
7.937229287944808087e-01 1.236145862425281350e-01 2.905112224161215950e-01 5.611132257973001636e-01 5.132584301303630969e-01 6.493979763869480726e-01
1.304384996466684543e-01 3.720798069985461476e-01 -6.792618361613171896e-01 1.838534501074156891e-01 8.171705974798384453e-01 -5.462875831446694086e-01
-1.714357326808249871e-01 2.335107250549888491e-01 7.803444888334771790e-01 -3.229694911817843628e-01 7.773354076939988921e-01 5.398521757953594902e-01
5.213962488551474594e-01 2.243974959057705165e-01 4.007697629261928185e-01 5.873765831106250168e-01 3.594176350286765742e-01 7.251259981849224046e-01
4.874304405294355713e-01 1.418821454528585158e-01 4.679723436598649533e-01 5.873765831106250168e-01 3.594176350286765742e-01 7.251259981849224046e-01
5.682644869993541681e-02 5.133081050681471691e-01 4.946168006425651353e-01 3.086362298929045626e-04 6.784851837709984235e-01 7.346140212022310712e-01
5.962327687454119576e-03 -2.043625196175760661e-01 -1.003840555797947509e+00 -7.067277388899310953e-02 -6.306069964045898368e-01 -7.728778526497035450e-01
9.773647543006953597e-01 -3.999835007669956533e-02 9.101185131082406565e-02 8.968783101996266049e-01 -4.335746391857995263e-01 8.730595024605265764e-02
2.858365214319202874e-01 2.778860665328644064e-01 6.465064094853069099e-01 4.469724970256132579e-01 6.962896947354525468e-01 5.616015027649929880e-01
9.503124965584229811e-01 -2.166039617632253000e-01 7.106531451574063518e-02 6.406306986528420566e-01 -7.343187197904346153e-01 2.244288878663097953e-01
-2.321141412746847987e-02 -1.060570903125778397e+00 9.452956055491096299e-02 2.884825324817701375e-01 -8.503365161792576510e-01 4.401200264757645919e-01
-8.074429680180550406e-01 -1.835237952188276123e-02 2.836978281820106695e-01 -5.718954359532445464e-01 1.845534451200801784e-01 7.992969637313518394e-01
8.675321314662787220e-01 -1.007054519432563633e-01 -1.105882670753425417e-01 6.489746677113157336e-01 -7.236884884312486665e-01 2.347484874947694533e-01
8.813449787559894943e-01 -3.105449489460132551e-01 -3.955339548075656464e-03 6.489746677113157336e-01 -7.236884884312486665e-01 2.347484874947694533e-01
4.362487225056848050e-01 3.745690743499471842e-01 6.126594808892860122e-01 5.388628811640104876e-01 6.436171438944573442e-01 5.434921962537851980e-01
8.074405480908959376e-01 -2.384605469572242398e-01 -1.893974458368881397e-02 5.612817758533525936e-01 -8.249531884100966828e-01 -6.644550418893857557e-02
