6.311600447759362076e-02 9.937593617876279428e-03 -5.831194796233141187e-01 8.462007698992417559e-01 -2.564783389899161908e-02 5.322466022796390472e-01
1.117525744268551419e-01 1.065375084485638835e-01 -5.885701974685370041e-01 8.723661500877536445e-01 -6.226366195565179867e-02 4.848716702189800332e-01
6.763037855526400632e-02 1.602869686950864625e-01 -6.577938520365859132e-01 8.756410269245747946e-01 -7.015897664044033755e-02 4.778394185950362583e-01
1.259450467966798937e-01 1.172678908343947335e-01 -6.232637290363053362e-01 8.730071425649768013e-01 -8.131897638146907970e-02 4.808801858163885834e-01
1.038040385481063810e-01 8.932214520677619896e-02 -6.095458091356293906e-01 8.444780677904494270e-01 -8.863531295312955527e-02 5.282050495012423630e-01
1.274732560800226899e-01 1.083953187120695466e-01 -6.689223538537811820e-01 8.445321452281068231e-01 -6.891258593986296366e-02 5.310522678376324857e-01
1.781416942427189731e-01 4.481942287321017543e-02 -6.325514517416672700e-01 8.454145461563399300e-01 -4.966890380506482072e-02 5.317962440089935017e-01
1.055823883628513593e-01 5.628197722868269470e-02 -5.517764923812625844e-01 8.109803390146302915e-01 -6.104439890618679199e-02 5.818801174588263958e-01
5.657684538284658143e-02 1.910686998781960938e-02 -6.107143688613779764e-01 7.802513366165142461e-01 -3.510338208296270857e-02 6.244802673219390643e-01
7.795911019958381982e-02 -4.371431458919350366e-02 -5.410290784456635027e-01 8.135211113984288644e-01 -3.228845737816548461e-02 5.806383184299872546e-01
7.002296923088960345e-02 1.195149219241354588e-01 -5.462861868070887361e-01 8.310905189132810067e-01 -5.085807778033053089e-02 5.538068303090375455e-01
6.404451159218810252e-03 2.772476710024311328e-02 -5.116548629731828557e-01 7.937012919560131330e-01 -2.587156180581640444e-02 6.077572882632371609e-01
-1.700714726902850110e-02 -4.214768708611140585e-02 -5.892612716695830866e-01 7.795375403368925982e-01 -1.205457589908786112e-02 6.262394992376324465e-01
6.465761314937000515e-02 -4.938337651497270303e-02 -5.848397150757423946e-01 7.831503502450556375e-01 1.886533302082994690e-02 6.215461592842962402e-01
4.613104633047857006e-02 -8.251757231176760909e-02 -5.468821653469700950e-01 7.435218546486365154e-01 6.119850484427688531e-02 6.659053946805634228e-01
9.965332973271143202e-02 -9.926582920446877512e-02 -5.494524634117314843e-01 7.469563579584528323e-01 1.273061625623179705e-01 6.525713296484150217e-01
-6.532535613173792721e-02 -4.123353535232193723e-02 -3.464685227881213470e-01 6.325866686291901075e-01 1.663465143255255241e-01 7.564145317511892230e-01
-8.795487320855516905e-03 -6.481210390854924563e-02 -4.812394720265233961e-01 6.660579429039437116e-01 1.780687991309388707e-01 7.243330169684604192e-01
-9.141020793101481759e-03 -1.177914022403975386e-01 -4.742685767840861821e-01 6.854253281446744950e-01 1.550747905210730082e-01 7.114379304497410184e-01
-2.388704885111537710e-02 -5.332277273565304287e-02 -4.822922829215394724e-01 7.079472546754851381e-01 1.064398057280485782e-01 6.981985765912295250e-01
3.318812750914711812e-02 -2.691031881833431949e-02 -5.047431895001414093e-01 7.201502684203493487e-01 1.095209717640854563e-01 6.851195133974431473e-01
-1.882528021226134024e-02 -5.945632867171860708e-02 -5.254397164543267440e-01 7.042453723226662632e-01 6.992676939098900479e-02 7.065045664995015517e-01
1.793498887697195579e-02 -5.020450442000825436e-02 -4.680570496071242981e-01 7.065358868926421287e-01 3.870828805689918023e-02 7.066177955362655805e-01
9.418664315849407595e-03 1.523517945249751836e-02 -5.251640276140255859e-01 7.284198925394425039e-01 2.463301458925890031e-02 6.846880127073003974e-01
-3.740608594243698820e-02 1.256897679224340710e-02 -4.695077911823545835e-01 7.078150660221993462e-01 5.695745702423482548e-03 7.063748231589820348e-01
-3.669431246217728926e-02 5.686865282264778540e-03 -3.724187699705084897e-01 6.651947519716855384e-01 1.303000150599374976e-02 7.465562008382767845e-01
-7.925422727026487646e-02 -6.537716102114216055e-02 -3.938399122765601779e-01 5.790386672188053696e-01 1.276837188119610625e-02 8.152000923362147100e-01
-1.398308649103522927e-01 2.978127124455658137e-04 -3.713956077676113798e-01 5.327148023000352062e-01 3.170402332887675007e-02 8.457007711449697762e-01
-1.342746788428695881e-01 -8.168973004816838801e-02 -3.651511094472160157e-01 5.808536891176262484e-01 3.689748235051288489e-02 8.131713027613787226e-01
-6.320551884904022921e-02 2.592110155718792969e-02 -4.326390620986840796e-01 6.654859460131563598e-01 4.660422016826579888e-02 7.449540269852108487e-01
-1.076659475801504395e-02 -7.137170942048028099e-04 -5.289947116617521594e-01 6.818611796522190405e-01 4.890019623891345840e-02 7.298452592783486459e-01
3.214555265717559951e-03 -5.661340234669831606e-02 -4.180944038281358410e-01 6.590452942653673984e-01 8.696173775839685649e-02 7.470588706873877438e-01
-9.848090659270048591e-03 -5.479865449242576209e-02 -4.151339187275812637e-01 6.636349451016687606e-01 1.234260192820119811e-01 7.378039559422960858e-01
-3.762428504582810557e-02 -1.243389197942683100e-01 -4.486875812778052253e-01 6.244531800246091446e-01 1.294565030485038126e-01 7.702592029801434981e-01
-6.277647572210094673e-02 -8.484260039348164029e-03 -3.245155619367813826e-01 6.172780096909599168e-01 5.636568349396643696e-02 7.847233706703432565e-01
-9.249294479828258642e-02 1.236183297203986842e-02 -3.505230034764363345e-01 4.736490821425810571e-01 1.373999301228937264e-01 8.699297708365397730e-01
-1.839947574709371175e-02 -1.047988837075678192e-01 -4.604038008693310813e-01 5.790237551918624437e-01 1.031606724877519171e-01 8.087579159274973506e-01
-6.902183985223665774e-02 -6.643725184576061704e-02 -3.876095228811963223e-01 5.784650635005251784e-01 1.637679731335414668e-01 7.990983802292837002e-01
-5.936955133306021787e-02 -8.334360407868146581e-02 -4.159600412181904128e-01 5.787363932850719817e-01 2.063923531161733771e-01 7.889653881271062597e-01
-2.860858991759647474e-02 -2.228136492391556422e-01 -4.403028773447478783e-01 5.332647578211829886e-01 2.207598577943534479e-01 8.166356490213563246e-01
-5.308630353662362189e-02 -1.098253184747951666e-01 -3.631656338502037840e-01 5.416058224136737209e-01 1.766154692133909410e-01 8.218698857861516105e-01
-1.229898166653637936e-01 -9.941129112024743586e-02 -3.674100241297502123e-01 4.802023948455478308e-01 1.678377084921674756e-01 8.609507323840887016e-01
-6.731064412628375015e-02 -1.045807143451822491e-01 -3.170017546444480749e-01 5.060652163520714675e-01 2.325587381319043634e-01 8.305506788372564175e-01
-2.135158886443353499e-01 -1.676502364212398566e-01 -3.677454232048116278e-01 4.720344069134419507e-01 3.293020962654452655e-01 8.177674780064676519e-01
-1.601773930563488990e-01 -1.236756578055968336e-01 -3.358349828849082619e-01 4.800263658159855673e-01 3.450221516794291787e-01 8.065571293913375017e-01
-1.414250676129799322e-01 -8.911471899307063516e-02 -3.527055338597399059e-01 5.313459716238020381e-01 2.930093321977341736e-01 7.948691651361220467e-01
-1.248648886556966986e-01 -1.352570066531394444e-01 -4.370104006324380674e-01 6.236680394268606653e-01 2.123064234728064825e-01 7.523058946662860569e-01
-5.369759589549265300e-02 -1.182745166692941163e-01 -4.044863196568319053e-01 6.267079560635215874e-01 2.514353272402335970e-01 7.375753615884139691e-01
-6.325484113996222846e-02 -1.606695209197114005e-01 -4.490054609704310362e-01 6.260945678386699020e-01 2.975051682892797533e-01 7.207608944470257351e-01
-3.083140603282414141e-02 -1.517830535619983379e-01 -4.684598654471483492e-01 6.691401771746325888e-01 2.706139153469082625e-01 6.921123695696511646e-01
2.072419151873033244e-02 -1.124106231766271169e-01 -4.165238834107143906e-01 6.905189043054011933e-01 2.471206490416625323e-01 6.797904291868896998e-01
1.799969456929642261e-02 -1.266602130596364562e-01 -4.544219323634906549e-01 6.624220044644530958e-01 2.208165601129394862e-01 7.158471448439148732e-01
-1.033272696677990481e-02 -1.835557198234567533e-01 -4.927953450897278875e-01 7.084439647981340960e-01 2.515488057536000022e-01 6.594166718130787253e-01
6.751469560795991809e-02 -2.003210197410411619e-01 -5.435804180219746540e-01 7.444860565964558363e-01 2.353494030339626786e-01 6.247808976153288452e-01
5.111849123208044021e-02 -1.885385538889423895e-01 -4.665319093380027038e-01 7.443739386456006413e-01 2.663542037862163814e-01 6.123421246253161199e-01
7.169298355577907733e-02 -2.908120547185643057e-01 -4.303509278754533707e-01 7.802516682284088567e-01 2.788759620725903554e-01 5.598531343172707953e-01
7.646952116859502546e-02 -2.594688671867272922e-01 -4.966513328463479926e-01 8.147020748130305856e-01 2.586800261630066711e-01 5.189847525309864151e-01
1.610256722735348978e-01 -2.303184872255770732e-01 -4.899369465740934237e-01 8.442408244209704815e-01 2.459839349929364427e-01 4.761820388322001163e-01
4.305573497266901306e-02 -2.684211847704251475e-01 -5.061729863470311175e-01 8.134871225585907917e-01 2.386588357727569831e-01 5.303589930782132145e-01
8.920100544748796323e-02 -2.122731312510376112e-01 -6.040356806927692501e-01 8.439352216821355279e-01 1.864300636567065295e-01 5.030081241583294061e-01
1.330738463417569795e-01 -1.774867920349788020e-01 -5.487654877558824085e-01 8.127447254589393877e-01 1.796670819151841014e-01 5.542253611255586465e-01
1.651751463162447753e-01 -1.565332036842334851e-01 -6.499746870564839796e-01 8.850840756790848696e-01 1.034531191985700177e-01 4.537880905305761714e-01
1.157493914328681928e-01 -2.358965206451958674e-01 -5.598634879354074112e-01 1.000000000000000000e+00 0.000000000000000000e+00 0.000000000000000000e+00
1.851935625087536008e-01 -3.920216361059085108e-01 -6.225074686707661176e-01 1.000000000000000000e+00 0.000000000000000000e+00 0.000000000000000000e+00
1.543331161137299623e-01 -4.326796529575051564e-01 -6.791437874366715866e-01 1.000000000000000000e+00 0.000000000000000000e+00 0.000000000000000000e+00
8.083472087677098794e-02 -4.363704694514377036e-01 -7.268316503171020626e-01 1.000000000000000000e+00 0.000000000000000000e+00 0.000000000000000000e+00
9.094922534635044298e-02 -4.541707696444122200e-01 -7.919316750013221107e-01 1.000000000000000000e+00 0.000000000000000000e+00 0.000000000000000000e+00
1.436635125887728570e-01 -3.732046677871524998e-01 -6.466572698177179834e-01 -1.022882733320318338e-04 -4.516339621478051569e-01 -8.922033141452592186e-01
1.068444347111162096e-01 -3.549193928945774679e-01 -6.703541001386380538e-01 2.822078733242539689e-02 -4.602415137722240535e-01 -8.873451054482632827e-01
1.031255688253941982e-01 -3.449996250580671941e-01 -6.840862512354954905e-01 9.985009815428917967e-01 -3.688689863914720868e-02 -4.043694556549492364e-02
2.010836838822543937e-01 -4.408873779930788106e-01 -5.700412044071190287e-01 -1.006776309271680166e-02 -4.957842422206961697e-01 -8.683873705391844666e-01
1.327320158640727665e-01 -3.855226213076294872e-01 -6.777248215965310241e-01 1.000000000000000000e+00 0.000000000000000000e+00 0.000000000000000000e+00
1.499101270782638995e-01 -3.656750137181986604e-01 -6.450939459325899517e-01 1.000000000000000000e+00 0.000000000000000000e+00 0.000000000000000000e+00
1.630964334598239973e-01 -4.084186117568371910e-01 -6.405749601055042985e-01 1.000000000000000000e+00 0.000000000000000000e+00 0.000000000000000000e+00
1.230201507039187236e-01 -2.976196965328801736e-01 -5.921173904294748658e-01 9.999917660655482932e-01 -1.983861361672655758e-03 -3.540069943269113280e-03
2.125959340450141455e-01 -2.737683801917829007e-01 -6.325853887546135645e-01 8.926255155544028375e-01 1.823478326542793682e-01 4.122729155638572562e-01
1.384872693663839194e-01 -2.760885510218168415e-01 -5.441335724218041570e-01 8.823836477785218513e-01 1.750926913294732212e-01 4.367397939002937712e-01
9.331352650439242447e-02 -1.881339411079919477e-01 -5.985487779213168880e-01 8.991954360910474620e-01 1.704745919392347264e-01 4.029714397028434925e-01
7.484786971701989922e-02 -1.129460540235637939e-01 -6.483533695967856891e-01 9.113965787381673733e-01 1.495611961809616974e-01 3.833897818947230585e-01
9.570613620753856687e-02 -2.887311621724507060e-01 -6.206311765693686144e-01 8.995933375618285766e-01 1.512566594293919542e-01 4.096989748493776173e-01
1.702360197464475589e-01 -2.144019707507970329e-01 -5.595382421041471543e-01 8.729827072902929253e-01 1.507050899806544608e-01 4.638848657005675835e-01
1.533039754675345201e-01 -1.687552595407627309e-01 -5.462601274233694904e-01 8.673488767537232969e-01 1.404360890014446084e-01 4.774763144911303714e-01
8.020242455839399209e-02 -9.158999744895751638e-02 -6.276056738969253423e-01 8.454924982188024574e-01 1.463600215295714768e-01 5.135379046901908939e-01
1.567379240909316240e-01 -1.393581541159281123e-01 -5.382598126635987912e-01 8.163425644982639229e-01 1.691391169568376429e-01 5.522470248932616066e-01
6.740150243589067280e-02 -1.844467948500174426e-01 -5.610411612704819806e-01 8.435710585817688401e-01 1.731976196047702587e-01 5.083212111317756410e-01
6.163426375915527500e-02 -2.507242779819535694e-01 -5.963061615789810865e-01 8.722961211082893573e-01 1.695074358298472583e-01 4.586575043513653749e-01
8.484416278453207894e-02 -2.006171008709023151e-01 -5.433766672511046725e-01 8.161300413879022386e-01 2.146613824245286462e-01 5.365186356873087314e-01
1.037671355703692622e-01 -3.151960746329012797e-01 -5.561690260869038838e-01 8.444469862839935059e-01 2.196627524384338614e-01 4.885259077541868611e-01
7.696357275239235074e-02 -2.852479332317853777e-01 -6.028272226000097600e-01 8.741058648091594163e-01 1.994940707768681765e-01 4.428781467075398326e-01
9.165924218113144506e-02 -2.322493219224911198e-01 -6.188898064520168552e-01 8.792875879086479163e-01 1.917553959645325323e-01 4.359853275837125008e-01
1.754626552596406652e-01 -3.142150078158949533e-01 -6.006394848084259941e-01 8.737479324211609999e-01 2.133794833709890537e-01 4.370740745755532508e-01
6.914076857507434060e-02 -2.737313296342410718e-01 -5.137020246092389719e-01 8.343663007117746444e-01 2.545959624302265301e-01 4.888903477782876594e-01
3.383163028390667043e-02 -1.835384119626368715e-01 -5.138188055903943896e-01 7.803272904107098062e-01 2.521373896174332052e-01 5.722901856551327882e-01
8.697573749431103396e-02 -1.805701610091914044e-01 -6.121900201931781416e-01 8.135969637338501537e-01 2.188116493466166490e-01 5.386849197010007417e-01
7.501804744804126124e-02 -1.425901437502645475e-01 -6.361120836809222023e-01 8.132422178919783695e-01 1.947467639478056567e-01 5.483710358598398171e-01
1.394923486507670118e-01 -1.694962128854450023e-01 -4.632951503707339880e-01 7.808808756269542961e-01 2.278708098394194026e-01 5.816355835944087005e-01
-3.548854743117707544e-02 -1.824796394737604743e-01 -5.239266407165312778e-01 7.764453483965453318e-01 2.225414764537216872e-01 5.895828289656719345e-01
5.968575473716561386e-02 -2.191001074607350496e-01 -5.273963714101496114e-01 7.883151837154359631e-01 1.806507228722069314e-01 5.881534556979559625e-01
-8.228493605383642440e-03 -1.735372746370134611e-01 -4.105431696018361221e-01 7.439117616557575641e-01 2.059067875961617944e-01 6.357654329169339924e-01
5.624281359479779002e-02 -1.619125253065272219e-01 -4.514812991061908365e-01 7.437873158231220749e-01 1.560151853197068172e-01 6.499536066291906611e-01
4.283059227055264345e-02 -7.924655050629045294e-02 -5.907200324499334299e-01 7.909772606087004387e-01 1.160909822138265629e-01 6.007311021152350605e-01
1.589027178521094930e-02 -1.023258210991991324e-01 -5.521362688340529790e-01 7.793834348048865879e-01 1.502347302746220303e-01 6.082688446493448309e-01
4.967871813016180860e-02 -1.735328778489255708e-01 -5.602653919214305445e-01 7.814674623230073447e-01 1.684918542136122632e-01 6.007654287607584465e-01
1.284146066480716941e-01 -1.689932487283780094e-01 -5.689825877717539226e-01 8.215629812686896516e-01 1.280241307944035012e-01 5.555574585434348567e-01
2.063001310947176759e-02 -1.559553480486009502e-01 -4.931465707894934214e-01 8.140880910155963157e-01 1.194618679339291556e-01 5.683216010115387240e-01
9.317003226835531005e-02 -1.078713515051756000e-01 -5.840142329022284251e-01 8.445773742869064904e-01 1.080325131849950576e-01 5.244216194414262899e-01
1.879467758689467027e-01 -1.464134020818896875e-01 -5.683326625147079314e-01 8.565990400791171355e-01 9.070491082758881662e-02 5.079475402906230563e-01
1.027683306581978068e-01 -5.974557682628917066e-02 -5.846218068784609923e-01 8.442268736288431885e-01 1.257444621157976228e-01 5.210271740418902509e-01
6.899893819337288292e-02 -1.624240868341428612e-01 -6.406788307579330821e-01 8.731291762938701018e-01 1.151466196200576358e-01 4.736947302793875214e-01
8.992427014211690217e-02 -6.903353056327460324e-02 -6.445698616580941565e-01 8.708774620189337901e-01 9.506529059999430098e-02 4.822188680159654739e-01
7.530082306194803288e-02 -6.454704654517257056e-02 -6.135689922140566965e-01 8.967499692754271612e-01 7.879982555086652296e-02 4.354653603877963741e-01
1.702955370303059213e-01 -7.015333745207372185e-02 -6.464812126695657080e-01 8.976037997318296879e-01 6.352870379743164042e-02 4.362012408290462662e-01
1.620452016232088732e-01 -1.294709142076222452e-01 -6.295407671241157743e-01 8.989829067194504697e-01 1.037132587468421741e-01 4.255270771482799752e-01
1.083337617143278891e-01 -1.931996861393380782e-01 -6.830502717353970077e-01 8.998411840480052826e-01 1.066232088275724799e-01 4.229862111587041062e-01
1.583130083524386389e-01 -1.827502908164999329e-01 -6.918273119014218819e-01 8.977173269860537763e-01 1.305717088542288074e-01 4.207785993558859072e-01
1.559021928478548646e-01 -3.577999934659345516e-01 -6.647123280291484804e-01 1.000000000000000000e+00 0.000000000000000000e+00 0.000000000000000000e+00
1.437638374931112795e-01 -1.039703942469728387e-01 -6.426296184624076258e-01 9.986196949730220540e-01 2.217973803653920314e-02 4.761054539300139943e-02
1.259499171291434405e-01 -3.874084370390977194e-01 -7.171098562764823825e-01 1.000000000000000000e+00 0.000000000000000000e+00 0.000000000000000000e+00
1.511601388731238227e-01 -4.242252113965762073e-01 -7.010645807384690009e-01 9.999104740172444217e-01 -1.333062169676981629e-02 1.156925143302367422e-03
1.865131793430490625e-01 -3.743232652683471384e-01 -6.361797627790422016e-01 1.000000000000000000e+00 0.000000000000000000e+00 0.000000000000000000e+00
2.009707813498784745e-01 -3.376883714996258279e-01 -6.597019542832553984e-01 1.000000000000000000e+00 0.000000000000000000e+00 0.000000000000000000e+00
1.346379818543355644e-01 -2.544328937408697477e-01 -6.271645098076940039e-01 1.000000000000000000e+00 0.000000000000000000e+00 0.000000000000000000e+00
1.687191545726769437e-01 -3.184431556601942104e-01 -6.237877854005915434e-01 1.000000000000000000e+00 0.000000000000000000e+00 0.000000000000000000e+00
1.621311582706662369e-01 -1.509115531695859880e-01 -6.487590463145591624e-01 9.999911895905331249e-01 -1.411048279183789618e-03 -3.953439523272437965e-03
1.406447079530301347e-01 -1.677837574150674582e-01 -7.030046422579663279e-01 1.000000000000000000e+00 0.000000000000000000e+00 0.000000000000000000e+00
1.758049837941611515e-01 -1.531005260996270156e-01 -7.249811273957494917e-01 9.989303735398940010e-01 -4.057100138457738446e-03 4.606135861993894409e-02
1.888471001905504265e-01 -1.869907630711392377e-01 -7.182908392372637785e-01 1.000000000000000000e+00 0.000000000000000000e+00 0.000000000000000000e+00
1.311504425672295471e-01 -3.273610986792973576e-01 -7.638364055543903630e-01 1.000000000000000000e+00 0.000000000000000000e+00 0.000000000000000000e+00
1.373104881193386306e-01 -3.696474803585071411e-01 -6.420808227724276174e-01 1.000000000000000000e+00 0.000000000000000000e+00 0.000000000000000000e+00
1.081699539937252819e-01 -3.990467760543905396e-01 -7.063420591149488503e-01 9.997784462197398803e-01 -1.259048106527368635e-02 -1.686826194330496437e-02
1.010266408013037187e-01 -2.580760312679839519e-01 -6.519115121318423967e-01 1.000000000000000000e+00 0.000000000000000000e+00 0.000000000000000000e+00
1.017779187844528588e-01 -2.660027798675267396e-01 -6.659955088330625772e-01 1.000000000000000000e+00 0.000000000000000000e+00 0.000000000000000000e+00
1.684598497259463812e-01 -1.968839734852026180e-01 -6.866869608090387933e-01 1.000000000000000000e+00 0.000000000000000000e+00 0.000000000000000000e+00
1.225146447038533010e-01 -1.539183601340431695e-01 -7.003587559858307499e-01 1.000000000000000000e+00 0.000000000000000000e+00 0.000000000000000000e+00
9.092413501370422146e-02 -7.660226648485540801e-02 -7.967232582183904066e-01 1.000000000000000000e+00 0.000000000000000000e+00 0.000000000000000000e+00
6.373637101903219249e-02 -1.033876326299790760e-01 -7.596114590010523138e-01 1.000000000000000000e+00 0.000000000000000000e+00 0.000000000000000000e+00
1.434354434753091212e-01 -1.214705085320153810e-01 -8.654493552711776116e-01 9.999993110841357558e-01 -5.852300632824177775e-04 -1.017515123670618754e-03
1.174764260625455192e-01 -4.160536927481765096e-02 -7.655908347786206658e-01 1.000000000000000000e+00 0.000000000000000000e+00 0.000000000000000000e+00
1.815276769463560202e-01 -1.431890465414512315e-01 -6.072739213534822378e-01 1.000000000000000000e+00 0.000000000000000000e+00 0.000000000000000000e+00
1.748764074871219099e-01 -1.934670970884347918e-01 -7.787836137712380591e-01 1.000000000000000000e+00 0.000000000000000000e+00 0.000000000000000000e+00
1.598652181897737001e-01 -2.283919318306024682e-01 -7.537109185864281358e-01 1.000000000000000000e+00 0.000000000000000000e+00 0.000000000000000000e+00
1.171496857956300375e-01 -1.071091632361010626e-01 -6.388137309729932101e-01 9.999999827404394415e-01 9.252197003353031159e-05 -1.611173673522859695e-04
1.966368071490770253e-01 -9.718827275405972355e-02 -8.383401985089687924e-01 1.000000000000000000e+00 0.000000000000000000e+00 0.000000000000000000e+00
1.182419219806775945e-01 -2.357756190050647876e-02 -7.540058544649281824e-01 1.000000000000000000e+00 0.000000000000000000e+00 0.000000000000000000e+00
1.650174311461072019e-01 -1.447972156760353457e-01 -7.851317440473740694e-01 1.000000000000000000e+00 0.000000000000000000e+00 0.000000000000000000e+00
1.393333743541469993e-01 -8.652795699788365380e-02 -7.896943291389857400e-01 1.000000000000000000e+00 0.000000000000000000e+00 0.000000000000000000e+00
1.752673994986310158e-01 -1.672600963884042780e-01 -7.911626072653584751e-01 1.000000000000000000e+00 0.000000000000000000e+00 0.000000000000000000e+00
1.386392064386156309e-01 -2.145127691828084271e-01 -8.199428028731670093e-01 1.000000000000000000e+00 0.000000000000000000e+00 0.000000000000000000e+00
1.168038907321265474e-01 -4.857137898300092210e-02 -6.671997088614028959e-01 1.000000000000000000e+00 0.000000000000000000e+00 0.000000000000000000e+00
2.238813276337391356e-01 -1.284805893592695925e-01 -7.359160132646498376e-01 1.000000000000000000e+00 0.000000000000000000e+00 0.000000000000000000e+00
1.449338909904462069e-01 -2.470851183103504184e-02 -6.465307435242719780e-01 9.992736501141868954e-01 -2.802977129059975800e-02 2.581674086452723921e-02
1.490010061682313924e-01 -2.105592022064427804e-01 -7.875098721343039010e-01 1.000000000000000000e+00 0.000000000000000000e+00 0.000000000000000000e+00
1.361500076608538334e-01 -1.804800376941431972e-01 -7.908858658121461493e-01 1.000000000000000000e+00 0.000000000000000000e+00 0.000000000000000000e+00
1.142546975574881551e-01 -2.055397859744925448e-01 -7.069651456276423440e-01 1.000000000000000000e+00 0.000000000000000000e+00 0.000000000000000000e+00
2.186408267923781179e-01 -2.715018115274014376e-01 -6.931636115526700337e-01 1.000000000000000000e+00 0.000000000000000000e+00 0.000000000000000000e+00
2.337872434289263723e-01 -2.455676794737378099e-01 -7.041367340940206665e-01 1.000000000000000000e+00 0.000000000000000000e+00 0.000000000000000000e+00
1.730354511949303009e-01 -2.843061452943628220e-01 -7.643679813716470761e-01 1.000000000000000000e+00 0.000000000000000000e+00 0.000000000000000000e+00
2.027516847068754902e-01 -1.165579849883389002e-01 -7.914766950908405096e-01 9.999568641735880892e-01 -4.763275166703895454e-03 -7.973769611080505984e-03
1.376049797658602802e-01 -3.313082925831995484e-01 -6.952627519341894047e-01 9.999999385315695433e-01 -1.646339538389522336e-04 3.095682775224435309e-04
1.909729079730659307e-01 -1.418201000802050138e-01 -8.117584684967299458e-01 9.942190232334950917e-01 -8.925621859410284159e-03 -1.069993790405247697e-01
1.933043860170066686e-01 -2.340956978121810916e-01 -7.845029914806469495e-01 9.999964571342406794e-01 -7.964712716923531702e-04 -2.539951275121068216e-03
1.232224416495265318e-01 -3.360016015430068448e-01 -7.133298736991623423e-01 4.349426019782179353e-04 -4.038480705181765051e-01 -9.148259652872119396e-01
7.831287054051357110e-02 -2.715451898677951892e-01 -7.888988164664774150e-01 7.626476260621466163e-02 -3.689890085636294281e-01 -9.262995182681719175e-01
1.897491696428703356e-01 -2.826315246189964880e-01 -7.487873420789155077e-01 -4.465824203560545338e-03 -3.384638090104702957e-01 -9.409688126629419669e-01
2.313559764020787779e-01 -2.765132732077555389e-01 -7.508136849763695775e-01 6.717343110245214965e-02 -3.837614906561577222e-01 -9.209858025199344489e-01
1.284115939736822365e-01 -2.529581382668729672e-01 -8.371804385604090237e-01 6.952196281727877902e-02 -3.060071423725932993e-01 -9.494874014451124555e-01
6.765434596583427829e-02 -2.327220150496141504e-01 -7.892412648692201937e-01 5.407004384152196141e-02 -3.136660697755209726e-01 -9.479926302617304179e-01
1.441173441861973159e-01 -3.163111365418991294e-01 -7.922613966522391582e-01 1.000000000000000000e+00 0.000000000000000000e+00 0.000000000000000000e+00
6.695893845806494271e-02 -3.423610150135694141e-01 -8.619037541416437742e-01 1.000000000000000000e+00 0.000000000000000000e+00 0.000000000000000000e+00
1.240433532775790382e-01 -2.517138858841026505e-01 -8.308627088703686159e-01 1.000000000000000000e+00 0.000000000000000000e+00 0.000000000000000000e+00
1.379405417175519066e-01 -2.293463309737996392e-01 -7.422389258582969829e-01 1.000000000000000000e+00 0.000000000000000000e+00 0.000000000000000000e+00
1.305644076303242307e-01 -3.423698640587932163e-01 -8.394859435517475488e-01 1.000000000000000000e+00 0.000000000000000000e+00 0.000000000000000000e+00
7.058506218174451230e-02 -3.292097154137911263e-01 -8.317381500395522043e-01 1.000000000000000000e+00 0.000000000000000000e+00 0.000000000000000000e+00
6.908881210982735499e-02 -3.887237596547824525e-01 -8.239158108759598864e-01 1.000000000000000000e+00 0.000000000000000000e+00 0.000000000000000000e+00
8.229225196420879296e-02 -1.839918134615856349e-01 -7.392575960645586530e-01 9.987568879732154903e-01 5.110020674876831776e-04 -4.984393245867534128e-02
1.261846837161148538e-01 -2.437050053647960568e-01 -8.179203232103564591e-01 9.968957160287008623e-01 -6.281387328675469561e-02 -4.746945003198935892e-02
1.865243153102374429e-01 -2.875152448939713445e-01 -8.619141877099224525e-01 1.000000000000000000e+00 0.000000000000000000e+00 0.000000000000000000e+00
1.949064069876342842e-01 -1.940563572776463630e-01 -8.331267680891574212e-01 1.000000000000000000e+00 0.000000000000000000e+00 0.000000000000000000e+00
1.132836799624953733e-01 -2.678239553393547134e-01 -7.792868907473026185e-01 1.000000000000000000e+00 0.000000000000000000e+00 0.000000000000000000e+00
1.434692926791165668e-01 -2.560366839053366261e-01 -7.852182324593931506e-01 1.000000000000000000e+00 0.000000000000000000e+00 0.000000000000000000e+00
5.903184435405898350e-02 -2.442982968141532152e-01 -8.342281211683950648e-01 1.000000000000000000e+00 0.000000000000000000e+00 0.000000000000000000e+00
1.832235136493224337e-01 -4.851498715446261878e-01 -8.567540608149436521e-01 1.000000000000000000e+00 0.000000000000000000e+00 0.000000000000000000e+00
1.615077438807612786e-01 -3.213927990463404383e-01 -9.074129204284712147e-01 1.000000000000000000e+00 0.000000000000000000e+00 0.000000000000000000e+00
1.101922509611964335e-01 -1.311137856450826367e-01 -7.949646130606787819e-01 1.000000000000000000e+00 0.000000000000000000e+00 0.000000000000000000e+00
1.588496600981663398e-01 -1.200406953732344323e-01 -7.379778586767025139e-01 9.992067352238153122e-01 -1.428574026187876857e-02 -3.717281141553002016e-02
6.763182734556012765e-02 -1.266850337372199820e-01 -8.344694241770368448e-01 1.000000000000000000e+00 0.000000000000000000e+00 0.000000000000000000e+00
1.314487167664463441e-01 -9.739471908860575233e-02 -8.804436222307822080e-01 9.980345368581136078e-01 -1.752010814363608171e-02 -6.016734204737617803e-02
8.943156107275357369e-02 -1.669138665159284884e-01 -9.069651853538562847e-01 1.000000000000000000e+00 0.000000000000000000e+00 0.000000000000000000e+00
1.097914705901570087e-01 -3.724259603790119888e-01 -9.166777802552329435e-01 1.000000000000000000e+00 0.000000000000000000e+00 0.000000000000000000e+00
1.385267925533767153e-01 -2.697930972646956360e-01 -8.578070390620179397e-01 1.000000000000000000e+00 0.000000000000000000e+00 0.000000000000000000e+00
1.377169680610513536e-01 -2.524333209619257223e-01 -7.737199877569689299e-01 1.000000000000000000e+00 0.000000000000000000e+00 0.000000000000000000e+00
5.007361932834446944e-02 -1.507809394652399881e-01 -8.756825540777005701e-01 1.000000000000000000e+00 0.000000000000000000e+00 0.000000000000000000e+00
9.812702439438493462e-02 -1.648907372575063313e-01 -8.539415338715866666e-01 1.000000000000000000e+00 0.000000000000000000e+00 0.000000000000000000e+00
1.426430167260587800e-01 -1.408787260788148532e-01 -8.286726563894569741e-01 1.000000000000000000e+00 0.000000000000000000e+00 0.000000000000000000e+00
1.515120605291454536e-01 -6.925892642482070483e-02 -7.933726010573910470e-01 1.000000000000000000e+00 0.000000000000000000e+00 0.000000000000000000e+00
9.786245429890208514e-02 -1.572847141439168150e-01 -8.881495459505852619e-01 1.000000000000000000e+00 0.000000000000000000e+00 0.000000000000000000e+00
6.978888003049971145e-02 -9.463214069041740728e-02 -8.844650314757986909e-01 1.000000000000000000e+00 0.000000000000000000e+00 0.000000000000000000e+00
1.481104097457175972e-01 -9.555746979172492772e-02 -9.043025299955694818e-01 1.000000000000000000e+00 0.000000000000000000e+00 0.000000000000000000e+00
1.207548859838332156e-01 5.930474968720091111e-02 -8.173432973208317742e-01 1.000000000000000000e+00 0.000000000000000000e+00 0.000000000000000000e+00
1.783598358353069013e-01 -7.308197148643415242e-02 -8.566135903130559504e-01 1.000000000000000000e+00 0.000000000000000000e+00 0.000000000000000000e+00
1.179647724762711430e-01 -6.374787624164227062e-02 -8.484268771144085619e-01 1.000000000000000000e+00 0.000000000000000000e+00 0.000000000000000000e+00
1.634267743273122575e-02 -2.964776205649793939e-01 -9.746326603335191407e-01 1.000000000000000000e+00 0.000000000000000000e+00 0.000000000000000000e+00
9.446428807336099132e-02 -2.148955403460960090e-01 -7.955142034854878474e-01 1.000000000000000000e+00 0.000000000000000000e+00 0.000000000000000000e+00
1.469504303670511325e-01 -1.006763901242482551e-01 -8.709903323123937557e-01 1.000000000000000000e+00 0.000000000000000000e+00 0.000000000000000000e+00
1.252057647887108993e-01 -1.095238265288561164e-01 -8.079580067632350371e-01 1.000000000000000000e+00 0.000000000000000000e+00 0.000000000000000000e+00
1.329744414712515643e-01 -9.857119693344615352e-02 -8.874292838118802429e-01 1.000000000000000000e+00 0.000000000000000000e+00 0.000000000000000000e+00
1.222273759947457433e-01 -2.117359106323724871e-01 -8.808459883723762651e-01 1.000000000000000000e+00 0.000000000000000000e+00 0.000000000000000000e+00
1.562555362125764014e-01 -1.155296664274195473e-01 -8.550497433061747810e-01 1.000000000000000000e+00 0.000000000000000000e+00 0.000000000000000000e+00
9.748054210993555013e-02 -3.059011867248344063e-01 -8.418523886911256637e-01 1.000000000000000000e+00 0.000000000000000000e+00 0.000000000000000000e+00
5.066555292084796991e-02 -3.683789921748563123e-01 -8.619681519521003032e-01 1.000000000000000000e+00 0.000000000000000000e+00 0.000000000000000000e+00
1.894873188098827321e-01 -2.792778388199614881e-01 -8.572750700888019937e-01 1.000000000000000000e+00 0.000000000000000000e+00 0.000000000000000000e+00
1.401361898289029684e-01 -4.185484154389269573e-01 -8.548349920240732036e-01 1.000000000000000000e+00 0.000000000000000000e+00 0.000000000000000000e+00
1.625480474199277603e-01 -3.937255406047673878e-01 -9.203439850802311861e-01 9.981821325061482897e-01 -2.639693079280986884e-02 -5.418147644903879845e-02
1.227729629657756671e-01 -3.139333660976008633e-01 -9.226089188253578932e-01 -6.971683323650237310e-05 -3.269008638156354341e-01 -9.450586333006827378e-01
3.236427667976095324e-02 -3.120094793559327062e-01 -8.737333170672023641e-01 -7.525848930505943946e-01 -2.261178327958009160e-01 -6.184550949290947841e-01
-3.107114932020769993e-02 -3.009473532079980918e-01 -9.195729505868374121e-01 -6.364448601642627157e-01 -2.524578032126303384e-01 -7.288367427397886011e-01
1.015422508623778641e-01 -9.661789973099887963e-02 -9.949963784153902369e-01 -3.755219615266575106e-01 -2.499094161928110125e-01 -8.924844761167221030e-01
9.119686580588454161e-02 -1.135602036951080113e-01 -1.002542032314239329e+00 -6.390043136340255447e-01 -1.607290983678883942e-02 -7.690352064284744493e-01
1.884963282958695419e-01 -1.604339473037048186e-02 -9.989595287523677092e-01 1.000000000000000000e+00 0.000000000000000000e+00 0.000000000000000000e+00
4.059238350962243030e-02 -2.820338287607612043e-02 -9.410382852598196957e-01 -8.854724334474301515e-05 1.604614867296265813e-04 -9.999999832057483440e-01
1.254086647444621339e-01 3.176939538278467090e-03 -9.432169760299915495e-01 -4.993729409469005443e-05 4.776898771776215413e-02 -9.988584090443884955e-01
1.358395589461848241e-01 4.516991732461111964e-02 -9.745097942216363052e-01 6.433336448952679809e-02 2.478461676776226238e-02 -9.976206398151217236e-01
1.793769789374433932e-01 1.152606240851410113e-01 -9.639648842027495057e-01 1.000000000000000000e+00 0.000000000000000000e+00 0.000000000000000000e+00
9.135593871840799740e-02 -7.005397012067922369e-02 -9.198058593331981392e-01 1.000000000000000000e+00 0.000000000000000000e+00 0.000000000000000000e+00
9.204905910912693223e-02 4.576531929467102938e-02 -9.524495241894876951e-01 1.000000000000000000e+00 0.000000000000000000e+00 0.000000000000000000e+00
7.390516876849097250e-02 -3.739137553276675879e-02 -1.063751411499376021e+00 -4.865215041870587717e-03 -6.593461864030086307e-03 -9.999664274080625193e-01
9.378600462892727752e-02 1.664375058211488637e-02 -1.061902361902465231e+00 5.287353288470680868e-02 1.520224479693660044e-04 -9.986012048908539107e-01
8.499293233980022289e-02 -2.402578182587045141e-02 -9.044892963988238055e-01 6.298945103178463234e-02 -2.829559724846993779e-02 -9.976129952216274965e-01
1.600811877379978432e-01 -2.198617600832889624e-02 -9.478533909516082545e-01 4.917070275097481374e-02 -4.713068098829790303e-02 -9.976777740836739738e-01
8.812275639133376748e-02 -4.292645042213991124e-02 -1.081141212247182626e+00 -6.902020476157828474e-03 -8.441501638006489172e-02 -9.964067779390605173e-01
5.474882638955486103e-02 -9.025944969632804238e-02 -1.000252163566597519e+00 7.324334750201268564e-04 -9.315812075859181141e-02 -9.956510573880450465e-01
7.609066994184088273e-02 -1.489824677050504698e-01 -9.418520855396361746e-01 -3.766088548704425443e-01 -3.181493671821663538e-01 -8.700268677430376130e-01
4.545020395131503521e-02 -1.879655127107111023e-01 -9.791098085349628777e-01 -6.978109617274612653e-01 -1.175374899812657026e-01 -7.065725724523271856e-01
-1.950281959522044695e-02 -2.543618993750502155e-01 -9.830113482940794345e-01 -9.121569314846512677e-01 1.003582241748226939e-01 -3.973637617913607367e-01
3.966919844216957453e-02 -2.878385045753354965e-01 -9.610193464518966833e-01 -3.813327388374372906e-01 -1.899585924654590419e-01 -9.047104926103601841e-01
3.804419465989286597e-02 -2.350272546725639122e-01 -9.022099221199811891e-01 -1.655453064115434969e-02 -2.343117989076153873e-01 -9.720205390874867568e-01
4.637319254705030147e-02 -2.177592922583508617e-01 -9.548876641270734877e-01 -8.003980129813639387e-04 -2.369405101479899189e-01 -9.715238309037155240e-01
1.179318296811954492e-01 -2.313322874604227253e-01 -1.015638767941356546e+00 -1.703443935828534775e-02 -2.755710634699437001e-01 -9.611297606742770228e-01
9.580980530653271376e-02 -2.392818547023438658e-01 -9.849899814808603660e-01 -7.657693052416627221e-05 -2.815079989249149039e-01 -9.595588781712479642e-01
1.136250160697130362e-01 -3.396989228330018484e-01 -9.025896060924347708e-01 -3.203220460581197165e-02 -2.816759666270146623e-01 -9.589747586317525219e-01
9.307941933337414431e-02 -3.689503588725344119e-01 -8.948309204272744122e-01 1.589032731043070468e-03 -2.390420794561905760e-01 -9.710079089401075780e-01
6.083991999085247571e-02 -2.144435013124137979e-01 -9.812949182705169582e-01 -4.870414913172089371e-04 -1.875630972153728704e-01 -9.822524356567218229e-01
6.532334702219734501e-02 -1.888886706842462793e-01 -9.767498888924087685e-01 5.573614156173867240e-02 -2.002959125647818528e-01 -9.781487769933830956e-01
1.055936430695679218e-01 -1.851255002797203286e-01 -9.808087502847339101e-01 -7.178286756337955675e-03 -1.806966363740822035e-01 -9.835126830917517715e-01
1.540597635953359634e-01 -1.514558092654044175e-01 -9.958510672243691131e-01 1.478233485421745301e-04 -1.422302871742085750e-01 -9.898335837698171158e-01
5.395999536018653703e-02 -1.329925133734744525e-01 -9.178067428484011359e-01 -1.056135398871772269e-01 -2.342825280891729922e-01 -9.664147542461494211e-01
4.794621030053244221e-02 -1.126815176324625217e-01 -1.023321457857617300e+00 -7.856249494235597597e-01 -1.697623538862029491e-01 -5.949572943045950968e-01
5.381163859082756934e-02 -2.795679045143978914e-01 -9.923015764906618630e-01 -7.799169588674548237e-01 -9.492742490556259349e-02 -6.186423209510804044e-01
7.314944676627882503e-02 -3.017130899114731091e-01 -9.196716085001284124e-01 7.624266025321125330e-06 -3.268773073427480025e-01 -9.450667838233578477e-01
5.557520362889416948e-02 -3.003107086675366744e-01 -9.725937383998577435e-01 4.863000382559174578e-02 -3.421297464564050927e-01 -9.383934991876270448e-01
7.197370334175569317e-02 -2.416713856752533696e-01 -9.044067529295366503e-01 9.967037192993687400e-01 -5.238864314904835562e-02 -6.194453974166670013e-02
1.538700445884491619e-01 -9.511218987105260481e-02 -1.017663219741800962e+00 9.986911976189890572e-01 -4.687024717436290636e-03 -5.093057625481491046e-02
6.260149193845311599e-02 -1.305509533150924217e-01 -9.772442207108850143e-01 9.985620996537545313e-01 -5.093456201770755164e-04 -5.360479178324060318e-02
1.645290966709801461e-01 -2.677805242922796647e-01 -9.761104447823233388e-01 9.983812865532861736e-01 -1.667878016627786369e-02 -5.437485588367172579e-02
2.185461418002748180e-01 -7.219080589487827937e-02 -1.008165723514120815e+00 9.985733259646246696e-01 -1.412578023904694901e-04 -5.339749730259599203e-02
8.477171495276494828e-02 -4.168963479536091921e-01 -9.890325997385500667e-01 1.000000000000000000e+00 0.000000000000000000e+00 0.000000000000000000e+00
1.696253878858990927e-01 -1.817965803087026044e-01 -9.180692906214424909e-01 1.000000000000000000e+00 0.000000000000000000e+00 0.000000000000000000e+00
1.509417062352704786e-01 -3.454017305821847905e-02 -8.978527730714976895e-01 1.000000000000000000e+00 0.000000000000000000e+00 0.000000000000000000e+00
1.414455784440319941e-01 -1.152597410848145987e-01 -9.487109324456319825e-01 1.000000000000000000e+00 0.000000000000000000e+00 0.000000000000000000e+00
1.606812481639500467e-01 -8.284228603292813353e-02 -9.728095817889396146e-01 1.000000000000000000e+00 0.000000000000000000e+00 0.000000000000000000e+00
8.677190198608093763e-02 -1.188272453520651945e-01 -1.022908600541945878e+00 1.000000000000000000e+00 0.000000000000000000e+00 0.000000000000000000e+00
1.473631284197378100e-01 -1.639621093827843823e-01 -9.924053950682264480e-01 1.000000000000000000e+00 0.000000000000000000e+00 0.000000000000000000e+00
9.569237012427550537e-02 8.696785974734777547e-03 -9.504363989687538705e-01 1.000000000000000000e+00 0.000000000000000000e+00 0.000000000000000000e+00
1.073631201898330584e-01 -1.334626442597849731e-02 -9.274466317967636764e-01 9.990705649729232363e-01 2.765664080653159815e-02 3.306231123170663699e-02
1.041329406322350354e-01 -1.888075239117251863e-02 -1.001801379819473814e+00 1.000000000000000000e+00 0.000000000000000000e+00 0.000000000000000000e+00
2.134613852092389352e-01 -1.061466371097481293e-01 -8.827136281175052002e-01 1.000000000000000000e+00 0.000000000000000000e+00 0.000000000000000000e+00
7.744258905978829155e-02 -1.070405386906499029e-01 -9.460328828747579522e-01 1.000000000000000000e+00 0.000000000000000000e+00 0.000000000000000000e+00
1.073727261407148581e-01 -1.444778190234774773e-01 -9.658156975357972129e-01 1.000000000000000000e+00 0.000000000000000000e+00 0.000000000000000000e+00
8.919487428374288374e-02 -2.403932059856695447e-01 -8.703807781198148463e-01 1.000000000000000000e+00 0.000000000000000000e+00 0.000000000000000000e+00
8.588263632468581821e-02 -2.727689713480389855e-02 -9.315172209138730119e-01 -6.713530072548602734e-02 8.518821771033063817e-01 5.194127527604897043e-01
9.700385933070870825e-02 -4.145029667461745670e-02 -9.081794569016677920e-01 -1.876580966161350006e-01 7.006427468195884911e-01 6.883924608125159272e-01
8.149401131934497222e-02 -9.842128892450424660e-02 -8.235596671544447300e-01 1.000000000000000000e+00 0.000000000000000000e+00 0.000000000000000000e+00
2.580767668059075204e-02 -1.885509530687225210e-01 -8.580451176213254039e-01 1.000000000000000000e+00 0.000000000000000000e+00 0.000000000000000000e+00
1.782423523723226377e-01 -1.729940721892848643e-01 -9.336790194217018390e-01 1.000000000000000000e+00 0.000000000000000000e+00 0.000000000000000000e+00
1.018152238929265901e-01 -2.138930280834755171e-01 -9.043700929385106724e-01 1.000000000000000000e+00 0.000000000000000000e+00 0.000000000000000000e+00
5.629739507308627322e-02 -1.157492579925094578e-01 -9.480782344482405755e-01 1.000000000000000000e+00 0.000000000000000000e+00 0.000000000000000000e+00
5.905130917619312581e-02 -3.208940744908567871e-02 -9.135226663784965506e-01 1.000000000000000000e+00 0.000000000000000000e+00 0.000000000000000000e+00
1.233125391684534305e-01 -3.190698954184058578e-01 -8.842896336036311089e-01 1.000000000000000000e+00 0.000000000000000000e+00 0.000000000000000000e+00
8.117178401021604706e-02 -3.339571251032738552e-01 -8.723892389419016791e-01 1.000000000000000000e+00 0.000000000000000000e+00 0.000000000000000000e+00
1.326993637085134847e-01 -2.009343233702277076e-01 -9.154719244507000253e-01 1.000000000000000000e+00 0.000000000000000000e+00 0.000000000000000000e+00
8.514643378271792573e-02 -1.657542799385141596e-01 -9.350362525159395810e-01 1.000000000000000000e+00 0.000000000000000000e+00 0.000000000000000000e+00
1.504010353662443567e-01 -2.528980197091059146e-01 -8.879708045172053366e-01 1.000000000000000000e+00 0.000000000000000000e+00 0.000000000000000000e+00
4.282613876972986289e-02 -2.387067075604289157e-01 -9.172280986544683046e-01 1.000000000000000000e+00 0.000000000000000000e+00 0.000000000000000000e+00
6.518387939009651078e-02 -7.168441841917500001e-02 -8.856602661313786040e-01 1.000000000000000000e+00 0.000000000000000000e+00 0.000000000000000000e+00
1.360786918352145936e-01 -2.708420474772369468e-01 -9.940445314024115575e-01 1.000000000000000000e+00 0.000000000000000000e+00 0.000000000000000000e+00
8.763981413980098667e-02 -3.600003932128659767e-01 -8.593502452464860664e-01 1.000000000000000000e+00 0.000000000000000000e+00 0.000000000000000000e+00
1.396758355208649327e-01 -6.101942427705755317e-03 -8.063549031748119544e-01 1.036461166168543002e-01 4.267453050368523737e-01 -8.984130047696601284e-01
8.880851058718897129e-02 -7.972384738622961819e-02 -8.220265928659452603e-01 7.161986368195533137e-02 9.409141547182846566e-01 -3.309851183617684156e-01
1.490924767416229590e-01 2.009846713285175224e-02 -9.807447731103940969e-01 1.000000000000000000e+00 0.000000000000000000e+00 0.000000000000000000e+00
1.393235938294513643e-01 -1.826116651551570186e-02 -8.517188305778214952e-01 1.000000000000000000e+00 0.000000000000000000e+00 0.000000000000000000e+00
1.288990723577363995e-01 -1.986232677335260377e-01 -8.718008592615372754e-01 1.000000000000000000e+00 0.000000000000000000e+00 0.000000000000000000e+00
1.349037556031912888e-01 -2.781348492480889556e-01 -9.351292773992994078e-01 1.000000000000000000e+00 0.000000000000000000e+00 0.000000000000000000e+00
1.486941791104497701e-01 -3.374320834415210357e-01 -8.989490763176744004e-01 1.000000000000000000e+00 0.000000000000000000e+00 0.000000000000000000e+00
9.022025860555549226e-02 -4.321055650336409482e-01 -8.798845344723822404e-01 1.000000000000000000e+00 0.000000000000000000e+00 0.000000000000000000e+00
1.095749016952102250e-01 -1.772972462919810699e-01 -9.075816444760170798e-01 1.000000000000000000e+00 0.000000000000000000e+00 0.000000000000000000e+00
1.153001700342405761e-01 -2.667057999151572489e-01 -8.831777576422067400e-01 1.000000000000000000e+00 0.000000000000000000e+00 0.000000000000000000e+00
1.365429593619328363e-01 -2.287131673732252235e-01 -8.090369184067471853e-01 1.000000000000000000e+00 0.000000000000000000e+00 0.000000000000000000e+00
8.536698889299948467e-02 -3.388668575986547027e-01 -8.158480390803160009e-01 1.000000000000000000e+00 0.000000000000000000e+00 0.000000000000000000e+00
1.402870499100124513e-01 -4.706832282075219531e-01 -9.247862958553243473e-01 9.983371842338254476e-01 -7.008448878582727859e-03 -5.721667781681585851e-02
1.447354602531870649e-01 -5.197887630403149606e-01 -8.298920258505688707e-01 9.983717349039563649e-01 -2.557417254619610489e-02 -5.098863249236589013e-02
1.316401741223933997e-01 -4.468440709614975859e-01 -8.023494156086196094e-01 5.192114213603227398e-03 -4.682360122676774150e-01 -8.835881839214784206e-01
6.473096671311237560e-02 -4.330090760056617971e-01 -8.543027328592079916e-01 -6.618548770760606195e-05 -4.580999209725697963e-01 -8.889007020046764129e-01
2.654550744531533613e-02 -4.443618071048829887e-01 -8.903758917128975492e-01 5.157926113833301296e-02 -4.186904416442616128e-01 -9.066630542247525737e-01
3.546642439408470571e-02 -4.363116679584245761e-01 -8.559338430819078969e-01 -2.870552635364119996e-03 -4.184312389521061548e-01 -9.082439420092890403e-01
1.041177404608168572e-01 -3.641524846675541771e-01 -8.556770828475477320e-01 2.343106183327102270e-04 -4.157739224822921686e-01 -9.094679711140041256e-01
3.878109115583240618e-02 -4.515347308414215943e-01 -9.292849724627484376e-01 6.027523424899029064e-02 -3.732619226055451378e-01 -9.257658630933858213e-01
6.603519712617665627e-02 -3.703314314930228335e-01 -9.585367653970225943e-01 7.328510822007512290e-03 -3.714869274439978053e-01 -9.284092608690143189e-01
6.892772214840267586e-02 -4.154984059619346026e-01 -9.257275416927712719e-01 -6.233794805832245656e-01 -2.758250381283312569e-01 -7.316546805216883609e-01
8.152125753363011207e-02 -3.622078334859228366e-01 -9.177416207356788869e-01 -1.000000000000000000e+00 0.000000000000000000e+00 0.000000000000000000e+00
1.964742827369896430e-02 -3.612904850127552359e-01 -8.844400253384411270e-01 -1.000000000000000000e+00 0.000000000000000000e+00 0.000000000000000000e+00
4.222880887872940137e-02 -1.055500951612688559e-01 -8.410436243083269092e-01 -1.000000000000000000e+00 0.000000000000000000e+00 0.000000000000000000e+00
6.330097264935403978e-02 -8.551055394197157322e-02 -9.055957599262324242e-01 -1.000000000000000000e+00 0.000000000000000000e+00 0.000000000000000000e+00
6.050869660937294170e-02 -3.509551039124416683e-01 -8.452169385817454028e-01 -1.000000000000000000e+00 0.000000000000000000e+00 0.000000000000000000e+00
4.276578106582741567e-02 -3.806826746475763801e-01 -8.817448065365911525e-01 -1.000000000000000000e+00 0.000000000000000000e+00 0.000000000000000000e+00
