-3.030875274922334439e-02 1.208471338634598824e-01 2.896200988514099905e-01 -3.414541628532827278e-01 -9.321760464520925105e-01 1.202367376932284848e-01
-5.542498451834219214e-02 1.742762541363381823e-01 3.603998175160834094e-01 -3.414541628532827278e-01 -9.321760464520925105e-01 1.202367376932284848e-01
-1.250848049211964949e-02 1.676236842000670968e-01 3.070751566243063446e-01 -3.394844188441569210e-01 -9.277116589953565695e-01 1.552462789445484825e-01
2.220331535543438317e-01 2.170968371432920319e-01 2.333785035992501089e-01 3.755143989836834950e-01 9.242986733291389534e-01 -6.827077440542572706e-02
2.560674636132079240e-01 1.911141319376019332e-01 2.860024365988463324e-01 3.755143989836834950e-01 9.242986733291389534e-01 -6.827077440542572706e-02
2.343918328837774623e-01 2.300853977256045735e-01 3.078426958556199633e-01 3.755143989836834950e-01 9.242986733291389534e-01 -6.827077440542572706e-02
1.564281675220504375e-01 2.135374447816693610e-01 3.643762714167392280e-01 3.755143989836834950e-01 9.242986733291389534e-01 -6.827077440542572706e-02
2.128548985442344776e-01 1.943810791660759985e-01 2.836874618045100438e-01 3.835839683630396513e-01 9.231455020650176646e-01 -2.580157421532583081e-02
1.574063971250089788e-01 1.330059374479019563e-01 3.208533433049620132e-01 3.835839683630396513e-01 9.231455020650176646e-01 -2.580157421532583081e-02
2.141093335519616003e-01 1.174319041906258104e-01 2.808429249365986258e-01 3.454086118244920067e-01 9.328978768730105120e-01 -1.019531372901626709e-01
2.364843379983335436e-01 1.835695480898396070e-01 3.321480244491770151e-01 3.454086118244920067e-01 9.328978768730105120e-01 -1.019531372901626709e-01
2.480952635156405406e-01 2.026259845145915728e-01 3.754793026734535855e-01 3.454086118244920067e-01 9.328978768730105120e-01 -1.019531372901626709e-01
2.367365968361432593e-01 1.312943857770946243e-01 3.053006986944188927e-01 3.454086118244920067e-01 9.328978768730105120e-01 -1.019531372901626709e-01
2.325321704819668656e-01 1.618743855195780013e-01 3.152937311449184321e-01 3.454086118244920067e-01 9.328978768730105120e-01 -1.019531372901626709e-01
2.110998292123953402e-01 1.848481074117960810e-01 3.520796066156577364e-01 3.042642487157546927e-01 9.505322240526298261e-01 -6.254404840589140868e-02
2.855056221418041384e-01 1.803107446432025973e-01 2.888770723199855506e-01 3.042642487157546927e-01 9.505322240526298261e-01 -6.254404840589140868e-02
1.741444167080150041e-01 2.182355084290011904e-01 3.206708178318203317e-01 3.042642487157546927e-01 9.505322240526298261e-01 -6.254404840589140868e-02
2.731845708909221293e-01 1.947819742075901917e-01 3.271512810103036628e-01 3.027266586411945792e-01 9.464936163613301146e-01 -1.118320362650569305e-01
2.435193750171330274e-01 2.246887591267547335e-01 3.490261466310071725e-01 3.027266586411945792e-01 9.464936163613301146e-01 -1.118320362650569305e-01
2.369013328921985018e-01 2.233238003916229730e-01 3.009745791246069002e-01 3.027266586411945792e-01 9.464936163613301146e-01 -1.118320362650569305e-01
2.541998180103531846e-01 1.712625662144519334e-01 3.027281934417521136e-01 3.027266586411945792e-01 9.464936163613301146e-01 -1.118320362650569305e-01
2.708770009939665546e-01 1.822191975218737381e-01 3.046382129524318749e-01 2.801635500348209074e-01 9.556590066719332643e-01 -9.068764082663142989e-02
2.843783010730683847e-01 1.938008729982311218e-01 3.754100345429529639e-01 2.578436495468095502e-01 9.597114826554807854e-01 -1.116714934421526029e-01
2.677977766644693003e-01 1.130070134226689726e-01 3.601117156106904971e-01 2.697019750782164715e-01 9.555498216479199058e-01 -1.191024054649517799e-01
-2.356711760252434840e-01 2.140283462038715945e-01 2.882478233832392323e-01 -3.047547850424053850e-01 -9.510655929844599177e-01 -5.097802305773506404e-02
-2.780757343640321566e-01 2.475909133017658859e-01 3.444620089535111451e-01 -3.047547850424053850e-01 -9.510655929844599177e-01 -5.097802305773506404e-02
-2.741586428195974534e-01 2.190864890872959159e-01 2.618535325232510536e-01 -3.184296733602730578e-01 -9.443106896619665180e-01 -8.294494869376203838e-02
-2.395777001630788883e-01 2.525929516373525141e-01 2.979230935796464697e-01 -3.184296733602730578e-01 -9.443106896619665180e-01 -8.294494869376203838e-02
-2.219080039635479562e-01 2.362920138990877161e-01 2.224665922892772596e-01 -3.184296733602730578e-01 -9.443106896619665180e-01 -8.294494869376203838e-02
-2.062110597991451411e-01 1.826181599811417533e-01 3.146267568827346151e-01 -3.184296733602730578e-01 -9.443106896619665180e-01 -8.294494869376203838e-02
-1.368171914423090274e-01 2.367379268304748152e-01 2.847187596639858542e-01 -3.420296899162439397e-01 -9.393426622310603324e-01 -2.551576235314105198e-02
-2.458165772951928785e-01 2.832903737290829449e-01 3.030447977174381968e-01 -3.420296899162439397e-01 -9.393426622310603324e-01 -2.551576235314105198e-02
-2.093147608306100971e-01 2.430319080490817019e-01 2.818658316779512618e-01 -3.420296899162439397e-01 -9.393426622310603324e-01 -2.551576235314105198e-02
-1.884587797831186740e-01 2.622196121125807133e-01 2.701092662376324283e-01 -3.070436398091454522e-01 -9.503072659245267451e-01 -5.138388447560585104e-02
-1.920101900180940235e-01 2.487778525920239514e-01 2.924907553823694606e-01 -3.070436398091454522e-01 -9.503072659245267451e-01 -5.138388447560585104e-02
-1.900144727523709054e-01 2.078279342472714730e-01 3.304328427485801467e-01 -3.070436398091454522e-01 -9.503072659245267451e-01 -5.138388447560585104e-02
-1.553194075905726668e-01 2.417753183185812893e-01 2.558041983664370855e-01 -3.575294977283582920e-01 -9.338914678197528518e-01 4.402793156107634963e-03
-1.211803995259475436e-01 2.194937499296576167e-01 2.747223423968084277e-01 -3.575294977283582920e-01 -9.338914678197528518e-01 4.402793156107634963e-03
-2.092799832368610613e-01 1.707886373963669324e-01 2.812400594173590784e-01 -3.310387173656337834e-01 -9.433216452933401719e-01 -2.361442622597159646e-02
-1.159505644718006462e-01 2.166695223945672710e-01 2.424489074863359905e-01 -3.900277852239553145e-01 -9.197407211959197637e-01 4.421914209147152081e-02
-1.448467468565395044e-01 2.555146961760073054e-01 2.491154585066645277e-01 -3.900277852239553145e-01 -9.197407211959197637e-01 4.421914209147152081e-02
-1.792094184705673721e-01 1.499556960278404794e-01 2.639716979227567650e-01 -3.569780203867966573e-01 -9.341024833725450893e-01 4.386743435378615344e-03
6.657361614524645588e-02 2.928786603224048379e-01 2.907081826445272466e-01 4.390036176074798568e-01 8.966006717105848844e-01 5.816407151905454015e-02
1.053250936921614200e-01 2.999445716914067028e-01 2.500879653689700999e-01 4.390036176074798568e-01 8.966006717105848844e-01 5.816407151905454015e-02
1.654376724551889222e-01 2.393317102066294666e-01 3.036319736413987669e-01 4.390036176074798568e-01 8.966006717105848844e-01 5.816407151905454015e-02
1.111250737174723086e-01 2.171492206758145194e-01 2.583800877679494623e-01 4.720047388261050525e-01 8.709209567703245503e-01 1.367779718520597543e-01
8.176075500115806416e-02 2.560859135173323975e-01 2.272542416895182160e-01 4.720047388261050525e-01 8.709209567703245503e-01 1.367779718520597543e-01
1.448648045852916066e-01 2.471494911290774976e-01 2.217520913916641856e-01 4.720047388261050525e-01 8.709209567703245503e-01 1.367779718520597543e-01
1.454787052349039156e-01 2.569916604131531890e-01 2.193350364319683332e-01 4.492396103837987820e-01 8.934048656614056449e-01 3.393887849989873137e-03
1.552578765748628131e-01 1.891517693076404938e-01 3.085305208207116401e-01 4.492396103837987820e-01 8.934048656614056449e-01 3.393887849989873137e-03
1.454468346883773522e-01 2.149131253584962431e-01 2.995949026874791254e-01 3.964238362632163670e-01 9.162739180900134617e-01 5.736069272881774012e-02
1.185134568863648041e-01 2.513559010768254276e-01 3.127400740121246137e-01 3.964238362632163670e-01 9.162739180900134617e-01 5.736069272881774012e-02
1.762782854692294121e-01 2.596480562079941379e-01 3.052755793935700845e-01 3.964238362632163670e-01 9.162739180900134617e-01 5.736069272881774012e-02
1.290574997386045863e-01 2.304930202700694319e-01 2.742804881870862799e-01 3.964238362632163670e-01 9.162739180900134617e-01 5.736069272881774012e-02
2.463145954716268182e-01 1.999888704545444151e-01 2.711208022703989196e-01 4.340193684135645324e-01 9.001728608947432431e-01 -3.627682938824385722e-02
1.325721195050372503e-01 2.336807373823552580e-01 3.038425080754966201e-01 4.340193684135645324e-01 9.001728608947432431e-01 -3.627682938824385722e-02
1.590783988589908604e-01 1.963702639121037985e-01 3.233580712007118052e-01 4.340193684135645324e-01 9.001728608947432431e-01 -3.627682938824385722e-02
1.178873854272348976e-01 2.079157633721577803e-01 2.588580082301122354e-01 3.953579788119430671e-01 9.184716541628988873e-01 1.009401253235798698e-02
-3.920033993083908430e-01 2.813849651892511017e-01 3.207697587312975940e-01 -2.036118769168229203e-01 -9.701522359958684172e-01 -1.317074127398506767e-01
-3.365580165976245763e-01 3.193123946145824954e-01 3.228866508569979143e-01 -2.036118769168229203e-01 -9.701522359958684172e-01 -1.317074127398506767e-01
-3.732681666830318101e-01 3.211172908633805334e-01 3.397099997688387552e-01 -2.036118769168229203e-01 -9.701522359958684172e-01 -1.317074127398506767e-01
-3.664774783050916973e-01 2.793617274935600303e-01 3.155974690206990729e-01 -2.036118769168229203e-01 -9.701522359958684172e-01 -1.317074127398506767e-01
-3.648972376204728252e-01 2.927025048952357489e-01 3.229381467327610000e-01 -1.937315303328913663e-01 -9.754014315363956911e-01 -1.051672073967268445e-01
-3.909564579351564872e-01 2.092696863855387501e-01 3.586361583537194808e-01 -1.937315303328913663e-01 -9.754014315363956911e-01 -1.051672073967268445e-01
-3.778519823472014094e-01 2.162745717395340717e-01 3.636322881226742298e-01 -1.937754965495594728e-01 -9.753890993634122264e-01 -1.052005788007060599e-01
-3.188115593953499416e-01 2.338939972248529620e-01 3.395966601361158910e-01 -2.267658422005517649e-01 -9.685776748977477091e-01 -1.021495986323368160e-01
-3.452669723893352915e-01 2.412832168422843759e-01 3.064795663605665577e-01 -2.267658422005517649e-01 -9.685776748977477091e-01 -1.021495986323368160e-01
-3.066541572740522081e-01 2.439887265894746249e-01 2.639730041966028007e-01 -2.267658422005517649e-01 -9.685776748977477091e-01 -1.021495986323368160e-01
-3.210189979884690570e-01 2.410485469442863182e-01 2.418614966417963197e-01 -2.267658422005517649e-01 -9.685776748977477091e-01 -1.021495986323368160e-01
-3.093407044839975306e-01 2.628313607195655877e-01 2.838004842257367821e-01 -2.267658422005517649e-01 -9.685776748977477091e-01 -1.021495986323368160e-01
-4.165990598284527446e-01 2.570563986064674511e-01 3.309499512436225865e-01 -2.231179085988826694e-01 -9.688549102246716282e-01 -1.074176977783650594e-01
-3.617476923712658610e-01 2.907772026338630855e-01 2.912454152602021451e-01 -2.231179085988826694e-01 -9.688549102246716282e-01 -1.074176977783650594e-01
-3.313624336878933652e-01 3.396599164426553075e-01 3.729815047755001278e-01 -2.231179085988826694e-01 -9.688549102246716282e-01 -1.074176977783650594e-01
-3.601996593251648449e-01 2.905089523707429233e-01 3.450203650859195448e-01 -2.231179085988826694e-01 -9.688549102246716282e-01 -1.074176977783650594e-01
-4.031236766390273729e-01 2.720481166078681512e-01 2.981820324719156035e-01 -2.231179085988826694e-01 -9.688549102246716282e-01 -1.074176977783650594e-01
-3.181469151318929156e-01 2.101597700190357410e-01 3.225102876521067086e-01 -2.672753682366597050e-01 -9.587912234281260604e-01 -9.634971412077483754e-02
-2.840376039694710864e-01 2.934065320452494685e-01 2.511824045819150419e-01 -2.672753682366597050e-01 -9.587912234281260604e-01 -9.634971412077483754e-02
-3.515824052354259432e-01 2.753703441867637602e-01 2.601377486437773112e-01 -2.672753682366597050e-01 -9.587912234281260604e-01 -9.634971412077483754e-02
-2.848202057529574116e-01 2.395755560065328804e-01 2.807313208966259466e-01 -2.525654975999976903e-01 -9.614673756880761646e-01 -1.085870844509106425e-01
-2.896796541090422838e-01 2.979592339386435418e-01 3.206555792242677394e-01 -2.525654975999976903e-01 -9.614673756880761646e-01 -1.085870844509106425e-01
-2.773086361000292599e-01 2.860667020984628550e-01 3.036011097962958427e-01 -2.525654975999976903e-01 -9.614673756880761646e-01 -1.085870844509106425e-01
-2.544860155066661078e-01 2.449353915108602731e-01 2.260087619118946733e-01 -3.091089292923405729e-01 -9.475549242423362273e-01 -8.118703945731160776e-02
-2.031258018620181738e-01 2.548093360074434877e-01 3.196186949628929685e-01 -2.838941893708009645e-01 -9.536096092777310851e-01 -1.001638773943424321e-01
-2.764627190695924663e-01 2.331703742304124805e-01 2.620601792906906979e-01 -2.838941893708009645e-01 -9.536096092777310851e-01 -1.001638773943424321e-01
-2.408531816025492600e-01 2.704487636320098698e-01 2.204817805278826703e-01 -2.838941893708009645e-01 -9.536096092777310851e-01 -1.001638773943424321e-01
-2.848623335113649180e-01 2.697968520935130066e-01 2.699964162240961474e-01 -2.838941893708009645e-01 -9.536096092777310851e-01 -1.001638773943424321e-01
1.376798612720472534e-02 2.528723331517989115e-01 2.530228933450403561e-01 4.893219111733265736e-01 8.096482223543086665e-01 3.240892211786605692e-01
8.640744675857062185e-02 2.800992389249010173e-01 2.411589197116702776e-01 4.893219111733265736e-01 8.096482223543086665e-01 3.240892211786605692e-01
3.596639899475497643e-02 2.976596575898166619e-01 3.011197661078757193e-01 4.893219111733265736e-01 8.096482223543086665e-01 3.240892211786605692e-01
2.845559487978615437e-02 2.855249799697609503e-01 2.892402484508102556e-01 4.702879043236629086e-01 8.518933776664990853e-01 2.304494741474162056e-01
6.392947297379296401e-02 2.389832383434922769e-01 2.497670961613538132e-01 4.081028280344189407e-01 8.931783544942376585e-01 1.889034378016329896e-01
5.539682417494835864e-02 2.618308585575241376e-01 3.238306457829789320e-01 4.081028280344189407e-01 8.931783544942376585e-01 1.889034378016329896e-01
3.275412096313551347e-02 2.506182525265788219e-01 2.653412108490608157e-01 4.952719800538925576e-01 8.576713901949707397e-01 1.382224736232249007e-01
9.450722457574839419e-02 2.362587580840290469e-01 3.020790717210142806e-01 4.952719800538925576e-01 8.576713901949707397e-01 1.382224736232249007e-01
3.463907711178782628e-02 2.524972479181212259e-01 2.673577973879667780e-01 4.952719800538925576e-01 8.576713901949707397e-01 1.382224736232249007e-01
7.322836819557849986e-02 2.968471243637316737e-01 2.979814243755287695e-01 4.576339867234363590e-01 8.702384918494764365e-01 1.823625550905732529e-01
7.533646495789768360e-02 2.363013497253210748e-01 3.364754720487306838e-01 4.576339867234363590e-01 8.702384918494764365e-01 1.823625550905732529e-01
5.233461441679933268e-02 2.625645414171106640e-01 3.191129094819626366e-01 4.576339867234363590e-01 8.702384918494764365e-01 1.823625550905732529e-01
-4.852301879915714156e-01 2.873907532935826015e-01 2.159348705020721626e-01 -7.893312724665900726e-01 -2.385562177413281804e-01 5.657270307164277146e-01
-4.311498389561818634e-01 3.140487469112580587e-01 3.476496295016163751e-01 -7.431457745840790441e-01 -1.973387159886488829e-01 6.393682732899564902e-01
-4.566351303874549017e-01 2.907131787833575620e-01 2.060750036584104161e-01 -7.477681080962860216e-01 -1.816562182340586140e-01 6.386265535436194130e-01
-4.725360412120578335e-01 3.012712531863284138e-01 2.955458793944830687e-01 -6.175813424211930025e-01 4.461085233205321909e-01 6.477503152558178323e-01
-4.691384961433886502e-01 2.905014611256036550e-01 3.319074188807937809e-01 -5.875964558330536436e-01 4.278938205616424351e-01 6.867585335600826513e-01
-4.069078045356049889e-01 2.816133456679036917e-01 3.067975232833113353e-01 -1.796525760398437754e-01 -9.764959230255709777e-01 -1.190825941802007015e-01
-4.372443488353773833e-01 2.862052010128404711e-01 3.575765577100439851e-01 -1.796525760398437754e-01 -9.764959230255709777e-01 -1.190825941802007015e-01
-4.167748802611619396e-01 2.871068712024425484e-01 2.977521522842075385e-01 -1.796525760398437754e-01 -9.764959230255709777e-01 -1.190825941802007015e-01
-4.501651829591222786e-01 2.241645537019029688e-01 3.120301502542489613e-01 -1.796525760398437754e-01 -9.764959230255709777e-01 -1.190825941802007015e-01
-9.928635907271998740e-02 3.962084305010306617e-01 3.310364571671626788e-01 2.644626021109159897e-01 8.947106368147362820e-01 3.599338945630049524e-01
-9.891809035726864541e-02 2.914492830729522588e-01 2.890811779043864216e-01 3.062949273426368024e-01 8.614498086585574699e-01 4.050773316865600715e-01
-8.568203762105293386e-02 3.131604871108708554e-01 2.739158886342196730e-01 3.275710655140713357e-01 8.659069978610544061e-01 3.780241633721738714e-01
-8.936612253069346756e-02 3.381051420778038996e-01 2.489100236966027002e-01 3.275710655140713357e-01 8.659069978610544061e-01 3.780241633721738714e-01
-8.382848329354111727e-02 2.878622553835662456e-01 3.290037286567987773e-01 3.275710655140713357e-01 8.659069978610544061e-01 3.780241633721738714e-01
1.883184850992961762e-02 3.284815240266451553e-01 2.378783564302524300e-01 3.682998043724260429e-01 7.887426578232408225e-01 4.921791074691842516e-01
-8.646088296558415709e-02 3.155541971342692986e-01 2.930061689138601100e-01 3.782077948409633961e-01 8.327614546016050001e-01 4.043108008096678585e-01
-8.246323511992843802e-03 3.637085472556807475e-01 2.395714936097894099e-01 3.435295388085350399e-01 8.628223406338266788e-01 3.708437197380588524e-01
-3.037126523449161855e-02 3.579066129698028620e-01 3.181951076881959217e-01 3.435295388085350399e-01 8.628223406338266788e-01 3.708437197380588524e-01
-6.335405096253075852e-02 2.332303515905035929e-01 2.983247124491386071e-01 3.435295388085350399e-01 8.628223406338266788e-01 3.708437197380588524e-01
-9.383490368415540669e-03 2.976559674642390019e-01 3.143098077961707926e-01 4.494220233690047195e-01 8.398901597541308384e-01 3.043096522608020882e-01
1.124736520634433273e-02 2.731250361313005137e-01 2.911324602000557871e-01 4.494220233690047195e-01 8.398901597541308384e-01 3.043096522608020882e-01
-1.408532255545793394e-02 3.100866327183895987e-01 3.053515165262875586e-01 4.494220233690047195e-01 8.398901597541308384e-01 3.043096522608020882e-01
-7.511453063337265521e-03 2.556088143243355204e-01 2.752622145676600907e-01 3.852031037533016344e-01 8.667090018220185987e-01 3.169133556975836652e-01
-5.353693784806645706e-02 3.303845167886167444e-01 3.002673693200719751e-01 4.263477097153955397e-01 8.333967188867008602e-01 3.516781758501910660e-01
-1.903255603534671769e-02 3.251391567435851226e-01 3.201165387554091857e-01 4.263477097153955397e-01 8.333967188867008602e-01 3.516781758501910660e-01
-1.462470543738228490e-02 2.773351152179250323e-01 2.750488963940770359e-01 4.410909926083079746e-01 8.377004691229936739e-01 3.220196582057281987e-01
1.538701065846994134e-02 2.860723567939779666e-01 2.605308709795900457e-01 4.410909926083079746e-01 8.377004691229936739e-01 3.220196582057281987e-01
-5.029665882026952417e-01 3.296438600974753164e-01 2.650316852272032175e-01 -6.032214608653782006e-01 -7.552973859581291194e-01 2.562220285538614473e-01
-4.803807061712169202e-01 3.623511699318601176e-01 2.532382047635646227e-01 -6.403188387011754523e-01 -7.025209832168033408e-01 3.105737479963079362e-01
-4.574414621109952339e-01 3.747842743055236903e-01 2.560214037090470240e-01 -7.112783722517785900e-01 -5.767194185899798820e-01 4.018429909654961385e-01
-3.020550535893251620e-01 3.976199841825612813e-01 3.178474284247047588e-01 8.943090078943595478e-02 9.540351408183235238e-01 2.860403189547788827e-01
-3.039193144760877763e-01 3.450341053368465860e-01 3.199228524896444714e-01 8.943090078943595478e-02 9.540351408183235238e-01 2.860403189547788827e-01
-2.972429845571405993e-01 3.829684396646135802e-01 2.842983338074145938e-01 8.943090078943595478e-02 9.540351408183235238e-01 2.860403189547788827e-01
-2.634626837505482100e-01 3.584211213830239551e-01 3.061697062568466410e-01 1.025124848821693663e-01 9.393707373362349955e-01 3.272213444744418998e-01
-2.533533393547668933e-01 3.698127201451195667e-01 3.560464101355615973e-01 1.025124848821693663e-01 9.393707373362349955e-01 3.272213444744418998e-01
-2.764244585903944951e-01 4.029342274621473541e-01 3.034891148806644345e-01 1.025124848821693663e-01 9.393707373362349955e-01 3.272213444744418998e-01
-3.163749914683658404e-01 4.041859862057715636e-01 3.064606108132674755e-01 1.288642500572007299e-01 9.451303406280631147e-01 3.002043375460734520e-01
-2.859897283782105171e-01 3.419187960530690185e-01 3.183828186306310593e-01 1.288642500572007299e-01 9.451303406280631147e-01 3.002043375460734520e-01
-2.163840723850836700e-01 3.554537615214031221e-01 2.731976010051264669e-01 1.288642500572007299e-01 9.451303406280631147e-01 3.002043375460734520e-01
-2.591804657796501488e-01 3.737687526832244589e-01 2.921656685375454976e-01 1.288642500572007299e-01 9.451303406280631147e-01 3.002043375460734520e-01
-1.929618080640519706e-01 3.081102290248670106e-01 2.549776529101767664e-01 1.175308827527594691e-01 9.201098901320218237e-01 3.736097986945682847e-01
-1.954019704246578726e-01 3.451094525284867376e-01 3.150014584330743661e-01 1.175308827527594691e-01 9.201098901320218237e-01 3.736097986945682847e-01
-3.138633283368843507e-01 3.686652543925019176e-01 2.700604862005597240e-01 1.476243699032203649e-01 9.288069294976479817e-01 3.398892954004708589e-01
-2.178637735509484641e-01 3.822123976792118349e-01 2.956126551684308268e-01 1.476243699032203649e-01 9.288069294976479817e-01 3.398892954004708589e-01
-2.634016675338191060e-01 3.276159734835794035e-01 3.202828604336221963e-01 1.476243699032203649e-01 9.288069294976479817e-01 3.398892954004708589e-01
-2.069977167362829218e-01 3.975124996485843165e-01 2.541863979991351719e-01 1.420678345098396467e-01 8.881563070299700602e-01 4.370298670349319625e-01
-2.243789138768305658e-01 3.554339155745090961e-01 2.888642362556482213e-01 1.537162648623318362e-01 9.147863436789347436e-01 3.735468582859439723e-01
-2.631822576626117183e-01 3.249951017146094356e-01 2.793487719626765453e-01 1.537162648623318362e-01 9.147863436789347436e-01 3.735468582859439723e-01
-2.084539652614653127e-01 3.690730007821955705e-01 2.794982269794522578e-01 1.614631050925791900e-01 9.098536522341963417e-01 3.822250609391758536e-01
-1.149395538216941015e-01 4.040910105305156597e-01 3.024286475635319382e-01 1.679554153870606581e-01 8.893766065013626321e-01 4.252061032608544511e-01
-1.681061902390950658e-01 3.575307405471438438e-01 3.127076838698772954e-01 1.679554153870606581e-01 8.893766065013626321e-01 4.252061032608544511e-01
-1.403775710590581816e-01 3.545000495925177408e-01 3.202864721352879362e-01 2.029240285158326607e-01 9.004356118569685208e-01 3.847564782439304443e-01
-1.711285712941515436e-01 3.320675361606568732e-01 2.712960678754648414e-01 2.029240285158326607e-01 9.004356118569685208e-01 3.847564782439304443e-01
-6.169318456833501607e-02 3.086564923307090202e-01 3.165162666856005114e-01 2.951533015826495743e-01 8.463177947291666836e-01 4.434306246636801618e-01
-8.970053181661094555e-02 3.389283398580031914e-01 3.034043295698253817e-01 2.951533015826495743e-01 8.463177947291666836e-01 4.434306246636801618e-01
-1.578253476563716562e-01 3.463415255700660333e-01 2.604097691404432258e-01 2.294372272366143606e-01 8.705082992521626650e-01 4.354008035030265678e-01
-1.249662397502930844e-01 3.656654993203408699e-01 2.585368124377245280e-01 2.294372272366143606e-01 8.705082992521626650e-01 4.354008035030265678e-01
-1.401698233345129718e-01 3.099189200500378494e-01 2.893932205006635172e-01 2.294372272366143606e-01 8.705082992521626650e-01 4.354008035030265678e-01
-1.492685033847765685e-01 3.576273617961325257e-01 1.953103968802536450e-01 2.215079427734734652e-01 8.769204049832156622e-01 4.265499204223773821e-01
-1.560346478809490622e-01 3.531250208277701974e-01 2.581665831237311415e-01 2.215079427734734652e-01 8.769204049832156622e-01 4.265499204223773821e-01
-5.305971907646600538e-02 3.561224412598911759e-01 2.533811254302130722e-01 2.701749051178220506e-01 8.422032665106083948e-01 4.665824455800248738e-01
-1.446466949936677238e-01 3.472899082236255985e-01 2.347987786976263869e-01 2.701749051178220506e-01 8.422032665106083948e-01 4.665824455800248738e-01
-5.303985921958011968e-02 3.311813089513501729e-01 2.077198130655053543e-01 3.376801547384217228e-01 8.036545368306530213e-01 4.900117330506933988e-01
-6.275774795962790753e-02 3.861775472818809174e-01 2.330938829712396188e-01 3.494041465472603192e-01 8.030863381204880191e-01 4.826687020097799041e-01
-2.752583614387286298e-02 2.734534921954893671e-01 2.502331683197180356e-01 3.494041465472603192e-01 8.030863381204880191e-01 4.826687020097799041e-01
-5.371764879208770216e-01 4.054263375677875647e-01 2.507050012618637913e-01 -4.718250434851029573e-01 -8.682817936432484229e-01 1.531922164078324544e-01
-4.533376261218872161e-01 3.679858706357534981e-01 3.446661215491145791e-01 -4.718250434851029573e-01 -8.682817936432484229e-01 1.531922164078324544e-01
-4.889980730464045799e-01 3.058933993208745594e-01 3.270286266924787855e-01 -4.718250434851029573e-01 -8.682817936432484229e-01 1.531922164078324544e-01
-5.350122145329799794e-01 3.773028120607004321e-01 2.660152271844936633e-01 -4.703500175312034237e-01 -8.674761691221744009e-01 1.620369001601586756e-01
-4.688140992289333564e-01 4.129439209256913212e-01 3.202421276420246432e-01 4.630589721418212901e-02 9.762080373271079248e-01 2.118339721129388065e-01
-4.519172102089056842e-01 3.627398269236449257e-01 3.181896637992795984e-01 4.515392520611721111e-02 9.719448384060389579e-01 2.308340402417699833e-01
-4.437937583827776811e-01 3.843720440132180616e-01 2.968751005545821053e-01 4.515392520611721111e-02 9.719448384060389579e-01 2.308340402417699833e-01
-4.903266270154416628e-01 3.722703575908332674e-01 2.891518292804546864e-01 4.515392520611721111e-02 9.719448384060389579e-01 2.308340402417699833e-01
-4.571806374014122376e-01 3.692051180751147466e-01 2.705788427136258112e-01 4.515392520611721111e-02 9.719448384060389579e-01 2.308340402417699833e-01
-5.309777478569309705e-01 3.911467457686445548e-01 3.111885265102753428e-01 5.745586370311115548e-02 9.729228663731863680e-01 2.238747860173458948e-01
-4.478529781572100354e-01 4.472057001645174390e-01 3.064273540314250144e-01 5.745586370311115548e-02 9.729228663731863680e-01 2.238747860173458948e-01
-4.868286981977908989e-01 3.893381388896928197e-01 3.449741490997405013e-01 5.745586370311115548e-02 9.729228663731863680e-01 2.238747860173458948e-01
-4.660121994192377159e-01 3.922880753277542820e-01 2.501257596766562896e-01 4.892829962869905958e-02 9.584021724449537372e-01 2.811961901381978546e-01
-4.392426397393404125e-01 4.280278552494318767e-01 2.487959429540658740e-01 4.892829962869905958e-02 9.584021724449537372e-01 2.811961901381978546e-01
-3.648327569849672547e-01 4.136935962987118298e-01 2.804844940295506128e-01 4.892829962869905958e-02 9.584021724449537372e-01 2.811961901381978546e-01
-3.523083384414962826e-01 3.228669719201139321e-01 2.390755031739690284e-01 4.892829962869905958e-02 9.584021724449537372e-01 2.811961901381978546e-01
-3.980768029644505268e-01 3.142444534940109224e-01 2.965300805824297448e-01 7.279236933962014711e-02 9.668842882155841423e-01 2.446140718923738855e-01
-3.569450522958503291e-01 3.631645249822070820e-01 3.229527300225752406e-01 7.279236933962014711e-02 9.668842882155841423e-01 2.446140718923738855e-01
-4.202463375274311796e-01 3.534794159600839758e-01 2.334742538612643026e-01 7.279236933962014711e-02 9.668842882155841423e-01 2.446140718923738855e-01
-3.515448363417006949e-01 3.620116766636413685e-01 3.165249374032979568e-01 7.279236933962014711e-02 9.668842882155841423e-01 2.446140718923738855e-01
-4.271296122873252665e-01 3.098598413515773475e-01 3.599506229876278107e-01 7.279236933962014711e-02 9.668842882155841423e-01 2.446140718923738855e-01
-4.505798773732772045e-01 2.982342464857546394e-01 2.587712872318782553e-01 7.279236933962014711e-02 9.668842882155841423e-01 2.446140718923738855e-01
-3.323026293703489897e-01 3.866383227875513362e-01 2.848530209132819624e-01 9.497588592486518044e-02 9.487896783041251947e-01 3.012934241505141886e-01
-2.821060561542061418e-01 3.498930493206350856e-01 3.141276433844551463e-01 9.497588592486518044e-02 9.487896783041251947e-01 3.012934241505141886e-01
-3.264640400994500702e-01 3.041495195585138256e-01 2.697170894270340957e-01 7.609688567838708562e-02 9.506905446838203044e-01 3.006605265724643927e-01
-3.726045628479024430e-01 3.486234196774441463e-01 2.742378987185597472e-01 7.609688567838708562e-02 9.506905446838203044e-01 3.006605265724643927e-01
-3.631349020650513348e-01 3.749870514966074375e-01 2.608848859372571716e-01 7.609688567838708562e-02 9.506905446838203044e-01 3.006605265724643927e-01
-3.426258648284906116e-01 4.272136473799155731e-01 2.453700135693590023e-01 5.964018686191669555e-02 9.575953329362011379e-01 2.818762608838882855e-01
-3.472361406572198606e-01 4.429897258062557297e-01 3.093067161858549241e-01 5.964018686191669555e-02 9.575953329362011379e-01 2.818762608838882855e-01
-3.433280928659588338e-01 3.519760694939804702e-01 3.066733293937469185e-01 5.964018686191669555e-02 9.575953329362011379e-01 2.818762608838882855e-01
-3.524430814441378290e-01 4.327828454282143800e-01 2.251771943308056856e-01 5.964018686191669555e-02 9.575953329362011379e-01 2.818762608838882855e-01
-2.613355312503380379e-01 3.578606846700229105e-01 2.497177884678299375e-01 6.520325021694581280e-02 9.385965163153215940e-01 3.387995214310203784e-01
-2.806216159339544047e-01 3.352639972579759542e-01 2.607859755247979860e-01 6.520325021694581280e-02 9.385965163153215940e-01 3.387995214310203784e-01
-3.085249643347229287e-01 3.486934040904471344e-01 2.308030001425327438e-01 6.520325021694581280e-02 9.385965163153215940e-01 3.387995214310203784e-01
-3.394483993247713327e-01 3.782363083288727279e-01 3.231573773559506813e-01 6.520325021694581280e-02 9.385965163153215940e-01 3.387995214310203784e-01
-2.660082323811241989e-01 3.879493818638289904e-01 2.633590563294189169e-01 1.088846237022802754e-01 9.304583214598018959e-01 3.498448952713483218e-01
-2.691654808809427757e-01 3.700244606305407857e-01 2.386803896742268338e-01 1.088846237022802754e-01 9.304583214598018959e-01 3.498448952713483218e-01
-3.548280426004147281e-01 3.619618131283205420e-01 2.540364813325163840e-01 7.430530766026360867e-02 9.189130707986449265e-01 3.873983603074723225e-01
-2.586603517554191822e-01 3.758766852967093119e-01 2.306379340224402608e-01 7.430530766026360867e-02 9.189130707986449265e-01 3.873983603074723225e-01
-2.973872442753142109e-01 4.393152438043224084e-01 3.053791398313132066e-01 7.430530766026360867e-02 9.189130707986449265e-01 3.873983603074723225e-01
-1.847208959865753175e-01 3.870433422664749101e-01 2.509851967026324182e-01 1.239019853491967194e-01 9.075432080453208483e-01 4.012650290734727787e-01
-2.286880596908621166e-01 3.596451807695153491e-01 3.233399455035503856e-01 1.239019853491967194e-01 9.075432080453208483e-01 4.012650290734727787e-01
-2.373081773497899560e-01 3.716463560245502618e-01 2.478356159831514027e-01 1.037002331814940170e-01 9.045894456200495037e-01 4.134781693280981663e-01
1.322278994365618798e-01 1.380652533300286144e-01 3.275736904456565401e-01 -2.069049045263648134e-01 -9.557916737475936619e-01 2.089321346220093245e-01
1.391470014919010678e-01 1.459541542790535606e-01 3.327169953678996150e-01 -2.069049045263648134e-01 -9.557916737475936619e-01 2.089321346220093245e-01
1.557470310918077361e-01 1.425289070486972787e-01 3.126670496034357205e-01 -2.069049045263648134e-01 -9.557916737475936619e-01 2.089321346220093245e-01
2.386538107001426878e-01 7.028637397554396427e-02 3.826541871526878413e-01 -2.086249120333175666e-01 -9.559339821263965753e-01 2.065571782704745674e-01
2.148305944363578524e-01 1.296762916527705867e-01 3.191977940067045050e-01 -2.086249120333175666e-01 -9.559339821263965753e-01 2.065571782704745674e-01
1.496374253992694414e-01 1.483579126306022733e-01 3.503208186809165792e-01 -1.839904936579394579e-01 -9.613726326684620682e-01 2.047197093579854743e-01
2.461225443834241799e-01 9.757793845332417282e-02 3.841477039585339259e-01 -1.837378305141897650e-01 -9.614640393433451226e-01 2.045172625660665044e-01
1.731028329205204219e-01 1.132793203649070518e-01 3.743304552570168031e-01 -1.885420139736639633e-01 -9.574082402462567032e-01 2.186809787688923645e-01
1.717478068748179709e-01 8.617995613000127564e-02 2.873274078679713961e-01 -1.646835280314511984e-01 -9.614755434944430856e-01 2.201002382033679372e-01
2.554852470921897267e-01 1.374521549840282131e-01 2.869736196227319347e-01 -1.680397255630020348e-01 -9.599044873167132952e-01 2.243792010457935360e-01
2.545765656833324786e-01 1.104557800271988022e-01 3.378136993246942388e-01 7.210342247600971533e-01 -3.226231298838365402e-02 6.921479537535636384e-01
1.607723768408323914e-02 1.053437979185211371e-01 3.504796786901394623e-01 -3.038922884431111138e-01 -9.385731501339990013e-01 1.634928710138477959e-01
3.975940157417363896e-02 1.855132308636406324e-01 2.933148139555602496e-01 -3.144497297274715941e-01 -9.368263452062206564e-01 1.532245620058188540e-01
-3.393984546981746592e-02 1.807706556938982190e-01 3.357797696644645447e-01 -3.144497297274715941e-01 -9.368263452062206564e-01 1.532245620058188540e-01
-1.051868749619706139e-02 1.443061646246019958e-01 2.758975257921869595e-01 -2.919182057971302369e-01 -9.402177469276974398e-01 1.754261938434185375e-01
-9.384045715074076921e-04 1.070088936582574979e-01 3.769992908431024081e-01 -2.919182057971302369e-01 -9.402177469276974398e-01 1.754261938434185375e-01
8.965326879252316639e-02 1.931698744284862934e-01 2.207251509635816400e-01 -2.919182057971302369e-01 -9.402177469276974398e-01 1.754261938434185375e-01
7.625171119615133108e-02 1.558294635634744629e-01 3.626858796349474168e-01 -2.919182057971302369e-01 -9.402177469276974398e-01 1.754261938434185375e-01
-1.020918719695309423e-02 1.577357520706794969e-01 3.960037751893020208e-01 -2.595798839947876524e-01 -9.536937231047475372e-01 1.519426415982613743e-01
6.094979521930889155e-02 1.469997857165687982e-01 2.373153596561429213e-01 -2.595798839947876524e-01 -9.536937231047475372e-01 1.519426415982613743e-01
2.007855894419026399e-02 8.546290615095752941e-02 3.302786804289346012e-01 -2.595798839947876524e-01 -9.536937231047475372e-01 1.519426415982613743e-01
1.015734157536565541e-01 1.473923072738264339e-01 3.883413861558037139e-01 -2.612481584149022873e-01 -9.469452477978678173e-01 1.872006874930133569e-01
1.266499836699018222e-01 9.883639525400353398e-02 3.217122574468904150e-01 -2.612481584149022873e-01 -9.469452477978678173e-01 1.872006874930133569e-01
1.757931314952654867e-01 1.338092923857344130e-01 3.097402801214542145e-01 -2.612481584149022873e-01 -9.469452477978678173e-01 1.872006874930133569e-01
7.824425814081731323e-02 1.720485461069818367e-01 4.033272146058005103e-01 -2.612481584149022873e-01 -9.469452477978678173e-01 1.872006874930133569e-01
1.312009070297365798e-01 1.801802585210423580e-01 4.007389257015636086e-01 -2.612481584149022873e-01 -9.469452477978678173e-01 1.872006874930133569e-01
8.105661012457650305e-02 1.159061223120180784e-01 2.910357394356863359e-01 -2.432543218112042938e-01 -9.540887291410325988e-01 1.747627873610982652e-01
1.360516480914756438e-02 1.160987120199701295e-01 3.353162025872012397e-01 -2.432543218112042938e-01 -9.540887291410325988e-01 1.747627873610982652e-01
9.507552334820273954e-02 2.257970974131889297e-01 4.006420547869369853e-01 -2.432543218112042938e-01 -9.540887291410325988e-01 1.747627873610982652e-01
1.249889184168985895e-01 8.342110439075572925e-02 3.714707730281840981e-01 -2.417724248842853252e-01 -9.416871434845072164e-01 2.340329428981348658e-01
1.108359025950173965e-01 2.148488652877545424e-01 3.221448870842314460e-01 -2.417724248842853252e-01 -9.416871434845072164e-01 2.340329428981348658e-01
6.655330651213747784e-02 1.440656736443043373e-01 3.726251389397119418e-01 -2.230042917223853394e-01 -9.555771111418410735e-01 1.927212249214148854e-01
3.935826322499702545e-02 1.614435724311220066e-01 3.421259443693533964e-01 -2.230042917223853394e-01 -9.555771111418410735e-01 1.927212249214148854e-01
2.004012378346102796e-01 1.559334220989680997e-01 3.845208153106630111e-01 -2.230042917223853394e-01 -9.555771111418410735e-01 1.927212249214148854e-01
3.855467588201634543e-02 1.277088403297333974e-01 3.989938018985547119e-01 -2.132204757662876093e-01 -9.593969026743774942e-01 1.846472633233672000e-01
1.460509440438585715e-01 1.126994450842461609e-01 3.574936216790138843e-01 -2.132204757662876093e-01 -9.593969026743774942e-01 1.846472633233672000e-01
9.638875581396331993e-02 8.275558588413366168e-02 3.688006658832807538e-01 -2.132204757662876093e-01 -9.593969026743774942e-01 1.846472633233672000e-01
1.122161982693034021e-01 1.584102957367307662e-01 4.084821656834290993e-01 -2.132204757662876093e-01 -9.593969026743774942e-01 1.846472633233672000e-01
1.757568388778068535e-01 1.177878204694754599e-01 3.260561783752334852e-01 -2.132204757662876093e-01 -9.593969026743774942e-01 1.846472633233672000e-01
1.565023685014042543e-01 2.183949071528973329e-01 3.777124276517778712e-01 -2.132204757662876093e-01 -9.593969026743774942e-01 1.846472633233672000e-01
2.756885820005714471e-01 1.803755655265013580e-01 3.359547617277576781e-01 6.038492174361381748e-01 -2.757211298877628169e-01 7.478930278690790745e-01
2.666110573098745551e-01 1.273998797911377046e-01 3.689644543762086726e-01 6.544895136967768812e-01 -2.371855266508557381e-01 7.179042432026103704e-01
2.201780558342998351e-01 1.278173800366640689e-01 3.410855330272695718e-01 5.397041427483985077e-01 -4.806631657731761931e-01 6.911456860670727176e-01
2.942093227419182444e-01 8.617246192383330727e-02 3.772269134158625081e-01 4.176200150394309696e-01 -6.604550125882545641e-01 6.240133807744141503e-01
2.869625522536202178e-01 1.188606750262078127e-01 3.638354287209167315e-01 2.570078421467404950e-01 -8.048143873897893874e-01 5.349960475793015258e-01
2.925223209184656947e-01 1.519395840863903280e-01 3.193535016061609944e-01 3.256070229355421120e-01 -8.016446709093372203e-01 5.013440816621990148e-01
-1.536768668778935032e-01 1.819549422190304411e-01 3.890754161253059951e-01 -3.196347212258275339e-01 -9.458721973007326866e-01 5.620881924014430042e-02
-1.033337350168995195e-01 1.950146185023879375e-01 3.818738654091525797e-01 -3.196347212258275339e-01 -9.458721973007326866e-01 5.620881924014430042e-02
-1.055953898588385675e-01 2.430731292552263112e-01 3.347282704723250069e-01 -3.196347212258275339e-01 -9.458721973007326866e-01 5.620881924014430042e-02
-1.516738870839903774e-01 1.940867770247872992e-01 3.208589917828266191e-01 -3.289229995029778197e-01 -9.437502412086196113e-01 3.383995591953967152e-02
-5.242769894119444357e-02 1.794470501404691054e-01 2.846512419110435732e-01 -3.289229995029778197e-01 -9.437502412086196113e-01 3.383995591953967152e-02
-9.276851459773249875e-05 2.231096836716883192e-01 3.549585991869579349e-01 -3.329720563984280846e-01 -9.384831277721701337e-01 9.153703373371087360e-02
-8.832775225325323332e-02 1.758286231314677428e-01 3.896600992470101166e-01 -3.329720563984280846e-01 -9.384831277721701337e-01 9.153703373371087360e-02
-2.606019561556307401e-02 2.306648691669648810e-01 3.314018277861580652e-01 -3.329720563984280846e-01 -9.384831277721701337e-01 9.153703373371087360e-02
-6.112006033877772498e-02 2.139895857248724775e-01 3.805545369272186895e-01 -2.911164087812169732e-01 -9.550989707202132140e-01 5.511073096518293718e-02
-1.140293677832283081e-01 2.144894438562569561e-01 3.596353427177954032e-01 -2.911164087812169732e-01 -9.550989707202132140e-01 5.511073096518293718e-02
-6.152539131176811699e-02 1.711675565858188086e-01 3.387536935998604060e-01 -3.372264303343576741e-01 -9.321241834861798692e-01 1.319956107003905643e-01
-7.387341222945116581e-02 2.311111803910610440e-01 3.565393171729019928e-01 -3.372264303343576741e-01 -9.321241834861798692e-01 1.319956107003905643e-01
1.548713616751857744e-02 2.333458045605447950e-01 3.322288379377013046e-01 -3.372264303343576741e-01 -9.321241834861798692e-01 1.319956107003905643e-01
-4.560365620167822209e-02 1.804574119281051325e-01 2.834834668840856553e-01 -2.948969967129749792e-01 -9.514331872548504876e-01 8.837789044633456714e-02
-2.292329440236631766e-02 1.486903903949862715e-01 3.973800411210031136e-01 -2.948969967129749792e-01 -9.514331872548504876e-01 8.837789044633456714e-02
-5.214849192354170659e-02 1.914152154597422717e-01 3.344098859691033154e-01 -2.948969967129749792e-01 -9.514331872548504876e-01 8.837789044633456714e-02
-2.976995559273230146e-02 1.736154686084984966e-01 3.159981653233510657e-01 -3.048580015047811509e-01 -9.444346947224852018e-01 1.229012055390714536e-01
-1.946948692909221054e-02 1.729494377952993101e-01 2.804018024284720689e-01 -3.048580015047811509e-01 -9.444346947224852018e-01 1.229012055390714536e-01
1.421806454825220167e-01 2.222125973044416225e-01 3.018012116729960059e-01 3.332588201267874806e-01 9.424274191794655975e-01 -2.773298372756609689e-02
2.206077118321420616e-01 2.248940346509437638e-01 3.042014844470705692e-01 3.378062359119496927e-01 9.399639974972718859e-01 -4.852453387667541446e-02
2.081978758886754155e-01 1.864942210029435499e-01 3.620252594560130488e-01 2.845694896018625686e-01 9.569858785269900192e-01 -5.655292996530499744e-02
2.680902487638540110e-01 2.579548498516956445e-01 3.749253040890455635e-01 2.845694896018625686e-01 9.569858785269900192e-01 -5.655292996530499744e-02
2.355448191277350611e-01 2.294398225233383048e-01 3.542332636828717796e-01 2.845694896018625686e-01 9.569858785269900192e-01 -5.655292996530499744e-02
1.892734545596940210e-01 1.345134315291239280e-01 3.881945281494160183e-01 3.042287076503308874e-01 9.490556894708933600e-01 -8.208648929231020241e-02
2.056304917460442527e-01 2.126898930119170417e-01 3.749099216885521946e-01 3.042287076503308874e-01 9.490556894708933600e-01 -8.208648929231020241e-02
2.901013529233154031e-01 1.137551796053119235e-01 3.823403456728708960e-01 2.631630764315198157e-01 -7.849269671618681610e-01 5.609232134839575723e-01
2.779649596163837888e-01 2.260916615765505011e-01 3.160914007541537618e-01 2.203060380752924208e-01 -8.554380537885646341e-01 4.687120498963095461e-01
2.781950671118485485e-01 1.804371867744855029e-01 3.428653486210211376e-01 1.559950605411714597e-01 -8.511104012005902275e-01 5.012750004288329952e-01
2.524380951400109763e-01 1.701389128936963702e-01 3.412910908294419232e-01 1.726927076002914563e-01 -8.643914338884387538e-01 4.722337109546173028e-01
2.811267387715019050e-01 1.877011583147105422e-01 3.685208237706544265e-01 2.657965691090072857e-01 9.610585139497898055e-01 -7.562219657284824370e-02
2.282118692554134243e-01 1.981123453587878558e-01 3.165279701188681294e-01 2.800890168409925773e-01 9.557708016923875949e-01 -8.973470497715425875e-02
2.698971799773056124e-01 1.798363973306706665e-01 3.617587949759488719e-01 2.800890168409925773e-01 9.557708016923875949e-01 -8.973470497715425875e-02
2.609889096357728699e-01 1.434480142317764439e-01 3.339327511325014264e-01 2.811060138300061073e-01 -8.150092684958781808e-01 5.066944851233512459e-01
-2.630520516975675682e-01 2.158611847963923247e-01 3.623596442305158649e-01 -2.672484662914933473e-01 -9.626325300598389534e-01 -4.378206636783772698e-02
-2.157371107840790891e-01 1.880738510234037930e-01 2.808406309362464492e-01 -2.672484662914933473e-01 -9.626325300598389534e-01 -4.378206636783772698e-02
-2.857302425797854095e-01 2.298050979750194678e-01 3.484446007409262025e-01 -2.672484662914933473e-01 -9.626325300598389534e-01 -4.378206636783772698e-02
-1.912732586756696329e-01 2.273913564124744879e-01 3.298435812336701356e-01 -2.795107363569337977e-01 -9.574804989165738300e-01 -7.144818021247009709e-02
-2.093375681400306276e-01 2.346583908104036276e-01 3.293211812049672838e-01 -2.795107363569337977e-01 -9.574804989165738300e-01 -7.144818021247009709e-02
-2.376240806738227074e-01 2.653002480978058353e-01 3.333343110784245944e-01 -2.795107363569337977e-01 -9.574804989165738300e-01 -7.144818021247009709e-02
-1.950340905466005637e-01 2.884590264872265997e-01 3.979310753371330667e-01 -2.795107363569337977e-01 -9.574804989165738300e-01 -7.144818021247009709e-02
-1.949821177576884501e-01 2.546295845148792703e-01 3.220879082395287085e-01 -2.795107363569337977e-01 -9.574804989165738300e-01 -7.144818021247009709e-02
-2.195859825755365480e-01 2.196311736657084457e-01 3.591885861743160380e-01 -2.975640763815084466e-01 -9.544255558079810520e-01 -2.296690810375246958e-02
-1.876300949472914925e-01 2.082246498415922797e-01 3.742513227802370945e-01 -2.975640763815084466e-01 -9.544255558079810520e-01 -2.296690810375246958e-02
-2.049476149528189628e-01 2.199273224199903010e-01 3.453067998886792944e-01 -2.702969721560189997e-01 -9.617567185161265408e-01 -4.431208900943538198e-02
-1.935856243361052942e-01 2.727960963394627791e-01 3.851901887609716635e-01 -2.702969721560189997e-01 -9.617567185161265408e-01 -4.431208900943538198e-02
-2.126477411527121775e-01 2.720823866952852832e-01 3.282312556815422666e-01 -2.702969721560189997e-01 -9.617567185161265408e-01 -4.431208900943538198e-02
-2.630999597311790006e-01 2.189737184183079555e-01 3.595851693376660441e-01 -2.702969721560189997e-01 -9.617567185161265408e-01 -4.431208900943538198e-02
-1.735985342056419745e-01 2.248210122428336566e-01 3.392419994313353171e-01 -2.702969721560189997e-01 -9.617567185161265408e-01 -4.431208900943538198e-02
-1.159371236701593200e-01 1.886376892612447731e-01 3.023455573611152358e-01 -3.220540586738179778e-01 -9.467165200377256618e-01 3.002328992571177448e-03
-2.216822149191289837e-01 2.823962573134516929e-01 3.073232548383821316e-01 -3.220540586738179778e-01 -9.467165200377256618e-01 3.002328992571177448e-03
-1.966179229762896330e-01 2.006366629787518785e-01 3.214425108349036608e-01 -3.220540586738179778e-01 -9.467165200377256618e-01 3.002328992571177448e-03
-1.475779063329398788e-01 1.777729216916558719e-01 2.977876950688960189e-01 -2.913239160467202549e-01 -9.563596079478905443e-01 -2.250946967302291934e-02
-1.478374195237561750e-01 1.954810155146755324e-01 3.763459397810449136e-01 -2.913239160467202549e-01 -9.563596079478905443e-01 -2.250946967302291934e-02
-1.170130717269367848e-01 2.753193655513060389e-01 4.305328865370789959e-01 -2.913239160467202549e-01 -9.563596079478905443e-01 -2.250946967302291934e-02
-1.699128714942357010e-01 2.153648547982492112e-01 3.621551119353784709e-01 -2.913239160467202549e-01 -9.563596079478905443e-01 -2.250946967302291934e-02
-1.787119097270846724e-01 2.485074369605320133e-01 3.335592787782293289e-01 -2.913239160467202549e-01 -9.563596079478905443e-01 -2.250946967302291934e-02
-1.235036937473442398e-01 2.233519618057454026e-01 2.607575435279473886e-01 -3.447792547638698912e-01 -9.380555180167664542e-01 3.433817995710575915e-02
-2.049098140900112996e-01 2.454944571073560400e-01 3.877342261243662547e-01 -3.447792547638698912e-01 -9.380555180167664542e-01 3.433817995710575915e-02
-8.209431718374335385e-02 1.713477472659739043e-01 3.834878726279889460e-01 -3.113984805760640628e-01 -9.502747344258611895e-01 2.985867843297519177e-03
-2.049196703480503645e-01 1.671581143936956837e-01 2.783110720395404192e-01 -3.113984805760640628e-01 -9.502747344258611895e-01 2.985867843297519177e-03
-1.551941416652351802e-01 2.256199728360073209e-01 3.130073380301625074e-01 -3.113984805760640628e-01 -9.502747344258611895e-01 2.985867843297519177e-03
1.125990850567890611e-01 1.796236779118900451e-01 3.635472282084630802e-01 3.774233170700034279e-01 9.251523509792625166e-01 4.055572967435355780e-02
1.159638095823632836e-01 2.527918702117380456e-01 3.886102505252830852e-01 3.774233170700034279e-01 9.251523509792625166e-01 4.055572967435355780e-02
