3.797205383130669021e-01 -2.904497019464185453e-02 9.246451765351003660e-01
-4.709281607359311894e-01 -1.169109310019377374e-01 8.743903599869642385e-01
-4.872198594953401907e-01 -1.125337107087442945e-01 8.659982520002346140e-01
4.439577684907772825e-01 -1.635732866362492877e-01 8.809910781022159965e-01
4.356452593866298462e-01 -1.537522507241927405e-01 8.868897639341660755e-01
4.212781662447409037e-01 -1.452383184704673091e-01 8.952265285911379378e-01
4.292858041483263998e-01 -1.537008685970646660e-01 8.899942366943915939e-01
-4.697478472705378105e-01 -3.070512724141663541e-01 8.276813856149823900e-01
-4.697478472705378105e-01 -3.070512724141663541e-01 8.276813856149823900e-01
-4.535639872576240905e-01 -2.545136315115383296e-01 8.541091972562845358e-01
3.734320665671985173e-01 -3.815777728331316010e-01 8.455453240004692228e-01
3.983729171462579433e-01 -3.637742047938410384e-01 8.420019874151065675e-01
3.014036889456935819e-01 -2.208805377716907270e-01 9.275600273424983166e-01
-3.218601634137006062e-01 -4.602498084634200071e-01 8.273911704971785852e-01
-4.082889814250860727e-01 -5.124715597536387834e-01 7.554290225365573042e-01
-3.413836890781386524e-01 -5.293165156831811657e-01 7.767117889258650099e-01
-3.602663783591519842e-01 -5.648551152926842844e-01 7.423926423070669189e-01
3.386306417550019598e-01 -6.114903034266238047e-01 7.151285879335346207e-01
3.009509198346881909e-01 -5.544496763483000024e-01 7.758956761368892563e-01
3.514575916827002433e-01 -5.179050071019595247e-01 7.799050999110826998e-01
-3.077538741824913382e-01 -6.119654657878549342e-01 7.285504935203331867e-01
-3.222126285314069194e-01 -6.466043059176306285e-01 6.914346632789396541e-01
-3.055111834861352627e-01 -6.269486054405640774e-01 7.166577725114217090e-01
2.802947451872184192e-01 -6.596512435581206590e-01 6.973486163266240379e-01
2.688346423106982019e-01 -6.385222509739570951e-01 7.211222296565472645e-01
2.688346423106982019e-01 -6.385222509739570951e-01 7.211222296565472645e-01
2.645281919132686510e-01 -6.343518022734544459e-01 7.263763670684207918e-01
2.857726488484941263e-01 -6.192869665995456296e-01 7.313122767806159441e-01
-2.928154519623749064e-01 -6.576708440719880588e-01 6.940664031270413759e-01
-2.942478597152869413e-01 -6.584295558756347866e-01 6.927400067863753730e-01
-7.291985818725514878e-01 1.598755468389767009e-01 6.653639888947988634e-01
-7.266862148452234438e-01 1.561218932400202930e-01 6.689940953439524884e-01
9.344399088745199977e-01 -1.804059886741483931e-02 3.556635959654625423e-01
-7.109750813206136000e-01 1.720400883570746275e-01 6.818479608675506176e-01
8.987761635427320428e-01 -1.843967730159175866e-01 3.977426780579678134e-01
8.987761635427320428e-01 -1.843967730159175866e-01 3.977426780579678134e-01
-7.050446370844106747e-01 1.789405716125878065e-01 6.862159511039306325e-01
8.309122948219989091e-01 -2.370005236785680258e-01 5.034039233952434245e-01
-7.052148254768519919e-01 1.778144687225911846e-01 6.863337851516240207e-01
7.398442199985576506e-01 -3.886274353422700112e-01 5.491805228101368508e-01
-6.906524087274127366e-01 1.820275997796019229e-01 6.999037099755220925e-01
-7.012210341584923512e-01 1.772269443282276091e-01 6.905647482009009686e-01
6.886538471256176130e-01 -4.420009441170016928e-01 5.747965242055361745e-01
7.404663114150992209e-01 -3.825203966827407931e-01 5.526190258948707745e-01
-7.017376416270996176e-01 1.732565073132812383e-01 6.910473681284367009e-01
6.346547477059870657e-01 -4.478635154166069055e-01 6.297869661821594578e-01
6.689480488898694732e-01 -4.164828002774973448e-01 6.156708414075259261e-01
-6.920040023347809877e-01 1.626636882078802970e-01 7.033285045348679487e-01
-6.913592107910120355e-01 1.671341499845031553e-01 7.029143742756913671e-01
6.200072009348256419e-01 -4.755745221197463790e-01 6.240352111055416096e-01
6.238366615697342743e-01 -4.329818862207718833e-01 6.506569802024961824e-01
-6.938424881875809858e-01 1.459795948280261935e-01 7.051755522417887390e-01
-6.960955706858341641e-01 1.433160733461070202e-01 7.034994382316280825e-01
5.580964595598875144e-01 -4.526873423363513282e-01 6.954153520847595749e-01
-6.901638223758496116e-01 1.325585437381208709e-01 7.114085540430235000e-01
-6.978324402387062753e-01 1.287169527844085615e-01 7.046004764520024111e-01
-6.989316460441562517e-01 1.297952526056446176e-01 7.033119838016718139e-01
5.199475290630052315e-01 -4.364925166706997151e-01 7.342539410256879728e-01
5.199475290630052315e-01 -4.364925166706997151e-01 7.342539410256879728e-01
-6.921980836734796805e-01 1.109725273358916353e-01 7.131247514533815002e-01
4.883749601835657983e-01 -4.368762821343710745e-01 7.553999022862990520e-01
5.180281476841693822e-01 -4.208667128896647625e-01 7.446596861576144644e-01
5.553319459982090089e-01 -4.219372665441349923e-01 7.166417325659355519e-01
-6.991573113643875237e-01 8.870290231832081429e-02 7.094440422514148858e-01
4.832228741647073833e-01 -4.148035679565185152e-01 7.709952359739594696e-01
5.189341676688379312e-01 -4.040939621484802569e-01 7.532698051700950082e-01
-6.928251601320724040e-01 7.319598770640084462e-02 7.173811015573610117e-01
-6.946022878456759031e-01 7.129351256429754258e-02 7.158525663750862078e-01
5.807293993145083988e-01 -3.901825663767216068e-01 -7.145004756243940047e-01
4.391509764009696726e-01 -8.929252652217076758e-01 9.915084797831208441e-02
3.191242897668989942e-01 -9.392349702960164359e-01 1.264806635569774296e-01
6.721086496602547422e-01 -2.683238736659327994e-01 -6.901248161548587667e-01
8.070319969000596672e-01 -1.310770031616907971e-01 -5.757761502716591817e-01
7.679103199402628199e-01 -1.630759749274779402e-01 -6.194513434731544477e-01
7.599459066008023012e-01 -1.580497426931151972e-01 -6.304779915867998463e-01
4.877133672870009318e-01 -3.612777894130563272e-01 7.947414864258629530e-01
4.877133672870009318e-01 -3.612777894130563272e-01 7.947414864258629530e-01
-8.585346276444720814e-01 -1.069561565740375086e-01 5.014764936727119649e-01
5.681711578381963834e-01 -8.209007280665463480e-01 5.747634348684387690e-02
5.754766750270792208e-01 -8.160644628879337725e-01 5.352932758035960220e-02
5.418531225879278379e-01 -8.370460172347501393e-01 7.582320603321095198e-02
5.576067571040222992e-01 -8.281787454221015699e-01 5.652141242935970755e-02
8.231071644662296682e-01 4.073448568850476098e-02 -5.664232494169497700e-01
8.231071644662296682e-01 4.073448568850476098e-02 -5.664232494169497700e-01
8.197948604754300428e-01 1.038574857687008801e-01 -5.631607313972397666e-01
8.195433143454733393e-01 1.433080404094850546e-01 -5.548076797103931312e-01
8.213511440210222725e-01 1.257187054049333230e-01 -5.563965360484063316e-01
8.265089783964564285e-01 1.052585490156798254e-01 -5.529950691363888504e-01
8.386899586166557397e-01 1.402877711688409745e-01 -5.262304576666683165e-01
8.366828900070591990e-01 1.642527069782212801e-01 -5.224775495844408146e-01
8.357598283096556724e-01 1.772575123866261815e-01 -5.196973000567925993e-01
8.050892719609014092e-01 1.979403160284319563e-01 -5.591519430924209999e-01
8.170053064286958433e-01 1.852654882899290312e-01 -5.460577150046018735e-01
5.273938872327341709e-01 -8.457542057439720873e-01 8.096611128076336428e-02
8.226798170911329144e-01 1.990558655074027017e-01 -5.325173057826372292e-01
-8.485069257445422286e-01 -9.417702817935126591e-02 5.207366746512593902e-01
8.885609867230350734e-01 2.880978996415309301e-01 -3.570139676482205204e-01
6.054569750989349242e-01 -7.950850225419974215e-01 3.551982873605900870e-02
6.202009886596068222e-01 -7.841730979905963128e-01 2.057391682389744098e-02
6.068050536623076363e-01 -7.933703615858722635e-01 4.848810376768744601e-02
9.052902740532084991e-01 2.619229472350411148e-01 -3.344336846317617629e-01
9.437943857287464100e-01 2.123204071668528814e-01 -2.533223286001454744e-01
6.347451189819675044e-01 -7.726523125197701791e-01 1.034591157989840117e-02
6.184952857751037092e-01 -7.857313680565595204e-01 9.476218968559135467e-03
9.392602307321805677e-01 8.655275751738411572e-02 -3.321126904095476062e-01
6.564269692360417130e-01 -7.542844269646259425e-01 -1.259512994099578134e-02
8.397985759796591232e-01 2.446508651068146634e-01 -4.846486417860095264e-01
6.641296640266598494e-01 -7.472653118971599451e-01 -2.294216631175271387e-02
6.568617994869899723e-01 -7.540109586096395144e-01 -2.251028343189252540e-04
9.497339373140928354e-01 -5.682336744600833970e-04 -3.130577030267137073e-01
8.389804457756769862e-01 2.487358924142304695e-01 -4.839858132538005786e-01
8.448487937432185291e-01 2.603060406831300133e-01 -4.674091151170473579e-01
8.383472854338315239e-01 3.081853558544771499e-01 -4.496616677487363933e-01
8.422391184251873941e-01 3.177652780503272822e-01 -4.354979855980524173e-01
8.461466024574185729e-01 3.583110390782470733e-01 -3.945239237669043719e-01
8.525052492905608181e-01 3.596262079500336384e-01 -3.793465308758179888e-01
8.441040099555664478e-01 3.840036599989991029e-01 -3.742053039232692280e-01
8.446058844370286645e-01 3.834482377989020252e-01 -3.736420063419814697e-01
8.510435968421293795e-01 3.817191054731193245e-01 -3.605763730346357443e-01
8.431210468085069687e-01 4.037370780463223063e-01 -3.551665415536001680e-01
2.765488516811764885e-02 1.722708287584270581e-01 9.846613473094305569e-01
2.765488516811764885e-02 1.722708287584270581e-01 9.846613473094305569e-01
1.528346499076749243e-02 4.568736414684204661e-01 8.894002987571237862e-01
-4.331263790806841318e-02 3.990381062564079540e-01 9.159108063303675884e-01
-2.126754198473852428e-02 4.003495130084219200e-01 9.161156908883544281e-01
6.665762543513543970e-02 4.023343421304009793e-01 9.130628883674150043e-01
-7.220032909775069008e-02 3.673024766985212852e-01 9.272949924858371329e-01
1.384184901294173084e-02 3.789769850882052094e-01 9.253025710487122746e-01
7.538913410731422349e-02 3.709963300931772845e-01 9.255691230350889809e-01
1.132073881245579533e-01 3.643974526254341595e-01 9.243368345977077682e-01
1.893300805676849385e-01 3.597684129936642994e-01 9.136305651652937287e-01
2.041264906267522827e-01 3.747441451030461557e-01 9.043777980110929704e-01
-2.090652618845991184e-01 2.724133877399075310e-01 9.391925587722630420e-01
-1.980327830652635346e-01 2.899189492869985729e-01 9.363386244707353478e-01
-1.558939055255030015e-01 2.911106655311813118e-01 9.439023628712868152e-01
-1.736655187917515997e-01 3.081700442002206497e-01 9.353456641479799272e-01
-1.349648371578466011e-01 3.304116867362977827e-01 9.341373614190958685e-01
-9.107682646192846732e-02 3.473453336684639292e-01 9.333039327359373694e-01
-7.449256333391281182e-02 3.310102148603706329e-01 9.406822501068223819e-01
-3.395002346559818085e-02 3.485271640417774153e-01 9.366836241931859597e-01
1.444438715028949737e-02 3.586295222001283922e-01 9.333682153825252348e-01
1.444438715028949737e-02 3.586295222001283922e-01 9.333682153825252348e-01
8.135250805903618265e-02 3.678337268906114454e-01 9.263261406190950176e-01
1.194126778177029419e-01 3.615278459323617577e-01 9.246827720856011235e-01
1.911336424745690710e-01 3.419151020573971134e-01 9.200880358419423199e-01
2.498199846692829851e-01 3.024395970670721301e-01 9.198479577548380748e-01
-2.322726225592169902e-01 2.475275653740582615e-01 9.406272020250397992e-01
-1.774636091488593914e-01 2.799328277903221918e-01 9.434745780110742608e-01
-9.516698610305104888e-02 3.219320307969910644e-01 9.419676280546942504e-01
1.397234130948591668e-01 3.326187533006912389e-01 9.326532757599778067e-01
2.182644950334798328e-01 2.940207069136947515e-01 9.305441602168870174e-01
2.731222529548853473e-01 2.744402914176882757e-01 9.220014974973856914e-01
-2.537457686742243812e-01 2.185861187424617824e-01 9.422490082632261066e-01
-2.683332037830016836e-01 2.339245304500578992e-01 9.344926997046418826e-01
-2.293751574571398499e-01 2.379240491830058035e-01 9.438109895322659426e-01
2.914177961095384961e-01 2.478467399841784990e-01 9.239305501983763325e-01
3.792497773372393022e-01 2.018764370562544652e-01 9.030036049491312333e-01
3.428357460832480164e-01 2.416555986111260101e-01 9.077809333024354776e-01
-3.319389777928389851e-01 1.796873022252958307e-01 9.260286110271324089e-01
-3.102603611475920342e-01 1.944536607406009421e-01 9.305516010007961469e-01
-2.691040991785728642e-01 2.043403883162873691e-01 9.411843546872407096e-01
3.793602183191976396e-01 2.007725436774020211e-01 9.032033051656290779e-01
4.290766145692474498e-01 1.655550887649361314e-01 8.879666499445953987e-01
-3.736632696958505639e-01 1.517347940580857368e-01 9.150695673840083533e-01
-3.462977387561261278e-01 1.618202538733184703e-01 9.240628125667479376e-01
-3.198117638045898659e-01 1.712875140023190912e-01 9.318696385649135605e-01
-3.110436632921788624e-01 1.612361918796361149e-01 9.366187751449011056e-01
4.098415519651257277e-01 1.509960728240019034e-01 8.995721695753743363e-01
4.300285348626028958e-01 1.494679739631231963e-01 8.903565487844082860e-01
-4.063407746745529292e-01 1.230983340280952798e-01 9.053916141628393088e-01
-3.481649813315216835e-01 1.343099516885089828e-01 9.277618135339756877e-01
4.469947046213790798e-01 1.048269546857188844e-01 8.883732569206281848e-01
4.469947046213790798e-01 1.048269546857188844e-01 8.883732569206281848e-01
-3.796735062186833987e-01 1.021675183985945728e-01 9.194617049447378898e-01
-3.625250770412591916e-01 1.063342531502446953e-01 9.258880035529183372e-01
4.532925719871747638e-01 6.194639352143230249e-02 8.892066624305847711e-01
4.605880243753683323e-01 6.747920267816229223e-02 8.850453259624134761e-01
-4.049765578898156804e-01 6.842071648698830333e-02 9.117634523905441268e-01
-3.818431015372998338e-01 7.148008603246362724e-02 9.214588667483571971e-01
-3.672880981023321501e-01 7.695911697060443812e-02 9.269178751688180729e-01
4.487926089221782044e-01 3.197442513895462635e-02 8.930637325039340046e-01
4.608649277535515898e-01 4.451719475054517067e-02 8.863530547915181579e-01
-4.038018249617636446e-01 4.436449814821312454e-02 9.137701447637728291e-01
-3.853205132076543138e-01 4.407337305916603915e-02 9.217297000143683805e-01
4.380037191982562028e-01 9.192231236799788471e-03 8.989261620697133193e-01
4.338885690033749687e-01 4.670477308440514064e-02 8.997551743998685181e-01
-3.908553536364949288e-01 1.570903433010079758e-02 9.203180530523707992e-01
3.318255667593829616e-01 -2.413832523370894670e-02 9.430318841373954708e-01
3.808807533252722699e-01 -8.314349784895758155e-03 9.245867851824551842e-01
3.990642527447110233e-01 1.753828710848702108e-02 9.167552185107022966e-01
4.208003285961985362e-01 -6.316956594359706724e-03 9.071312912212411428e-01
4.113735548946724774e-01 4.723082223794399653e-02 9.102423016779915832e-01
4.343672489340609233e-01 1.984004103565570679e-02 9.005173323291224552e-01
3.652255417037024721e-01 -1.620097420420964218e-02 9.307780788792092697e-01
3.811286081583912799e-01 -3.450715842990167981e-02 9.238778274535767165e-01
4.105302311126531878e-01 1.186788820889090289e-02 9.117697530473650724e-01
-3.646104213464418375e-01 -4.613365879800853525e-02 9.300166268252835211e-01
-3.673990952192464077e-01 -4.913967174361862089e-02 9.287643390510901265e-01
3.480663857943916972e-01 -2.559916355962971526e-02 9.371203091946501695e-01
3.644666904368789040e-01 -4.541046348344009165e-02 9.301085535399659099e-01
3.597712004054121615e-01 -6.663904716976355898e-03 9.330167606923102097e-01
3.772631625961084256e-01 -2.636510357747883296e-02 9.257307316176400791e-01
2.921667289354393238e-01 -6.969149781021996559e-02 9.538247730249689305e-01
3.299010795801209928e-01 -3.810048481945579185e-02 9.432463255949600223e-01
3.488075351455733331e-01 -2.553233628449640830e-02 9.368465206369318565e-01
-3.136096272593839052e-01 -1.034597413047975284e-01 9.438988736190834228e-01
3.169592384310390698e-01 -5.464940452525265946e-02 9.468633923424493171e-01
-3.006538574008904563e-01 -1.187229018287699750e-01 9.463150271507482225e-01
-2.925229775166290347e-01 -1.282898895106144577e-01 9.476138516685792546e-01
-2.693668067702533198e-01 -1.312763390120990636e-01 9.540482410370964006e-01
2.279591850251190266e-01 -9.424618789579733424e-02 9.690986874564394560e-01
2.734451082392224119e-01 -9.143000517357224854e-02 9.575324156048192759e-01
3.046293614670460559e-01 -7.201038812635275621e-02 9.497449426735957712e-01
3.163162954061717880e-01 -8.498742523381781766e-02 9.448392132064808990e-01
3.383065359547755002e-01 -7.155999982746082122e-02 9.383111712832657991e-01
-2.925106923565889971e-01 -1.285347291233022438e-01 9.475844649772747763e-01
2.187025471827690470e-01 -1.074993124180119025e-01 9.698520988714842694e-01
2.677968147549973921e-01 -1.020306299785024018e-01 9.580577313258672456e-01
2.998018524163083010e-01 -8.737677147219057028e-02 9.499916573817092091e-01
3.313526869765060501e-01 -8.523581789434507561e-02 9.396490047785566180e-01
-2.888613845741916375e-01 -1.316725540019935137e-01 9.482728716063076879e-01
-2.598362474136683420e-01 -1.374861830773876359e-01 9.558151881994729759e-01
-2.662919642799323472e-01 -1.309970048222426353e-01 9.549494093864535627e-01
1.998062831142078111e-01 -1.256103872165209023e-01 9.717507292775244832e-01
2.562167836257928655e-01 -1.055926392643367628e-01 9.608346134073467715e-01
2.602164759909650904e-01 -1.100713675912237399e-01 9.592557946968270910e-01
3.037123336196618228e-01 -1.095295147579569833e-01 9.464470950899398494e-01
-2.892464076002934648e-01 -1.311207110867310677e-01 9.482319731028030496e-01
-2.558702369277895405e-01 -1.391697383191230208e-01 9.566411060532072907e-01
-2.296536192726773007e-01 -1.371355377303276335e-01 9.635626909788351790e-01
2.143303779259050357e-01 -1.084082763994756171e-01 9.707266014209322558e-01
2.554319143157847138e-01 -1.244683003356883561e-01 9.587816119224016331e-01
3.032321986088112875e-01 -1.219352847834693776e-01 9.450830757407734373e-01
-2.725337225635078298e-01 -1.491364957830559057e-01 9.505175830521113145e-01
-2.453757790422411433e-01 -1.485301364946480795e-01 9.579820069355657886e-01
2.502932157934050217e-01 -1.409650782981527462e-01 9.578528868402451657e-01
2.525163538343647707e-01 -1.435967581466369714e-01 9.568779765967937445e-01
2.525163538343647707e-01 -1.435967581466369714e-01 9.568779765967937445e-01
2.968740077291040502e-01 -1.407204278126281127e-01 9.444911776883311294e-01
-2.725366028242666716e-01 -1.490128613327009466e-01 9.505361472760776032e-01
-2.381341922998278238e-01 -1.528737273073118297e-01 9.591255027142581158e-01
-2.200896295776141598e-01 -1.595437820541817375e-01 9.623441881989189817e-01
1.336235783106640984e-01 -1.741080716239703507e-01 9.756183263524913496e-01
2.026159746634907943e-01 -1.689527311145912203e-01 9.645733468534596344e-01
2.494222153565216205e-01 -1.554498083203501302e-01 9.558367619943330951e-01
-2.383252250173877873e-01 -1.492005122935993466e-01 9.596563417451786648e-01
-2.079935080425176219e-01 -1.572008050697234482e-01 9.654152513284622872e-01
-2.164824353155748449e-01 -1.487147731850825272e-01 9.648933990013339734e-01
-1.760572928888841648e-01 -1.609420241052621769e-01 9.711341279645869795e-01
-1.737566929293507256e-01 -1.587154806508698224e-01 9.719146093479708037e-01
-1.330835718266960288e-01 -1.633040637094956837e-01 9.775584615181914794e-01
1.373719850688596422e-01 -1.838585494704242651e-01 9.733062064452648876e-01
1.337210258048932843e-01 -1.804295934921781586e-01 9.744556680783043046e-01
2.444546634125767948e-01 -1.688730356091091012e-01 9.548422986964959502e-01
-2.028213387173775917e-01 -1.603054162621491141e-01 9.660050093441079344e-01
8.741694866673012376e-02 -1.939678770106892380e-01 9.771052859204909513e-01
8.958296259297485187e-02 -1.960817499689620491e-01 9.764869892334333557e-01
1.367068180199468574e-01 -1.912666834214525602e-01 9.719713481990190918e-01
1.856179985121014786e-01 -1.871792892593047986e-01 9.646293963490554235e-01
1.856179985121014786e-01 -1.871792892593047986e-01 9.646293963490554235e-01
-2.323827402258772656e-01 -1.707920868998593633e-01 9.575115273966695595e-01
-2.029727076533602848e-01 -1.654661273978501046e-01 9.651026062713859988e-01
-1.662118945518159252e-01 -1.664234682785769026e-01 9.719448725702632963e-01
-1.027688754025844198e-01 -1.778503312916741574e-01 9.786765645032733385e-01
-6.311744665155642753e-02 -2.005138215198657148e-01 9.776555606693430045e-01
-3.058452117584119223e-02 -1.991477510035089271e-01 9.794920930434758422e-01
4.058675163218305321e-02 -2.091440343353445641e-01 9.770422142844613633e-01
8.648855036017916165e-02 -2.060985043901864266e-01 9.747015631180258044e-01
1.331658140637341503e-01 -2.038162851522774266e-01 9.699101957766339543e-01
-2.072964677091824470e-01 -2.024260186431870445e-01 9.571059927988978533e-01
-1.681986374025255249e-01 -1.940739141292464609e-01 9.664597944200719049e-01
-1.013082454471629923e-01 -2.017336486794214512e-01 9.741869299035504914e-01
-4.789062027802246102e-02 -2.169505288764976836e-01 9.750071571581381269e-01
-6.298526830694563955e-03 -2.216921680976078890e-01 9.750963599377986402e-01
-1.065677572195123692e-02 -2.177933299466914552e-01 9.759367287698232918e-01
3.266764682841158396e-02 -2.166059977557397431e-01 9.757123892761301320e-01
8.331726977797294931e-02 -2.158616718346927366e-01 9.728627709957226033e-01
-2.524548052152615629e-02 -2.063669480319234306e-01 9.781489398211433706e-01
-6.277357948147229035e-03 -2.285702586817809634e-01 9.735071810846258611e-01
-6.655937156158203694e-02 7.039129987893660845e-01 7.071607597941850232e-01
-6.655937156158203694e-02 7.039129987893660845e-01 7.071607597941850232e-01
-1.973780383402362615e-02 7.198663520149357620e-01 6.938320072874399891e-01
-7.891829725919421307e-03 7.199716019476453122e-01 6.939586525237066983e-01
-7.891829725919421307e-03 7.199716019476453122e-01 6.939586525237066983e-01
1.397598678561276508e-02 7.269368909289434244e-01 6.865620353616488369e-01
5.474108979853903323e-02 7.348057474957474522e-01 6.760650312912835913e-01
-2.788409313548050328e-01 5.039534973899687520e-01 8.174830930787519989e-01
-1.489081729031878354e-01 6.311359926211504989e-01 7.612448455396918501e-01
-1.788932279897793021e-01 6.021383777456584818e-01 7.780916315095693925e-01
-5.196552243886515265e-02 7.066951217804194885e-01 7.056072486372384489e-01
3.526216729223408120e-02 7.259080531432638983e-01 6.868872381545685357e-01
5.555462151432584428e-02 7.282224389876522652e-01 6.830854729704586292e-01
7.110138805468635415e-02 7.303632623808313795e-01 6.793482888630294481e-01
1.030922075410964367e-01 7.323877019537178290e-01 6.730380752760246610e-01
9.836060459047869797e-02 7.314611823877660290e-01 6.747516062407608040e-01
1.208371946008247461e-01 7.300435234046301902e-01 6.726327574062652692e-01
1.295257629237348274e-01 7.291495897363458045e-01 6.719850835594067817e-01
1.474010997295295278e-01 7.260465452291998689e-01 6.716616186438441050e-01
-3.738572900946937061e-01 3.935170514119039065e-01 8.398660946193345911e-01
-3.144984536133091924e-01 3.708087170025340384e-01 8.738372949638691933e-01
1.005125957465913961e-01 7.232908366413658419e-01 6.831892737206251009e-01
1.115584635279383424e-01 7.231165405964965487e-01 6.816576691646920594e-01
1.226739260273682630e-01 7.236128902358547332e-01 6.792168232291840857e-01
1.283222497619947999e-01 7.247142398999304458e-01 6.769953254656094765e-01
1.365597614256551795e-01 7.255549899854299989e-01 6.744786046025557091e-01
1.365597614256551795e-01 7.255549899854299989e-01 6.744786046025557091e-01
1.410943112364122232e-01 7.251340470571586705e-01 6.739977812539363899e-01
1.462023367684012753e-01 7.243814277654664346e-01 6.737183564605637720e-01
1.509355588044051233e-01 7.237383425516165092e-01 6.733656277306119264e-01
1.538033846524320403e-01 7.237225168608074632e-01 6.727334074193983549e-01
1.545002071434709301e-01 7.241407197212826885e-01 6.721234291662264715e-01
1.582224322028775998e-01 7.243127154373325549e-01 6.710713465821673829e-01
1.603532460992865283e-01 7.240400098071839707e-01 6.708598219179879862e-01
-4.270923020713318086e-01 2.122361906652938945e-01 8.789470774075621717e-01
1.580772363547478521e-01 7.218442102194897458e-01 6.737599895504675640e-01
1.594000468285613203e-01 7.227334052398367570e-01 6.724939033340616712e-01
1.594000468285613203e-01 7.227334052398367570e-01 6.724939033340616712e-01
1.602529631760562234e-01 7.244212943085316381e-01 6.704720547089529914e-01
1.593512859180818697e-01 7.245127839797419478e-01 6.705880952762115488e-01
1.462341900546197115e-01 7.293042583570387150e-01 6.683792788539746343e-01
1.242113044647672332e-01 7.363320888490056948e-01 6.651214977539224860e-01
-6.197683894994678866e-01 -9.955539402725367693e-02 7.784445175459289157e-01
-5.751996677577578820e-01 8.649179494661507483e-02 8.134276314573273270e-01
-5.487257050115438295e-01 1.834505036373324655e-02 8.358011484717738915e-01
1.578554998094154060e-01 7.254845625075767579e-01 6.698908797282655536e-01
1.546784944738861245e-01 7.258432045281005829e-01 6.702433929459282735e-01
1.430514754907250274e-01 7.320274915706891372e-01 6.660871016200893280e-01
1.352585752427112042e-01 7.352698851079794151e-01 6.641410346278947552e-01
1.160913413106986897e-01 7.410129347558817026e-01 6.613793397114535733e-01
1.100851130057362015e-01 7.414640958924940684e-01 6.619004928211192906e-01
9.191054862895131627e-02 7.465167821498456258e-01 6.589879703146067635e-01
8.062504328184776081e-02 7.478035123814553708e-01 6.590064561639429330e-01
7.838585096684118347e-02 7.486819652210671139e-01 6.582787960438380992e-01
8.096058543486923942e-02 7.454185137523015037e-01 6.616620156555408361e-01
8.096058543486923942e-02 7.454185137523015037e-01 6.616620156555408361e-01
7.687530980062785846e-02 7.415260635634454145e-01 6.665052766476485813e-01
-6.851992846071112142e-01 -1.513338148461240429e-01 7.124605370531211790e-01
-7.616925682584972934e-01 -8.239921398403156350e-02 6.426778360847590355e-01
1.262265488781366130e-01 7.361573577180122729e-01 6.649354878752901099e-01
7.971428840853132802e-02 7.535855739947817655e-01 6.524985937842905370e-01
7.726035208768435025e-02 7.523613106563944442e-01 6.542043229929618287e-01
8.495998033001103678e-02 7.436622487523760761e-01 6.631351759052472872e-01
8.859313845330821224e-02 7.434296196650543864e-01 6.629205506119612012e-01
1.064075614767097527e-01 7.296772414048845468e-01 6.754617341021904586e-01
1.202314253447438752e-01 7.189497052373255981e-01 6.845843452042515986e-01
1.308111552337800076e-01 7.109038409609442777e-01 6.910167657686606679e-01
1.340658931809732557e-01 7.052974073460649418e-01 6.961191733291843819e-01
-7.191948968428268918e-01 -2.172801989545483925e-01 6.599606166261041684e-01
-6.914531571927805542e-01 -2.206327290762270521e-01 6.879053207153670302e-01
1.546951429205920270e-01 6.935304494842444711e-01 7.036227173670270840e-01
1.616978247891474874e-01 6.874669848099083103e-01 7.079851398545250474e-01
1.714169653253651004e-01 6.794659134218429264e-01 7.134019179231742003e-01
-6.898266983897007876e-01 -2.824878178462905121e-01 6.665881479273433330e-01
-6.960141390867987665e-01 -3.216952285646939025e-01 6.419318484932584612e-01
1.882958016527321310e-01 6.663781171579638007e-01 7.214463916695141865e-01
1.920638724984900236e-01 6.647327971050666084e-01 7.219707593343083207e-01
1.982630619885158707e-01 6.593344772108957752e-01 7.252377578504670685e-01
1.982630619885158707e-01 6.593344772108957752e-01 7.252377578504670685e-01
-6.970015166472798285e-01 -3.173586296068152679e-01 6.430181848170982706e-01
2.071587341023127249e-01 6.499546814656140814e-01 7.311936617108081293e-01
2.227132398115443390e-01 6.411892374505195891e-01 7.343535760042753102e-01
2.225386954601359657e-01 6.286899341868917857e-01 7.451345487057908779e-01
2.356130966447530783e-01 6.214503939291876611e-01 7.471853027025675553e-01
-6.954086208462190166e-01 -3.299171286874106879e-01 6.384054653990784978e-01
2.344381926518263048e-01 6.327971479785369224e-01 7.379745953190901542e-01
-6.954189319106168776e-01 -3.298665734131369653e-01 6.384203575113911455e-01
-6.954189319106168776e-01 -3.298665734131369653e-01 6.384203575113911455e-01
2.473668066481850558e-01 6.179567074255508663e-01 7.462835725891675542e-01
2.534334526082906991e-01 6.129787699501048071e-01 7.483505279543122279e-01
2.628679894431138475e-01 6.075095063980741061e-01 7.495549477937579752e-01
2.693240207609231551e-01 6.038902916460539005e-01 7.501873682599660143e-01
-6.897150466252562895e-01 -3.349134141694011246e-01 6.419705285043200149e-01
-6.897150466252562895e-01 -3.349134141694011246e-01 6.419705285043200149e-01
2.698296059524061263e-01 6.028580626812751753e-01 7.508356278252577010e-01
2.743935590261766810e-01 5.998701041866209005e-01 7.515743694858685320e-01
2.835285229985632927e-01 5.955506785618888133e-01 7.516188967227520612e-01
-6.912822073951302437e-01 -3.285539690617859665e-01 6.435691098496441054e-01
-6.799328552397182479e-01 -3.345308917734224896e-01 6.525185015115226861e-01
2.863302802458744800e-01 5.924243417603392015e-01 7.530261415808536807e-01
2.875133436354990746e-01 5.922466003270754342e-01 7.527151131952625196e-01
2.950176754163738035e-01 5.864515194892737648e-01 7.543468608542365228e-01
-6.800888134470878255e-01 -3.312712265959129043e-01 6.540172629631204604e-01
2.988794468897663648e-01 5.858402568572568248e-01 7.533009157516606935e-01
3.064626291929517521e-01 5.787087938602362147e-01 7.557623891256919357e-01
3.170871969933563572e-01 5.705651431730461853e-01 7.575692225129118107e-01
-6.811765266672508146e-01 -3.294070996967743414e-01 6.538268136034951494e-01
-6.705977003109424572e-01 -3.309906565463453521e-01 6.638854642306116771e-01
-6.731516621995485838e-01 -3.335600319709997597e-01 6.600034429830580196e-01
3.189543268676300891e-01 5.633264577784374838e-01 7.621885851541043699e-01
3.222110712835978275e-01 5.583860767767002686e-01 7.644507929253533396e-01
3.267528088181498314e-01 5.618511886226621455e-01 7.599709492952683165e-01
3.327942872032839117e-01 5.554578240507211939e-01 7.620463031244860685e-01
-6.742871723762922098e-01 -3.275504387417343954e-01 6.618515840042097365e-01
3.406201986729492370e-01 5.402718161248103446e-01 7.694701066040187110e-01
3.378057518668798331e-01 5.409771296309295874e-01 7.702149175534919179e-01
3.542327087455861001e-01 5.291588950667934776e-01 7.710447793912199588e-01
3.546617138958039206e-01 5.290397353544191716e-01 7.709293269247299296e-01
-6.686683761550447080e-01 -3.263417639385376434e-01 6.681194921865845071e-01
-6.649275644601139179e-01 -3.296081459002712100e-01 6.702460773308014375e-01
3.623767201555112560e-01 5.138145687744066770e-01 7.776102504497384160e-01
3.643372929799337800e-01 5.125015406392399164e-01 7.775606135771406802e-01
3.643372929799337800e-01 5.125015406392399164e-01 7.775606135771406802e-01
3.760962740148336425e-01 4.986747719265239298e-01 7.809449817472344790e-01
-6.663997547550006839e-01 -3.246861399819411242e-01 6.711857249421372407e-01
-6.580525290269222394e-01 -3.260948437673039657e-01 6.786965609973644176e-01
3.876447806368409910e-01 4.787037948760889394e-01 7.877653209022639214e-01
3.788260262396702105e-01 4.868315639469008582e-01 7.870742469351130755e-01
3.912014499908710308e-01 4.780851311879944499e-01 7.863816076575025349e-01
-6.671822998194845145e-01 -3.205100604145527110e-01 6.724143662806760791e-01
-6.605347294666914504e-01 -3.230035057847308599e-01 6.777629426422914216e-01
3.937303952572348553e-01 4.652063431311976305e-01 7.928174027864676177e-01
3.985737339356933417e-01 4.639882100957972155e-01 7.911092968159694205e-01
4.011098875626885052e-01 4.594087837792734663e-01 7.924988501479961478e-01
-6.611828788210395436e-01 -3.132935713215239670e-01 6.816775916241692990e-01
-6.624164827401695099e-01 -3.153731634530520522e-01 6.795176018086339642e-01
4.070083531020982082e-01 4.418806422370872289e-01 7.994283573412048760e-01
4.119524695700412797e-01 4.349340788771456912e-01 8.007043835563990575e-01
4.235855618096424635e-01 4.252692557756500014e-01 7.998258134859328461e-01
4.183916079330875504e-01 4.200450060982208189e-01 8.053015927359830073e-01
4.239814109128238750e-01 4.188813950076150650e-01 8.029807844007509354e-01
-6.544727957316429645e-01 -3.123353016488520928e-01 6.885579271137090007e-01
-6.568918306146765973e-01 -3.140289543093423563e-01 6.854771613460801660e-01
4.332317436712624370e-01 3.977250361416544977e-01 8.087799774361857930e-01
4.269963498080514563e-01 4.040823282688825735e-01 8.089447380577979851e-01
4.269963498080514563e-01 4.040823282688825735e-01 8.089447380577979851e-01
-6.578775256941354899e-01 -3.034547713642218314e-01 6.892839494162402714e-01
-6.488585770171966249e-01 -3.069606463795821472e-01 6.962454370446156116e-01
4.344622757816971048e-01 3.879662391620631867e-01 8.128497574540041182e-01
4.435032639653804232e-01 3.717203937363335875e-01 8.155542923267335986e-01
-6.502107928316505081e-01 -3.014429267008643665e-01 6.973937817526435490e-01
4.467994547296333385e-01 3.564157047746955298e-01 8.205718083405371122e-01
4.452398286471119238e-01 3.544791214995875461e-01 8.222566797583167331e-01
4.471061400341937442e-01 3.563544971720636889e-01 8.204313328298533659e-01
4.457655013245713782e-01 3.517935254937268885e-01 8.231247981014472304e-01
-6.620031677022142347e-01 -2.971059171343716221e-01 6.880987428821375707e-01
-6.511194968784200787e-01 -2.965788076670903828e-01 6.986303826971458353e-01
4.478056577835550223e-01 3.399544216519959083e-01 8.269831219899802521e-01
4.526755336228122650e-01 3.226535367371524132e-01 8.312518008944758119e-01
4.526755336228122650e-01 3.226535367371524132e-01 8.312518008944758119e-01
-6.511806169454426030e-01 -2.830027894431301205e-01 7.041826647127576999e-01
-6.583562566579962416e-01 -2.797470041143044761e-01 6.987908506902061889e-01
-6.439122823544496388e-01 -2.899991759596301510e-01 7.080094989305009134e-01
4.636843667637197131e-01 2.928391192996617765e-01 8.362069470093673740e-01
4.514669477657831664e-01 2.957850691302396640e-01 8.418365565563584729e-01
-6.434980438929991386e-01 -2.769579870755314310e-01 7.135856927524214521e-01
-6.338338369355608348e-01 -2.801050405734474835e-01 7.209686771288279505e-01
4.557277372987555419e-01 2.641626244414763680e-01 8.500178452860551737e-01
4.483547643662244009e-01 2.654301889156427952e-01 8.535366542113547172e-01
-6.434511496743641201e-01 -2.695824216369743787e-01 7.164467432594580076e-01
4.818152703982827578e-01 1.924900506212499363e-01 8.548693617289475633e-01
4.540278656994954920e-01 1.944713416099004000e-01 8.695053734513700228e-01
4.310610076870716179e-01 1.959679869740600100e-01 8.807854198004988477e-01
-6.366094493775357188e-01 -2.621077025462089094e-01 7.252778510537728485e-01
4.514148725046110977e-01 3.869180869483884733e-02 8.914749333669274023e-01
4.227524205428548898e-01 2.510732113707116880e-02 9.058973525463452914e-01
-6.378790307901903711e-01 -2.498074934312341511e-01 7.284960935405015992e-01
4.166491996388690389e-01 -2.182184266144910623e-01 8.824874858751176054e-01
4.197231259416411286e-01 -2.799570770782446871e-01 8.633982467804662830e-01
4.264084261034017942e-01 -2.154252346913665961e-01 8.785031715401995234e-01
-6.381384904193722063e-01 -2.398536819405370502e-01 7.316074618980130673e-01
-6.269515030862830018e-01 -2.410246044817544453e-01 7.408366573086567763e-01
3.127829723041175014e-01 -4.997094391366329047e-01 8.077482829906563744e-01
3.735670737988699974e-01 -4.692934606615750681e-01 8.001320448236231009e-01
3.651386067560836723e-01 -4.403445336025468282e-01 8.202258771720027930e-01
3.724151681715089923e-01 -4.480828700947197540e-01 8.127291578647004577e-01
3.830265890439078502e-01 -4.386618451492353410e-01 8.129369088039105629e-01
-6.261784116562629787e-01 -2.302603774216190613e-01 7.449031852296600364e-01
2.997104817884592154e-01 -5.629877475359488237e-01 7.702067405771830799e-01
3.301523600870295838e-01 -5.597453722709515578e-01 7.600556146429141569e-01
-6.321582215189313070e-01 -2.115972631252609482e-01 7.453875375963303629e-01
3.042149310883688340e-01 -5.291233665998357205e-01 7.921374493236352787e-01
3.546386568506973980e-01 -5.843279498878538591e-01 7.299262086313869080e-01
-6.326280069539781392e-01 -2.084804270359958966e-01 7.458670902783728351e-01
-6.241516306004394332e-01 -2.078778109637559879e-01 7.531411273644067483e-01
2.073402151078811706e-01 -3.556585288715474191e-01 9.113270796151863307e-01
3.171270103686393838e-01 -3.817062555276567459e-01 8.681767065440676445e-01
3.623297156692560916e-01 -4.462498075271914555e-01 8.182776340735340437e-01
3.194316016794749857e-01 -5.814210843648481841e-01 7.482733287405675116e-01
-6.232425246491132276e-01 -1.881563793956836650e-01 7.590559481103531514e-01
-6.289527636816053535e-01 -1.831643558114752768e-01 7.555588923554787950e-01
3.774145673809455315e-01 -2.270595141536198569e-01 8.977762646455828000e-01
3.634921928794253576e-01 -2.230627805689730514e-01 9.044978837125849935e-01
3.809605399771932022e-01 -2.507919216942054996e-01 8.899283561013284771e-01
-6.286139900246672241e-01 -1.854512741878169557e-01 7.552829115287744699e-01
-6.189643023110150688e-01 -1.839230664859367315e-01 7.635807082941842294e-01
4.047290198775869707e-01 3.667176070386008943e-03 9.144293150859702513e-01
3.862859700800375107e-01 -2.655683187334188788e-02 9.219966832913095711e-01
-6.323178085106472279e-01 -1.726268755962566681e-01 7.552311903398635229e-01
-6.221536968110368271e-01 -1.733303637498903593e-01 7.634666741559129610e-01
-6.088517336234611221e-01 -1.696324266047164464e-01 7.749350981262245197e-01
4.013543943908486900e-01 8.558632485326908568e-02 9.119153640011039563e-01
4.038971048764987137e-01 8.827643743943222598e-02 9.105352268118925840e-01
4.038971048764987137e-01 8.827643743943222598e-02 9.105352268118925840e-01
3.992566279121027017e-01 6.932266692152691534e-02 9.142146973874045734e-01
-6.259329240351882984e-01 -1.618055265576615054e-01 7.629069053194872385e-01
4.024062238844388073e-01 1.100082908119250913e-01 9.088274901936591599e-01
3.978149928608967767e-01 1.123037319546537349e-01 9.105663639977824575e-01
4.004349179405495840e-01 1.028805831853958352e-01 9.105314174136872607e-01
-6.106721750304120455e-01 -1.481744147758785879e-01 7.778970609595151631e-01
3.995648248423018245e-01 1.288781755783964256e-01 9.076003341825764625e-01
4.100029650389597768e-01 1.221596156320002430e-01 9.038664707620829297e-01
-6.301867659540617561e-01 -1.403360890748489298e-01 7.636559579545861842e-01
-6.157654951732947080e-01 -1.431892448641536308e-01 7.748094572920628531e-01
-6.131432841774371312e-01 -1.393816534363672144e-01 7.775783354450219731e-01
3.920372539728346206e-01 1.584614325184255379e-01 9.061990763080967071e-01
4.076608666763696931e-01 1.569006446263728760e-01 8.995525584958889986e-01
4.294967025431435381e-01 1.457711565650350594e-01 8.912257583902400970e-01
-6.178054209194189239e-01 -1.306047155888397093e-01 7.754088406437845693e-01
3.865941377287285263e-01 1.815141292923194150e-01 9.042110337421414012e-01
-6.225701722978503883e-01 -1.179698679404080214e-01 7.736210253238645640e-01
-6.189054440150325576e-01 -1.185670538353779668e-01 7.764650057236023306e-01
3.783660204760044832e-01 3.294586488442165506e-01 8.650411280690039062e-01
4.134188863242602707e-01 3.642722176091714448e-01 8.345001952716997184e-01
3.974559305613942772e-01 3.684920327349966995e-01 8.403822969770402551e-01
-6.264517458741453160e-01 -1.130220116978623429e-01 7.712225586450409676e-01
4.009337121335588838e-01 6.757761083108372313e-01 6.185295545978899412e-01
-6.272604652150682858e-01 -1.065733481827010609e-01 7.714832663352491071e-01
2.058278415589138155e-01 9.462828796695427203e-01 2.493664197190884613e-01
2.288512842827252758e-01 9.508935982067621140e-01 2.083949485269352142e-01
1.551320463930887517e-01 9.836782993007791021e-01 9.116496951471894650e-02
-6.283574143975138027e-01 -9.495935532384169875e-02 7.721072986367578661e-01
-6.169743332346891984e-01 -1.006076344808842227e-01 7.805259611401604847e-01
1.887142606440687653e-01 9.711541103135562514e-01 1.457622099539091221e-01
1.887766115348619711e-01 9.718269319464084566e-01 1.411233690111123318e-01
1.971974466404388671e-01 9.705919869509418429e-01 1.380737553089436132e-01
2.008425408659815781e-01 9.698925509349729523e-01 1.377342129586818231e-01
1.988848223920164082e-01 9.710993562429618420e-01 1.319502471638494823e-01
-6.279962092155050302e-01 -9.868974716544906545e-02 7.719333488167067214e-01
-6.204898534190920190e-01 -9.977380641496150226e-02 7.778415837157482970e-01
2.784148414272321626e-01 9.410463895786214117e-01 1.921376296670969652e-01
2.774363984194621602e-01 9.339693300015016186e-01 2.252339571392018014e-01
2.934317848714654287e-01 9.328075045821951905e-01 2.092079038236460964e-01
3.114311137459341294e-01 9.117429230811769925e-01 2.678348438914509022e-01
-6.241396139487475070e-01 -1.006636735763017515e-01 7.748009854937152330e-01
4.369734551553271507e-01 8.130324238103119328e-01 3.847498893082941795e-01
4.735352054642138486e-01 8.037657580374738542e-01 3.601735906370839291e-01
4.415705000549554615e-01 8.111478826502416251e-01 3.834769953377208940e-01
-6.292598906032145223e-01 -1.064310030666602291e-01 7.698729971003366312e-01
-6.292598906032145223e-01 -1.064310030666602291e-01 7.698729971003366312e-01
-6.121232700984859942e-01 -9.862223055915800285e-02 7.845882728179616183e-01
5.992487067967369185e-01 6.011817996849988521e-01 5.286600336037747816e-01
5.963688690099240297e-01 5.218711014321707475e-01 6.099137033759752802e-01
-6.319739789757852222e-01 -1.089454056219050226e-01 7.672938084537059833e-01
6.694246703795847520e-01 3.402992608627524729e-01 6.603537110847856884e-01
6.471034486259933383e-01 3.509685096989085262e-01 6.768147693247197338e-01
6.556338144764449760e-01 3.451855539794335681e-01 6.715588095163209648e-01
-6.166891931419888895e-01 -1.168280361909341536e-01 7.784893377700510264e-01
6.645974354803532158e-01 1.900259799022251672e-01 7.226343305677753737e-01
6.908020600193105487e-01 -1.652029808674169292e-02 7.228551678062502539e-01
-6.317680615390370846e-01 -1.222211952804915791e-01 7.654613614307487213e-01
-6.161936695570809919e-01 -1.223001782754391670e-01 7.780411480066943275e-01
6.686914972887896269e-01 -1.153164554752059145e-01 7.345432570994793187e-01
6.509936946413655834e-01 -1.147383324846290159e-01 7.503614626270668220e-01
-6.392040675146878348e-01 -1.236141649807318554e-01 7.590373497324061081e-01
6.085299478647501203e-01 -2.702174156411968342e-01 7.461057906462844613e-01
6.232653312892276753e-01 -2.797603327439267540e-01 7.302564501844106548e-01
5.274840535364645477e-01 -4.730863328369419030e-01 7.056556489872624072e-01
5.525609852991513193e-01 -4.666929441781550447e-01 6.905606804470961757e-01
4.397859649714624397e-01 -5.984123543116133259e-01 6.696946761184172647e-01
4.254667772239810741e-01 -5.951461729377304222e-01 6.817470603649217198e-01
4.697917286358784805e-01 -5.690745148622686767e-01 6.748703047546147360e-01
-2.150169383260012446e-01 -1.978957146525810729e-01 9.563498326214402434e-01
-2.150169383260012446e-01 -1.978957146525810729e-01 9.563498326214402434e-01
-6.937105079591884271e-01 5.686793944073090940e-02 7.180054098756988301e-01
3.064775092059570105e-01 -2.971031757280894192e-01 9.043236363842297454e-01
4.946861126626321270e-01 -2.817158504190639401e-01 8.221446524556352831e-01
4.827066546115253431e-01 -2.950774674669880970e-01 8.245747836230612471e-01
-6.899222250003420598e-01 4.215770452433037496e-02 7.226548632644884673e-01
5.102460799386915324e-01 -1.937830281347914241e-01 8.379123318785258734e-01
-6.871760817945372635e-01 3.413182404133115883e-02 7.256886737417906907e-01
-7.121742480553698851e-01 3.052938120683286460e-02 7.013385753613560203e-01
5.371058306521808712e-01 -7.962051773303573110e-02 8.397487123153891675e-01
-6.872235556114346666e-01 2.950278087916392844e-02 7.258466577268047892e-01
5.568520860766699165e-01 1.455782489232586470e-02 8.304840901344622273e-01
5.380922965523524670e-01 1.662658099725956851e-02 8.427219216297607840e-01
5.359607652000359934e-01 -1.738305222395922917e-02 8.440639120715747179e-01
-6.826909394798720276e-01 1.228334418333507962e-02 7.306039971200289918e-01
-6.722873355550702534e-01 2.829995149250303862e-02 7.397491812755094820e-01
5.569776561601673670e-01 6.312455089404180042e-02 8.281251002190139765e-01
-6.725067117738053879e-01 6.734533241680959112e-03 7.400603817805683216e-01
5.550160815839196848e-01 7.813799934991358387e-02 8.281615797903357779e-01
5.650292111789015914e-01 9.270112910344566193e-02 8.198466266183538353e-01
-6.638197782052107643e-01 8.824917335111258669e-05 7.478925686725788058e-01
-6.672588557638923223e-01 4.615086492608830261e-04 7.448257557405139062e-01
5.638484412785784716e-01 1.108390726379082647e-01 8.184067663726186659e-01
5.638484412785784716e-01 1.108390726379082647e-01 8.184067663726186659e-01
-6.529823725485615071e-01 -3.823433986812622715e-03 7.573634546856615746e-01
5.675743720558378280e-01 1.150002842219685489e-01 8.152510452702822485e-01
5.577596055122006069e-01 1.138329649140688293e-01 8.221595213568632099e-01
-6.172097036499031297e-01 -7.090166326071063556e-03 7.867667451423371316e-01
5.668575488841504084e-01 1.237291646467703621e-01 8.144713703310053621e-01
-6.127149485536410589e-01 2.860732317989397519e-02 7.897860551310019739e-01
5.596754383388665710e-01 1.339970527086684904e-01 8.178069415122298791e-01
-5.867786564504202662e-01 4.253613680315889573e-02 8.086293869258666112e-01
-5.683218996633719877e-01 1.603091946013696437e-02 8.226501248916689990e-01
5.585468204732566555e-01 1.468764435883575803e-01 8.163655796627217187e-01
5.530232592488032450e-01 1.475234999518864332e-01 8.200012754208232391e-01
5.589130313119837767e-01 1.608641494346012557e-01 8.134733854628136696e-01
5.518403576797312748e-01 1.616827367426974804e-01 8.181264647200321427e-01
-5.089618022513355822e-01 4.896363047514923350e-02 8.593953960429189243e-01
5.370828594975517456e-01 1.821603738680860063e-01 8.236258860831003892e-01
5.468893811273460859e-01 1.840573187467099692e-01 8.167220507773257365e-01
8.381051006503558165e-01 4.244300706135934464e-01 -3.426936757846529291e-01
8.381051006503558165e-01 4.244300706135934464e-01 -3.426936757846529291e-01
8.365173200311537549e-01 4.297741227846015311e-01 -3.399014219926456137e-01
8.332530252097356538e-01 4.354923943593836388e-01 -3.406402360760612535e-01
8.300313007515280894e-01 4.388758699731656887e-01 -3.441453334392657326e-01
-4.829616118299739358e-01 5.176121690645055923e-02 8.741103236565491708e-01
-4.829616118299739358e-01 5.176121690645055923e-02 8.741103236565491708e-01
8.298357315196399631e-01 4.399796938886055275e-01 -3.432062465325373402e-01
8.291333097269629748e-01 4.378092364463672670e-01 -3.476507258491791097e-01
8.210859668566536929e-01 4.405885299244109987e-01 -3.629043707784748163e-01
8.189362828239237224e-01 4.303068335654899879e-01 -3.797096175518550609e-01
8.175888963155972800e-01 4.455677626136028691e-01 -3.647160066969252767e-01
7.965066084476448705e-01 4.436534181079643258e-01 -4.107905394484516748e-01
7.823210458032312520e-01 4.502023045611083241e-01 -4.304551849626224724e-01
8.531756517252687688e-01 5.147663103020703179e-01 8.430274658132562438e-02
8.356326153372896082e-01 5.454924257098145990e-01 6.446817569765635192e-02
8.258163502261858246e-01 5.598716701209308644e-01 6.760967900457193203e-02
8.141563117783148229e-01 5.770728118409196306e-01 6.431539337939411183e-02
-3.895930288336275221e-02 1.820779161981068983e-01 9.825119872814771504e-01
-1.439570613481582217e-01 2.100098292817839662e-01 9.670430373530634061e-01
-1.266357400388632148e-01 2.025977595847867352e-01 9.710394107120650098e-01
-6.999876025557275061e-02 1.985911389136634508e-01 9.775795277662359117e-01
-3.109920460623968874e-02 1.837723364932852821e-01 9.824767517924573035e-01
-6.762647213681348413e-02 1.188772584019276712e-01 9.906032796741438551e-01
-1.432324751392029250e-01 2.222858565778569606e-01 9.644031605251747186e-01
-1.126121483217009528e-01 2.079650244202029263e-01 9.716321591365096877e-01
-9.608157806089726027e-02 2.083921054981728582e-01 9.733144716500244931e-01
-3.093900313073011388e-02 1.911936536678456033e-01 9.810646079042995016e-01
1.053764653712835168e-02 1.721303414987001013e-01 9.850178188951707048e-01
3.099521610606853494e-02 1.640695219505576286e-01 9.859617074437798667e-01
