-3.414304355753776388e-02 1.072074810165992292e-01 9.936502445985224696e-01
5.019508047330602241e-02 8.141289634512982598e-02 9.954156891495007375e-01
9.555149476796886976e-02 8.312153942123770567e-02 9.919479429545939864e-01
1.620511214639338560e-01 6.700224372742645540e-02 9.845050194731218562e-01
-2.733664889470305281e-01 6.977324976658372258e-02 9.593760765923774469e-01
-2.407476532044924011e-01 7.495575700858754520e-02 9.676891039831951868e-01
-1.429298913412344052e-02 7.201065463104448783e-02 9.973014469463182818e-01
5.041651408015296321e-02 7.051470070283719083e-02 9.962358416021755980e-01
1.121900170524093993e-01 5.152815740044269788e-02 9.923498622304006700e-01
1.634598700453906983e-01 3.720693295960163932e-02 9.858481196535719970e-01
-2.996622244360808152e-01 4.326321258219954086e-02 9.530639252868021716e-01
-2.702651023323495161e-01 3.931383910593323067e-02 9.619829502210719419e-01
6.733082748344035307e-02 3.406299174628903137e-02 9.971490722372894355e-01
1.357727925827166560e-01 2.698948795268146794e-02 9.903723119788551132e-01
1.678734871964626396e-01 1.131464765734024186e-02 9.857436132407296769e-01
1.613454518834298024e-01 1.651152055038993677e-02 9.867598567258630826e-01
-2.639592233498041507e-01 -7.551586072261969463e-05 9.645338369937690448e-01
-2.572211472613476491e-01 8.344556576099377773e-03 9.663165370504142038e-01
-2.257583390039347992e-01 -5.335348677047116461e-03 9.741687258502395030e-01
1.463808309894320259e-01 -6.438628365849642307e-03 9.892073576271103175e-01
1.680367838412774872e-01 -1.321278982508931714e-02 9.856921737851619403e-01
-2.447540284076618888e-01 -3.413469355339468492e-02 9.689841527466985793e-01
1.733691423059699199e-01 -2.387244603181804675e-02 9.845675430444323917e-01
2.031099508601519332e-01 -1.579135360961861356e-02 9.790285904981339549e-01
-2.186928200002012934e-01 -8.643193930828418914e-02 9.719583171863744875e-01
1.600215432902310220e-01 -4.959941793722003056e-02 9.858666255753369967e-01
1.825554972700731970e-01 -2.524460135275869224e-02 9.828714058914403973e-01
2.274757725862212587e-01 -1.917673732454622249e-02 9.735948981131152813e-01
-2.222752041181235982e-01 -1.040543105641702770e-01 9.694155115776009746e-01
-1.921340799164853730e-01 -1.042286884805879166e-01 9.758180546763122187e-01
-1.999732885147982586e-01 -9.620758084411669409e-02 9.750665542765273308e-01
-1.414694947822652815e-01 -1.063267366541227471e-01 9.842159352085980695e-01
-8.492130973461724242e-02 -1.084609704879182374e-01 9.904668540813347244e-01
-3.683086885006443129e-02 -1.055649712517679473e-01 9.937301061879743047e-01
1.600392656506486877e-01 -4.512955602520286186e-02 9.860784738665422378e-01
1.380926144040549586e-01 -6.257196324545866162e-02 9.884407818694359582e-01
1.741756970699517570e-01 -3.850054761918107055e-02 9.839616529028046843e-01
1.943601329292308777e-01 -4.027452736203364358e-02 9.801031074195696302e-01
-2.241564712806980997e-01 -1.062429404521700593e-01 9.687447104304942602e-01
-1.438983280169431334e-01 -1.104278745649364818e-01 9.834118952468487995e-01
-8.909700090594624422e-02 -1.096323177763161016e-01 9.899709487295870192e-01
-4.514529195599030487e-02 -1.000638705932163641e-01 9.939562990474543058e-01
3.201997517874415923e-03 -8.312902306830727284e-02 9.965336485716899118e-01
1.372963634352913076e-01 -7.492116106446437829e-02 9.876925271622727376e-01
1.659855447501231429e-01 -5.450933837703395013e-02 9.846205009869045677e-01
1.881790495917134431e-01 -4.716417028627716695e-02 9.810016240231034246e-01
-1.877783665256655132e-01 -1.226630015192610307e-01 9.745219715959403395e-01
-1.436752125049939877e-01 -1.208902232107254560e-01 9.822133104594469311e-01
-8.883029708781271794e-02 -1.149549138963576744e-01 9.893909975790016187e-01
-4.541113768746095347e-02 -1.151671389964697423e-01 9.923075927701542343e-01
3.623071363873626386e-03 -1.057093632387407500e-01 9.943904685170470437e-01
9.812824795980630566e-02 -5.078274289857696161e-02 9.938772358677079310e-01
1.281227317397878318e-01 -7.854378847744110381e-02 9.886432313545394646e-01
1.622093480642376184e-01 -6.453130905357536140e-02 9.846440156485017914e-01
2.105649524442808063e-01 -6.280384717978973463e-02 9.755603915604381671e-01
-1.873740242048421156e-01 -1.253981290813172278e-01 9.742516534634100278e-01
-8.651921317369143383e-02 -1.377268574457959638e-01 9.866842141688042522e-01
-1.054194094213686816e-02 -1.062477533593727402e-01 9.942838037438095355e-01
1.148102264551107282e-01 -7.504252823136096928e-02 9.905489542965414396e-01
2.300455622268237632e-01 1.083850533925863197e-01 9.671254931501034324e-01
1.891059545381985618e-01 -7.733552011544912730e-02 9.789066121375775698e-01
-9.861799277002100683e-02 -1.425705479272480480e-01 9.848594470104534704e-01
-6.945488406609104381e-02 -1.308119514022828278e-01 9.889713102257784438e-01
-6.938582280583344142e-02 -1.308769637107651262e-01 9.889675565777719113e-01
-3.318539810928189393e-02 -1.162882247578569533e-01 9.926609583009672333e-01
1.927214382734802889e-01 -8.246132891821374156e-02 9.777824791142676331e-01
2.040978869877052015e-01 -1.069365120375789235e-01 9.730923054471197764e-01
-6.965746113118213845e-02 -1.344761855171034137e-01 9.884654741757687990e-01
-3.045576429503527027e-02 -1.358908122823083986e-01 9.902555900162642866e-01
2.641410484546457410e-02 -1.264944954256046195e-01 9.916155695087862654e-01
1.286272177418447682e-01 -1.220767943602368011e-01 9.841505449547444107e-01
-8.030780200960044302e-02 -1.374577070451769578e-01 9.872466944539591838e-01
-2.987434931572532579e-02 -1.392455357805889304e-01 9.898071549641065392e-01
-2.987434931572532579e-02 -1.392455357805889304e-01 9.898071549641065392e-01
8.569129369645199501e-02 -1.384713499403843751e-01 9.866522626692323383e-01
1.314102446809966296e-01 -1.260831726493257254e-01 9.832773673626180599e-01
-7.959049334105272600e-02 -1.501475175724830136e-01 9.854547561083405460e-01
2.024407914519332427e-02 -1.424190313913873407e-01 9.895994122659441672e-01
2.578405413965218981e-02 -1.350400654172513315e-01 9.905046003347123262e-01
-4.502547448065798846e-02 7.557778809674046139e-01 6.532782724752228543e-01
-4.249441608436450163e-02 7.543005713054155015e-01 6.551525568369346297e-01
-2.327741012308037760e-02 7.432733802731016359e-01 6.685827131741882701e-01
-2.604123474919801950e-02 7.471493321194608850e-01 6.641458647060753950e-01
-3.283361794505743753e-02 7.517281222261847917e-01 6.586552844902497927e-01
-3.779746943347703919e-02 7.545314939509520924e-01 6.551744622164157317e-01
-4.319994798513108331e-02 7.543275396832878066e-01 6.550753600689313005e-01
-4.460949818565961011e-02 7.558198544816316922e-01 6.532582492728193913e-01
-2.656762927289798085e-02 7.480648665417649612e-01 6.630935955961789752e-01
-1.458420018149574060e-02 7.425501003442739334e-01 6.696317268348138674e-01
-2.408756443617585466e-02 7.481064554173328940e-01 6.631414031731448500e-01
-4.029674360863017327e-04 7.352211356109985552e-01 6.778272046533092565e-01
1.550707635346657010e-02 7.275618758688249255e-01 6.858667854366503613e-01
3.071269786416796349e-02 7.194677453905714559e-01 6.938464480938937307e-01
1.719922852647517292e-02 7.275378413530667610e-01 6.858519344125334483e-01
3.067528989349925170e-02 7.194687085620532496e-01 6.938471041879479273e-01
5.291072499183093608e-02 7.047072466005963598e-01 7.075225450608942923e-01
5.397408321002173520e-02 6.951298099625472515e-01 7.168551775938224457e-01
5.961924856890789964e-02 6.887731001742751769e-01 7.225213918469104435e-01
7.484621753570373792e-02 6.713027567363102355e-01 7.373945026367015876e-01
8.329367149687848249e-02 6.708814513658890588e-01 7.368719308684299474e-01
-3.428170357942386670e-01 4.670243372973841289e-01 8.150857306695971083e-01
-4.939310266066138100e-02 6.783967635612411229e-01 7.330335276091992647e-01
-4.440806833877606469e-02 6.784974607829712401e-01 7.332592441814007600e-01
-2.971649756002787968e-02 6.888535922859529981e-01 7.242911418535384893e-01
-1.683386789659740632e-02 6.969910720209975263e-01 7.168821844729165171e-01
-1.605352751059763855e-02 7.019168001390123646e-01 7.120780083228778201e-01
-4.663995604940696267e-03 7.171715223532150185e-01 6.968810907684102052e-01
-1.335857012222800219e-02 7.171070977834266280e-01 6.968349581593339392e-01
-9.328461010505920484e-03 7.306027821692264723e-01 6.827390090669795963e-01
-1.450879500947865192e-02 7.360192802745466611e-01 6.768050782400435450e-01
-3.443572773236818624e-02 7.412212111241627266e-01 6.703769811346236285e-01
7.407322306113418853e-02 6.845432361149914602e-01 7.251990868130974155e-01
8.082847077351998366e-02 6.776332311434779543e-01 7.309445685976905249e-01
8.345464060136233153e-02 6.702703203099108498e-01 7.374096695011170821e-01
9.596953357052279143e-02 6.639492129525355057e-01 7.415937508137221412e-01
9.045620289021767679e-02 6.510048514215730497e-01 7.536646195651346414e-01
1.030286902265438315e-01 6.586125450051524277e-01 7.453956027184752697e-01
9.869012691242955160e-02 6.449162536415491420e-01 7.578543954078232892e-01
-4.260972739775990559e-01 2.688521292358089232e-01 8.638053285979606644e-01
-4.183342713750267117e-01 3.423377399828394507e-01 8.413092827115170591e-01
-1.891995376549785446e-01 4.792653032754988218e-01 8.570345990841832240e-01
-1.753077743383499310e-01 5.900554267733866265e-01 7.881001063264809758e-01
-1.253925031749443253e-01 5.503174574538584052e-01 8.254861695807158561e-01
-6.458636968449411875e-02 6.357470758912883158e-01 7.691906501945108277e-01
-3.709099644335113466e-02 6.921749708840437831e-01 7.207760176812991748e-01
-2.735262783775628190e-02 6.997960537804862602e-01 7.138188263583611359e-01
-1.886742075208970928e-02 7.045185932027215880e-01 7.094346849892677609e-01
-2.183101697208160788e-02 7.129453089144581757e-01 7.008797280524187157e-01
-2.163603001145759930e-02 7.273501697650882614e-01 6.859253696635229103e-01
1.065257496218678795e-01 6.507652459295349967e-01 7.517691529703590669e-01
1.143069462008301646e-01 6.383666685138390529e-01 7.611976869255338007e-01
1.088286242339238929e-01 6.387739199748290186e-01 7.616588538888930948e-01
1.121933948016474447e-01 6.373505005474201512e-01 7.623627624791460278e-01
1.213323341605728051e-01 6.303371890782683007e-01 7.667812548256867089e-01
1.164415567834606591e-01 6.254103339396303030e-01 7.715589919477084946e-01
1.235434921468647335e-01 6.246021279790279213e-01 7.711090631501017478e-01
1.326214980665349485e-01 6.191512052202570171e-01 7.739918108900709637e-01
-5.367028667785169738e-01 1.412308727261098185e-01 8.318677018497249165e-01
-4.648167557760711777e-01 2.070209189968328922e-01 8.608645204952489749e-01
-4.463674989116642178e-01 1.709388316061834501e-01 8.783712038565801850e-01
1.403657428427085574e-01 6.119466557624000380e-01 7.783435929828350641e-01
-5.836460063817530131e-01 -7.279306550596405245e-02 8.087388384694254029e-01
-5.947700093284621348e-01 1.235091250342807215e-02 8.038010269735623714e-01
1.553187757801306745e-01 6.009713409611573409e-01 7.840341352476368764e-01
1.607165174549366748e-01 5.945349135321054135e-01 7.878441708920165265e-01
1.660857182020096801e-01 5.923977972206857512e-01 7.883402717465358700e-01
-6.167705603429755046e-01 -2.131745290139834270e-01 7.577273230350600741e-01
1.735326417681554434e-01 5.824373452432504150e-01 7.941367395524273620e-01
1.791120774791210846e-01 5.837933821686573932e-01 7.918990785682182842e-01
1.714177271080414011e-01 5.762832267973981848e-01 7.990704633166537674e-01
1.829278302557680314e-01 5.753586110088246830e-01 7.971824619595647698e-01
1.890986301954728777e-01 5.664736858858984148e-01 8.020905630021091248e-01
1.985477920830479026e-01 5.494296400422180593e-01 8.116069522262765457e-01
-6.312533508965928464e-01 -2.808096063359878380e-01 7.229558575537311516e-01
-6.520112995960940516e-01 -2.586832242569219731e-01 7.127161108653680133e-01
-6.202914470612612696e-01 -2.374486382225393932e-01 7.475671641457428684e-01
1.839122790886354164e-01 5.677281208712762206e-01 8.024095303349739750e-01
1.950662476751444940e-01 5.515486201303230196e-01 8.110137351797908067e-01
2.130013748796167061e-01 5.398731323002498028e-01 8.143509165708048281e-01
2.162619790559534294e-01 5.394446635220905284e-01 8.137752831171150003e-01
-6.376173183722928517e-01 -3.287624745608274113e-01 6.966773935132153373e-01
2.205531662996700060e-01 5.246995644530926262e-01 8.222205713176512498e-01
2.262631364242846388e-01 5.199273004055331437e-01 8.236993355517898685e-01
2.402092120659902463e-01 5.170073476239882559e-01 8.215856236214487129e-01
-6.411288142920141819e-01 -3.473469991118808275e-01 6.843273381156763646e-01
-6.424240044344782241e-01 -3.423245860376860628e-01 6.856422363889904670e-01
2.446322301783163122e-01 4.974969645051543488e-01 8.322570770297723630e-01
2.529554223212674979e-01 4.934528522536508199e-01 8.321765659528064241e-01
2.482811280659908693e-01 4.905727518822937117e-01 8.352813038473401175e-01
2.611382509241710892e-01 4.845553147664085625e-01 8.348730207857307795e-01
2.648023382841516726e-01 4.842099698642277628e-01 8.339187170961743778e-01
-6.406836710615747554e-01 -3.478753790505137999e-01 6.844758244711972583e-01
2.716624022182262954e-01 4.808995155667171728e-01 8.336277317536403553e-01
2.643278297379151875e-01 4.728925301550439553e-01 8.405375978203500908e-01
2.674605260029631615e-01 4.685375874194974699e-01 8.419842018739632783e-01
-6.339243727075590806e-01 -3.555400190594341647e-01 6.868268956109281342e-01
-6.256789167771343863e-01 -3.554208909303819275e-01 6.944075772850157868e-01
2.750908285767212358e-01 4.526500197724702690e-01 8.481939610920105066e-01
2.752710001024820108e-01 4.541147925762917814e-01 8.473521296757156041e-01
-6.271395010466120912e-01 -3.546875959771322862e-01 6.934643145014522947e-01
2.911343884250703895e-01 4.239535235560586424e-01 8.576154019960010588e-01
2.860327132232718950e-01 4.308841275985171304e-01 8.558762501377161769e-01
2.953115143488480587e-01 4.165128281500585228e-01 8.598303166784885265e-01
2.981668701603909510e-01 4.150119398249342839e-01 8.595705947398978308e-01
-6.137094269392258106e-01 -3.533457507764130034e-01 7.060506495246499092e-01
3.061027266474771746e-01 4.006770217832976155e-01 8.635734160763904876e-01
3.022247537380273741e-01 3.966682212986983314e-01 8.667840102584469797e-01
-6.121384119697774739e-01 -3.516025220210267088e-01 7.082811808170342838e-01
3.022556874953880035e-01 3.799010637672847746e-01 8.742520695572736367e-01
3.042181426687546875e-01 3.820727874607205976e-01 8.726234621835287086e-01
-5.982515440298671328e-01 -3.349448206440480691e-01 7.279471527450371848e-01
2.988561410303099963e-01 3.640770722699983031e-01 8.821184117882234776e-01
-5.964045059300164819e-01 -3.427958035886423116e-01 7.258048652002753176e-01
-5.777555076699451009e-01 -3.513272477951335238e-01 7.367277233237126133e-01
3.123412895888204033e-01 3.417908167707235378e-01 8.863531781345368454e-01
3.038096751156911246e-01 3.448382222166365141e-01 8.881364094577858248e-01
-5.819702697478156272e-01 -3.458038413935127231e-01 7.360233069727785127e-01
-5.472258709119761644e-01 -3.508733006400239773e-01 7.598893163498251502e-01
3.100138244986814784e-01 3.200939018339212794e-01 8.952269671030006482e-01
2.954742868044824000e-01 3.222550268704562626e-01 8.993590181313043663e-01
2.892329550838512731e-01 3.204693828928817378e-01 9.020219910410822717e-01
2.671707527994829356e-01 3.109563937779373233e-01 9.120997259166225835e-01
2.446187359485988144e-01 3.064380345490813617e-01 9.199224994555822432e-01
2.423077977627335622e-01 3.171746769134437538e-01 9.168899363981627415e-01
-5.542670252899249972e-01 -3.326979680564629005e-01 7.629548654588673706e-01
3.023668404871260318e-01 2.915166503134378195e-01 9.075198820763463736e-01
2.707338822260357825e-01 2.770464295968279034e-01 9.219264834369761408e-01
2.525529074507634197e-01 2.959740999396078265e-01 9.212037565615466272e-01
2.548590640057866175e-01 2.658200103433125405e-01 9.297239265476475722e-01
2.366306493676896272e-01 2.671023443525117891e-01 9.341639435458947149e-01
2.229725822700724114e-01 2.482951198449438734e-01 9.426731994795444214e-01
1.810685916308019672e-01 2.123328359464739246e-01 9.602754458507024582e-01
2.227750580398687175e-01 2.329891007405894832e-01 9.466189056063821772e-01
-5.253757912173966371e-01 -3.371261089429481439e-01 7.812338092221059460e-01
2.693367178168614706e-01 2.550113731715040188e-01 9.286694417223085862e-01
2.748625313973089290e-01 2.366215343492029111e-01 9.319124627968511376e-01
2.595535709173714123e-01 2.193993960338090077e-01 9.404763946235125127e-01
2.426262408836508955e-01 1.773856052913796166e-01 9.537645696240134585e-01
2.429413195699631767e-01 1.509856870164571763e-01 9.582185750452625328e-01
-5.241629520611272852e-01 -3.188470229550342538e-01 7.896770071613307129e-01
-5.241629520611272852e-01 -3.188470229550342538e-01 7.896770071613307129e-01
2.535085924731869667e-01 6.988859591479706923e-02 9.648051501227188353e-01
2.641227021594243496e-01 3.142911465003822569e-02 9.639768715878607175e-01
2.641227021594243496e-01 3.142911465003822569e-02 9.639768715878607175e-01
2.459334328580354556e-01 5.004713957087009862e-02 9.679938173477328212e-01
2.606903106502437839e-01 1.155477970463903575e-02 9.653533285792599283e-01
2.562850606640157403e-01 -5.105476608809874977e-04 9.666011106043318479e-01
2.454198437201395855e-01 -1.329109986042526295e-02 9.693257692710343099e-01
2.336570073775707246e-01 -7.005756874839864532e-04 9.723188325323458558e-01
-5.442552372949585049e-01 -3.096801362749656561e-01 7.796694491088689283e-01
-5.261043525622421946e-01 -3.095488001760486885e-01 7.920819089744649544e-01
2.467234896103236430e-01 -1.334150359780098272e-01 9.598582957132218985e-01
2.527228415507510317e-01 -1.688002070518739572e-01 9.527001918010504777e-01
2.392747296481631258e-01 -1.514169574909120242e-01 9.590727338090651033e-01
-5.268113317077007807e-01 -2.926919772465066405e-01 7.979982626797437195e-01
-5.075239273549219110e-01 -2.967856348374526276e-01 8.089114599981670484e-01
2.607364156513578002e-01 -3.815984921629800852e-01 8.867914706018672488e-01
2.600403030707711394e-01 -3.823063175220277610e-01 8.866909948576267020e-01
2.600403030707711394e-01 -3.823063175220277610e-01 8.866909948576267020e-01
2.449834627299402046e-01 -3.569839139204514789e-01 9.014131062897209334e-01
-5.071065357438950816e-01 -2.853125446511685648e-01 8.132894400338054330e-01
2.956339243524399030e-01 -5.534802885458932620e-01 7.786270949325682089e-01
2.509954059862389286e-01 -5.325897497920254464e-01 8.083003554312412353e-01
2.515210749513242527e-01 -5.330695541471586196e-01 8.078205241863319896e-01
2.535594177477839550e-01 -5.489547190591762549e-01 7.964649007295084848e-01
-5.113017817142910815e-01 -2.664096599076524741e-01 8.170657140791556250e-01
-5.006247651438862079e-01 -2.686804667196718843e-01 8.229129062834827923e-01
2.519902488880516600e-01 -5.745521683474668073e-01 7.787109350154022280e-01
2.593501065603364131e-01 -5.821100653957800297e-01 7.706396005864627474e-01
2.611330470356115208e-01 -5.919971776749834991e-01 7.624623750525341137e-01
2.556906275994072497e-01 -6.045862371940917690e-01 7.543857002577067927e-01
2.396702668217338406e-01 -6.064211716091377768e-01 7.581632580294297430e-01
-5.312025558220767607e-01 -2.471500784894994640e-01 8.103953870739440957e-01
-4.976560696092047764e-01 -2.456633929730988875e-01 8.318581211565244660e-01
2.849580438831946227e-01 -4.663830238761395575e-01 8.374280794590134303e-01
2.658193311374243417e-01 -4.939884714319749959e-01 8.278378303061253440e-01
3.056499224903070910e-01 -5.257925172918189727e-01 7.938012053666847478e-01
-5.076751216047400428e-01 -2.272816103614822003e-01 8.310289047290134734e-01
-4.908718355398168920e-01 -2.228105569269018260e-01 8.422590437601099600e-01
-4.960864380014461950e-01 -2.271785635479753040e-01 8.380263398577133538e-01
1.930410101598950268e-01 -2.546677332908375280e-01 9.475650447420240763e-01
3.021297058088081022e-01 -3.094053789880956695e-01 9.016573364206138530e-01
3.574741646415293683e-01 -3.568476231235769291e-01 8.630596708715420062e-01
-4.961014658162691826e-01 -2.043487317751616628e-01 8.438749501181037616e-01
-2.016809146788193507e-01 -7.393343073770339835e-01 6.424247742651557624e-01
1.822257636394865876e-01 9.671304605745409400e-02 9.784888133179115988e-01
2.724735038434013545e-01 -7.017381023382127103e-02 9.596008681011952701e-01
3.182172148534537226e-01 -1.124440783949469669e-01 9.413257318297538756e-01
3.432467096760091207e-01 -1.574510438285743330e-01 9.259540296871577869e-01
-5.022981817414970962e-01 -1.934161834413345438e-01 8.427850951471400620e-01
-4.953167827764908826e-01 -1.893161254894234757e-01 8.478329371577983942e-01
-4.912179656453696253e-01 -1.846358713354219194e-01 8.512429178815140718e-01
3.981011393133808696e-01 -1.354994973883220100e-01 9.072791020876100898e-01
1.631277623851380421e-01 -2.198902111288628392e-01 9.617887648485616836e-01
5.895310898914852410e-02 -5.843620676038764339e-01 8.093488153362777826e-01
2.102367028182929726e-02 -5.344517471792996632e-01 8.449374741511201936e-01
2.102367028182929726e-02 -5.344517471792996632e-01 8.449374741511201936e-01
2.171146447729416784e-01 -3.076546268237889126e-01 9.263961688279126472e-01
2.171146447729416784e-01 -3.076546268237889126e-01 9.263961688279126472e-01
-2.024097448846580993e-01 -5.064638823239215881e-01 8.381674242519262519e-01
-7.394495064224669567e-02 -4.752013921636024651e-01 8.767643817812684759e-01
-3.205826798835305080e-01 -2.684720638911696766e-01 9.083773974889013392e-01
-7.727420570486850937e-02 -4.755933229339963098e-01 8.762646223106814736e-01
-2.545064670110901428e-01 -2.144549248917514694e-01 9.429928649990975131e-01
-3.531601364146262356e-01 -2.664125197236563714e-01 8.968290179192993650e-01
3.084182093195396157e-01 2.782546267319377722e-02 9.508438104058686280e-01
2.836171521849744637e-01 5.572351202988749114e-02 9.573171894380357871e-01
3.339629803570718924e-01 1.520138060704242372e-02 9.424636044848956340e-01
3.525939379816406261e-01 2.889251581655778375e-02 9.353302825357409089e-01
-4.992611877886243277e-01 -1.680525844925514767e-01 8.499979971819145996e-01
-4.732920486499896939e-01 -1.624937803847189832e-01 8.657888934497708355e-01
4.556264577786600101e-01 -1.773423066959374517e-02 8.899943977546311835e-01
4.398945801739619355e-01 -2.072669438883914875e-02 8.978102040371813697e-01
1.842342245995319538e-01 -2.375597225018842573e-01 9.537416467424691957e-01
-1.698738226892357317e-02 -1.950626372375762752e-01 9.806436643335697534e-01
-2.781137057720181049e-01 -2.140013288501928512e-01 9.364060005745943327e-01
-4.193919713801466664e-01 -1.035908255652390614e-01 9.018754432850395464e-01
-4.107523495094044241e-01 2.760402880698918648e-02 9.113289883275561554e-01
-4.249354887523409396e-01 5.596777853385807161e-02 9.034918030423930713e-01
-4.108895338052167556e-01 5.362561834991803195e-02 9.101066333490382965e-01
2.803790937246894432e-01 1.072568021579801828e-01 9.538781589872816769e-01
2.972706533424521735e-01 9.664087391327494392e-02 9.498898357970938511e-01
3.065817340200411856e-01 9.929681535683171356e-02 9.466508241296025528e-01
-4.893474745274481452e-01 -1.601516289190753339e-01 8.572575487729315880e-01
-4.886334852537037587e-01 -1.545097058536114287e-01 8.586990554820989052e-01
4.629452693613794190e-01 1.766626414132079978e-02 8.862107992386512034e-01
4.579981428946744426e-01 1.155479288709115177e-02 8.888780500531925366e-01
-3.698246623767235119e-01 1.378970798157785338e-01 9.188112507344602387e-01
2.821664279360666661e-01 1.319465183775581085e-01 9.502485060413623508e-01
2.960674119927239056e-01 1.311560008693916923e-01 9.461195437109831685e-01
3.074890213178842480e-01 1.289773587309446246e-01 9.427700370205657210e-01
-4.952481900015910932e-01 -1.453986353625057737e-01 8.564977916695810656e-01
-4.896213879603949493e-01 -1.394203224461871560e-01 8.607164865045501267e-01
4.624772307115668224e-01 4.219669694659832632e-02 8.856264730913123717e-01
4.596158456444550677e-01 4.207576818570955834e-02 8.871205691246906166e-01
4.534604053674750612e-01 4.867626271719920766e-02 8.899462243370952486e-01
-4.289836726241252896e-01 1.272402974886722160e-01 8.943058287392022798e-01
-4.220007912020747876e-01 1.317989873819013502e-01 8.969639675872872475e-01
-4.057188966379061124e-01 1.380364967466196913e-01 9.035143067361138813e-01
2.825578652463727192e-01 1.504102058208043324e-01 9.473847279602707339e-01
2.882769935256129235e-01 1.441909012692205172e-01 9.466284165368181736e-01
2.970666296527829653e-01 1.402856914681229195e-01 9.444952844329330688e-01
3.065335983409307463e-01 1.508292818321818329e-01 9.398338580994777258e-01
-5.040496515518009257e-01 -1.251878741772059767e-01 8.545536524581122118e-01
-4.991338342564730080e-01 -1.182347521516359939e-01 8.584206188600510545e-01
-4.991338342564730080e-01 -1.182347521516359939e-01 8.584206188600510545e-01
4.410777869115657945e-01 5.588548403669190562e-02 8.957271898112617592e-01
4.482076048843203764e-01 7.159070662524165407e-02 8.910581988000332299e-01
4.532398511881682301e-01 6.555413513827419714e-02 8.889748549094063090e-01
-4.349447084856881696e-01 1.488212198998080660e-01 8.880739524768378468e-01
-4.296528948467559506e-01 1.589823571587731799e-01 8.888886319793063429e-01
-4.214533492715781260e-01 1.488201362364265645e-01 8.945555552554242951e-01
-3.797281591068985551e-01 1.615453464509684356e-01 9.108839806590752763e-01
2.867848798668967691e-01 1.900604426356254095e-01 9.389523208474858107e-01
3.104496037034603084e-01 1.823564496993285433e-01 9.329347076904260794e-01
3.039351093891479172e-01 1.892880671974353224e-01 9.336988148740823501e-01
3.444513133401803651e-01 1.848092104620542020e-01 9.204340543822880916e-01
-5.086340593863767356e-01 -1.011385203064329164e-01 8.550218671720396513e-01
4.369621325121467170e-01 1.045735945604342881e-01 8.933803546480899582e-01
-4.220622292125204567e-01 2.219861956364343469e-01 8.789684884107167306e-01
-4.370224030481910105e-01 2.089900993080550662e-01 8.748340171856566760e-01
-4.250774805050934746e-01 1.989153569661523679e-01 8.830299068154315867e-01
-4.112412487081033574e-01 1.844233830060128809e-01 8.926749974999956816e-01
-4.273826285693732574e-01 1.983758524040405147e-01 8.820380433859434932e-01
-4.273826285693732574e-01 1.983758524040405147e-01 8.820380433859434932e-01
-3.815327216507580221e-01 1.825276364308396626e-01 9.061547573393500254e-01
2.952605474615963566e-01 2.424698687637110439e-01 9.241372040202618932e-01
-5.087976942385561419e-01 -9.763700819347320703e-02 8.553314684778973165e-01
4.329865885144998927e-01 1.650317602407603557e-01 8.861642806378574599e-01
4.482279300236527986e-01 2.102241872839624715e-01 8.688483836823942541e-01
3.656929061610870724e-01 2.688660654945968509e-01 8.910554063631024313e-01
2.558360663122895562e-01 4.288425835015154397e-01 8.663959520621040689e-01
-1.451590188355987854e-01 4.921336942482985588e-01 8.583316877735601702e-01
-3.983653453418168344e-01 4.189082778016661179e-01 8.159784962975047407e-01
-4.248523529414494626e-01 3.930189851940237844e-01 8.154977348081193789e-01
2.999005480109926403e-01 4.809672575133189243e-01 8.238508108285280684e-01
3.569928463182641121e-01 4.786092654207827479e-01 8.021778348539450043e-01
3.453235635191245212e-01 5.794007414992647931e-01 7.382725900563797961e-01
-5.420066129490653806e-01 -7.977330603734313075e-02 8.365793752916421688e-01
-5.250541955444764097e-01 -6.658720329724225617e-02 8.484599201483794539e-01
3.384235367366649760e-01 2.878539245485774445e-01 8.958848295984417343e-01
1.917801408582537337e-01 4.946560173291106310e-01 8.476649114434848808e-01
3.611563998064373227e-01 3.378297960803754441e-01 8.691588368987251956e-01
8.616084242128208004e-02 6.160326121335129024e-01 7.829943358806729092e-01
-5.370420903049312467e-02 6.964633450424833061e-01 7.155799514691870700e-01
6.603012119820986237e-02 6.150374120602877248e-01 7.857283276430433450e-01
-1.331337966184134303e-01 6.764643786455505348e-01 7.243420025248130667e-01
-1.331337966184134303e-01 6.764643786455505348e-01 7.243420025248130667e-01
-1.426934040391617531e-01 6.811625204107102372e-01 7.180920645930055635e-01
-2.375775368146694766e-01 6.276013928240065098e-01 7.413996261979375335e-01
-2.375775368146694766e-01 6.276013928240065098e-01 7.413996261979375335e-01
-3.085432704840154750e-01 6.610849874795278192e-01 6.839354425442655261e-01
-3.676519780121386138e-01 5.667218852139551677e-01 7.373318980508726250e-01
1.693021679054689810e-01 8.372732666263680290e-01 5.199136975838578589e-01
2.520064015890599585e-01 9.056538368220297119e-01 3.410042542369078888e-01
2.000376071705079195e-01 9.399479306011012669e-01 2.765553172083390354e-01
-5.244628624564934283e-01 -5.579427126843124196e-02 8.496032634103789505e-01
2.435975780346399111e-01 5.947934031795051313e-01 7.660816062990941644e-01
1.022774896726230953e-01 7.753331647107502000e-01 6.232156920407886380e-01
-5.214471441168226640e-02 8.714465334043635103e-01 4.877108448419424924e-01
1.544015085695905065e-01 9.762381677250313583e-01 1.520500379095919841e-01
1.611864360340730107e-01 9.745222401979464211e-01 1.559658174030766897e-01
1.721225364787107026e-01 9.742364049030954876e-01 1.457300922857965864e-01
-5.360333113159027052e-01 -5.783745271833628382e-02 8.422132261029642297e-01
-5.380189772935325410e-01 -4.653336845370409369e-02 8.416473285719935360e-01
1.856881166462409916e-01 9.702147020538843813e-01 1.555742756848456365e-01
1.845443311828655897e-01 9.706168098779979214e-01 1.544227904505270088e-01
2.091827535196053300e-01 9.644923978955375343e-01 1.612358211802574770e-01
2.350502496764734772e-01 9.562377480743837754e-01 1.742433622398823490e-01
-5.448860991665170905e-01 -4.860453665661316341e-02 8.371001958854701330e-01
-5.460906072752726992e-01 -2.637251745263920893e-02 8.373108974383016712e-01
-5.460906072752726992e-01 -2.637251745263920893e-02 8.373108974383016712e-01
2.907706826007120937e-01 9.228606267966129595e-01 2.525483590294712033e-01
3.376653144140057683e-01 8.916143608857154401e-01 3.016719524650042228e-01
3.551757881173424058e-01 8.812653988072914890e-01 3.118035541815554201e-01
3.472523712664843942e-01 8.835876511998903560e-01 3.141475024520565262e-01
3.472523712664843942e-01 8.835876511998903560e-01 3.141475024520565262e-01
-5.550750331845687446e-01 -5.029704660718548742e-02 8.302782152012326833e-01
-5.461041793923028242e-01 -2.445399449459528113e-02 8.373602733611845705e-01
5.653341564919008855e-01 6.686765496197012437e-01 4.829792578282033344e-01
5.207156968768479333e-01 6.785243235058081579e-01 5.181311662475478474e-01
4.971033256458796123e-01 6.945463331370566040e-01 5.200900640828235444e-01
-5.945526016204324415e-01 -6.067622189001761757e-02 8.017640550707726410e-01
-5.844468408346021882e-01 -4.016173565770977949e-02 8.104374900184549979e-01
-5.702469379329504484e-01 -5.802090238068500355e-02 8.194217501781515534e-01
6.552057081334263788e-01 3.162367391363837266e-01 6.860756553396731849e-01
6.552057081334263788e-01 3.162367391363837266e-01 6.860756553396731849e-01
-5.954615317813285458e-01 -5.561613429399360486e-02 8.014564303658847644e-01
-5.843733047885141252e-01 -7.262552579684519727e-02 8.082285404842383114e-01
6.394073864396071505e-01 1.725519961686283743e-01 7.492556324677795976e-01
-6.004830374063018228e-01 -8.205630970944878533e-02 7.954161702053643701e-01
8.414728940096978249e-01 3.126730654788261732e-01 4.406346817614534839e-01
6.681416719541392046e-01 -3.859144741412735835e-02 7.430325742420785806e-01
-5.990833937535640086e-01 -1.165124724250053700e-01 7.921640809189246513e-01
-5.975253523745128748e-01 -1.121222887911373367e-01 7.939723204406757828e-01
6.403608464635598407e-01 -2.303977306646446954e-01 7.327038092033200112e-01
6.411341852093017657e-01 -2.323135507001572453e-01 7.314214726934740174e-01
-6.047583863808103644e-01 -1.712009475373130751e-01 7.777901578603346744e-01
-5.969418313609895499e-01 -1.621800925273684524e-01 7.857213676356283871e-01
5.417769733376027741e-01 -4.347371065717823280e-01 7.193617722194730613e-01
-6.086790507900037284e-01 -2.339987534056556240e-01 7.581255809784941402e-01
-5.850036777766867147e-01 -2.255287472865181719e-01 7.790426696498236048e-01
4.601567590690089915e-01 -5.898540007394509344e-01 6.635721625375570198e-01
4.021657984102519623e-01 -6.637511730063894166e-01 6.306322628296833210e-01
4.136746148956942926e-01 -6.557570177579443715e-01 6.315505099769186392e-01
4.350010575779741373e-01 -6.494595336167577893e-01 6.236797207704831703e-01
-5.305643363362756437e-01 -4.010528855502248913e-01 7.467650688134023218e-01
-5.018788297102036999e-01 -4.259392669157323064e-01 7.527903965832754007e-01
-4.901231611700102020e-01 -4.478384805718730322e-01 7.478101244325275898e-01
9.414731347894189639e-01 -2.934003095780892134e-01 1.659656434605240038e-01
9.457017080667384779e-01 -2.979805459451166372e-01 1.298301721400054176e-01
3.773771487271688763e-01 -6.781737813279209437e-01 6.306082856559542815e-01
4.051387854781048903e-01 -6.812328396921056850e-01 6.097412423531443082e-01
4.659544042884121162e-01 8.353726517641710814e-01 2.916145157716397707e-01
4.644775077859849000e-01 8.349477141185956963e-01 2.951659862671380807e-01
9.390161340739596740e-01 -3.193553701474244333e-01 1.275180281638523261e-01
9.417428727833484503e-01 -3.270104744851733969e-01 7.864166286865985345e-02
4.512530528232672200e-01 8.441263040850459642e-01 2.895193690746822313e-01
4.516707294245710935e-01 8.437398761645898970e-01 2.899940922688568068e-01
4.465459303710604400e-01 8.464372731737375144e-01 2.900701202317326199e-01
9.478845001288319638e-01 -2.988324609859127068e-01 1.105175763243889664e-01
9.729704203613042113e-01 -2.284038258980413405e-01 -3.406249281958283193e-02
9.808376465065826721e-01 -1.947921458447110232e-01 3.678466071706589912e-03
9.838193293053977273e-01 -1.764276635627145540e-01 -3.118985115192391203e-02
4.361632061204554489e-01 8.534528856228823512e-01 2.852715016413320814e-01
4.305442016584210552e-01 8.557538051685853464e-01 2.869095943983048791e-01
9.685881076610428631e-01 -2.130845803686120254e-01 -1.281875161891075365e-01
9.744720729313656182e-01 -1.228995894987621740e-01 -1.878825962612905853e-01
9.644452848790029398e-01 -1.260115662540560177e-01 -2.323066457182371425e-01
9.695011290362095524e-01 -7.328049273281433962e-02 -2.338750311220740563e-01
9.605915757307486036e-01 -5.395586149532470566e-02 -2.726767126936492369e-01
9.269952748818189869e-01 -9.519970754906556532e-02 -3.627902645184314379e-01
9.522443675535140484e-01 -6.477721763599074423e-02 -2.983866225854429066e-01
9.219356961014331109e-01 -7.776940850170512010e-02 -3.794555196004673614e-01
9.154291004558846589e-01 -5.615158600249386955e-02 -3.985430483999617968e-01
9.261431173425678232e-01 -6.058675355019432079e-02 -3.722743229034725099e-01
9.219169105394046104e-01 -7.143384567170865673e-02 -3.807445544640525870e-01
9.257458667954084897e-01 -6.679422212250567259e-02 -3.722003788314394157e-01
9.528197309351099653e-01 -1.316557169439926470e-02 -3.032510973808739685e-01
9.498548178327737013e-01 -6.878839182449726641e-02 -3.050311167570741167e-01
9.646062580695655697e-01 -7.861875421068996450e-02 -2.517019236704197138e-01
9.916000438147478668e-01 -2.419358396497144417e-02 -1.270591342703065174e-01
9.818984064567002346e-01 -1.481402811890124294e-01 -1.180253213807660601e-01
9.984232329979990661e-01 -4.567844671306273141e-02 -3.262709480945368001e-02
9.927667712990982940e-01 -1.955998562505840629e-02 1.184548216271144594e-01
9.835079916489959384e-01 -1.747850888380828374e-02 1.800181437793340333e-01
9.696734364514798532e-01 3.974989573380981883e-02 2.411501035237780810e-01
9.556083655353401207e-01 8.708540199188402608e-02 2.814760815394225513e-01
9.426283883220566429e-01 1.247397969430841386e-01 3.096638574130987087e-01
9.246555200843989963e-01 1.781954027762688852e-01 3.365391026416588716e-01
9.022346651190205069e-01 2.665339466809214519e-01 3.390166136404834107e-01
9.008363511804438062e-01 2.808161770872064089e-01 3.311134897252467901e-01
8.967499221273925736e-01 2.869475152136040097e-01 3.368986504532988091e-01
8.739694746626006649e-01 3.154794570802169629e-01 3.696621018150892390e-01
8.760003139699148456e-01 3.136549786215772628e-01 3.663932372608814658e-01
8.789142072893494362e-01 3.099643181266787950e-01 3.625354295971603968e-01
8.658860329706291603e-01 3.225213527472611252e-01 3.823890099472830872e-01
8.681296324358097616e-01 3.140113616247375283e-01 3.843797680126314065e-01
8.686428002731186870e-01 3.134122430604369125e-01 3.837088107321756647e-01
8.747307019803975958e-01 3.004777214632440852e-01 3.802095973501166681e-01
8.842877229520769156e-01 2.733492837594292957e-01 3.785701944216395831e-01
8.898535190988385857e-01 2.520769705703973518e-01 3.802866227669123300e-01
9.157013694786942937e-01 1.928755372941449997e-01 3.525479102878626425e-01
9.156294675573606323e-01 1.961744756329735495e-01 3.509106057826579805e-01
9.190467555107230124e-01 1.745185183540773066e-01 3.534067740390821055e-01
9.186698619547118971e-01 1.752486105631386737e-01 3.540248709226513912e-01
9.244014895880021676e-01 1.420582822028574055e-01 3.539792797679773839e-01
9.468571214391223734e-01 1.160347144823693083e-01 2.999958943302628023e-01
9.455364367963616790e-01 1.336190007959646708e-01 2.968279119569584568e-01
9.381547662219251738e-01 1.792944377715165183e-01 2.961741703783107305e-01
9.460185004931983554e-01 1.965140586374312937e-01 2.577425488398155662e-01
9.500575365332376565e-01 2.628414401932940292e-01 1.682410609616768471e-01
9.281445362379210362e-01 3.441966001057000790e-01 1.416912852908437659e-01
8.893144437320253948e-01 4.357224563418427565e-01 1.388011570882222989e-01
8.525158945486431827e-01 4.967533799736079114e-01 1.626429495143368043e-01
8.348478875840034119e-01 5.214525086166330592e-01 1.763980891448302113e-01
7.991553350416766843e-01 5.707075916695873996e-01 1.887951145690081600e-01
7.884181205498655975e-01 5.863943823580927139e-01 1.858453537958067170e-01
7.863047473333866222e-01 5.715085656822964655e-01 2.347398638338688004e-01
8.011159768315055940e-01 5.488112247480724237e-01 2.387874185459174237e-01
7.787157392037279413e-01 5.677529211093036432e-01 2.669427243590737908e-01
7.757706340631306263e-01 5.557834145681189719e-01 2.988054875940044375e-01
7.977854625410143452e-01 5.349670214131819757e-01 2.781162378548365233e-01
7.859035599342002465e-01 -6.017659927825541599e-01 -1.422437499968902397e-01
7.920358005417297287e-01 5.213408562581453021e-01 3.176208466965690924e-01
7.814682057134031412e-01 -6.093319892225477208e-01 -1.342459324119997799e-01
7.808899285196572171e-01 -6.096754904996328772e-01 -1.360393906947426901e-01
7.829778713537588475e-01 -6.082399654287450330e-01 -1.303449171451482591e-01
7.915113720590913893e-01 5.193574738343695874e-01 3.221452502730979273e-01
7.904943071393529808e-01 5.217733312596174455e-01 3.207356250348811777e-01
7.818912588207962422e-01 -6.098032822761856320e-01 -1.295608594631163235e-01
7.852617914146166056e-01 -6.065679919577213752e-01 -1.242545374490793414e-01
7.986770510813446800e-01 -5.915727849711781561e-01 -1.102570095615300616e-01
7.855081890445722026e-01 -6.081638759838452479e-01 -1.145145619221542427e-01
7.925849115229787190e-01 5.280969883959256705e-01 3.048322963094060589e-01
7.993184444945442557e-01 -5.918720048711320070e-01 -1.038149995937434761e-01
8.234015552493392232e-01 -5.632198992965040674e-01 -6.923311237699213139e-02
8.928652183753194027e-01 -4.497205630971794488e-01 -2.330486951581058758e-02
9.964642798480669583e-01 -6.074649466692857991e-02 5.804138499858392530e-02
9.418063376758758487e-01 2.920495278621665913e-01 1.664568880792852701e-01
9.418063376758758487e-01 2.920495278621665913e-01 1.664568880792852701e-01
6.774672113569927268e-01 6.534273684323415043e-01 3.377437663669970447e-01
6.527667412028228533e-01 6.806759372880174519e-01 3.325294723427172916e-01
6.023288348294496553e-01 7.268131782148760101e-01 3.300645068864393461e-01
5.998750849614943315e-01 7.312912212864810524e-01 3.245967222751442449e-01
5.574555980871800376e-01 7.674859800963492740e-01 3.165573036857790012e-01
5.107785468775491999e-01 8.062187917427041661e-01 2.985239285058965963e-01
5.065198025808533844e-01 8.070970893685383007e-01 3.033677272326225638e-01
4.860393703454459757e-01 8.246406526152680883e-01 2.893674558903737148e-01
4.811238592525540203e-01 8.273791054366668174e-01 2.897648148839841453e-01
4.689206356221217731e-01 8.371322991118065326e-01 2.816433050358662094e-01
4.666527812839336709e-01 8.395023340596561301e-01 2.783361507752067920e-01
4.540988926765252010e-01 8.479616827610113594e-01 2.734139357075046628e-01
4.439316786250098734e-01 8.553323565159779429e-01 2.670790605981776533e-01
4.403301684432711083e-01 8.576593758926898126e-01 2.655743543757236313e-01
4.279144200498342099e-01 8.656352890947389689e-01 2.599322900050743956e-01
4.281485293201325870e-01 8.655527738705066643e-01 2.598215396884543948e-01
4.237848575293921560e-01 8.685585678708694912e-01 2.569288008513196941e-01
4.206658841724927322e-01 8.699393539041104795e-01 2.573824672006114200e-01
4.188160847473342274e-01 8.712618394806430633e-01 2.559216564140670558e-01
4.099554685428509204e-01 8.763920876929393033e-01 2.527319181287222549e-01
4.072925836302606073e-01 8.776128018533986275e-01 2.528013475889998030e-01
3.969800597665030240e-01 8.828438828169249408e-01 2.509850806731736550e-01
3.979228081523897842e-01 8.827150414830927661e-01 2.499431821266948350e-01
3.916559854710572330e-01 8.847216279893371782e-01 2.527315374317018470e-01
3.945491215054428014e-01 8.827887254578851151e-01 2.549805030266554806e-01
3.858887683385079925e-01 8.865087339268084010e-01 2.553274821512103165e-01
3.849878541975075286e-01 8.884170927105642379e-01 2.499988429975374404e-01
3.788222645398568456e-01 8.896217201491312121e-01 2.550821180086821904e-01
3.765909950838205456e-01 8.918691333511788999e-01 2.504968490763800348e-01
3.728428360624522764e-01 8.918265462527980025e-01 2.561906145738233609e-01
3.715006277841619298e-01 8.910266119223392289e-01 2.608809314652387745e-01
3.715006277841619298e-01 8.910266119223392289e-01 2.608809314652387745e-01
3.680065417494049473e-01 8.934821491726987475e-01 2.574117991456074117e-01
3.706866089125582242e-01 8.905658336086549332e-01 2.635980538278492324e-01
3.757044045797777176e-01 8.870833640480692006e-01 2.681963937276478638e-01
3.739917355987789627e-01 8.872249146796939989e-01 2.701150356337509995e-01
3.770117449418241562e-01 8.860338366666320464e-01 2.698262115839170083e-01
3.899812957427047366e-01 8.794200962810986288e-01 2.730107749298266162e-01
3.983546256122045826e-01 8.751111745357627036e-01 2.747617594498879545e-01
4.068072864455001825e-01 8.703931767861542435e-01 2.773509500595866539e-01
4.085122346917255398e-01 8.688321972340915522e-01 2.797290960135415117e-01
4.206324828663607907e-01 8.619489009759567777e-01 2.830413511556587047e-01
4.436665685991930674e-01 8.485104178429787591e-01 2.884268481250505944e-01
4.471912502316962024e-01 8.473176314670910481e-01 2.864835372603656838e-01
4.446358090788932182e-01 8.494282215682784631e-01 2.842018537731754169e-01
4.527407032125992936e-01 8.447589761615366122e-01 2.853210960463202772e-01
4.621860818365884915e-01 8.386178039142142548e-01 2.882779990124856306e-01
4.714930140831155581e-01 8.332750134956411481e-01 2.886989600858620442e-01
4.731030574600134098e-01 8.319142426787737854e-01 2.899865339118174457e-01
4.755442164831967244e-01 8.307351489258708588e-01 2.893731337019624372e-01
4.848883761642112655e-01 8.247063547003770090e-01 2.911059792887294440e-01
4.893734575305133117e-01 8.215588322017581824e-01 2.924973577588594886e-01
4.980879702655201524e-01 8.150026503474477879e-01 2.961064906472160585e-01
5.165385014139116659e-01 8.024174632838438903e-01 2.988547994832797539e-01
5.248404396588072229e-01 7.970077026692384825e-01 2.988665835864769416e-01
5.540202512342815577e-01 7.704122806650283151e-01 3.154781751925372912e-01
5.628905573771316728e-01 7.649923259826973965e-01 3.129552070236957251e-01
6.462603630903774876e-01 6.908548861086691861e-01 3.241405087891221504e-01
6.997584469962766507e-01 6.180940087616180190e-01 3.581869793702053828e-01
7.942094089407001345e-01 4.757891802784876001e-01 3.779630546495103549e-01
8.121913338359237899e-01 4.619615870660755963e-01 3.562818116564690496e-01
8.370524989932909277e-01 3.798388662553029982e-01 3.937836329902156818e-01
8.765942857036479463e-01 3.152295571909367045e-01 3.636107596660436148e-01
8.949409031850604768e-01 2.118610704799332445e-01 3.926775606288253617e-01
9.006074280548370670e-01 1.973568173196264264e-01 3.872422332209116691e-01
9.124017081340788371e-01 1.355593300103130339e-01 3.861952757882601284e-01
9.116979454952950368e-01 1.162516371241787277e-01 3.940715836565817365e-01
9.150752069440725167e-01 9.941481923157131917e-02 3.908376380972241604e-01
9.183488619363359140e-01 9.020310550419727291e-02 3.853553782388867144e-01
9.209778319269156244e-01 8.587609353653855027e-02 3.800330639011578748e-01
9.207146437070399259e-01 8.645109456665800440e-02 3.805400808215154140e-01
9.207609896667346971e-01 8.846080144410924107e-02 3.799656385988095519e-01
9.203765244046452354e-01 8.971414709839742319e-02 3.806027129898480466e-01
9.182306131862778553e-01 9.352144190580302663e-02 3.848457884808039187e-01
9.103988063638792649e-01 1.008798870556249921e-01 4.012446407852297559e-01
9.118806970921434774e-01 1.061736538680282532e-01 3.964854972064658645e-01
9.023519516245512850e-01 1.143698389405582716e-01 4.155484271899898552e-01
8.982628703704411688e-01 9.779153711964985729e-02 4.284397635393244474e-01
8.984501335108489029e-01 1.024815760031696082e-01 4.269483389992802524e-01
8.950717303423132432e-01 1.216786119558214141e-01 4.289998985250719765e-01
8.875923438592669967e-01 1.016771431705933704e-01 4.492678373521514779e-01
8.843280784129874394e-01 7.145586064996262143e-02 4.613652671248305026e-01
8.911552069111731145e-01 4.104102321410948995e-02 4.518385016890914541e-01
8.700900521504651985e-01 5.738772422631194942e-02 4.895405501660975989e-01
8.792486199825098048e-01 1.608146319020526760e-03 4.763604497901444135e-01
8.653151760075226129e-01 -7.264883763123329563e-02 4.959352705362874980e-01
8.445320301973373578e-01 -1.835548177020658311e-01 5.030638914383790405e-01
8.457015335479727280e-01 -1.734380966799238533e-01 5.046861824685243691e-01
7.901637104822819557e-01 -4.496340630790496840e-01 4.164979231111453628e-01
7.031510765748869574e-01 3.070778319594246741e-01 6.413125358440117108e-01
7.029393410998726610e-01 2.948454513302854463e-01 6.472576322948361272e-01
7.780431010329580399e-01 -5.761080637878740474e-01 2.504963707793093075e-01
-6.270145460244715974e-01 2.211871889608304012e-02 7.786934707239567821e-01
8.068806808261640429e-01 -5.599402508410319390e-01 1.881767318176939818e-01
8.187824015447293657e-01 -5.254727342252447642e-01 2.312439934495399141e-01
-6.336973059123650609e-01 1.846695183175501437e-02 7.733606507765015126e-01
8.056577617558996485e-01 -5.617797158523076817e-01 1.879338228722400861e-01
8.602469326757550272e-01 -5.003785940837682800e-01 9.796161189316168749e-02
8.682273489222547269e-01 -4.920211197682463622e-01 6.400381461627216440e-02
8.755905340427851957e-01 -4.788312477879410611e-01 6.373266694963897194e-02
8.620204811231558795e-01 -5.067598410394552610e-01 1.073096612002269815e-02
8.619537494688878088e-01 -5.068096729890406715e-01 -1.340481783790854753e-02
8.676787897125908255e-01 -4.931473557776592243e-01 -6.276307331860406236e-02
8.761424374157890105e-01 -4.802646805981162226e-01 -4.147608864285205060e-02
8.671925221735620193e-01 -4.872001276637795142e-01 -1.030202169025726533e-01
8.794202528719938794e-01 -4.445193850766784305e-01 -1.703600162291909470e-01
8.721143704056016910e-01 -4.666562034131915282e-01 -1.471343357208884373e-01
8.687468672275167059e-01 -4.607056996257000159e-01 -1.817392060474833371e-01
8.639035955756838581e-01 -4.612705368544102735e-01 -2.022376556960876204e-01
8.628155193294566594e-01 -4.589764630987910876e-01 -2.118725700168952175e-01
8.631920054771808903e-01 -4.583165571856622211e-01 -2.117675496618027231e-01
7.115959453689889580e-01 2.907996955064997557e-01 6.395832609033338390e-01
