6.906202850038140051e-01 4.519979782992113448e-01 -5.645719170793710440e-01
7.118836008862386988e-01 4.794520123302083991e-01 -5.131739536080879294e-01
6.341354421261146124e-01 4.561531476906218185e-01 -6.243368857367430635e-01
5.554254655442323330e-01 6.050353168073122623e-01 -5.704689453781406350e-01
5.958955361774670445e-01 5.520611023453249055e-01 -5.832126963990357238e-01
5.280093294657773884e-01 6.179903693795772979e-01 -5.824895289627047834e-01
4.938160864522736504e-01 6.415777834077642794e-01 -5.869613450633188734e-01
5.216527701434658937e-01 6.295366539321892718e-01 -5.758141963841385547e-01
5.141470623260937511e-01 6.419938272086374020e-01 -5.687677242314777004e-01
9.203147486958533907e-01 2.957681413004402127e-01 -2.560116597434018426e-01
8.049123341016789501e-01 4.389227147731845635e-01 -3.993281668842367793e-01
8.212018866826984453e-01 4.777425760137775645e-01 -3.120728959273721403e-01
7.170559641499568704e-01 5.529417330971605482e-01 -4.243656254652163340e-01
7.331423445858781252e-01 5.758191028212322760e-01 -3.618489510849420276e-01
6.294406846062858829e-01 6.333344589620193421e-01 -4.502131580192391125e-01
4.301317050471418213e-01 7.892380812742199048e-01 -4.382806947377748674e-01
5.044667376858591457e-01 4.827743561054249066e-01 -7.158507048649034310e-01
8.991578535667795746e-01 -8.326865590221908808e-02 -4.296294744467840099e-01
6.367840759035718889e-01 6.686611963566562178e-01 -3.839247910236054939e-01
6.367840759035718889e-01 6.686611963566562178e-01 -3.839247910236054939e-01
4.559596916871887506e-01 7.411394201030128137e-01 -4.927607122386012950e-01
1.614868715744661731e-01 3.035768809169568927e-01 9.390223999893844153e-01
1.274761408959026177e-01 2.820385969491998601e-01 9.508964524769324411e-01
6.316105422752340548e-01 1.129614958098889288e-01 -7.670122706653248468e-01
6.094382026180799050e-01 3.046269408581682159e-01 -7.319750706772999438e-01
5.077341104059895915e-01 4.997429191810917604e-01 -7.017571430762918894e-01
5.272476623705876220e-01 5.237043522721440691e-01 -6.691364987324821545e-01
5.351273178773451322e-01 5.195312000261524954e-01 -6.661276798488294792e-01
4.756805844080526091e-01 6.418534655595868887e-01 -6.014583197249513402e-01
4.011539921133580600e-01 7.242048729808449048e-01 -5.608946216200633161e-01
4.333477456740014166e-01 7.138880102127166394e-01 -5.500669415569245935e-01
3.831665297568010997e-01 7.544381305586477238e-01 -5.329226188043659773e-01
3.801894356540945763e-01 7.552409751019757422e-01 -5.339167187343339949e-01
2.999312021291574148e-01 8.348507532740027104e-01 -4.615901794310497963e-01
2.999312021291574148e-01 8.348507532740027104e-01 -4.615901794310497963e-01
4.819021986228588794e-01 7.322927628929806199e-01 -4.811627379349107114e-01
4.819021986228588794e-01 7.322927628929806199e-01 -4.811627379349107114e-01
4.873781794584140514e-01 -6.592584817619997484e-01 -5.725738069565050603e-01
4.382007182666721734e-01 -3.742637107425715870e-01 -8.172556548178624425e-01
8.494784252353259069e-01 9.902382722843080035e-03 -5.275304236497845300e-01
8.695502270288967273e-01 -3.104080294334867207e-01 -3.840953760945499118e-01
8.148628119616208032e-01 -3.334576447106467612e-01 -4.741356312976573451e-01
8.495395271822292482e-01 -3.737421826387727908e-01 -3.722893668524534516e-01
5.311410993463385743e-01 -7.056620978174962810e-02 -8.443397080690928647e-01
8.422892888555850721e-01 -4.357743046745924526e-02 -5.372613530052264830e-01
3.927746704462933489e-03 2.998274607809042203e-01 9.539853597238800997e-01
1.555811593200840948e-01 3.927939422441675266e-01 9.063704660903862953e-01
7.038972788174640005e-01 -5.814315051272452850e-01 4.080024824910202241e-01
-6.447426143877662552e-01 7.166895241389864557e-02 7.610325370523408628e-01
2.679111965055142597e-01 -4.014958122945995189e-01 8.757994653440269728e-01
2.679111965055142597e-01 -4.014958122945995189e-01 8.757994653440269728e-01
3.258566349670847240e-01 -2.417601787952090298e-01 9.139854864257072053e-01
-2.184402505058386790e-01 3.810377940803028607e-01 8.983841363477891306e-01
5.024089246963216182e-02 7.242202878188066517e-01 6.877360158051195604e-01
1.176889538389378903e-01 1.277578844539640768e-01 9.847980671712064371e-01
1.181958260178833237e-01 1.632779257156830865e-01 9.794743823530731586e-01
8.180214713582041608e-02 4.284591060977536309e-02 9.957271898808370825e-01
3.843110014474601915e-03 -9.611238053723710623e-03 9.999464258691519447e-01
4.579786454841826004e-01 9.680581415392788824e-02 8.836765214864931162e-01
3.512999316666842176e-01 3.787902858810197199e-02 9.354964121813641453e-01
4.367909838464502648e-01 3.537313317514930722e-01 8.270959928374488346e-01
-1.841326206582199754e-01 -8.356423179583702954e-01 5.174911539791747783e-01
-2.974795570809894429e-01 3.114542235530448622e-01 9.024977450109603616e-01
-6.417556946682714258e-01 -6.903379266277415161e-01 3.340406792894471955e-01
2.441278280746322915e-01 2.142586515254117918e-01 9.457773701067682115e-01
-3.685217473177072045e-01 -9.140600564754798318e-01 1.693692265730309121e-01
-3.685217473177072045e-01 -9.140600564754798318e-01 1.693692265730309121e-01
7.482763875123221720e-01 -5.125483993351023226e-01 -4.211609979930875380e-01
7.863654466712781677e-01 -3.532697886250719677e-01 -5.067838205056255374e-01
8.132514270588034888e-01 -2.658273839697873897e-01 -5.176465186964929188e-01
8.135988247541382501e-01 -2.664605927971051003e-01 -5.167743268051347982e-01
8.405277077802996155e-01 -1.790744788478144389e-01 -5.113174194949540174e-01
8.308147992222413292e-01 -1.186824420440845129e-01 -5.437474113444211721e-01
8.295855943144677669e-01 -4.334925498754811646e-02 -5.566943360569927002e-01
8.295855943144677669e-01 -4.334925498754811646e-02 -5.566943360569927002e-01
8.297739984936063351e-01 -3.999359268398813838e-02 -5.566647321037679896e-01
7.541645633963880435e-01 -4.976821722750353338e-02 -6.547968661127903101e-01
7.705009766108796843e-01 -7.025621580183101511e-02 -6.335552929167960201e-01
7.451751069606272759e-01 -8.378594737977262952e-02 -6.615844428248686127e-01
7.644002474319709917e-01 -1.078843984580105386e-01 -6.356518058617428579e-01
7.363054605997322311e-01 5.742435889798042428e-05 -6.766492927606289065e-01
7.425160082730331013e-01 6.906924946398211584e-02 -6.662577701136124242e-01
7.354450849462264017e-01 7.674739594049798108e-02 -6.732238589390533434e-01
7.314232238426535693e-01 1.609137884240431915e-01 -6.626664472558134733e-01
7.009137134048259998e-01 2.521997366590374434e-01 -6.671695880285383184e-01
7.090764114377169358e-01 2.324199230560810292e-01 -6.657263868206028112e-01
6.874401733397816905e-01 2.516545458628154930e-01 -6.812459156759408385e-01
6.883837910522137005e-01 2.633528143972281854e-01 -6.758498733932271074e-01
7.334436364452332491e-01 3.213148019010897971e-01 -5.990135476241383872e-01
6.879454209091364625e-01 2.658003509757805860e-01 -6.753378941472950592e-01
3.405310823297151845e-01 9.213730229534899951e-01 1.873775187713300483e-01
1.538213804996787226e-01 -8.692357402299419888e-01 4.698597778146989534e-01
5.936354831288034317e-01 8.018336555414815603e-01 -6.826201001594467410e-02
6.609536822061439221e-01 -1.008323090083610742e-02 -7.503589530569619859e-01
-8.263655235674618460e-01 5.475597084381437218e-01 -1.315233331170167497e-01
3.450541010713454870e-01 -8.532696117592472040e-01 -3.909841901945260156e-01
8.505215398253926917e-01 3.684842884847726596e-01 -3.752764839860258661e-01
8.505215398253926917e-01 3.684842884847726596e-01 -3.752764839860258661e-01
4.337770342221167197e-01 -5.279935918815500950e-02 -8.994719074272329307e-01
-3.751209025192461799e-02 2.731275264365557454e-01 9.612461689846051316e-01
3.928676014498908020e-03 3.002808863033758491e-01 9.538427306561769736e-01
8.156189032073353218e-01 -2.676981251385848193e-01 -5.129361739321471880e-01
8.498228523085413766e-01 2.054357301747813391e-01 -4.853836425568227586e-01
5.994568250625085248e-01 -3.911448660072538441e-01 -6.983245725893829636e-01
5.709827605737225475e-01 -4.007119862778714681e-01 -7.165253597611559444e-01
5.795450561327456507e-01 -4.068083109715266987e-01 -7.061405851787491139e-01
5.751432651140551133e-01 -4.052308796572138272e-01 -7.106322246888219230e-01
7.549867039671867008e-01 3.223350598633078490e-01 -5.710474463787413857e-01
7.164922445758792335e-01 -8.194681856734071373e-03 -6.975469236201141676e-01
7.284739645155177135e-01 8.726093512157367948e-02 -6.794933496545444429e-01
5.577913367838790437e-01 4.525458487498586202e-02 -8.287465518218738447e-01
5.577913367838790437e-01 4.525458487498586202e-02 -8.287465518218738447e-01
-2.649280708866917355e-01 -9.078030988048864103e-01 3.251255927430223847e-01
6.149830579465869196e-01 5.372890115972486225e-01 -5.771623311127610512e-01
-7.041966809848973496e-02 5.225696384971521835e-02 9.961477200064797755e-01
6.324377396693235953e-01 1.613505404922337960e-01 -7.576202931052076206e-01
6.290660103515838264e-01 1.819733566826512994e-01 -7.557523748411179021e-01
6.469900704264597291e-01 2.342640656052221992e-01 -7.256198704112758469e-01
6.349511766142095226e-01 2.430992359623199706e-01 -7.333074149296235911e-01
6.371149644337837925e-01 2.466009948358784953e-01 -7.302550728618689702e-01
6.379958748570929705e-01 2.406014997969399549e-01 -7.314862828247674642e-01
6.609958745588759843e-01 1.846638639996226183e-01 -7.273126639546952932e-01
6.544989265213594365e-01 2.321168032361476397e-01 -7.195505158345866237e-01
5.927902142977928834e-01 2.410774030656513967e-01 -7.684279065494031835e-01
8.481016619908502419e-01 4.020030306426837785e-01 -3.451335021154205429e-01
8.066179051002261291e-01 4.454266379069455883e-01 -3.885391427059022296e-01
8.173474391308448439e-01 4.707867435448005455e-01 -3.321189633982561396e-01
7.324285629558034971e-01 5.041920627415459322e-01 -4.575355330845042312e-01
6.947842931931065280e-01 5.746916463136739761e-01 -4.324399352389119988e-01
6.211215992430128008e-01 6.619567503383398943e-01 -4.195488286663505706e-01
6.211215992430128008e-01 6.619567503383398943e-01 -4.195488286663505706e-01
6.350578374041485619e-01 6.763290439166371737e-01 -3.732031182966898952e-01
4.327710895879181008e-01 8.260510578380378943e-01 -3.610385489965646233e-01
6.052837173563518913e-01 5.184306986838360665e-01 -6.040374426850254608e-01
7.230895994093461399e-01 4.171760220488927584e-01 -5.505502682348751842e-01
8.432274897120454193e-01 -2.718058900887919127e-01 -4.637768414948747475e-01
8.588732674861515592e-01 -3.056952898320455803e-01 -4.109587572642333098e-01
1.359499019558990107e-01 6.851345895956928445e-01 -7.156173686389416533e-01
1.359499019558990107e-01 6.851345895956928445e-01 -7.156173686389416533e-01
8.252881569767562819e-01 -2.627358310977150890e-01 -4.998693239350677220e-01
8.148094910615618636e-01 -6.494961526843136268e-02 -5.760790230102821319e-01
-9.755443988780700126e-02 -9.916787117179185485e-01 -8.400276176213335166e-02
4.593659591127833286e-01 7.138440426266714489e-01 -5.285920907607335462e-01
7.128615263578340633e-01 3.524331432818595400e-01 -6.063161912362620143e-01
1.725873895372501687e-01 4.643065637870117945e-01 8.686961538979064423e-01
1.654139787095716962e-01 -8.574476636287130527e-01 -4.872593968156290756e-01
5.550480079984657644e-01 3.730737156267159849e-01 -7.434633222462365687e-01
5.946282020291941972e-01 3.467584999424189185e-01 -7.253797929837937364e-01
5.946282020291941972e-01 3.467584999424189185e-01 -7.253797929837937364e-01
4.503805830836329904e-01 5.150924917877593989e-01 -7.292715922652711624e-01
4.503805830836329904e-01 5.150924917877593989e-01 -7.292715922652711624e-01
4.497121862810420923e-01 5.171562623074611453e-01 -7.282227336924477212e-01
4.497121862810420923e-01 5.171562623074611453e-01 -7.282227336924477212e-01
4.234967556452221005e-01 6.381182095588970871e-01 -6.430051699538026355e-01
4.103522875591713581e-01 7.314664223726247139e-01 -5.445804559808843370e-01
4.265342964707204976e-01 7.262488601106742436e-01 -5.391021119622644298e-01
4.265342964707204976e-01 7.262488601106742436e-01 -5.391021119622644298e-01
3.186449012019378357e-01 7.739396016552213542e-01 -5.472503265670697337e-01
2.790856989752997230e-01 8.315269426280595955e-01 -4.802854529455373167e-01
2.790856989752997230e-01 8.315269426280595955e-01 -4.802854529455373167e-01
2.775382698416227756e-01 8.317465011170908085e-01 -4.808016916076687797e-01
4.252554057959573863e-01 8.287203450379633241e-01 -3.638412147647305250e-01
2.518126135720476499e-01 8.640758502905833138e-01 -4.358478319214402763e-01
2.518126135720476499e-01 8.640758502905833138e-01 -4.358478319214402763e-01
5.553750704712110409e-01 6.852986005246728407e-01 -4.710884834275002042e-01
8.664621394647231689e-01 3.548324547332475376e-01 -3.511940915536484464e-01
7.743987661330903327e-01 4.044151701599136839e-01 -4.865746819924721134e-01
3.161111817217087672e-01 6.984782271942358012e-01 -6.420295062737400027e-01
8.555600720736956655e-01 -8.456341368302944250e-02 -5.107504205965233135e-01
8.915319022854029107e-01 2.770217824488943048e-01 -3.583710357383926848e-01
8.915319022854029107e-01 2.770217824488943048e-01 -3.583710357383926848e-01
8.044575674532964404e-01 -3.038584906085508019e-01 -5.104096784468513670e-01
6.403807744868387219e-01 5.806528230381772238e-01 -5.027472155720326130e-01
5.715674227803718699e-01 7.533234833874007386e-01 -3.252912703920538551e-01
6.484061141170858189e-01 -6.353467735430841090e-01 -4.194090944697951850e-01
7.365759633423042407e-01 -1.643195041625917369e-02 6.761551901981335266e-01
5.672122898104567934e-01 3.616823428920154515e-01 7.399027646441935779e-01
-5.994595692809365772e-01 -7.610089619833887431e-01 2.480193229941561051e-01
-5.994595692809365772e-01 -7.610089619833887431e-01 2.480193229941561051e-01
5.530794208016649449e-01 3.869590736337136239e-01 7.378115136118661432e-01
5.530794208016649449e-01 3.869590736337136239e-01 7.378115136118661432e-01
2.016211831847076752e-01 2.445829754268976919e-01 9.484345347057561160e-01
2.611284187881108831e-01 1.669941372939091062e-01 9.507496552777098264e-01
2.611284187881108831e-01 1.669941372939091062e-01 9.507496552777098264e-01
-8.298648008442256752e-02 2.386397129919593518e-01 9.675558544633550140e-01
-1.041200812373944823e-01 -1.072797188601183754e-01 9.887618877183790289e-01
7.313534379639540228e-01 6.681659823183252467e-01 1.366615119588989735e-01
3.575629782453932926e-01 2.057868873843278212e-01 9.109338469773501368e-01
-2.779863191597581884e-01 2.274355660237441512e-01 9.332720234033956563e-01
-5.436452247872669563e-02 -3.365549190799571044e-01 -9.400932321523987056e-01
2.417787988010315081e-01 1.701827470192305014e-01 9.552909740321631205e-01
-5.147427602950345182e-01 -8.568056079407235792e-01 -3.039804146940749963e-02
-5.147427602950345182e-01 -8.568056079407235792e-01 -3.039804146940749963e-02
7.513358589791311326e-01 -3.663555504689729458e-01 -5.488880010099209672e-01
7.779358911698062151e-01 -2.652429778350007261e-01 -5.696155825985280696e-01
7.949312410268760676e-01 -1.799967324014138670e-01 -5.793837229024340063e-01
8.285953379458762535e-01 -1.187447922963218438e-01 -5.471100805476557527e-01
8.256276963697689597e-01 -4.768340915782530443e-02 -5.621967622445329660e-01
8.224480858069611600e-01 -4.304162920782825252e-02 -5.672094536479458382e-01
8.273820924339667648e-01 -7.221070268493234162e-03 -5.615930281474017516e-01
8.003086372147281136e-01 3.449838979984400089e-02 -5.985949768422071937e-01
8.217639881992218065e-01 5.708555401948565283e-03 -5.697994033816919934e-01
7.895645058634235269e-01 -3.923270928131228352e-02 -6.124121860341249501e-01
7.274547757683260674e-01 -6.216026335474623271e-02 -6.833342160842840185e-01
7.260297224806715466e-01 -8.327508077661407992e-02 -6.826024487183497413e-01
7.714777402111643312e-01 -1.041777465542424383e-02 -6.361710197186790650e-01
7.712685831270702508e-01 6.781218729604485129e-02 -6.328872568912159435e-01
7.626565386740737917e-01 1.767472833400061394e-01 -6.221859865422946223e-01
6.941417772716352852e-01 2.216574913078153131e-01 -6.848614090407644239e-01
7.324832041325218812e-01 2.680765832736365373e-01 -6.257821515224666342e-01
6.868777725198540463e-01 2.661324716659449474e-01 -6.762931562149202547e-01
7.023681509988508598e-01 2.326877641494997928e-01 -6.727075032118803311e-01
6.842398364669467492e-01 2.657684025432457964e-01 -6.791045592552720223e-01
6.781224397333378562e-01 2.977987186529353902e-01 -6.719121072720564136e-01
6.964722497114976818e-01 2.067694940954493132e-01 -6.871482967259083807e-01
2.630404174421639360e-02 -2.039067684439422878e-01 9.786368719656269866e-01
6.282501964048778920e-01 2.636073063709531983e-01 7.319924034749833996e-01
5.566638482719650227e-01 7.422729293552582375e-01 -3.730365375850071552e-01
5.566638482719650227e-01 7.422729293552582375e-01 -3.730365375850071552e-01
6.101966223821396751e-01 7.101734637372183467e-01 -3.511605522220713760e-01
7.894433058548975257e-01 -3.097047510364251410e-01 -5.299643705253747061e-01
4.996250266559157382e-01 3.493957996122664666e-01 -7.926521355250237821e-01
5.209913941528027115e-01 3.022847235709373259e-05 -8.535619288047929798e-01
7.948024824275882194e-01 4.404794684736761390e-01 -4.174528138365953822e-01
8.154645302515115546e-01 -2.715216195303011837e-01 -5.111688664515124936e-01
7.866368307804367799e-01 -3.963384908099154003e-01 -4.734113403396975062e-01
3.093589174382507800e-01 -8.337365700719835404e-01 -4.573624295086316516e-01
3.093589174382507800e-01 -8.337365700719835404e-01 -4.573624295086316516e-01
-5.341574070710443101e-01 3.446318212958680571e-01 7.719486849664499717e-01
8.365066969843720779e-01 2.069817382347601542e-01 -5.073609227538253830e-01
2.382089563325392179e-01 -6.677708122711938366e-01 7.052224013753620735e-01
5.118335684769189653e-01 -1.846994453958853144e-01 -8.389949422080180685e-01
9.381075445643799471e-01 3.447016356560618777e-01 -3.369001643551659819e-02
7.010007234607107396e-01 -4.115271094664122442e-01 -5.824460695049624714e-01
7.325265937535245797e-01 -5.032665259545470587e-02 -6.788755537522288552e-01
8.605634844647749859e-02 6.914420628422937067e-03 -9.962662774978544578e-01
2.612767693796632651e-01 -2.468738912879565039e-01 9.331600782196313171e-01
6.794093519593784603e-01 6.357902891582345450e-01 -3.662972026677596138e-01
8.772827418510742437e-01 4.053960872299584017e-01 -2.569610929866648075e-01
4.818108873049967711e-01 -3.869220650644318305e-01 -7.862248943150091929e-01
6.216638529405407176e-01 1.882890911101924025e-01 -7.603165604641394237e-01
4.513004235873450676e-01 7.108484178507536166e-02 8.895363246873472240e-01
4.513004235873450676e-01 7.108484178507536166e-02 8.895363246873472240e-01
1.778199382910800597e-01 1.852084695604169218e-01 9.664770521586348861e-01
5.843733189497027913e-01 -3.201889350596719974e-01 -7.456452708661552853e-01
7.341021686315968298e-01 -4.098194047086479996e-02 -6.778012146386499515e-01
5.497447523992449181e-01 -4.493475674688225951e-01 -7.041785787847745226e-01
8.761064548971186916e-01 4.070832038797414509e-01 -2.583035903865985583e-01
7.705918723069759002e-01 5.225711211144243862e-01 -3.648391285370073400e-01
7.142738510998108969e-01 5.548645283153121888e-01 -4.265421677307782433e-01
7.142738510998108969e-01 5.548645283153121888e-01 -4.265421677307782433e-01
6.551707087071618751e-01 5.811543511932719674e-01 -4.827120907345104350e-01
5.896129394349801656e-01 6.845194586500885636e-01 -4.287070006195747851e-01
5.632677496445647192e-01 8.002215698844485914e-01 -2.058516001929955597e-01
4.735799605553708824e-01 5.853859068702306212e-01 -6.580618215624509659e-01
4.659164546962493020e-02 5.563553529786265939e-01 -8.296372338464931273e-01
4.659164546962493020e-02 5.563553529786265939e-01 -8.296372338464931273e-01
8.771787956088483718e-01 -2.395573786376528624e-01 -4.161365435460654960e-01
8.176536422022908646e-01 -3.045578059384604908e-01 -4.885561014205830332e-01
7.964874328502105083e-01 -3.858390915086888362e-01 -4.655491002842031545e-01
7.918042989641765894e-01 -2.894731946516664323e-01 -5.378208081880127001e-01
8.112572379988408633e-01 -3.155930493680363380e-01 -4.922019107897450674e-01
8.492194420340304362e-01 -1.022124285541641808e-01 -5.180530462418592164e-01
8.218739568220624347e-01 -2.553065200686851499e-01 -5.092561044386848534e-01
8.161701939902759051e-01 3.104414560175207671e-01 -4.873318344081341569e-01
-7.828434079375284904e-02 4.166636044203042011e-01 9.056837211399837440e-01
5.883299691070533743e-01 2.792109900492050767e-01 -7.588867309989260068e-01
5.883299691070533743e-01 2.792109900492050767e-01 -7.588867309989260068e-01
6.628586467219182987e-01 2.221951609243491277e-01 -7.150158913812962869e-01
4.255082147285496053e-01 4.571047168051595722e-01 -7.810237109544099221e-01
5.694856696678951558e-01 3.736589488770643563e-01 -7.321646412979777585e-01
5.207175667832311117e-01 5.236604023844547706e-01 -6.742647837592455895e-01
5.445549294641197635e-01 5.110385530096043238e-01 -6.650560323267336038e-01
3.954125378734234530e-01 6.452609704950732494e-01 -6.536720927561880945e-01
3.791283902394444461e-01 7.185660758520950875e-01 -5.830304094547457128e-01
3.555427207557196323e-01 7.253404627584802977e-01 -5.894663576515065673e-01
3.440781584700963180e-01 7.775173127975355536e-01 -5.263810873919451128e-01
3.938882358677590623e-01 8.119937882769185933e-01 -4.307181740357414745e-01
4.159113707913689173e-01 8.190432045034022890e-01 -3.952036953309550626e-01
4.159113707913689173e-01 8.190432045034022890e-01 -3.952036953309550626e-01
5.770967843183428814e-01 5.924381205333144607e-01 -5.621177588978860662e-01
7.999584636978677166e-01 3.837883170736225424e-01 -4.612732205926807771e-01
7.999584636978677166e-01 3.837883170736225424e-01 -4.612732205926807771e-01
8.464690413119392298e-01 2.576235944403822975e-01 -4.659616354251321368e-01
8.627660002479339285e-01 -2.921359606461703118e-01 -4.126637969504004522e-01
8.246960138560320841e-01 3.950111334578478295e-01 -4.047748623300584381e-01
6.549811958321781757e-01 3.137693875475487393e-01 -6.874215624667923130e-01
6.051837674696596281e-01 -2.250731216244236665e-01 -7.636063760298668068e-01
-9.197662157259603455e-02 -9.902900248948801609e-01 -1.042399524068818445e-01
-6.132458596005643109e-02 -5.273016306245326135e-01 8.474622619901942544e-01
-2.490936767833726584e-01 -8.223258075593854466e-01 5.115980907004494815e-01
4.638470047115004213e-01 -4.317282575086813234e-01 7.735998112000073146e-01
-4.326323705543677622e-02 -6.610104688087307112e-01 7.491284619107372311e-01
-4.326323705543677622e-02 -6.610104688087307112e-01 7.491284619107372311e-01
3.087834638609581184e-01 4.538199074321023763e-01 8.358829248551176150e-01
2.580789566344289798e-01 2.340021704764814192e-01 9.373570484904778510e-01
9.246028223638584620e-02 1.159937924301955858e-01 9.889370739973442070e-01
4.028101711404153407e-01 5.418273594201880039e-01 7.376768117607980235e-01
5.279338742509911420e-01 2.721158809991908734e-01 8.045115112454095385e-01
6.423592575675250993e-01 2.695464092800461398e-01 7.174394172761430211e-01
-7.997104064854670957e-01 -5.452468216690335989e-01 2.513347751877287317e-01
-4.301410416875641740e-01 -8.951895112785053232e-01 1.166808602680312196e-01
6.564158246648627015e-01 -5.130946309602592015e-01 -5.530390264794189381e-01
-3.465717841209887129e-01 9.974043843197219483e-02 9.327056574249953380e-01
-6.936648508075488051e-01 9.100606675495424847e-02 7.145256962264784351e-01
6.458967293427230194e-01 5.720814981218768080e-01 5.055098164536494521e-01
2.473448068740207728e-01 6.337048209594937920e-02 9.668530025352253254e-01
7.209390344431564346e-01 -3.677452980012204664e-01 -5.873757778578910793e-01
7.819800098435217839e-01 -2.948940627767007716e-01 -5.491309096601436623e-01
7.631187492316102716e-01 -2.655641334353155414e-01 -5.891735445553649697e-01
7.797486706667324796e-01 -1.754509928313520706e-01 -6.010066220167264994e-01
7.892453503591809749e-01 -1.021165095239054410e-01 -6.055278651053705996e-01
8.003361539177733519e-01 -5.171477429442016688e-02 -5.973170203935121991e-01
8.048963099487056461e-01 -1.688607289002737712e-03 -5.934130760578003594e-01
8.022926061606577841e-01 1.749536038012833652e-03 -5.969283987410812786e-01
8.314298670771909094e-01 -2.092501532163582381e-03 -5.556257711529789534e-01
7.994449630438287269e-01 2.139494945523060052e-03 -6.007355271874882385e-01
7.668137222373975215e-01 -2.568709927279979113e-02 -6.413555085281302803e-01
7.967323443508742553e-01 -6.472439494001755445e-02 -6.008563257258831003e-01
7.598163034702610785e-01 -1.202196517863532294e-01 -6.389259896929815330e-01
7.305123698044517777e-01 9.476464754772210859e-04 -6.828988062142452575e-01
7.394946636183125088e-01 -9.291098512524532602e-03 -6.730982974042269973e-01
7.311271921037856281e-01 6.781021588859810489e-02 -6.788628753935331828e-01
7.100728015922759262e-01 1.912241270910572943e-01 -6.776650718881411795e-01
6.859495493117966358e-01 2.801549729081571627e-01 -6.715552151191835906e-01
6.557578412643818577e-01 2.852547688449789676e-01 -6.990074180375166479e-01
6.903033441718156027e-01 2.561995003561899908e-01 -6.766410488896209552e-01
6.613082065752201588e-01 2.513431573088117932e-01 -7.067517762201266374e-01
6.409750270322538412e-01 2.956928656708098790e-01 -7.083196622375987905e-01
7.121650698937705970e-01 2.063209807536272589e-01 -6.710086185169771289e-01
5.613469310839500626e-01 1.100173993269547568e-01 8.202352070034329978e-01
6.711660207336938022e-01 -4.128710051856484542e-01 -6.156896179809199232e-01
3.363935038807933653e-01 2.393452288159284291e-01 -9.107981510685303483e-01
8.221760044675285872e-01 -1.994821980868307920e-01 -5.331355084068747363e-01
-2.034183255315803185e-01 6.228933447871993767e-01 -7.553971576976863389e-01
-2.034183255315803185e-01 6.228933447871993767e-01 -7.553971576976863389e-01
6.341010181039723470e-01 6.907392556797722349e-01 -3.475560091588978384e-01
8.951292180551420063e-01 -4.179754199797541814e-01 -1.550491253659250224e-01
7.037355789640877823e-01 -6.648675508956167768e-01 -2.504144058678424156e-01
8.872068286441898710e-01 -2.762767220479778185e-01 -3.695067199139190350e-01
8.872068286441898710e-01 -2.762767220479778185e-01 -3.695067199139190350e-01
9.103829601719802822e-01 -1.772033980842100120e-01 -3.739008177791424692e-01
9.137462231444779537e-01 -1.879473130584982943e-01 -3.601994547515205425e-01
-9.399488112582340404e-01 -1.929577354436552983e-01 -2.815378208104358793e-01
9.103810735590025516e-01 -3.234198399893709747e-02 -4.125049053969786494e-01
9.061975800658631508e-01 2.415397847062857317e-01 -3.470799306886164781e-01
5.413400514945396758e-01 -9.937975777034994962e-02 -8.349099426844763805e-01
8.777671914205613657e-01 3.546553859185387347e-01 -3.220936430677136530e-01
7.125511904205975577e-01 -6.615253122096363958e-01 -2.337842217433258041e-01
4.588748585986752171e-01 2.395512412501907551e-01 8.555986599811494786e-01
1.435086056999466675e-01 9.219366211060255889e-01 -3.597751335955026719e-01
6.120413752577842370e-01 -2.546417127003940961e-01 7.487075217503629254e-01
7.723823568921237559e-01 2.533158610278384848e-01 -5.824573540728048560e-01
7.723823568921237559e-01 2.533158610278384848e-01 -5.824573540728048560e-01
1.346772510292143232e-01 1.681663133798121379e-01 9.765152989582174259e-01
9.422677823595307922e-01 -1.672229512201190704e-01 -2.901170641525343541e-01
5.824762478056694226e-01 -2.440744648672249772e-01 -7.753380400457636767e-01
8.960523363154726528e-01 3.502228865292859594e-01 -2.728262090318261390e-01
4.654627782270305825e-01 8.826633092647724332e-01 6.519113868413929647e-02
8.034971101902727009e-01 4.633914292251983813e-01 -3.737121582669056252e-01
8.055117937866850264e-01 4.909048699984182584e-01 -3.319083588618900182e-01
8.150791466722658862e-01 4.881415488266958591e-01 -3.120317499375431236e-01
7.807018338738869190e-01 5.098373121672867825e-01 -3.613454880138762260e-01
7.116049389682470583e-01 5.378667663516548680e-01 -4.520152126758697486e-01
7.361810154169200482e-01 5.720371908261766558e-01 -3.616779850245362415e-01
6.755494996268116559e-01 5.651764539872370374e-01 -4.735065463247334905e-01
6.874590168783393240e-01 5.808493068767591749e-01 -4.359061628532630572e-01
4.621451487002414815e-01 7.524231796273084250e-01 -4.693412620816144742e-01
5.119507761272413804e-01 7.340483013343916951e-01 -4.461832517372311679e-01
6.219853110437042476e-01 6.042631641876550219e-01 -4.979962863835327158e-01
8.848974479598122056e-02 -5.833046223354504400e-02 -9.943676997175456833e-01
-3.418041815445681531e-01 -3.448144160596477437e-01 -8.742270414235034925e-01
5.351072453343025392e-01 6.750987649980479954e-01 -5.078404212829509268e-01
8.115855972438460464e-01 -3.667599230065684557e-01 -4.547702466329184845e-01
5.088369084610290249e-01 7.477881265006417477e-01 -4.264949219539227454e-01
8.119009304009261463e-01 -2.897905212461542868e-01 -5.067921990421645484e-01
3.713757170707049915e-01 1.589104622091054020e-01 -9.147827839278067641e-01
8.150943500995332380e-01 -3.000904337237936259e-01 -4.955471037381661836e-01
1.070112793646897931e-01 4.784434484497433471e-01 -8.715735498076165877e-01
4.619707505327214636e-01 7.520851107555667214e-01 -4.700542647737824820e-01
4.619707505327214636e-01 7.520851107555667214e-01 -4.700542647737824820e-01
5.842818972570406055e-01 7.571334196205312672e-01 -2.921705827619092144e-01
4.519359273581539105e-01 8.687770271659173149e-01 -2.024361495180052040e-01
9.177427263331730534e-02 5.250548154316220240e-01 -8.461057402444985831e-01
7.964646736740398358e-01 5.917784769375227238e-01 -1.242668814399524591e-01
8.762920319610580933e-01 -2.342527976655414679e-01 -4.209963200639961767e-01
2.105296001201043266e-01 -5.191933179726634234e-02 -9.762078008595272971e-01
8.712257576708877238e-01 2.028451580259820752e-01 -4.470117683419554400e-01
7.077378994895235920e-01 4.631686091218277790e-01 -5.334621871794743564e-01
7.006897900569643012e-01 4.539106753485833146e-01 -5.504533739696035877e-01
5.139309151140575294e-01 5.523964041949341874e-01 -6.563026947396561894e-01
7.252719902087305659e-01 4.154202949234001574e-01 -5.490050261923129504e-01
4.378198968150167625e-01 5.652814595113200280e-01 -6.991213124241313359e-01
4.007117605524285198e-01 6.480190176908017241e-01 -6.476893064317347237e-01
4.049219915062772790e-01 6.464987658688859939e-01 -6.465891481648895489e-01
3.574852283632399819e-01 7.194892073258210008e-01 -5.954322732635037863e-01
3.665459589086048631e-01 7.169343366956330010e-01 -5.930001828621673798e-01
3.988068061147880816e-01 7.601879668342886864e-01 -5.129009519165198538e-01
3.988068061147880816e-01 7.601879668342886864e-01 -5.129009519165198538e-01
3.716626869744250605e-01 8.074282599504462032e-01 -4.581773151786819320e-01
3.595479787296211871e-01 8.103333106330201652e-01 -4.626933938041187799e-01
4.925664094670952342e-01 7.783970231498665848e-01 -3.891997001747562468e-01
4.925664094670952342e-01 7.783970231498665848e-01 -3.891997001747562468e-01
6.673988350581964157e-01 5.843005932964603355e-01 -4.617051132880886088e-01
7.475057176051910224e-01 3.972887844129662782e-01 -5.323502831099237165e-01
7.658009042944528000e-01 2.676955390785635269e-01 -5.847119575818812143e-01
7.744138662328965417e-01 2.792810429610614320e-01 -5.677017375601374205e-01
7.969327757219473174e-01 1.026103459557221598e-01 -5.952892304442938265e-01
7.779534026083033682e-01 1.952451280679309842e-01 -5.972167473672354010e-01
8.974462935592685264e-01 2.201370298615971666e-01 3.822693268632020303e-01
8.974462935592685264e-01 2.201370298615971666e-01 3.822693268632020303e-01
-1.204081897300975090e-01 -1.709504503329392078e-01 9.778945809119130583e-01
5.491584022626255779e-01 -2.459481500876950499e-01 -7.987080547313898382e-01
4.432219479303131093e-01 7.754724093127176587e-01 -4.496630374709352784e-01
7.977634199378419444e-01 -8.792692140978608517e-03 -6.029064723271697623e-01
7.389679382880177672e-01 -2.494275008919832892e-01 6.258692419196967283e-01
-3.261649752462855018e-02 -4.757403854398818965e-01 8.789808016963388537e-01
-3.261649752462855018e-02 -4.757403854398818965e-01 8.789808016963388537e-01
1.203588961979093399e-03 -6.446675749545691669e-01 7.644620783111517603e-01
3.934344087757841169e-01 -7.087514557466966236e-01 -5.855601932920199149e-01
6.652363695640933772e-01 -1.640770052354997566e-01 7.283812936657111381e-01
3.547893018521652841e-01 -1.968365500730022977e-01 9.139912055630576848e-01
2.706004918701830353e-01 5.734770219641851519e-01 7.732396000456160934e-01
7.066705148389702540e-01 -1.681554100509867200e-01 6.872703554845132068e-01
2.793900409344073354e-01 -2.387092969348619809e-01 9.300317610617038211e-01
-1.285935898313785297e-01 -1.982213505157495170e-01 9.716851263933145022e-01
9.269882957198023465e-01 3.149356876817154816e-01 2.037356429860550933e-01
-8.204025370697570763e-02 -6.803734997440313848e-01 7.282590868761980030e-01
6.612456762077911776e-01 7.544452957128357229e-02 7.463660487014857070e-01
1.268875924751555195e-01 -9.811967772635775409e-02 9.870522112425130778e-01
7.585236671347399540e-01 -3.327971887672328405e-02 6.507951342073421408e-01
5.917018672674834168e-01 -1.561707098783878811e-01 7.908853328063771837e-01
3.153991660182547396e-01 -2.346511120258359673e-01 9.194901966307351682e-01
7.094317935354075289e-01 -3.891311685413338384e-01 -5.876082572520496816e-01
6.658318743533540029e-01 -5.050237054909447743e-01 -5.491984814138644033e-01
7.515837901528319431e-01 -3.159559683065107927e-01 -5.790454494001304742e-01
7.379853681402336329e-01 -2.964905413650260058e-01 -6.061938265043597118e-01
7.823610076664307966e-01 -1.754443127323524754e-01 -5.976040050175698282e-01
8.139213326476657517e-01 -1.012847688822128972e-01 -5.720781938280155021e-01
8.176027292377765487e-01 -1.069931127474347543e-01 -5.657545854587073819e-01
8.014663872150464830e-01 -2.837321889049587362e-02 -5.973663788783671880e-01
8.022709655232275194e-01 -1.594048096534340453e-03 -5.969579188595242059e-01
7.983928074433231936e-01 3.615245996517751220e-02 -6.010506839370828303e-01
7.773451474957592255e-01 2.838690877875079191e-02 -6.284335327421535222e-01
7.764502345318077259e-01 -2.604562370623329792e-02 -6.296401025834156284e-01
7.431671881003666380e-01 -8.990434981097431000e-02 -6.630382631613805922e-01
7.431215533674663254e-01 5.254556156888268289e-04 -6.691562454443055197e-01
7.077297530193528141e-01 7.242784075166358582e-02 -7.027608445091525491e-01
6.757463825662112233e-01 2.120435470207155115e-01 -7.059775921483296690e-01
6.574142414119910072e-01 2.863830744387304006e-01 -6.969872666438871045e-01
6.992336412596188433e-01 2.840415160039013176e-01 -6.560432395178081855e-01
6.346829660662959283e-01 3.020031137041026548e-01 -7.113168435362092756e-01
7.180478741772907680e-01 2.849267423943921407e-01 -6.349992140609256319e-01
7.265454532673448762e-01 2.417163116928571776e-01 -6.431989808746202408e-01
9.278137194352034101e-01 3.283492593648913438e-01 -1.770549798857432300e-01
9.278137194352034101e-01 3.283492593648913438e-01 -1.770549798857432300e-01
7.033884566531027893e-01 -1.952001031716338320e-01 -6.834775773710135560e-01
6.385094533624284807e-01 -2.352967759424172134e-01 -7.327626527040775883e-01
8.858240540257052986e-01 -8.839210503646363626e-02 -4.555245120481303256e-01
8.858240540257052986e-01 -8.839210503646363626e-02 -4.555245120481303256e-01
8.858240540257052986e-01 -8.839210503646363626e-02 -4.555245120481303256e-01
9.126002601786840085e-01 -8.918890097273508540e-04 -4.088520143716950495e-01
-8.471615642027767734e-01 4.828220894957681031e-01 -2.218109871770227171e-01
-5.756688118791868369e-01 -4.493188235929625463e-01 -6.831676322796926826e-01
-4.898961063093536933e-02 -9.984012191343434317e-01 2.819616430095284870e-02
-5.827051160226549668e-03 1.642918754856309560e-01 9.863945585434816810e-01
8.235370472136516184e-01 -2.900442894703991747e-01 -4.875049148595644866e-01
8.414170783812671139e-01 -1.684370405278159122e-01 -5.134649584797031929e-01
8.544341365001976163e-01 -1.927552028260686445e-01 -4.824808163716386433e-01
8.456351643489582459e-01 -1.460835805199353458e-02 -5.335613973026301915e-01
8.679759275370073635e-01 1.116411291114029203e-01 -4.838946657145569152e-01
8.937652932350911295e-01 2.561315767721006331e-01 -3.682121888105132079e-01
8.596938587159803635e-01 1.840683818708488961e-01 -4.764927072699803867e-01
9.105332121156155534e-01 2.792789805120562963e-01 -3.048483568572509794e-01
8.881146918555885561e-01 2.796252045914545681e-01 -3.647766975389743482e-01
8.457635425067939750e-01 3.595576664239634734e-01 -3.942110027410604678e-01
8.467136979098781602e-01 3.616851654537777683e-01 -3.902047601740049609e-01
8.592758590118214634e-01 3.919652831197318887e-01 -3.286460329113451428e-01
8.460612903496383952e-01 3.586679715240155830e-01 -3.943825289927950228e-01
7.542921496492981381e-01 -5.412024186047746932e-01 -3.716763310647894225e-01
8.757145809029877048e-01 3.467718561958724188e-01 -3.359661479143006835e-01
8.757145809029877048e-01 3.467718561958724188e-01 -3.359661479143006835e-01
-2.041047426966655087e-01 -7.963258290339093604e-01 5.693912784914999525e-01
9.226263611322337299e-01 2.178470227095394285e-01 -3.182817500902031527e-01
3.704430863752665726e-01 8.925585072274833109e-01 -2.571210433484850122e-01
9.433203048370017996e-01 7.090773924492949076e-02 -3.242204419795257642e-01
8.898010136232196166e-01 -2.515299507895261133e-01 3.807713749888634314e-01
8.898010136232196166e-01 -2.515299507895261133e-01 3.807713749888634314e-01
8.280715325944176808e-01 2.359603930577593711e-01 -5.085471756039551261e-01
2.648823120451304983e-02 -9.992929624294556445e-01 2.668236958403267384e-02
9.965591763530894376e-01 -5.390325244339285587e-02 6.296226967379638106e-02
9.965591763530894376e-01 -5.390325244339285587e-02 6.296226967379638106e-02
-4.003830612707615644e-01 -9.102558402244403934e-01 1.054879594302198798e-01
8.395984354476463407e-01 2.878008592761276407e-01 -4.607006974097033192e-01
7.865653912116088442e-01 4.279573523400309054e-01 -4.451599599315275713e-01
7.919451375129430426e-01 4.367210430442420854e-01 -4.267289886238747609e-01
7.613569652853486858e-01 5.076484631609786691e-01 -4.032723760211958108e-01
7.255628924074244424e-01 5.709610649260635773e-01 -3.841379329093489448e-01
7.255628924074244424e-01 5.709610649260635773e-01 -3.841379329093489448e-01
6.422828617905183002e-01 5.916869110293722089e-01 -4.872158913322734985e-01
6.545103851030666942e-01 6.044349827290232957e-01 -4.541745341227319543e-01
6.337971489329765618e-01 5.885190573082373922e-01 -5.019427190322157672e-01
6.400413706814761516e-01 5.956514396229591890e-01 -4.853312335830793911e-01
5.309551016555194014e-01 6.631296891089638601e-01 -5.275847756031497582e-01
5.669026566746866447e-01 6.923471350313935568e-01 -4.464043262212004648e-01
7.385476073322206902e-01 -2.177493757252068063e-01 -6.380694641456637894e-01
6.160834358178791659e-01 -7.121128755190153647e-01 -3.366547974273894073e-01
8.027116662236231104e-01 -3.513140476561750769e-01 -4.819049914951384350e-01
8.063152542533124079e-01 -4.155781328360094173e-01 -4.208925352948805765e-01
-1.521188652139388864e-01 -6.845271409025444065e-01 7.129392991088453480e-01
-1.521188652139388864e-01 -6.845271409025444065e-01 7.129392991088453480e-01
5.340702682878146756e-01 2.088402432486615168e-01 -8.192403196442552549e-01
5.087282878574924672e-01 7.783970656925922604e-01 -3.678226981233572723e-01
8.269601681323823783e-01 4.887747750520259893e-01 -2.779138348396912317e-01
5.434287431177645677e-01 7.933572407171864960e-01 -2.743528562910525492e-01
5.067424517942255013e-01 7.804435476597588739e-01 -3.662239157480389751e-01
5.067424517942255013e-01 7.804435476597588739e-01 -3.662239157480389751e-01
8.613655634191733634e-01 3.269900509902370911e-01 -3.887503989823959949e-01
6.683365930988800496e-01 7.229567447587675888e-01 1.750992390982553382e-01
4.825023253080373831e-01 7.522269941529932114e-01 -4.487160074477951621e-01
9.147789086732861508e-01 -1.193426024092510696e-01 -3.859234269861044897e-01
7.378228611563768524e-01 -2.815506490361303210e-02 -6.744069378908339463e-01
3.842655704859510024e-01 5.219330534753251483e-01 -7.615286330986053009e-01
-9.487186223480736924e-02 4.462505362209011617e-01 -8.898650395867105933e-01
-6.548487119433484827e-01 -3.380995790272529611e-01 6.759155562107829196e-01
6.002514533726643897e-01 4.350840021389881795e-01 -6.711185467610957245e-01
6.002514533726643897e-01 4.350840021389881795e-01 -6.711185467610957245e-01
-4.371335568336879307e-01 -8.988556688987856536e-01 3.118877968830493022e-02
-4.371335568336879307e-01 -8.988556688987856536e-01 3.118877968830493022e-02
6.201179648762241703e-01 5.525185724369909845e-01 -5.569353075088337990e-01
5.767876544001848682e-01 5.026643316856398425e-01 -6.439290111359806668e-01
5.517265159812807518e-01 5.732675634858899194e-01 -6.057740108473694818e-01
5.881183076387949127e-01 6.119152919831827298e-01 -5.288445250328454028e-01
4.361849536020863116e-01 6.840663963156227156e-01 -5.846330915051790589e-01
3.438215463462138133e-01 7.443703258650770094e-01 -5.724504888980508355e-01
4.108561641472670556e-01 7.256006598572113386e-01 -5.519971873089328795e-01
3.425251885371868310e-01 7.525955266373849373e-01 -5.623846268373288160e-01
3.425251885371868310e-01 7.525955266373849373e-01 -5.623846268373288160e-01
3.107934690277124878e-01 8.011981948838832190e-01 -5.113598264671630478e-01
4.760313335156803327e-01 7.438360300115675061e-01 -4.691504342616701906e-01
4.760313335156803327e-01 7.438360300115675061e-01 -4.691504342616701906e-01
6.172506538871883608e-01 5.369971261977650734e-01 -5.750093188211647943e-01
5.901463854803807862e-01 5.531052082488329136e-01 -5.880492090909203995e-01
6.571104947889074843e-01 4.107968023973122551e-01 -6.320219812462386511e-01
7.638772380167072606e-01 1.646638469503424462e-01 -6.240011079697542762e-01
8.257119885545864957e-01 -3.564423955952546880e-02 -5.629646526589866529e-01
4.415011246145340018e-01 7.203177384787343152e-02 -8.943646798260933561e-01
5.945925372341102078e-01 -4.225772095217416036e-01 6.840235497834276091e-01
5.945925372341102078e-01 -4.225772095217416036e-01 6.840235497834276091e-01
2.960352402795106141e-01 4.665268296857161823e-01 8.334961629761994395e-01
5.328545415878919167e-01 2.800617457590520720e-01 7.985182878754560898e-01
-2.835921609522600306e-01 -9.498907849855393604e-01 -1.314647589507672298e-01
3.845156926790084806e-01 -6.735410497912464045e-01 6.312607514567083467e-01
3.845156926790084806e-01 -6.735410497912464045e-01 6.312607514567083467e-01
6.338070110462656892e-01 -3.418920042931283265e-01 6.938288911172741935e-01
6.016802917525949923e-02 4.187582129620652793e-01 9.061022940827280214e-01
-5.429878838987306500e-02 -9.749837509240508182e-02 9.937533438604030378e-01
9.654181372035780528e-02 2.538501618860401488e-01 9.624135148230280601e-01
9.654181372035780528e-02 2.538501618860401488e-01 9.624135148230280601e-01
4.228869335655724981e-01 -6.803872491346467655e-01 5.985313965319573049e-01
-2.416761745681156315e-01 -9.511432966895757568e-01 -1.921433210096239463e-01
4.865189378317198998e-01 3.142292141530432237e-01 8.152050810095923250e-01
2.261178618159465914e-01 1.345019482929589449e-01 9.647693706130925362e-01
5.670226153428515881e-01 3.023432895371661600e-01 7.662074712253842401e-01
5.670226153428515881e-01 3.023432895371661600e-01 7.662074712253842401e-01
5.832718890545208756e-01 2.810205644579285567e-01 7.621163597447031535e-01
-2.187715256755431437e-01 -4.340390309624159171e-01 8.739274221322971270e-01
5.564028436764193453e-01 -3.266361886856691266e-01 7.640187666475830586e-01
5.729641818179995738e-01 -3.401001330944783407e-01 7.456835426792981503e-01
6.005075195493696505e-01 -7.783453204648306534e-02 7.958219050678163597e-01
5.925787464973609753e-01 -6.881027452511702391e-02 8.025681125732533339e-01
1.104984523264804647e-01 -4.042239516271568522e-01 9.079609512332447174e-01
1.197899984145841673e-01 -4.093537927422088996e-01 9.044776551399169584e-01
6.930650526996686711e-01 -3.949766022194611814e-01 -6.030375746382434787e-01
7.037090767568370264e-01 -3.812043647999679430e-01 -5.995638144080185361e-01
7.781242132461266836e-01 -2.048510825223753828e-01 -5.937665726104048858e-01
7.928862731103686334e-01 -1.010258153166090772e-01 -6.009368873290807933e-01
8.159594763621679236e-01 -2.901559520876420897e-02 -5.773804882133254379e-01
8.157523532102625152e-01 -3.348248474049005108e-02 -5.774313997762174910e-01
8.157523532102625152e-01 -3.348248474049005108e-02 -5.774313997762174910e-01
7.705024159711076903e-01 3.605355816024462257e-02 -6.364166622006939278e-01
7.236132629361952118e-01 8.106598992309446694e-02 -6.854284433700000845e-01
7.705644456982405632e-01 2.863806874729505139e-02 -6.367183804824457782e-01
6.755463516266969615e-01 1.107400825253160824e-02 -7.372343542897888957e-01
6.739737240123077067e-01 -5.465011805404326739e-02 -7.367311476635564071e-01
6.938367805818465017e-01 3.540233200388252788e-02 -7.192615635500798632e-01
6.955533299548968262e-01 2.055165403593585960e-01 -6.884537143682023519e-01
6.955533299548968262e-01 2.055165403593585960e-01 -6.884537143682023519e-01
6.851066088193422665e-01 2.835517161410249787e-01 -6.709898351134242489e-01
6.921465085609643797e-01 2.438171953778850154e-01 -6.793278927917867360e-01
6.972350086076125608e-01 2.056025184448725951e-01 -6.867247972667569478e-01
7.030077221226030959e-01 2.008920804268779503e-01 -6.822188172850038868e-01
4.609906085572590406e-01 1.377784473353571848e-01 8.766440316752667217e-01
7.073346886939279043e-01 1.634790316843869884e-01 -6.877152349408868215e-01
-8.790573653358429995e-01 -4.752895770218996119e-01 3.685059596736718623e-02
6.034329762593869662e-01 -3.681996634149861669e-01 7.073172209297812207e-01
1.406241508603591484e-01 -4.146141123378588866e-01 8.990661744527441712e-01
-5.302203335681360263e-01 -7.856250054007636319e-01 -3.188412595006246963e-01
7.653831668666946086e-01 -2.686042240096888634e-01 -5.848421827478437196e-01
7.876915842490140873e-01 -3.050770607145211755e-01 -5.352288810677791053e-01
7.815857452435572839e-01 -1.651264970974943846e-01 -6.015454785703107099e-01
7.946245322102586384e-01 -1.281757138307647141e-02 -6.069658661518516629e-01
8.095897346445271037e-01 6.780608347206903974e-02 -5.830667171108147029e-01
8.102032861888276427e-01 1.512037972205293734e-01 -5.663109099734152663e-01
8.395779770129774278e-01 2.920978186879395477e-01 -4.580258560742438423e-01
8.161256793530589082e-01 3.698610555496427699e-01 -4.440063908191095865e-01
8.222601626539504105e-01 3.504837139902126641e-01 -4.483853154820372500e-01
8.462543948998367815e-01 3.074531752582921329e-01 -4.351161271848068557e-01
8.791962950381219111e-01 2.299080144763088196e-01 -4.173202363542906634e-01
8.914696920254818746e-01 2.586776411181835322e-01 -3.719780453004243870e-01
8.679971880154548902e-01 2.909545476468861636e-01 -4.024007117300598679e-01
8.763083058165431760e-01 2.524391450327692077e-01 -4.103147952634221829e-01
8.769984967083822580e-01 2.540057139494458771e-01 -4.078660736715788437e-01
8.994430905571575430e-01 2.742446135435811505e-01 -3.402822634098358612e-01
1.492715366631600926e-01 9.459449356219075122e-01 2.879343451439650425e-01
8.983328508553501957e-01 2.191548719286186830e-01 -3.807482517150275747e-01
8.417540287149315459e-01 2.535347850811572878e-01 -4.766238222078639231e-01
7.980213656902884756e-01 3.684416511097109992e-01 -4.768780238481921119e-01
8.065268243782744984e-01 3.825868090560982093e-01 -4.507125637194603907e-01
7.598442728220916598e-01 4.434728514159755330e-01 -4.753614531243051666e-01
6.325490015245895936e-01 6.183286656552600125e-01 -4.664240794590589489e-01
5.101500044180992122e-01 6.579247596383508423e-01 -5.539692984697183187e-01
4.887756776370187906e-01 6.958577455683573332e-01 -5.261941988306184648e-01
1.360567444052850350e-01 -1.951680055842272277e-01 -9.712867814904669883e-01
4.811250497110220459e-01 7.729600554909284993e-01 -4.135836543627263162e-01
4.811250497110220459e-01 7.729600554909284993e-01 -4.135836543627263162e-01
1.933341428006382645e-01 3.913966493635986366e-01 8.996835955459512313e-01
3.802351066699260485e-01 -3.674264909298855519e-01 -8.487750216745664211e-01
5.692811687073253690e-01 -1.901515346856834654e-01 -7.998508265994986877e-01
