-9.213169613304000860e-01 3.886053941443126658e-01 -1.268481008377843333e-02
-8.896032561087071633e-01 4.562945403970251612e-01 2.003345014353770034e-02
-8.963289895437392962e-01 4.429344199624830614e-01 2.008586856468562790e-02
-9.067363788388731471e-01 4.216962804182778357e-01 1.177442803967311243e-03
-9.071383939545265562e-01 4.205621944773264564e-01 1.507895188723570520e-02
-9.071383939545265562e-01 4.205621944773264564e-01 1.507895188723570520e-02
-9.069860362276139787e-01 4.210792242504835525e-01 8.283537452815761121e-03
-9.085857299662498665e-01 4.176980625706158134e-01 -5.475641065695166163e-04
-8.964699435042280395e-01 4.425548369896046830e-01 -2.206482836168312256e-02
-9.041781704535649666e-01 4.271543796033971940e-01 -9.859314787350611457e-04
-9.041781704535649666e-01 4.271543796033971940e-01 -9.859314787350611457e-04
-9.053239453237363898e-01 4.246024413593491587e-01 -1.006582411651841050e-02
-9.108120695820141055e-01 4.128114492569798788e-01 2.842756774736683763e-03
-8.734984171002976305e-01 4.868087317929072344e-01 -4.215919052345987184e-03
-8.734984171002976305e-01 4.868087317929072344e-01 -4.215919052345987184e-03
-8.663592341441236355e-01 4.994211354363957689e-01 -4.548545138205679406e-04
-8.663592341441236355e-01 4.994211354363957689e-01 -4.548545138205679406e-04
-8.941812702176267225e-01 4.471732658636830560e-01 -2.181573489020070811e-02
-8.722698303501249528e-01 4.889109343005294539e-01 1.055658004978763179e-02
-8.722698303501249528e-01 4.889109343005294539e-01 1.055658004978763179e-02
-8.660992882062923393e-01 4.997684196127624712e-01 1.017593859628950631e-02
-8.561058564143853022e-01 5.163522132863939129e-01 2.152102337795209000e-02
-8.561058564143853022e-01 5.163522132863939129e-01 2.152102337795209000e-02
-8.873556343890826037e-01 4.605445527326804678e-01 2.233143672503228733e-02
-8.677053185505940736e-01 4.970690641304938429e-01 -3.134588242040621271e-03
-8.677053185505940736e-01 4.970690641304938429e-01 -3.134588242040621271e-03
-8.659533101710092939e-01 5.001189075256823324e-01 -2.437814428914219633e-03
-8.870686970583843145e-01 4.610166279987585880e-01 -2.393314454463973256e-02
-8.870686970583843145e-01 4.610166279987585880e-01 -2.393314454463973256e-02
-8.493439519229164514e-01 5.270728960454004186e-01 2.844316413968625556e-02
-8.454623674905766828e-01 5.334093394043302183e-01 -2.584302214264300526e-02
-8.543271524767009906e-01 5.195924323499041542e-01 1.219921250582359923e-02
-8.565814738711038379e-01 5.157188254931250881e-01 -1.738596137114725715e-02
-8.616097391294964547e-01 5.075138870710681482e-01 7.636220741706343899e-03
-8.616097391294964547e-01 5.075138870710681482e-01 7.636220741706343899e-03
-8.692658939699845488e-01 4.943345943554814381e-01 3.180315073228053794e-03
-8.687404279881085767e-01 4.952477207469142551e-01 -4.445657884320755940e-03
-8.697648010344628533e-01 4.934565993824454044e-01 3.126564791254961805e-03
-8.697648010344628533e-01 4.934565993824454044e-01 3.126564791254961805e-03
-8.675158678658944078e-01 4.973667010007030709e-01 6.525621545989727067e-03
-8.675158678658944078e-01 4.973667010007030709e-01 6.525621545989727067e-03
-8.675202445200116408e-01 4.973981360089231862e-01 -1.928637547071848949e-03
-8.579289978211418477e-01 5.136305327349600658e-01 1.189582027488203173e-02
-8.579289978211418477e-01 5.136305327349600658e-01 1.189582027488203173e-02
-8.616858550693542451e-01 5.073932020226507023e-01 -7.044552121831985404e-03
-8.168645656726587490e-01 5.768278344031021465e-01 -1.389534542969406410e-03
-8.168687162554190140e-01 5.768199334866547234e-01 -2.065123646406832447e-03
-7.979690496555056356e-01 6.023367861197574946e-01 -2.087562882431899872e-02
-7.979690496555056356e-01 6.023367861197574946e-01 -2.087562882431899872e-02
-8.190228126953843502e-01 5.737601289025666684e-01 9.730191423501013135e-04
-8.294729671578304764e-01 5.581278115192089828e-01 2.163198472547059673e-02
-8.305396855311314441e-01 5.566553187213237885e-01 -1.840344796799611715e-02
-8.277448381368875951e-01 5.608123101445022796e-01 -1.811175662724156740e-02
-8.273559515797775932e-01 5.614250911453968484e-01 1.685219326685372110e-02
-8.273559515797775932e-01 5.614250911453968484e-01 1.685219326685372110e-02
-8.418490542776995156e-01 5.396733206517880799e-01 -6.548036989464745515e-03
-8.190900773671805357e-01 5.736510543344905955e-01 3.989112627341955680e-03
-8.190900773671805357e-01 5.736510543344905955e-01 3.989112627341955680e-03
-8.190900773671805357e-01 5.736510543344905955e-01 3.989112627341955680e-03
-8.406748861084498703e-01 5.408601863783610852e-01 -2.712922146522653982e-02
-8.406748861084498703e-01 5.408601863783610852e-01 -2.712922146522653982e-02
-8.194876302825870873e-01 5.730489880485374332e-01 7.408178614021362039e-03
-7.978117102263230231e-01 6.025503175691571123e-01 2.072654874930774174e-02
-8.113889154583332486e-01 5.845056391822867070e-01 1.088868888446037873e-03
-8.125656178839051336e-01 5.828697181196417221e-01 -9.128021182423041785e-05
-8.222750461770576003e-01 5.689075011175784846e-01 1.442233014010584242e-02
-8.220991359395434239e-01 5.692347208731506347e-01 -1.117332716438471617e-02
-8.220991359395434239e-01 5.692347208731506347e-01 -1.117332716438471617e-02
-8.113909678035730044e-01 5.845033319727873655e-01 7.431550917719807574e-04
-8.113909678035730044e-01 5.845033319727873655e-01 7.431550917719807574e-04
-8.126003004622280868e-01 5.828186286811922745e-01 -1.788225620843133905e-03
-8.126003004622280868e-01 5.828186286811922745e-01 -1.788225620843133905e-03
-8.070390362645383231e-01 5.904841770709540194e-01 4.053464449516309270e-03
-8.070390362645383231e-01 5.904841770709540194e-01 4.053464449516309270e-03
-7.978557689744985026e-01 6.025538018786837924e-01 1.884377233080807706e-02
-7.989598295021215213e-01 6.010346233982568620e-01 -2.050785991898100222e-02
-8.074293579479786542e-01 5.898704826869244355e-01 -1.051882020045524606e-02
-7.428365047532931031e-01 6.693412958723923278e-01 1.327240919265374776e-02
-7.428365047532931031e-01 6.693412958723923278e-01 1.327240919265374776e-02
-7.437589989294381976e-01 6.683019050568396180e-01 -1.396836457424485353e-02
-7.437589989294381976e-01 6.683019050568396180e-01 -1.396836457424485353e-02
-7.636815790707509599e-01 6.454772626605420616e-01 1.222903006202648649e-02
-7.620962964764878000e-01 6.473884019151742164e-01 9.873801827968726325e-03
-7.620962964764878000e-01 6.473884019151742164e-01 9.873801827968726325e-03
-7.634279938897157169e-01 6.458521100431832140e-01 -7.262926289874568203e-03
-7.637559719473998587e-01 6.454517660038585625e-01 8.296570205966996570e-03
-7.795865770737122613e-01 6.257144873371529581e-01 2.694715537671346986e-02
-7.802327468592757942e-01 6.247410740590003675e-01 3.058514528387790143e-02
-7.810496007242050398e-01 6.241066792781996275e-01 -2.126908763671900640e-02
-7.839537807803698133e-01 6.203226120435503255e-01 2.482592571548539184e-02
-7.839537807803698133e-01 6.203226120435503255e-01 2.482592571548539184e-02
-7.847962436256749053e-01 6.192065926532114295e-01 -2.603942406871043516e-02
-7.629988964336121837e-01 6.463622536301837362e-01 6.965710530870421364e-03
-7.629988964336121837e-01 6.463622536301837362e-01 6.965710530870421364e-03
-7.629988964336121837e-01 6.463622536301837362e-01 6.965710530870421364e-03
-7.676801996776584369e-01 6.406444231827925773e-01 1.555101500408869776e-02
-7.676801996776584369e-01 6.406444231827925773e-01 1.555101500408869776e-02
-7.454218700199052305e-01 6.665447092306050481e-01 8.024106973083748595e-03
-7.459182070394262398e-01 6.659356754125713707e-01 -1.164923258802962915e-02
-7.583137550276316530e-01 6.518855364414691822e-01 2.344421956742091546e-03
-7.558548425712655616e-01 6.545830299132995300e-01 1.430083602771662320e-02
-7.558548425712655616e-01 6.545830299132995300e-01 1.430083602771662320e-02
-7.407065857721593094e-01 6.713195292364337874e-01 2.615040075264198072e-02
-7.412235238050726149e-01 6.710624013198525084e-01 -1.621546461943351031e-02
-7.583816005195918031e-01 6.518068263613024937e-01 -2.282345755835672122e-03
-7.573659106946457609e-01 6.529889365325989292e-01 -1.525150384484514612e-03
-7.573659106946457609e-01 6.529889365325989292e-01 -1.525150384484514612e-03
-7.573069066699260610e-01 6.530566643192711185e-01 1.800638279854927665e-03
-7.368756638576615670e-01 6.757421294564633918e-01 1.966800681245850155e-02
-7.368756638576615670e-01 6.757421294564633918e-01 1.966800681245850155e-02
-7.375794437692247962e-01 6.749277367766024494e-01 -2.119231602949317797e-02
-7.268263798430913969e-01 6.862796536032346184e-01 2.726995809330375053e-02
-7.278274179813478684e-01 6.852062576951389872e-01 -2.756145950465898123e-02
-7.278274179813478684e-01 6.852062576951389872e-01 -2.756145950465898123e-02
-7.521940297753334503e-01 6.589401548632461969e-01 -1.419112097674415148e-03
-7.522391056729137437e-01 6.588787376384214189e-01 -3.890627766187528154e-03
-7.522391056729137437e-01 6.588787376384214189e-01 -3.890627766187528154e-03
-7.043384931072351751e-01 7.096916065749628855e-01 1.565601112919810800e-02
-7.043384931072351751e-01 7.096916065749628855e-01 1.565601112919810800e-02
-7.055289446158423683e-01 7.085254311299563623e-01 -1.485334142088503423e-02
-6.824765346273921063e-01 7.308825936291691860e-01 6.034402446390808340e-03
-6.828628367939053589e-01 7.305334900072959492e-01 -4.377910864784868329e-03
-6.828628367939053589e-01 7.305334900072959492e-01 -4.377910864784868329e-03
-6.828628367939053589e-01 7.305334900072959492e-01 -4.377910864784868329e-03
-7.028764627281353095e-01 7.111722895401204614e-01 1.409442205439047358e-02
-7.031280753583492027e-01 7.110405629148001116e-01 5.676929862874678656e-03
-7.031280753583492027e-01 7.110405629148001116e-01 5.676929862874678656e-03
-6.824248672958381778e-01 7.307835774910599325e-01 1.586390133685785381e-02
-7.235364310932880239e-01 6.897561690605350515e-01 2.704551947591603278e-02
-6.907702600598579767e-01 7.230724759259691270e-01 1.625538410772674278e-03
-6.907702600598579767e-01 7.230724759259691270e-01 1.625538410772674278e-03
-6.848501102055880585e-01 7.286656236720889801e-01 -5.170631485569811975e-03
-6.908113914041861259e-01 7.230350059495209702e-01 -4.096081556706258165e-05
-6.698778330959650473e-01 7.421394294909370304e-01 -2.219810625978906049e-02
-6.683177418539480996e-01 7.435935675489233621e-01 2.049395577004092459e-02
-6.969330677627169068e-01 7.171342425425611955e-01 -1.666502851900618452e-03
-7.001669328256547864e-01 7.139102519399759261e-01 9.920602427036753768e-03
-6.854407695930284650e-01 7.281239097043146202e-01 -2.554113666225983018e-03
-6.854407695930284650e-01 7.281239097043146202e-01 -2.554113666225983018e-03
-6.852867266405040514e-01 7.282087462255676380e-01 9.701763289727468112e-03
-7.004406548865710347e-01 7.136593924309917458e-01 -8.553395647302777446e-03
-6.789658321637004335e-01 7.341353181111016646e-01 7.122742180173296037e-03
-6.789658321637004335e-01 7.341353181111016646e-01 7.122742180173296037e-03
-6.793606804493530493e-01 7.337080219908578282e-01 -1.189976157975060171e-02
-6.793606804493530493e-01 7.337080219908578282e-01 -1.189976157975060171e-02
-6.967096346110569494e-01 7.173268832075391233e-01 6.150420138913155477e-03
-6.236686205642235636e-01 7.816675018570177214e-01 5.776526995346920046e-03
-6.236686205642235636e-01 7.816675018570177214e-01 5.776526995346920046e-03
-6.168615371757389942e-01 7.870713599964385132e-01 7.198795322978096545e-04
-6.168615371757389942e-01 7.870713599964385132e-01 7.198795322978096545e-04
-6.168045040369140031e-01 7.871129626625489317e-01 2.321165302463594135e-03
-5.940349594328254712e-01 8.043802948286635779e-01 -9.736953475995515153e-03
-5.940349594328254712e-01 8.043802948286635779e-01 -9.736953475995515153e-03
-6.176257219203533655e-01 7.864622677917202376e-01 3.945752433558582552e-03
-6.176257219203533655e-01 7.864622677917202376e-01 3.945752433558582552e-03
-6.454170677045701909e-01 7.637412504523449774e-01 -1.166666503858637682e-02
-6.539344075242129462e-01 7.564697739004890842e-01 -1.110278482632191810e-02
-6.431520002995790852e-01 7.654551943121854496e-01 2.082906649719195452e-02
-6.438846926015011629e-01 7.648559878951936009e-01 -2.019456397989549332e-02
-6.316187838894160578e-01 7.751423003335716766e-01 1.456454845281316551e-02
-6.326404004186987340e-01 7.743714712004077239e-01 -1.072139678328885848e-02
-6.409649859802027949e-01 7.672505479372278003e-01 2.214686066742112963e-02
-6.409649859802027949e-01 7.672505479372278003e-01 2.214686066742112963e-02
-5.910506232534290527e-01 8.063120393582745571e-01 2.280473498274887545e-02
-5.954164411682237867e-01 8.031062726652888895e-01 -2.235120561029410938e-02
-6.030702105840713978e-01 7.975126343259820727e-01 -1.673078589057156590e-02
-6.138383394690416495e-01 7.894215919006455362e-01 -4.005401220881967678e-03
-6.015637601063974493e-01 7.987360950891528866e-01 1.190348387593174323e-02
-6.015637601063974493e-01 7.987360950891528866e-01 1.190348387593174323e-02
-6.137541807182266274e-01 7.894944863135006097e-01 -2.064396153854120876e-03
-6.137541807182266274e-01 7.894944863135006097e-01 -2.064396153854120876e-03
-5.916733643015278377e-01 8.058871551492762242e-01 -2.164539538835387120e-02
-6.079776300389186927e-01 7.939537550883892791e-01 -7.975921927218126463e-04
-6.210920704971603090e-01 7.836916097981994067e-01 8.491212955590144926e-03
-6.210920704971603090e-01 7.836916097981994067e-01 8.491212955590144926e-03
-5.903383036955699437e-01 8.069254782476086296e-01 1.928625792384451934e-02
-5.903383036955699437e-01 8.069254782476086296e-01 1.928625792384451934e-02
-5.940741675371958852e-01 8.041847641817654324e-01 1.904595817768800145e-02
-5.533036576975316478e-01 8.329346252160887421e-01 -8.658665871050538407e-03
-5.522216783234926707e-01 8.336059916340572418e-01 1.233972047434437648e-02
-5.660381357431911731e-01 8.241529025013624166e-01 -1.930860385818638711e-02
-5.509244238235398994e-01 8.343990069826755507e-01 1.614237841910081545e-02
-5.310111039265003052e-01 8.473465530016027758e-01 5.570154671244404582e-03
-5.310111039265003052e-01 8.473465530016027758e-01 5.570154671244404582e-03
-5.732147901919700805e-01 8.190101021029760897e-01 -2.544124522205262404e-02
-5.732147901919700805e-01 8.190101021029760897e-01 -2.544124522205262404e-02
-5.468182158367616008e-01 8.372510615744731544e-01 7.062021798402653592e-04
-5.312568852464598645e-01 8.471681480408999043e-01 8.500048422314091315e-03
-5.463757769083422700e-01 8.375328306318000626e-01 -3.502573580949114047e-03
-5.463757769083422700e-01 8.375328306318000626e-01 -3.502573580949114047e-03
-5.185415554826798834e-01 8.548443648877862566e-01 1.886178828213877501e-02
-5.186938002993547459e-01 8.547730988755547488e-01 -1.787990407396370524e-02
-5.320389931660476357e-01 8.466698074178243827e-01 -9.205811095297158561e-03
-5.307026567524375515e-01 8.475560517978747432e-01 1.851803634997456049e-03
-5.307026567524375515e-01 8.475560517978747432e-01 1.851803634997456049e-03
-4.921571942202714323e-01 8.700996284003605918e-01 2.660700724968115272e-02
-4.921571942202714323e-01 8.700996284003605918e-01 2.660700724968115272e-02
-5.533947455886210065e-01 8.325275773629725595e-01 2.553602328172654631e-02
-5.404184982175419538e-01 8.412431370152544385e-01 1.605712331117427338e-02
-4.976754730932849147e-01 8.665956099564755544e-01 3.648523380134727906e-02
-4.976754730932849147e-01 8.665956099564755544e-01 3.648523380134727906e-02
-5.256736047869917661e-01 8.506798623481193200e-01 3.321599860650079582e-03
-5.256736047869917661e-01 8.506798623481193200e-01 3.321599860650079582e-03
-5.546502456508664025e-01 8.320329220107144375e-01 -9.182684234250362149e-03
-5.422507811842299796e-01 8.402145041985482621e-01 1.917612964022644443e-03
-5.423272875243461133e-01 8.401664325618860563e-01 1.216060326929044744e-03
-5.423272875243461133e-01 8.401664325618860563e-01 1.216060326929044744e-03
-4.947758118364415370e-01 8.688863815585243788e-01 1.527586212704449761e-02
-4.916347525433481525e-01 8.705635656965401425e-01 -2.035554404496904904e-02
-4.904044231308297697e-01 8.714681334226974663e-01 6.840628807175385198e-03
-4.562444360198696924e-01 8.898516275416080701e-01 2.257335256907741679e-03
-4.983357757267418697e-01 8.669433289101010631e-01 8.409464257530079034e-03
-5.012008785381060205e-01 8.649602283720709828e-01 -2.532750850686830285e-02
-5.012008785381060205e-01 8.649602283720709828e-01 -2.532750850686830285e-02
-5.032322180971525727e-01 8.639342781842653807e-01 -1.936227381409705295e-02
-4.738838616686081306e-01 8.804382129107051203e-01 1.620613762286514728e-02
-4.759208810252821276e-01 8.794862542613330891e-01 1.800991251803703806e-03
-4.759208810252821276e-01 8.794862542613330891e-01 1.800991251803703806e-03
-4.759208810252821276e-01 8.794862542613330891e-01 1.800991251803703806e-03
-4.914931350730362691e-01 8.702470854565147462e-01 3.323414555121572550e-02
-4.556193206491657710e-01 8.901734719537394147e-01 -1.491469415623639062e-03
-4.667762750805996563e-01 8.843753397760674151e-01 4.091672588232121515e-04
-4.271959365483127269e-01 9.039764995167346440e-01 1.816920796515394260e-02
-4.358849286507275878e-01 8.997709374430816753e-01 -2.041051464192063930e-02
-4.557508807735033418e-01 8.901045714538933229e-01 -2.233058677454069843e-03
-4.557508807735033418e-01 8.901045714538933229e-01 -2.233058677454069843e-03
-4.512755873030439013e-01 8.923807108288495105e-01 -2.647875542809886070e-03
-4.512755873030439013e-01 8.923807108288495105e-01 -2.647875542809886070e-03
-4.582668670392965882e-01 8.886797631063892977e-01 1.548409568426570293e-02
-4.582668670392965882e-01 8.886797631063892977e-01 1.548409568426570293e-02
-4.532139839814883220e-01 8.913735269858495958e-01 -7.093667065347119757e-03
-4.642120108319499616e-01 8.856736794731913109e-01 9.452115518572940314e-03
-4.642120108319499616e-01 8.856736794731913109e-01 9.452115518572940314e-03
-4.415119934552849124e-01 8.972296288954192400e-01 6.793575445142511875e-03
-4.415119934552849124e-01 8.972296288954192400e-01 6.793575445142511875e-03
-4.459116591512770067e-01 8.949920468946330754e-01 -1.232997276194049141e-02
-4.459116591512770067e-01 8.949920468946330754e-01 -1.232997276194049141e-02
-4.390992205186727837e-01 8.980918795191916715e-01 2.495697260445596186e-02
-4.390992205186727837e-01 8.980918795191916715e-01 2.495697260445596186e-02
-4.293923648228416545e-01 9.031071324846728920e-01 -4.438951132760335719e-03
-4.290158518952096878e-01 9.030979836105592629e-01 -1.895866084852844413e-02
-3.716336641622632886e-01 9.283794427130099836e-01 1.732316695857881103e-04
-3.709009694903959153e-01 9.286394700157641902e-01 7.823398233828245465e-03
-3.709009694903959153e-01 9.286394700157641902e-01 7.823398233828245465e-03
-3.774891884607448622e-01 9.259959546730788249e-01 5.779664725695186564e-03
-3.851606934855758002e-01 9.227596136653266612e-01 1.288159857810866095e-02
-3.991413300988709278e-01 9.165847271561339271e-01 2.363549345834662849e-02
-4.090487998702662664e-01 9.122509641299650918e-01 -2.184623007852658921e-02
-4.090487998702662664e-01 9.122509641299650918e-01 -2.184623007852658921e-02
-4.267599018486255558e-01 9.043638070471556878e-01 1.445917468783623587e-03
-3.556697144463258908e-01 9.345731652932821598e-01 -8.488400283008472672e-03
-3.556697144463258908e-01 9.345731652932821598e-01 -8.488400283008472672e-03
-3.512477125308646753e-01 9.362150686336336847e-01 1.124231760605676027e-02
-3.664417626951466667e-01 9.304289344996786726e-01 -4.736285323628164866e-03
-3.664417626951466667e-01 9.304289344996786726e-01 -4.736285323628164866e-03
-3.755166215054257517e-01 9.268130730215882185e-01 2.189668794843553472e-03
-3.317846814802184463e-01 9.431032555727407729e-01 2.179849680982049939e-02
-3.317846814802184463e-01 9.431032555727407729e-01 2.179849680982049939e-02
-3.317846814802184463e-01 9.431032555727407729e-01 2.179849680982049939e-02
-3.420986703072667612e-01 9.394086790267925924e-01 -2.190510313001930998e-02
-3.659338220579535506e-01 9.306386300352144092e-01 -2.044054851831112168e-03
-3.912486973774594312e-01 9.202360044313556697e-01 -9.494890660515379124e-03
-3.912486973774594312e-01 9.202360044313556697e-01 -9.494890660515379124e-03
-3.561748389202162857e-01 9.344100682764125976e-01 4.160339388564835567e-03
-3.605480430529776625e-01 9.326668593764488868e-01 -1.173192531256621665e-02
-3.605480430529776625e-01 9.326668593764488868e-01 -1.173192531256621665e-02
-3.752598958123887773e-01 9.269139996953212890e-01 3.232300062959657036e-03
-3.164997304505446918e-01 9.484042393308900198e-01 1.890289512028039270e-02
-3.164997304505446918e-01 9.484042393308900198e-01 1.890289512028039270e-02
-3.722678807746576113e-01 9.281135610436280770e-01 4.673622841108858450e-03
-4.035116682009179390e-01 9.149457524672495179e-01 -7.252838606435975388e-03
-3.524878348887137136e-01 9.357847997507618976e-01 -7.689916182467799316e-03
-3.728177410427040428e-01 9.279023368997211252e-01 2.045761435656724778e-03
-2.869688439340261632e-01 9.579276129076600421e-01 4.855001565490096004e-03
-2.843072869184055662e-01 9.587331536319014802e-01 3.266988282042900828e-04
-3.255368360082622203e-01 9.452874821484106294e-01 -2.138561421254794176e-02
-3.255368360082622203e-01 9.452874821484106294e-01 -2.138561421254794176e-02
-2.914641849522054406e-01 9.565205769667609603e-01 1.081733466808316828e-02
-2.837379675155911607e-01 9.588982722841106199e-01 2.620915998082235052e-03
-2.837379675155911607e-01 9.588982722841106199e-01 2.620915998082235052e-03
-2.566277845459540297e-01 9.665012050948935673e-01 4.195324678003018587e-03
-2.566277845459540297e-01 9.665012050948935673e-01 4.195324678003018587e-03
-2.867611947823863194e-01 9.579907133176102096e-01 4.670156763381379771e-03
-2.867611947823863194e-01 9.579907133176102096e-01 4.670156763381379771e-03
-3.075604826764927746e-01 9.514071897328633121e-01 -1.519568426948858172e-02
-3.075604826764927746e-01 9.514071897328633121e-01 -1.519568426948858172e-02
-2.729378627619636899e-01 9.620315888618184985e-01 -3.809237935517726043e-04
-2.750017046349412797e-01 9.614173561534665735e-01 -7.122480941018730430e-03
-2.827869647919572516e-01 9.591803598669167430e-01 2.137706557119416640e-03
-2.339651523040865710e-01 9.720099118360638890e-01 2.137846579558206825e-02
-2.630526079881684853e-01 9.647378453429558132e-01 9.176883656988002458e-03
-2.764547479082455350e-01 9.610167574081436292e-01 -4.423159473233150007e-03
-2.764547479082455350e-01 9.610167574081436292e-01 -4.423159473233150007e-03
-2.923129881998678958e-01 9.561030922884726779e-01 2.049375139119336692e-02
-2.705346077891099821e-01 9.626971310991832009e-01 5.025909051563675484e-03
-2.705346077891099821e-01 9.626971310991832009e-01 5.025909051563675484e-03
-2.378116275807454771e-01 9.711870920266263418e-01 1.553261305325535045e-02
-2.378116275807454771e-01 9.711870920266263418e-01 1.553261305325535045e-02
-2.951200220186810941e-01 9.554593741465819967e-01 -1.247781677634166335e-03
-2.691788697466974134e-01 9.630036129567748349e-01 -1.291423687597609282e-02
-2.691788697466974134e-01 9.630036129567748349e-01 -1.291423687597609282e-02
-2.230177091953241542e-01 9.746884038088150515e-01 1.567216851282260404e-02
-2.230177091953241542e-01 9.746884038088150515e-01 1.567216851282260404e-02
-2.258180656048060231e-01 9.737519261806339976e-01 2.851994926377978551e-02
-1.882198388724825311e-01 9.821266509164908731e-01 -7.306260152427835513e-04
-1.882198388724825311e-01 9.821266509164908731e-01 -7.306260152427835513e-04
-2.226194541768086177e-01 9.747502575816531234e-01 -1.739292863553200397e-02
-2.226194541768086177e-01 9.747502575816531234e-01 -1.739292863553200397e-02
-2.565682806820970274e-01 9.662521677816373611e-01 -2.301011962418422069e-02
-2.124828546955615516e-01 9.769927613220384943e-01 1.833523342538490031e-02
-1.989799108021873264e-01 9.799551846705993885e-01 9.738127867562560921e-03
-2.024198389503675533e-01 9.792944517920421088e-01 -2.930100447255459383e-03
-2.024198389503675533e-01 9.792944517920421088e-01 -2.930100447255459383e-03
-2.452343962990557735e-01 9.692094101337169754e-01 -2.220833582441829671e-02
-1.753346325455908961e-01 9.843878573976494462e-01 1.543738443414171928e-02
-1.788473144320009700e-01 9.837854645826002997e-01 1.340887006641696029e-02
-2.385117212265031039e-01 9.710038906957966232e-01 -1.623585819094205615e-02
-1.586643505307046564e-01 9.872479514810289514e-01 1.292695506224987058e-02
-1.687546265100439424e-01 9.855019994189101462e-01 -1.754095700884864689e-02
-1.845816172448368209e-01 9.828137672873743513e-01 -2.593338712798353048e-03
-1.499807776475778065e-01 9.885145988450874110e-01 1.856486483558863684e-02
-1.499807776475778065e-01 9.885145988450874110e-01 1.856486483558863684e-02
-1.905864187847067515e-01 9.816376555828242312e-01 8.020605754990452196e-03
-1.905864187847067515e-01 9.816376555828242312e-01 8.020605754990452196e-03
-1.905864187847067515e-01 9.816376555828242312e-01 8.020605754990452196e-03
-1.739908070339315493e-01 9.846533922919320503e-01 -1.359765110861477916e-02
-1.671910926453328561e-01 9.857273231992219609e-01 1.971757689363195024e-02
-1.919454246359119653e-01 9.814051272075940968e-01 -9.644957156394957975e-04
-1.919454246359119653e-01 9.814051272075940968e-01 -9.644957156394957975e-04
-1.907456724517790081e-01 9.816347231263423678e-01 3.059214537707067010e-03
-1.589125867295402561e-01 9.870826291802663466e-01 -2.036352006651209051e-02
-1.726309024872997588e-01 9.848540459533516866e-01 -1.615796013529907302e-02
-1.655285912052439912e-01 9.861452313312673024e-01 1.085671295597660096e-02
-8.576094040197368429e-02 9.961998531576158333e-01 1.519584384342910315e-02
-9.820958550592268077e-02 9.951652032708377948e-01 -1.046667887516652441e-03
-9.820958550592268077e-02 9.951652032708377948e-01 -1.046667887516652441e-03
-1.295517937243133855e-01 9.914344133602087661e-01 -1.655707546372856345e-02
-9.980165810922289604e-02 9.949912221489896069e-01 5.665411292191113724e-03
-1.210469690885400268e-01 9.924599369764934842e-01 1.925888810634513934e-02
-1.210469690885400268e-01 9.924599369764934842e-01 1.925888810634513934e-02
-1.273124467654078995e-01 9.917457948742437468e-01 -1.522561157588288479e-02
-7.595844510685320627e-02 9.971029893124365717e-01 3.992908858496240117e-03
-7.595844510685320627e-02 9.971029893124365717e-01 3.992908858496240117e-03
-9.596326446125812148e-02 9.953763953023753164e-01 4.108959574916103141e-03
-9.596326446125812148e-02 9.953763953023753164e-01 4.108959574916103141e-03
-1.008572300456710841e-01 9.948999662271675870e-01 1.369798779120560799e-03
-9.844011495203536244e-02 9.951396650858105319e-01 2.567243878335043021e-03
-5.724084396980542305e-02 9.981601882351883726e-01 1.999310891076163527e-02
-8.571732197741688264e-02 9.963186502107941322e-01 -1.299213285460737964e-03
-6.495566151881822237e-02 9.977100489880516010e-01 -1.885259093366596292e-02
-8.725183856424383044e-02 9.961541263038744543e-01 -8.004580871202954251e-03
-1.095287115420493784e-01 9.939689504983899582e-01 -5.402480270005836568e-03
-7.541314532982429375e-02 9.971007557563443813e-01 1.014595395167899004e-02
-8.572779231910136744e-02 9.962393889709848516e-01 1.256286141019270601e-02
-8.572779231910136744e-02 9.962393889709848516e-01 1.256286141019270601e-02
-8.572779231910136744e-02 9.962393889709848516e-01 1.256286141019270601e-02
-1.075894407130732616e-01 9.941516178054645714e-01 9.331294756117694891e-03
-1.075894407130732616e-01 9.941516178054645714e-01 9.331294756117694891e-03
-1.075894407130732616e-01 9.941516178054645714e-01 9.331294756117694891e-03
-9.867596246235470214e-02 9.951186544612711238e-01 1.384909858837472633e-03
-9.867596246235470214e-02 9.951186544612711238e-01 1.384909858837472633e-03
-9.867596246235470214e-02 9.951186544612711238e-01 1.384909858837472633e-03
1.756971235677692118e-04 9.999999334332611012e-01 3.197874203195399489e-04
-1.198797011016418390e-02 9.998656046894890403e-01 1.118307343981754694e-02
-7.554769949920995403e-03 9.999389065962145384e-01 8.068985448661924326e-03
-7.554769949920995403e-03 9.999389065962145384e-01 8.068985448661924326e-03
-3.774046547192756729e-02 9.992086090043047486e-01 -1.256236274132751206e-02
-3.774046547192756729e-02 9.992086090043047486e-01 -1.256236274132751206e-02
-8.730299811509946439e-03 9.999613006758769629e-01 1.085824944266200161e-03
3.108725697941168084e-02 9.993493909558921473e-01 1.828598505915060568e-02
2.903738813286842538e-02 9.995262618028014634e-01 -1.020206140634272000e-02
-3.020205133189935408e-03 9.999692080788654680e-01 7.243014226148986566e-03
-1.505315513809669242e-02 9.998659149522619582e-01 -6.446288627155941434e-03
-1.292027679723608408e-02 9.998596596388189539e-01 1.066430843645332222e-02
-2.655311975053558857e-02 9.994508722062709349e-01 1.982134903678497637e-02
-2.655311975053558857e-02 9.994508722062709349e-01 1.982134903678497637e-02
-2.716197555391297591e-02 9.994554770443395686e-01 -1.873436655135044676e-02
-2.716197555391297591e-02 9.994554770443395686e-01 -1.873436655135044676e-02
9.294657070303765853e-03 9.999120762139820373e-01 -9.457758264488106900e-03
9.294657070303765853e-03 9.999120762139820373e-01 -9.457758264488106900e-03
-3.268679738958860819e-04 9.999981047135254597e-01 -1.919303697874440552e-03
-3.268679738958860819e-04 9.999981047135254597e-01 -1.919303697874440552e-03
1.132097947442835609e-02 9.998786077331489608e-01 -1.070538282170627360e-02
1.132097947442835609e-02 9.998786077331489608e-01 -1.070538282170627360e-02
1.257746988977551973e-02 9.998643860980920284e-01 -1.063092958576268565e-02
1.257746988977551973e-02 9.998643860980920284e-01 -1.063092958576268565e-02
1.521176967407719335e-02 9.998283910357872450e-01 1.057310466096155963e-02
1.521176967407719335e-02 9.998283910357872450e-01 1.057310466096155963e-02
3.886775986934233747e-04 9.999973819562304467e-01 2.254996764859115710e-03
4.779663008104793193e-02 9.985721330784819161e-01 2.385743473188487243e-02
1.245939943238592515e-02 9.999217280372897365e-01 1.140686067454827878e-03
4.827756706993017186e-04 9.999703309799247153e-01 7.687918284660458582e-03
4.827756706993017186e-04 9.999703309799247153e-01 7.687918284660458582e-03
-3.632937476674735072e-02 9.992808567006693510e-01 -1.086029284290665822e-02
3.935566407403607442e-02 9.990669403719255603e-01 1.778708411097702086e-02
3.935566407403607442e-02 9.990669403719255603e-01 1.778708411097702086e-02
3.935566407403607442e-02 9.990669403719255603e-01 1.778708411097702086e-02
8.930991322433814994e-02 9.959693512933894821e-01 8.294014955743805873e-03
4.734711444649641887e-02 9.986307698460602511e-01 -2.224491560458974684e-02
7.032333470417263810e-02 9.973541680319946146e-01 1.841988342234035514e-02
7.032333470417263810e-02 9.973541680319946146e-01 1.841988342234035514e-02
7.601845988968522483e-02 9.968660999744850537e-01 -2.189000862632128203e-02
8.191176068205802130e-02 9.965280577499442405e-01 1.490951303997852320e-02
8.191176068205802130e-02 9.965280577499442405e-01 1.490951303997852320e-02
8.191176068205802130e-02 9.965280577499442405e-01 1.490951303997852320e-02
1.052280110970217203e-01 9.944442273989336778e-01 2.782853482069163730e-03
7.422294555236545743e-02 9.971158319938043801e-01 1.584209395358206554e-02
8.668742453109724855e-02 9.962346169357019221e-01 1.370564533460919866e-03
9.907989397833530387e-02 9.950770902480389202e-01 -2.181529907662716448e-03
9.907989397833530387e-02 9.950770902480389202e-01 -2.181529907662716448e-03
1.051872004125924132e-01 9.944453218625401991e-01 3.762272593796752752e-03
7.941322186884412770e-02 9.967410871272357475e-01 1.416846585999498830e-02
9.451061398991160434e-02 9.955234531957081190e-01 8.932975667495569351e-04
1.177512460799063770e-01 9.929047612559651625e-01 -1.657646288761194589e-02
1.188553343107948412e-01 9.927654741328870713e-01 1.703299373489923496e-02
1.081818317415093045e-01 9.941311140431553506e-01 -1.391846504064881763e-04
1.081818317415093045e-01 9.941311140431553506e-01 -1.391846504064881763e-04
8.690479340078247072e-02 9.961298001825392712e-01 1.315211284401537721e-02
8.687319129707501975e-02 9.962190566120179280e-01 7.999230729092914700e-04
8.687319129707501975e-02 9.962190566120179280e-01 7.999230729092914700e-04
9.823634354807685154e-02 9.951589874794263268e-01 -2.865387447974806611e-03
9.823443877645059163e-02 9.951572871834645229e-01 -3.459595919053144557e-03
1.632163165477274192e-01 9.865902189340804984e-01 4.170326068668739881e-04
1.632163165477274192e-01 9.865902189340804984e-01 4.170326068668739881e-04
1.139887035572825502e-01 9.934781755073430753e-01 2.773130348664562018e-03
1.101806743367439029e-01 9.938568748053572266e-01 -1.042743519897366446e-02
1.101806743367439029e-01 9.938568748053572266e-01 -1.042743519897366446e-02
1.418157022539745515e-01 9.897953225989392090e-01 1.391136066220365758e-02
1.658732976903400103e-01 9.861440689069507215e-01 -2.434024029290383830e-03
1.658732976903400103e-01 9.861440689069507215e-01 -2.434024029290383830e-03
1.590468031162595997e-01 9.868372890117658169e-01 2.926225272268475827e-02
2.284584802594189223e-01 9.730043131705918835e-01 3.270060166084876735e-02
2.284584802594189223e-01 9.730043131705918835e-01 3.270060166084876735e-02
1.906285770067814855e-01 9.816009601723878486e-01 1.096816379417593634e-02
1.909430070870536678e-01 9.815970953246012654e-01 -2.812560196468647748e-03
1.688888436188417941e-01 9.855176850823010870e-01 1.521351015093547546e-02
1.688888436188417941e-01 9.855176850823010870e-01 1.521351015093547546e-02
1.494654337718329118e-01 9.885958821005150776e-01 1.839200916980167008e-02
1.559090669585324052e-01 9.875617067379105496e-01 -2.035284316810075447e-02
1.559090669585324052e-01 9.875617067379105496e-01 -2.035284316810075447e-02
1.322228445347282677e-01 9.911026817149003465e-01 -1.525102228304536268e-02
1.609191786400563651e-01 9.869550699252976900e-01 -4.970703628299821819e-03
1.609191786400563651e-01 9.869550699252976900e-01 -4.970703628299821819e-03
1.963918360636345839e-01 9.805245775016132592e-01 -1.341507673123863752e-03
1.838002160959723574e-01 9.829597177600392088e-01 2.770166814080131986e-03
2.201230156295198859e-01 9.751997423411485899e-01 2.305039105793138879e-02
2.211607091214960186e-01 9.749553029828059714e-01 -2.345416650793804778e-02
1.987459188083297301e-01 9.800139158848906185e-01 -8.531379079328995155e-03
2.001852492560213526e-01 9.797438290820571494e-01 5.281605431432035910e-03
2.001852492560213526e-01 9.797438290820571494e-01 5.281605431432035910e-03
1.723202611452061550e-01 9.847597257045447305e-01 2.353742188851122574e-02
1.910275684666228602e-01 9.815394449688823464e-01 9.422635295280618051e-03
1.837039536291951158e-01 9.829809352271877687e-01 1.156892771967493261e-03
1.837039536291951158e-01 9.829809352271877687e-01 1.156892771967493261e-03
1.707298333979094807e-01 9.852564965788453977e-01 -1.099817880841054245e-02
1.841509560406086599e-01 9.828877740882846492e-01 4.477603947110896793e-03
2.157081744251781452e-01 9.763822530944851197e-01 -1.215233838789343303e-02
2.157081744251781452e-01 9.763822530944851197e-01 -1.215233838789343303e-02
2.044592375213933055e-01 9.788749736970091542e-01 4.539403596813960029e-04
2.044592375213933055e-01 9.788749736970091542e-01 4.539403596813960029e-04
2.014130519591781354e-01 9.794742458930917328e-01 -7.936254321070255677e-03
1.944484014805879790e-01 9.808925843052183069e-01 -6.289452811976066308e-03
2.751582392369033570e-01 9.613695013389066402e-01 7.524976772664817605e-03
2.751582392369033570e-01 9.613695013389066402e-01 7.524976772664817605e-03
2.991434633804785914e-01 9.539217885164323896e-01 2.337540823906948673e-02
2.991434633804785914e-01 9.539217885164323896e-01 2.337540823906948673e-02
2.399655901373230205e-01 9.706760931762183908e-01 -1.429817072914348758e-02
2.399655901373230205e-01 9.706760931762183908e-01 -1.429817072914348758e-02
2.980990398230751737e-01 9.544298059681982638e-01 -1.416714283361311839e-02
2.750669893310542791e-01 9.614179161370675075e-01 3.707008363664625241e-03
2.793390143984212370e-01 9.601916914980226370e-01 -1.276954613515159966e-03
2.728911501878030221e-01 9.620187557567632108e-01 7.094626233074442269e-03
2.728911501878030221e-01 9.620187557567632108e-01 7.094626233074442269e-03
2.660899712160904040e-01 9.639141775259001399e-01 8.098492624415126045e-03
2.660899712160904040e-01 9.639141775259001399e-01 8.098492624415126045e-03
2.716682817240104186e-01 9.623899201108027102e-01 1.409387897855663959e-03
3.003135336427600888e-01 9.538214849916130111e-01 6.029616852916954740e-03
3.003135336427600888e-01 9.538214849916130111e-01 6.029616852916954740e-03
2.636642702366019386e-01 9.645750336466716313e-01 -8.726801597527433091e-03
2.862685421998188429e-01 9.581368433397227102e-01 -4.910313817081908561e-03
2.875825100761466024e-01 9.577558648612313208e-01 5.676458267686992963e-05
2.944320310396234541e-01 9.556285072330664709e-01 -9.161618928069627937e-03
2.522393005431701196e-01 9.671290107028420735e-01 3.219956394789075943e-02
3.334453266856479137e-01 9.423108822913655036e-01 -2.940093921577864242e-02
2.505382290657223732e-01 9.678372607381230397e-01 -2.283927546000074152e-02
2.505382290657223732e-01 9.678372607381230397e-01 -2.283927546000074152e-02
2.812735889186507854e-01 9.596248718772951714e-01 -2.296399640068188305e-03
2.686558763823415630e-01 9.631700087600655324e-01 1.129399443824759958e-02
2.670573335190919440e-01 9.636806016833828759e-01 -2.802727699477354267e-04
2.670573335190919440e-01 9.636806016833828759e-01 -2.802727699477354267e-04
3.198841411443655303e-01 9.472917987301999743e-01 1.767439681669139701e-02
3.100019583449875049e-01 9.505791690779874514e-01 -1.726352041952829847e-02
2.967047175072314302e-01 9.549692081204694816e-01 -3.495006682866006300e-04
2.967047175072314302e-01 9.549692081204694816e-01 -3.495006682866006300e-04
3.356609819379961501e-01 9.418974612364603427e-01 1.268375814697432144e-02
3.581241908097472226e-01 9.336042313322422403e-01 1.141066147937074872e-02
3.798310305703697654e-01 9.250417249635329853e-01 -5.118133677652170026e-03
3.798310305703697654e-01 9.250417249635329853e-01 -5.118133677652170026e-03
3.745717609698369088e-01 9.271466007725773784e-01 9.755847467577440091e-03
3.571012982652500556e-01 9.340637771966210368e-01 -1.876940716769193379e-03
3.571012982652500556e-01 9.340637771966210368e-01 -1.876940716769193379e-03
3.543018335133877317e-01 9.349518981094996350e-01 1.830734799187700573e-02
3.543018335133877317e-01 9.349518981094996350e-01 1.830734799187700573e-02
3.620975895155360003e-01 9.321097155401569800e-01 7.537497110195024753e-03
3.620975895155360003e-01 9.321097155401569800e-01 7.537497110195024753e-03
3.604443108025082720e-01 9.327797273382130161e-01 1.370794278447922754e-03
3.536174533461695635e-01 9.353432077277805679e-01 9.369121969284809753e-03
3.839943510113494884e-01 9.233201996470558059e-01 -5.305404328952376299e-03
3.839943510113494884e-01 9.233201996470558059e-01 -5.305404328952376299e-03
3.775372443822093138e-01 9.259941876146594586e-01 -6.273819845872839794e-04
3.761342516046405349e-01 9.265487795679780980e-01 -5.512154833399653120e-03
3.761342516046405349e-01 9.265487795679780980e-01 -5.512154833399653120e-03
3.427438113469021275e-01 9.393669187416967548e-01 -1.079220816745721234e-02
3.427438113469021275e-01 9.393669187416967548e-01 -1.079220816745721234e-02
3.874341911562970142e-01 9.218909349742964165e-01 3.442605885604930159e-03
3.628208800711955062e-01 9.318177734039829740e-01 8.754778855373143362e-03
3.628208800711955062e-01 9.318177734039829740e-01 8.754778855373143362e-03
3.278549808412921096e-01 9.446331964742076259e-01 1.338789215959480805e-02
3.959698649185388608e-01 9.176995035009437585e-01 3.217898927118983954e-02
3.943204016490221564e-01 9.187854902094468867e-01 1.856458520787739389e-02
3.943204016490221564e-01 9.187854902094468867e-01 1.856458520787739389e-02
4.111011139255451585e-01 9.115604414438240877e-01 -7.309974276064819775e-03
4.138804076666082743e-01 9.102181284368674463e-01 1.435154397994875541e-02
4.328009554660101066e-01 9.014553728261129883e-01 -7.844982513842401264e-03
4.639326180975744673e-01 8.858700480158311352e-01 -8.853776365628972462e-04
4.639326180975744673e-01 8.858700480158311352e-01 -8.853776365628972462e-04
4.047791357114913779e-01 9.142506149591567155e-01 -1.731081567869473606e-02
4.623546026545820586e-01 8.866759745617572852e-01 -5.825593453155578604e-03
4.623546026545820586e-01 8.866759745617572852e-01 -5.825593453155578604e-03
4.609493094815645398e-01 8.874059943058846267e-01 6.027881755043702598e-03
4.609493094815645398e-01 8.874059943058846267e-01 6.027881755043702598e-03
4.572988115272277887e-01 8.893124223410412421e-01 1.101111118223791320e-03
4.618152708140420559e-01 8.869759452893914986e-01 5.728184210258679271e-04
4.618152708140420559e-01 8.869759452893914986e-01 5.728184210258679271e-04
4.312392078009921748e-01 9.020521901948861387e-01 1.829185118520362807e-02
4.314248057031454531e-01 9.021069184462863211e-01 -8.703143992174469309e-03
4.080246423404508826e-01 9.128215910378011388e-01 -1.651163765846743250e-02
4.494582256404989762e-01 8.932631900833895022e-01 8.256915049856814945e-03
4.494582256404989762e-01 8.932631900833895022e-01 8.256915049856814945e-03
4.785635312388147322e-01 8.780417942330548398e-01 4.422007262973814967e-03
4.785635312388147322e-01 8.780417942330548398e-01 4.422007262973814967e-03
4.733627005210734318e-01 8.807537646414314025e-01 -1.416191460723327869e-02
4.959847928572509446e-01 8.683296107087367099e-01 -1.665058786821124607e-03
4.959847928572509446e-01 8.683296107087367099e-01 -1.665058786821124607e-03
4.569797881763363323e-01 8.894709082521022880e-01 3.313090927076691328e-03
4.646904044352442864e-01 8.854723981877536954e-01 1.208334985550206693e-03
4.639652419970111130e-01 8.857094914278630382e-01 1.596718551439792536e-02
4.866489008978328590e-01 8.732689798388948432e-01 2.396113741180032689e-02
4.866489008978328590e-01 8.732689798388948432e-01 2.396113741180032689e-02
4.866489008978328590e-01 8.732689798388948432e-01 2.396113741180032689e-02
4.877774550011895194e-01 8.724859254161384525e-01 -2.900800481430717420e-02
4.599023912857805318e-01 8.879680055642376058e-01 -1.616039569732282072e-03
4.599023912857805318e-01 8.879680055642376058e-01 -1.616039569732282072e-03
4.943796796386492609e-01 8.688266349800506383e-01 2.700019832572665007e-02
4.556568532027663321e-01 8.901548593384374097e-01 -1.076348233373183817e-03
4.556568532027663321e-01 8.901548593384374097e-01 -1.076348233373183817e-03
5.004845029915820920e-01 8.656550284744528589e-01 1.251534826375227949e-02
5.004845029915820920e-01 8.656550284744528589e-01 1.251534826375227949e-02
5.441167627800921336e-01 8.390063424985418905e-01 -2.303412453800997121e-03
5.229655893390703358e-01 8.522234330997218166e-01 1.490679184006259844e-02
5.149867109742184423e-01 8.571647341588355395e-01 -7.570074924952392009e-03
5.320712847626702935e-01 8.466943419234905788e-01 2.973093632679654329e-03
5.320712847626702935e-01 8.466943419234905788e-01 2.973093632679654329e-03
5.468265549790707336e-01 8.371661753832518871e-01 1.155480696072736652e-02
5.634112749515333141e-01 8.261601970895118274e-01 -5.202307421364902804e-03
5.176477096340481587e-01 8.554084493674256606e-01 -1.781104885851609101e-02
5.388961350286032292e-01 8.423721561641527300e-01 3.258382874456170657e-04
5.388961350286032292e-01 8.423721561641527300e-01 3.258382874456170657e-04
5.388961350286032292e-01 8.423721561641527300e-01 3.258382874456170657e-04
5.636696229444315698e-01 8.257730506139625559e-01 1.937588835104832319e-02
5.534726107191668687e-01 8.327348581498105196e-01 -1.485682354759945874e-02
5.314433534523989033e-01 8.470923025835053188e-01 1.610271729783461017e-03
5.737335131439018632e-01 8.189411539958207920e-01 1.285465625949148809e-02
5.737335131439018632e-01 8.189411539958207920e-01 1.285465625949148809e-02
5.584645005140748131e-01 8.295234596197363919e-01 2.869077564036726438e-03
5.584645005140748131e-01 8.295234596197363919e-01 2.869077564036726438e-03
5.383564788234272980e-01 8.426826388975421356e-01 7.633597416369010229e-03
5.318865694659566934e-01 8.468081501249455911e-01 3.554448438713473084e-03
5.318865694659566934e-01 8.468081501249455911e-01 3.554448438713473084e-03
5.543897229580265762e-01 8.321594851836892071e-01 1.275250161105668904e-02
5.543897229580265762e-01 8.321594851836892071e-01 1.275250161105668904e-02
5.685209088816317591e-01 8.226372859927795211e-01 -7.202212079448868862e-03
5.685209088816317591e-01 8.226372859927795211e-01 -7.202212079448868862e-03
5.442554586331933564e-01 8.389173247999439642e-01 -1.928185280924870184e-03
5.679097272190790635e-01 8.230314239334639570e-01 -9.890245093317408254e-03
5.679097272190790635e-01 8.230314239334639570e-01 -9.890245093317408254e-03
6.008961526696693367e-01 7.991486277482187095e-01 1.689036633494413880e-02
6.008961526696693367e-01 7.991486277482187095e-01 1.689036633494413880e-02
6.165910190852823547e-01 7.872651607562434206e-01 5.392758368328478928e-03
6.165910190852823547e-01 7.872651607562434206e-01 5.392758368328478928e-03
6.155534441552911185e-01 7.880935706146559028e-01 1.575228364788159663e-03
6.155534441552911185e-01 7.880935706146559028e-01 1.575228364788159663e-03
6.175609336544801709e-01 7.864565298307625296e-01 1.022838747611676952e-02
6.300457455980280619e-01 7.765568862340609391e-01 -1.326987673103600376e-03
6.300687817501831045e-01 7.764690263201994291e-01 1.044899177917297389e-02
6.300687817501831045e-01 7.764690263201994291e-01 1.044899177917297389e-02
6.300687817501831045e-01 7.764690263201994291e-01 1.044899177917297389e-02
6.102404643786495386e-01 7.921912000862212366e-01 -6.299058729893523834e-03
6.146185851847846271e-01 7.888180630083578837e-01 3.171469248785487981e-03
6.128055208239364671e-01 7.902337009264275292e-01 3.026017606792406238e-04
6.585029603957267552e-01 7.521801874041441627e-01 2.447073408646685197e-02
6.286785881170173784e-01 7.776651436651004223e-01 -3.964486501808106491e-04
6.263769275547530491e-01 7.794341460976871305e-01 -1.159122616625090849e-02
6.250250910005967775e-01 7.805927531140393061e-01 4.311543289821905336e-03
6.250250910005967775e-01 7.805927531140393061e-01 4.311543289821905336e-03
6.078037015342484528e-01 7.938805748329250678e-01 1.811886597474322153e-02
6.078037015342484528e-01 7.938805748329250678e-01 1.811886597474322153e-02
6.279205334464130761e-01 7.782560504477581409e-01 5.772661243184998292e-03
6.248273338543266497e-01 7.807584840955569261e-01 -2.644311120443979327e-03
6.248273338543266497e-01 7.807584840955569261e-01 -2.644311120443979327e-03
6.273290179796319199e-01 7.787453635661700790e-01 3.736565924005102318e-03
6.271042926171017662e-01 7.789317230059829011e-01 2.361583395786816513e-03
6.271042926171017662e-01 7.789317230059829011e-01 2.361583395786816513e-03
6.932532955745137615e-01 7.206315643780780711e-01 9.487707683085370991e-03
6.798728931340598525e-01 7.330530724200161607e-01 2.015048875580604734e-02
6.824146120898229029e-01 7.309649040810617393e-01 -7.785936428674974669e-04
6.824146120898229029e-01 7.309649040810617393e-01 -7.785936428674974669e-04
6.840085801143507283e-01 7.294023536523139839e-01 1.022099879730741130e-02
6.661187215169834808e-01 7.455465163749729340e-01 -2.112441160652040253e-02
6.621820906049310507e-01 7.488995088862814287e-01 2.577604453691783107e-02
6.752983759728148350e-01 7.374376630383345788e-01 1.256170931993454663e-02
6.998149001479672116e-01 7.142968146516646133e-01 -6.258283261102054809e-03
6.998149001479672116e-01 7.142968146516646133e-01 -6.258283261102054809e-03
6.933363737108597658e-01 7.206109880150536329e-01 2.115854778396258386e-03
6.756189285748142037e-01 7.371022617861082704e-01 -1.480942339267618361e-02
6.531391197171146912e-01 7.568282911716536221e-01 -2.490437667051905238e-02
7.226327696712858684e-01 6.906170096800213765e-01 2.915520773089575260e-02
6.905603897299408267e-01 7.232741671900119185e-01 -9.095117519254124509e-04
6.904823176649149685e-01 7.233484828717944293e-01 -1.068325400133924435e-03
6.909914498184899223e-01 7.228540226501753985e-01 -3.588623162304633261e-03
6.909914498184899223e-01 7.228540226501753985e-01 -3.588623162304633261e-03
