4.455768772125323629e-01 8.940882866606045809e-01 -4.546847424131197912e-02
1.408232011191792588e-01 -8.220666618080899601e-01 -5.517021203242294947e-01
-4.355880503731235365e-01 -7.754971304918133468e-01 -4.570199678034918001e-01
3.546924354558881887e-01 -7.605847460768365709e-01 -5.437868334794478953e-01
-4.868234633679130452e-01 -7.126891468786026307e-01 -5.050515770056754894e-01
-7.733550036838715558e-01 1.815474151314107609e-01 -6.074228957951965935e-01
3.063858473912906555e-01 -4.867832404065500773e-01 -8.180279881383152318e-01
-3.936331767525124148e-01 5.576336395603926910e-01 -7.308198452357155261e-01
7.020180421992675557e-01 -7.040058988880900648e-01 -1.074540029849044426e-01
-7.142217343407022412e-01 -5.420820916073358919e-01 -4.427576313898785032e-01
-7.208082290921206114e-01 -5.155128854413428829e-01 -4.633378484615972015e-01
-4.225449914522502182e-01 -7.370106038528142500e-01 -5.275140756483450710e-01
2.655425862525592207e-01 -8.061366698483082294e-01 -5.288012901007159705e-01
2.353958961180716847e-01 -8.355653802184811463e-01 -4.964063531736022661e-01
-4.730446516838797688e-01 4.518390116093414649e-02 -8.798790670252110147e-01
2.384081626012811428e-01 -8.514923071423712297e-01 -4.670357576058203342e-01
3.842996289182791791e-01 -7.602065222678191514e-01 -5.238318802008340436e-01
4.122080761635401047e-01 -5.173123819968854509e-01 -7.499816006931512291e-01
-9.281644689570750506e-01 -3.638852357983610175e-01 -7.809131663381178867e-02
3.339417414781151727e-01 -8.068623003423559814e-02 -9.391339870228455622e-01
2.879608577137826031e-01 -8.489246515253487946e-01 -4.431765793194715752e-01
-9.491740435110374019e-02 -7.505630595351728829e-01 -6.539463127906214313e-01
-2.547346466718204000e-02 -6.353784468141120412e-01 -7.717806242203389955e-01
5.765603860921238166e-02 -5.960483700231276050e-01 -8.008758466857804903e-01
1.468973148674651286e-01 -5.598785087662041526e-01 -8.154490997643325523e-01
-8.508328663573283546e-01 -5.237066500924580925e-01 -4.260021332233653035e-02
7.134132712305323309e-01 -3.947563145399990425e-01 -5.789723279768629327e-01
6.860953705382640821e-01 -4.396413379570464630e-01 -5.796452678020412863e-01
2.416456287233505196e-01 -5.232966051872889324e-01 -8.171707612967776813e-01
2.571091083701793623e-01 -5.319830692547276030e-01 -8.067768715198838647e-01
2.848937165621409640e-01 -5.164769293259627858e-01 -8.075191339760532383e-01
3.991305140069396629e-01 -4.951636503951935553e-01 -7.716915135699385919e-01
-1.477662115363884143e-01 -8.659083764611006373e-01 -4.778784681304274473e-01
9.747521164203090671e-02 -8.170505702860760833e-01 -5.682666176281511161e-01
1.500096226457069137e-01 -8.259100958307511453e-01 -5.434791870150429416e-01
2.680969893861550601e-01 -7.493887936077319178e-01 -6.054258338535185580e-01
4.055093479245423516e-01 -4.264982506830078401e-01 -8.084932967626550226e-01
4.055093479245423516e-01 -4.264982506830078401e-01 -8.084932967626550226e-01
-2.483340450606028732e-02 -7.556006803640047398e-01 -6.545616196005472620e-01
9.227760640073507936e-01 -2.438113986335301298e-01 -2.983962761018704724e-01
-8.096406477700316406e-01 -3.702696569273420391e-01 -4.553925807887429511e-01
-8.597660122713179920e-01 -4.544608919491485710e-01 2.329542912930778475e-01
-6.614159327960854595e-01 -3.931314671917553460e-01 -6.387304700318765516e-01
-2.781513051534384440e-01 -6.013964159212406013e-01 -7.489687592673841543e-01
-1.382549661282920020e-02 -8.453491031307248660e-01 -5.340353447848632529e-01
3.712233343063575924e-03 -7.855375034152654035e-01 -6.188029169709196031e-01
9.935692198511230089e-01 -1.252093693489253132e-02 -1.125319132633184616e-01
4.748820619301249435e-01 -4.350481419240029290e-01 -7.649968244806415463e-01
4.748820619301249435e-01 -4.350481419240029290e-01 -7.649968244806415463e-01
-8.432659354099647508e-01 -4.925367546289333709e-01 2.151978334388040259e-01
4.681628637676037985e-01 -4.594992665102916596e-01 -7.547741099596753100e-01
-1.853590054074206739e-01 -5.647803268896168793e-01 -8.041549735423075829e-01
-1.711672141322788734e-02 -4.304557136740705947e-01 -9.024493871754850627e-01
-1.080340641665909068e-01 -3.815671277691144447e-01 -9.180060827607174900e-01
-1.847588074123586721e-01 -1.877131916573012982e-01 -9.646905932792089189e-01
4.952409153709852463e-01 -4.539397276709139506e-01 -7.407261028103200307e-01
-1.641934290036597133e-01 -5.818525283724619301e-01 -7.965476464710655735e-01
-1.915978056148149866e-01 -9.792930548992595519e-01 6.538649332747048515e-02
1.377402835560946059e-01 -9.843639907371418696e-01 -1.097959381121847711e-01
4.906468877928094052e-01 -4.583696976154755798e-01 -7.410552285809255402e-01
-3.184550580389134411e-01 -8.683991583455580310e-01 -3.800911440617351644e-01
9.981367191396926797e-02 -9.848180261373096211e-01 -1.420235413375682543e-01
6.806447258963873592e-01 -6.651614229987975468e-01 -3.070554322327587737e-01
-8.450293406261152329e-01 -5.038470782357646893e-01 1.790629365175173404e-01
-8.450293406261152329e-01 -5.038470782357646893e-01 1.790629365175173404e-01
-8.160037408787629287e-01 -5.439786423909348523e-01 1.955124842417488573e-01
-8.160037408787629287e-01 -5.439786423909348523e-01 1.955124842417488573e-01
5.294399891836272243e-01 -4.165384002589050949e-01 -7.390460465782850985e-01
5.294399891836272243e-01 -4.165384002589050949e-01 -7.390460465782850985e-01
-6.709855405452107568e-01 -7.284750259056653743e-01 -1.382119423602450603e-01
-2.354379644271211436e-01 -8.596468249181868915e-01 -4.534052285919227820e-01
-2.354379644271211436e-01 -8.596468249181868915e-01 -4.534052285919227820e-01
-1.012734367912045547e-01 -8.704214759791800704e-01 -4.817781077993515959e-01
5.323764999254060326e-01 -4.104739014407451925e-01 -7.403286017460000146e-01
9.265062832815984528e-01 -1.881952318759380072e-01 -3.258353291754601533e-01
9.265062832815984528e-01 -1.881952318759380072e-01 -3.258353291754601533e-01
5.573272231480842498e-01 -6.881201024338543526e-01 -4.646257536603702887e-01
-8.132584282692268962e-01 -5.539825137925086240e-01 1.780845396467636566e-01
2.086123939473910616e-01 7.184355013756605901e-01 -6.635746374407641701e-01
-5.096511078229600811e-01 -7.788423350845040671e-01 -3.655959044832786664e-01
7.446804183979921499e-01 -5.658652158819216238e-01 -3.539034217261790571e-01
-2.382090450462459319e-01 3.142838234853282953e-01 -9.189570877650373726e-01
-8.188068953473326417e-01 -5.636796071769567540e-01 1.087224382751510177e-01
5.321699273636232297e-01 -4.174406521328313246e-01 -7.365721080496548945e-01
5.571255326475601510e-01 -4.072224595651960377e-01 -7.237271649577933230e-01
-8.776291962349995757e-01 -6.562342149162248006e-02 -4.748268742053692315e-01
-6.914180081658936050e-01 -5.580054594909964472e-01 -4.588802078562011499e-01
8.933129073685240895e-01 -3.875696033472397772e-01 -2.275562613730019446e-01
6.697088006468517873e-01 5.074558622607195923e-01 -5.421979990680387829e-01
7.311391833387549388e-01 4.301235472233279622e-01 -5.295556899049992383e-01
-7.893334545753725173e-01 -6.038360722136598691e-01 1.110616737749255817e-01
-7.086295066967224221e-02 -8.957995301253376397e-01 4.387728843600204875e-01
-3.093820694999981913e-01 -7.675930263772250406e-01 5.613231519623531618e-01
9.085215800437920208e-01 -3.524327430800470728e-01 -2.244542274046203156e-01
5.604449503965819313e-01 -3.319387791143788013e-01 -7.587609007421431961e-01
-8.969886823712787116e-01 -2.619858167757120326e-01 -3.560543996444924808e-01
-9.998834508892677775e-01 -1.087145836077504403e-02 1.071895661336001900e-02
-7.901555669979014596e-01 -6.112807914921793984e-01 4.460912344935114016e-02
-7.901555669979014596e-01 -6.112807914921793984e-01 4.460912344935114016e-02
5.527130554780146365e-01 -3.464045487410127855e-01 -7.579658085399977319e-01
5.527130554780146365e-01 -3.464045487410127855e-01 -7.579658085399977319e-01
-8.046698071055019552e-01 -2.703106968023734624e-01 5.286195500802158831e-01
8.158565801912893711e-01 -1.915984995745814434e-01 -5.455896402236238840e-01
6.612268521735443771e-01 -6.460532674639160033e-01 -3.813059474540930749e-01
-8.215168255645624029e-01 -2.159592614760592610e-01 5.277041810494201846e-01
-5.807355767677622183e-01 -5.116528060516948306e-01 -6.332121255437559437e-01
-8.053078250496923385e-01 -3.759659267112270276e-01 -4.583982208363186484e-01
8.964867359795742896e-01 -4.377976638781536090e-01 -6.815231262048494776e-02
-9.974904665849031460e-01 -1.598702948885477940e-02 6.897234199557594758e-02
5.598437400179137047e-01 -3.379274718277912593e-01 -7.565580021034949976e-01
3.937478924924643353e-01 -7.345893700740261378e-01 -5.525767408532396008e-01
-7.572480916415274751e-03 -7.050890785053924859e-01 -7.090783094307617773e-01
8.154864158127075324e-01 -5.477340656265596852e-01 1.870007994024182330e-01
-9.953036967831357940e-01 -5.493702611131418001e-02 7.970241107939320113e-02
7.485564143277724236e-01 -5.566580360151220930e-01 -3.602709057203141163e-01
7.966504616781987513e-01 -5.105597531894409125e-01 -3.235379117368624713e-01
-7.542236501069573551e-01 -6.546617527122020608e-01 -5.064262192190888828e-02
-7.673404552399779588e-01 -6.406992270355059693e-01 -2.632729055957874070e-02
-8.508329313571891817e-01 -2.967147693249824747e-01 4.336400218874581491e-01
7.245993795459073628e-01 -5.786156298475650939e-01 3.743790753471562538e-01
7.594033565222898519e-01 -5.655341987540249971e-01 3.216793623195665641e-01
-7.406904337558963825e-01 -5.586255853146206984e-01 3.732494297040513387e-01
-9.923526028343945260e-01 5.359640599231150354e-02 1.111923419688141956e-01
-9.960332702745465783e-01 8.355485130870908897e-03 8.858843250910299061e-02
-3.292085145203550445e-01 -7.258461032945728864e-01 -6.039612473490211242e-01
-5.358914353997358271e-01 -6.515403218548777575e-01 -5.369502569721454899e-01
5.677057461760289803e-01 -6.422888842675973375e-01 -5.149516238492729547e-01
-8.618130726283700360e-01 -3.907646203452192490e-01 -3.233902276403917697e-01
-6.070249172753154898e-01 -5.764415296722569249e-01 -5.470245996991404125e-01
-6.688950001783209309e-01 -6.989153870686621861e-01 -2.531733802260940358e-01
5.252800813924510814e-01 -3.184636376832671867e-01 -7.890891886003006395e-01
5.252800813924510814e-01 -3.184636376832671867e-01 -7.890891886003006395e-01
-5.093910472538786260e-01 -8.599912359521169058e-01 -3.059142139795180057e-02
5.459108077020106142e-01 -8.350968793589724770e-01 -6.778342067972234486e-02
5.459108077020106142e-01 -8.350968793589724770e-01 -6.778342067972234486e-02
-6.504851844388365167e-01 -6.964184723740798333e-01 -3.031011978889659453e-01
-4.819091111273193784e-01 -8.751278673698927868e-01 -4.375870616346287656e-02
5.203959188163352900e-01 -2.501315394216047650e-01 -8.164694119597379895e-01
6.675897330299135346e-01 -7.357572642716245781e-01 -1.139526060455992862e-01
-6.452926616160370443e-01 -5.651917680393173660e-01 -5.139607438366097236e-01
6.365109553491686833e-01 -5.846224878961410187e-01 -5.030609807633812380e-01
-1.833319983266704090e-01 -6.989464320670147890e-01 -6.912765463187214854e-01
5.249952055316382538e-01 -3.074968108559938962e-01 -7.936156156995564093e-01
-4.785561081272495798e-01 -8.600768313490116945e-01 -1.767820566424770090e-01
7.271748908701214376e-01 -4.752907848343285169e-01 -4.952931939160835628e-01
-9.990735965664240270e-01 3.184439867317757911e-02 2.894620729860608241e-02
-9.990735965664240270e-01 3.184439867317757911e-02 2.894620729860608241e-02
-4.031099249534246809e-01 -6.579312180385354925e-01 -6.361044731287256448e-01
-1.567182102983571412e-01 -7.178462526110154229e-01 -6.783333694970358207e-01
-5.136560345589831211e-01 -8.055516043494460598e-01 -2.953711070690126506e-01
-5.136560345589831211e-01 -8.055516043494460598e-01 -2.953711070690126506e-01
4.803704863172734707e-01 -5.806462794738692645e-01 -6.573386448463677256e-01
4.948670000628098697e-01 -2.671005996464896337e-01 -8.269001886064124562e-01
6.954914372537528422e-01 -2.222531863017664089e-01 -6.832972866076826302e-01
-7.816622241336991239e-01 -4.510874026634751899e-01 -4.307253446463053526e-01
6.168034387223267911e-01 -7.929180479342716470e-02 -7.831132278750715381e-01
5.302414424435292206e-01 -2.610957345821589559e-01 -8.066430623878247941e-01
-6.049866949728609500e-01 -6.231152218080353578e-01 -4.957000295107288901e-01
3.722680457000026588e-01 -5.925622893131579083e-01 -7.143433596210229108e-01
-5.488404381064736492e-01 -6.345855020579479477e-01 -5.441281228506352763e-01
7.425681299464481633e-01 -3.674801161969314944e-01 -5.599561916683524210e-01
5.345564062665291161e-01 -2.349384482037308042e-01 -8.118210234251368451e-01
2.423586649603099441e-01 -6.139195457689761160e-01 -7.512423502715154244e-01
-6.172235815006753556e-01 -5.311709223803315894e-01 -5.804244151111381811e-01
5.109078181673348817e-01 -1.589719516447823944e-01 -8.448083332482831942e-01
2.384612452578234731e-01 -5.336875185475604688e-01 -8.113654337329360144e-01
1.100663322088731438e-01 -5.658378621667485842e-01 -8.171370241597486483e-01
3.035202840856635401e-02 -5.821149619702724598e-01 -8.125397992848313322e-01
-6.332986319258503416e-01 -4.785455295765521644e-01 -6.082162599956890681e-01
5.097194692768094448e-01 -9.249318750513854659e-02 -8.553543551682584178e-01
7.853106576378013903e-01 -5.903560483953446125e-01 -1.864588617457410558e-01
8.765319178474847983e-02 -5.657206745681229165e-01 -8.199250187280139324e-01
9.962050876533548593e-02 -5.602902692321892753e-01 -8.222837517773634586e-01
-8.490354496282140687e-03 -5.442825254798560053e-01 -8.388590145774182938e-01
-2.048827717578754343e-02 -5.078594713222132073e-01 -8.611962539901635294e-01
4.403743856983854954e-02 -5.198295754886922415e-01 -8.531341725962298117e-01
-6.692350536299608299e-01 -4.501239590309326633e-01 -5.911961303148242086e-01
5.543873005853695579e-01 -9.142008718625123376e-02 -8.272225145681938452e-01
5.543873005853695579e-01 -9.142008718625123376e-02 -8.272225145681938452e-01
8.352293259909461254e-01 -5.486823248806842468e-01 3.660163067729788056e-02
-9.999556866447847359e-01 -5.870916959854419366e-03 7.359149462227510333e-03
-9.999556866447847359e-01 -5.870916959854419366e-03 7.359149462227510333e-03
5.434979668462137647e-01 -1.420708010077859247e-02 -8.392902471189820357e-01
-6.848519584580121666e-01 -3.535858500927419046e-01 -6.371458558371216885e-01
-7.059761527930425995e-01 -3.424234475214067985e-01 -6.199547195361035934e-01
9.305616400279661526e-01 -3.478827457241313592e-01 -1.141605419394174509e-01
-7.064835833780842567e-01 -2.772173574375993987e-01 -6.511769983288535624e-01
-9.979125574584684077e-01 6.423523686615041639e-02 6.660481322584990184e-03
-9.979125574584684077e-01 6.423523686615041639e-02 6.660481322584990184e-03
-9.979125574584684077e-01 6.423523686615041639e-02 6.660481322584990184e-03
9.268899072616214596e-01 -3.202264963005618248e-01 -1.957807214298916410e-01
-9.996101558054271141e-01 1.663519839267364048e-02 2.242334910503301221e-02
5.732019482212786787e-01 7.331702499923695160e-02 -8.161275270450029096e-01
5.732019482212786787e-01 7.331702499923695160e-02 -8.161275270450029096e-01
-7.762699397343962859e-01 -2.280602510339119204e-01 -5.877018823886015486e-01
-9.976878353703985125e-01 -4.974777132887281406e-02 4.630488529020287958e-02
9.267291671550370591e-01 -8.914260069770464645e-02 -3.650022568217639596e-01
-9.982028273281260411e-01 5.943420296316242329e-02 7.661007262025594858e-03
6.170598526149831953e-01 8.806858925455721132e-02 -7.819725454755348526e-01
-8.888202658955836055e-01 -2.111235789389368234e-01 -4.067251766848452021e-01
-9.995584793351652841e-01 2.701197818876820492e-02 1.237737546904421615e-02
-9.995584793351652841e-01 2.701197818876820492e-02 1.237737546904421615e-02
-9.998050468078395481e-01 7.532666942457190776e-03 1.825177542892130952e-02
5.846623730295515964e-01 7.298025363790400233e-02 -8.079874950408579837e-01
5.846623730295515964e-01 7.298025363790400233e-02 -8.079874950408579837e-01
5.759902160829105666e-01 5.437501365835069322e-02 -8.156461419429483772e-01
-9.683797903129272022e-01 -2.482691869181412603e-01 -2.455590642791335293e-02
-9.994669428112694654e-01 -2.232806936559355096e-02 2.381779893062910269e-02
-9.835003146120020467e-01 -1.774636587053894099e-01 -3.512521881768181087e-02
8.666268574709039552e-01 2.977676768675322286e-02 -4.980674994578894177e-01
8.858410898661840394e-01 6.927428338255921247e-02 -4.587882269266768676e-01
5.723232588197576520e-01 9.864077527680964463e-02 -8.140737588613961018e-01
-9.987841171327725975e-01 -4.099970355963422630e-02 2.737355788584961910e-02
8.726849144581705353e-01 1.754735343438512674e-01 -4.556644366439112637e-01
5.357307249636926727e-01 6.713220201264331888e-02 -8.417160196781392489e-01
5.357307249636926727e-01 6.713220201264331888e-02 -8.417160196781392489e-01
5.370597138451737029e-01 9.050196687103530258e-02 -8.386752993602554218e-01
5.304126376166078405e-01 8.195929759844391982e-02 -8.437683967735237767e-01
-9.992881532187768423e-01 1.678979509310645976e-02 3.378297821888937014e-02
-9.992881532187768423e-01 1.678979509310645976e-02 3.378297821888937014e-02
5.118124803090456920e-01 1.598408950931446137e-01 -8.440964833807359513e-01
4.907984440393437509e-01 1.602488767107817513e-01 -8.564094726481554787e-01
-9.985925070732165620e-01 -6.453298024636179055e-03 5.264370581401923987e-02
-9.953500732347131397e-01 -5.336721834187914404e-02 8.018835151131019356e-02
9.402579645160509259e-01 1.782195571295115133e-01 -2.900909333652006428e-01
-9.957592184176798922e-01 -5.917177365332295519e-02 7.044345348526889761e-02
4.724941667821356828e-01 2.991292447009079036e-01 -8.290180681514242034e-01
-9.975629823289112741e-01 4.593808682371382235e-02 5.251465001335479249e-02
-9.993419099108586945e-01 8.009268213502951372e-03 3.537794112722656564e-02
-9.993419099108586945e-01 8.009268213502951372e-03 3.537794112722656564e-02
-9.993419099108586945e-01 8.009268213502951372e-03 3.537794112722656564e-02
4.382239725501750338e-01 3.067021231044461671e-01 -8.449222198318425692e-01
4.382239725501750338e-01 3.067021231044461671e-01 -8.449222198318425692e-01
-9.931345730599375754e-01 9.772380510749227589e-02 6.429446094624508001e-02
6.774892992232307842e-02 5.729716188063472826e-01 -8.167702287282599949e-01
-9.890626374572198953e-01 1.386452273212663844e-01 5.032494537704246262e-02
9.317562051074971263e-01 2.272133386160867241e-01 -2.832039424136026384e-01
9.683704766499954264e-01 1.904580796740779070e-01 -1.611965875554540739e-01
-9.987974889164022985e-01 -3.849221416120672534e-02 3.036322748419624865e-02
1.934727610691312494e-01 5.569244477797359316e-01 -8.077149560268912509e-01
1.041598001425566855e-01 5.894775373501959237e-01 -8.010411780887490840e-01
-5.940950504161889301e-01 4.834151940234242550e-01 -6.429314281152237465e-01
9.314362675630665223e-01 2.665325328437458396e-01 -2.477637754073044041e-01
1.797254802237389648e-01 5.764527830153030052e-01 -7.971204054045151199e-01
-5.685921684735822934e-01 5.279236279669613507e-01 -6.308720860719000401e-01
4.691720026342633409e-01 3.448566399351518652e-01 -8.129892556711876273e-01
4.691720026342633409e-01 3.448566399351518652e-01 -8.129892556711876273e-01
-9.754290155397111750e-01 2.091996740639029406e-01 6.909219937725637195e-02
-9.917864278286631086e-01 1.173991275878150664e-01 5.076540570585453410e-02
4.133368849717072857e-01 5.792524230028157639e-01 -7.025804224195636438e-01
3.492616844829012357e-01 6.143302227563850471e-01 -7.075412731143368994e-01
5.058789739959381748e-01 5.950581141968906973e-01 -6.244936383961467996e-01
5.118701904346178999e-01 3.508561648124929877e-01 -7.841484934357119130e-01
5.118701904346178999e-01 3.508561648124929877e-01 -7.841484934357119130e-01
4.813533794494899154e-01 6.231967938158904374e-01 -6.163803049012434032e-01
5.056045643892904673e-01 3.907155976680937171e-01 -7.692238596192788602e-01
5.056045643892904673e-01 3.907155976680937171e-01 -7.692238596192788602e-01
5.056045643892904673e-01 3.907155976680937171e-01 -7.692238596192788602e-01
8.783020898224764839e-01 3.579512036320689483e-01 -3.169485365667800703e-01
-9.993683391702159469e-01 -6.959488043000928992e-03 3.484950774894174375e-02
-4.863157679158520152e-01 6.248670629772966612e-01 -6.107684728950426578e-01
-4.863157679158520152e-01 6.248670629772966612e-01 -6.107684728950426578e-01
-3.343953359981740037e-01 6.358489513758270872e-01 -6.956118675647572358e-01
6.821551828180733024e-01 5.638604402642842794e-01 -4.655380870126617499e-01
-6.495418436543898277e-01 5.071284194170043724e-01 -5.664946244772911532e-01
-7.185570237857901166e-01 4.736585898918652671e-01 -5.092380030886907161e-01
5.442498940266607965e-01 3.852370870920598378e-01 -7.452411955741530258e-01
-9.999755204724032343e-01 -1.097388546970773718e-03 6.910440964444868051e-03
-9.999755204724032343e-01 -1.097388546970773718e-03 6.910440964444868051e-03
-9.996208296354055500e-01 -1.252674129363466095e-02 2.452096473603293872e-02
8.960290956094512094e-01 4.393626306163861406e-01 -6.397138922329287380e-02
6.904509804577322329e-01 5.642663278510450242e-01 -4.526377744272488957e-01
6.644096645347402630e-01 5.793555347970151814e-01 -4.721302383589707774e-01
4.923970795046202498e-01 6.797504740385749145e-01 -5.435847764053490794e-01
5.165078785428129926e-01 3.804998468598132511e-01 -7.670980888666464326e-01
5.165078785428129926e-01 3.804998468598132511e-01 -7.670980888666464326e-01
-8.246702162711123663e-01 5.652550272241487761e-01 -2.014419502446096466e-02
-8.913048152561995341e-01 4.307809629125726181e-01 -1.414336886785775016e-01
5.165495167254613440e-01 3.798556475245890574e-01 -7.673892648547852025e-01
5.165495167254613440e-01 3.798556475245890574e-01 -7.673892648547852025e-01
-1.750922898097779790e-01 7.429872131985338912e-01 -6.459974389056392097e-01
7.589487184995346025e-01 5.142750359567465068e-01 -3.993970832136873872e-01
8.511731370151374154e-01 4.732187349255702613e-01 -2.270865908398222721e-01
-9.993152662437564393e-01 2.752562552923580250e-02 2.472526221082936917e-02
7.502145664988552065e-01 5.435977214914952116e-01 -3.764035353210560819e-01
5.069712761456448558e-01 4.154856906267397898e-01 -7.552163703520184956e-01
-9.514430170667763642e-01 2.778357725917505738e-01 1.325272377408324154e-01
7.650706509226748997e-01 5.627954514438410216e-01 -3.129347838302379836e-01
-9.626318882984287173e-01 1.697669265221482260e-01 2.109953513474288056e-01
5.099766590885775885e-01 4.102932405510444358e-01 -7.560312585753155012e-01
5.068484322583725055e-01 4.122430900543321286e-01 -7.570735112389587185e-01
-7.294934683868107284e-01 6.643102517014438657e-01 -1.628839128500586542e-01
-7.294934683868107284e-01 6.643102517014438657e-01 -1.628839128500586542e-01
7.886265793636526578e-01 5.327091763869716834e-01 -3.070652238764568498e-01
-9.999070197549604355e-01 -5.223887433954114805e-03 1.259614404612256246e-02
9.175824051471502818e-01 2.530085217614758131e-01 -3.066418394160258520e-01
-9.046309676108288400e-01 3.966614612549759777e-01 1.558925835136575344e-01
8.449684414994630410e-01 3.696358750461773979e-01 -3.865199254227591474e-01
-8.905975020005998388e-01 4.122534682897744385e-01 -1.920499083919165462e-01
8.195115477921735003e-01 4.765353377089420750e-01 -3.183000077755273050e-01
4.876251361841356657e-01 4.632297414807582392e-01 -7.400269813791068296e-01
4.876251361841356657e-01 4.632297414807582392e-01 -7.400269813791068296e-01
-6.724911154279592518e-01 6.560780010428234332e-01 -3.425162130733550581e-01
4.974236912040807534e-01 4.609880865841661235e-01 -7.348875121107832920e-01
4.874248866969542182e-01 4.636606917966588637e-01 -7.398890070213944847e-01
4.874248866969542182e-01 4.636606917966588637e-01 -7.398890070213944847e-01
-6.970010839514085843e-01 6.851347110498929860e-01 -2.116126571950291413e-01
8.019547556466576355e-01 4.174195174996812585e-01 -4.273517477512441820e-01
-5.654064366956595977e-01 7.295391261814485606e-01 -3.848223287616318045e-01
-6.707558434365895605e-01 7.189546854085753225e-01 -1.821833110488607910e-01
4.066233974099490167e-01 -3.041499613377245947e-01 -8.614814064720440756e-01
-5.430999215953551396e-01 8.112872277166645052e-01 -2.164613344385735993e-01
-5.602862862050146386e-01 7.340560780203709834e-01 -3.837198871728480509e-01
-4.899577117621360944e-01 7.705270467440397120e-01 -4.077125346622542668e-01
5.336052902183908708e-01 7.448426980966150746e-01 -4.005929971218939456e-01
4.518404727061391957e-01 5.242767665816379097e-01 -7.217853276753382064e-01
1.793775334698565482e-01 7.469225467799174289e-01 -6.402580804629274258e-01
1.739950923571057795e-01 8.843360527993006093e-01 -4.332152508338030783e-01
3.766750505323361864e-01 8.140277622796555645e-01 -4.421252181729047881e-01
4.335993560035739103e-01 5.776272654566283471e-01 -6.916200840594377564e-01
3.950159923323324218e-01 5.516967522186989603e-01 -7.345699826381705266e-01
3.950159923323324218e-01 5.516967522186989603e-01 -7.345699826381705266e-01
-4.114845536135831039e-01 9.010646669694025723e-01 -1.369778379036186156e-01
2.837885086839749271e-01 8.126713053640701734e-01 -5.089493410711756205e-01
1.745463895678249500e-01 8.479828968517774124e-01 -5.004583544469058953e-01
-9.333826735939664276e-01 3.415782433479093716e-01 1.100958142071524759e-01
2.881075954604806477e-01 8.098199071808114269e-01 -5.110633340121769619e-01
3.850650971266101896e-01 5.789104188246055882e-01 -7.187402854656150808e-01
4.189568597107753978e-01 5.879897166199620218e-01 -6.919127422229355284e-01
-3.087207933505486390e-01 9.391311846504711847e-01 -1.507451152442771392e-01
-3.444701632617600540e-01 9.272170135899613364e-01 -1.469997154137714090e-01
5.280737332999569933e-01 6.984526252774407862e-01 -4.830135220070931878e-01
-9.091189256354904602e-01 4.053176689284537781e-01 9.602273848300849068e-02
2.979618023165848673e-01 8.280365565995581045e-01 -4.749465499348314856e-01
-7.053736145345697039e-01 5.434564172435715212e-01 -4.550859110928586193e-01
-6.832817270958513323e-01 5.621876829888849958e-01 -4.659088864923049966e-01
6.521387716327134987e-01 6.136367955613065694e-01 -4.451571696228497910e-01
-1.524734983513508779e-01 9.792340996260431307e-01 -1.336129126621867225e-01
-1.346272781849967570e-01 9.820078721719325276e-01 -1.324236948618066345e-01
2.012604732183484735e-01 8.907533544868172504e-01 -4.074956237684141946e-01
2.074468764947544619e-01 8.960653889730127997e-01 -3.924698868922470441e-01
-6.027549997525953884e-01 6.786062924560395393e-01 -4.197379064515343594e-01
3.222143099976531588e-01 6.467844084382654568e-01 -6.912654102686603963e-01
3.222143099976531588e-01 6.467844084382654568e-01 -6.912654102686603963e-01
8.452704305444484062e-03 9.774871265244086116e-01 -2.108256845571228610e-01
-1.821063049232619913e-02 9.888576517855033332e-01 -1.477461249655368514e-01
3.168726683919598913e-02 9.763795169731995793e-01 -2.137263576525902931e-01
-4.561408801872209318e-01 8.116729366651621591e-01 -3.648596186307536682e-01
7.820482052918278359e-01 6.231997326356847333e-01 -4.764225292975639812e-03
-2.556570545335249411e-01 8.960362352135454733e-01 -3.629855860107643051e-01
-8.573160958948922161e-01 5.147902675481932366e-01 -3.035740433367862851e-04
2.830607546990739909e-01 7.270981663475474255e-01 -6.254637204852292465e-01
3.229018581946844768e-01 7.017990736903747528e-01 -6.349901181449610910e-01
3.229018581946844768e-01 7.017990736903747528e-01 -6.349901181449610910e-01
-2.408560718130195732e-01 9.357795000398333451e-01 -2.574977280987176265e-01
1.045497349944264492e-01 9.702148653495493713e-01 -2.185233808253727872e-01
6.556158210334959990e-02 9.719897462642684838e-01 -2.256936244319469598e-01
6.556158210334959990e-02 9.719897462642684838e-01 -2.256936244319469598e-01
-1.561536457846924297e-01 9.517103959112547251e-01 -2.643167819541384356e-01
6.382308636900211329e-01 7.062393087974716543e-01 -3.064105144128695390e-01
2.238386860592967154e-01 7.639455977597561231e-01 -6.052134881896935603e-01
-3.320650079940620780e-02 9.472582436035568154e-01 -3.187462128869354983e-01
-4.959701247933480384e-02 9.607762924802039084e-01 -2.728535360978823765e-01
9.335329782877779814e-02 9.580103647708251291e-01 -2.711112369050052151e-01
1.205246276807891113e-02 9.772794035360269360e-01 -2.116121583593238986e-01
9.131125385698700761e-03 9.694585286607318997e-01 -2.450852581371622263e-01
9.131125385698700761e-03 9.694585286607318997e-01 -2.450852581371622263e-01
5.353535582417701111e-02 9.703504299337458727e-01 -2.356989792175039899e-01
2.985660668058030126e-02 9.757649636815860505e-01 -2.167748110113216220e-01
-4.414214633256743556e-03 9.744992785954978975e-01 -2.243472102033491622e-01
-7.646496565254605748e-01 6.443616589498910585e-01 -1.043816319278375454e-02
-7.158623825332049995e-01 6.949491207150185756e-01 -6.772568856280133942e-02
-3.290581192037429492e-01 9.277678855182837081e-01 -1.759758642173072651e-01
-6.228526870424069273e-01 7.735921522791670002e-01 -1.166606710770154293e-01
2.331568798238495277e-01 7.828120179929425326e-01 -5.769256571488425855e-01
-4.858009597644349364e-01 6.435735318047711706e-01 -5.914478308796872197e-01
4.344090632687633846e-01 8.901229492576832047e-01 -1.377312635343168890e-01
4.284818620970100023e-01 8.921871826477995038e-01 -1.428472084881637350e-01
2.039455985387277348e-01 8.080488267684513559e-01 -5.526873314947697846e-01
2.039455985387277348e-01 8.080488267684513559e-01 -5.526873314947697846e-01
2.020852036551303021e-01 8.153919086383918380e-01 -5.424920329283232645e-01
-6.977572086205726665e-01 6.251770609435625126e-01 -3.496977556233323292e-01
4.451944006194366033e-01 8.888450379667582890e-01 -1.084271374655470105e-01
1.340443804494798660e-03 8.862948215252635098e-01 -4.631195229613065956e-01
1.340443804494798660e-03 8.862948215252635098e-01 -4.631195229613065956e-01
4.674165917363518608e-01 7.804936592673017426e-01 -4.151522342624565654e-01
-3.800588880637480460e-01 7.369258043826382165e-01 -5.590130592738857818e-01
3.638574364784575299e-01 8.034102914092694503e-01 -4.713169523547798834e-01
4.541645854769670310e-01 -8.680115951904551208e-01 -2.007246868560423059e-01
4.955530124009732140e-01 -8.311857579842795163e-01 -2.521060245698618085e-01
3.855189869720562212e-01 -9.164011830925586910e-01 -1.076289101988784497e-01
5.613286192546843578e-01 -7.093917482815980113e-01 -4.262317781156250152e-01
5.370904382290824230e-01 -8.391793289323669081e-01 -8.550973661235616863e-02
6.830809055427353726e-01 -4.982926578332924072e-01 -5.339521548157195596e-01
2.538219487105452532e-01 -8.453125663303030501e-01 -4.701287946476562229e-01
-2.835906908941424609e-01 -8.510260010437696865e-01 -4.419627423048607673e-01
-3.427324948075193278e-01 -8.001538823098750530e-01 -4.922277944483105516e-01
1.929409329000196793e-01 -9.653740033607883797e-01 -1.755757102985341933e-01
2.150693349835324231e-01 -8.801831779616563489e-01 -4.231108062707222839e-01
2.150693349835324231e-01 -8.801831779616563489e-01 -4.231108062707222839e-01
-9.708367311333185867e-01 1.355365565046995624e-01 -1.977520754207671705e-01
6.574987529378530093e-02 -5.051473564009854034e-01 -8.605248992446108414e-01
-7.294246311784601255e-01 -4.849905944504647182e-01 -4.824145838640787609e-01
2.334678870708286891e-01 -8.845575020543894329e-01 -4.037954572131557951e-01
2.710922133085506558e-01 -8.786129882651245726e-01 -3.931262249396488273e-01
2.467547983692864877e-01 -7.670667253770998562e-01 -5.922167747548068295e-01
-3.636452527809296009e-02 -6.509078590793756502e-01 -7.582852895118052938e-01
-1.528668423157692191e-01 -5.755123855139602229e-01 -8.033786296886646916e-01
-9.824475788131002696e-02 -5.560717214999137958e-01 -8.253073415988525507e-01
4.447138683169554567e-03 -5.675611079700136896e-01 -8.233192647311144974e-01
2.259224362440103925e-02 -5.635666412674502634e-01 -8.257616068687988475e-01
1.068248847069955820e-01 -5.087576979360270979e-01 -8.542564303522517388e-01
8.107333781116843330e-01 -4.222692298690821494e-02 -5.838906375261334603e-01
2.227449078904527313e-01 -5.141439207063018824e-01 -8.282757601243837531e-01
-8.865085693937143629e-01 -3.828875956169383588e-01 2.598069389261755679e-01
2.579485015263822678e-01 -4.576972493308503198e-01 -8.508676739160251357e-01
2.735573791593273185e-01 -4.718806819503596484e-01 -8.381497374034925230e-01
-7.072669282156462955e-01 -6.961629529634943969e-01 -1.230066468673596258e-01
-8.745617271473887788e-01 -3.930555967341146650e-01 2.839878224237182280e-01
-3.575335117006245289e-01 -8.560294466206517239e-01 -3.733408289075281772e-01
1.447831103276213671e-01 -9.780972864817751855e-01 -1.495444721173204428e-01
-7.863745232083083070e-02 -9.898964983093914149e-01 -1.179875998878443660e-01
-8.164051314213133237e-02 -9.875679955321385872e-01 -1.343290021347713636e-01
3.189739573850593479e-01 -4.798954710896316533e-01 -8.172857219710710774e-01
3.189739573850593479e-01 -4.798954710896316533e-01 -8.172857219710710774e-01
3.766313477508848595e-01 -4.312822904813474745e-01 -8.198441399488776149e-01
-2.278876966624907852e-01 -8.380526682575715203e-01 -4.957165752082830501e-01
-2.278876966624907852e-01 -8.380526682575715203e-01 -4.957165752082830501e-01
8.697990194640580208e-01 -4.897295850052690303e-01 -6.012153782073650921e-02
4.100845599923419460e-01 -4.028066651859574798e-01 -8.182771194025011408e-01
4.086039897410471688e-01 -4.480015918073551595e-01 -7.951964243542435362e-01
4.584408514980518046e-01 -3.723065624482401192e-01 -8.069819138219368471e-01
-1.843728585343977489e-02 -9.377275921617505006e-01 -3.468818666187155064e-01
-6.774218051122743445e-01 -5.998353056517470305e-01 -4.257902113155057622e-01
-8.521066623793988049e-01 -4.790527614493614306e-01 2.107669036551573227e-01
-8.521066623793988049e-01 -4.790527614493614306e-01 2.107669036551573227e-01
-2.996017942843476334e-01 -8.822521691982007086e-01 -3.631389194325895242e-01
-2.451627021419576502e-01 -9.141111709665684648e-01 -3.229489380576791024e-01
-3.267841532735633048e-01 -7.332683436055991155e-01 -5.962630740161437570e-01
8.820256278575410169e-01 -4.573721116554721466e-01 -1.133205333658682673e-01
5.003516563954676366e-01 -4.327350423140126634e-01 -7.499257317200161976e-01
4.952679818840244885e-01 -3.883897831442320037e-01 -7.770862258911181986e-01
-8.201608347427548074e-01 -5.296511865316850809e-01 2.163465409005789764e-01
-8.419891790041036383e-01 -5.036941277371950187e-01 1.932522913785544860e-01
-8.419891790041036383e-01 -5.036941277371950187e-01 1.932522913785544860e-01
-2.871378137871031799e-01 -9.222545430320121529e-01 -2.588405566181183892e-01
6.677040605612291069e-01 -7.239974248240652610e-01 -1.732022412042308057e-01
6.705956071068770452e-01 -7.206979527370118710e-01 -1.757725594330318830e-01
-8.210327312769992725e-01 -5.283144854535796187e-01 2.163077868033195517e-01
-3.501019442222874645e-01 -9.203634300835926707e-01 1.742405957764675828e-01
5.302279519063176627e-01 -4.195608701840132793e-01 -7.367679385177298146e-01
-5.727380815010841841e-01 -8.027880110150261705e-01 1.658387752276161142e-01
6.236484485412849277e-02 -8.760729368624995406e-01 -4.781284716720345385e-01
1.573080738979509841e-01 -8.670029561545729013e-01 -4.728213657458263941e-01
-4.123070044144531154e-01 -8.200010968009315837e-01 -3.969900947832947224e-01
2.946266805672233535e-01 -8.273933469682506203e-01 -4.781373949929199618e-01
-5.149059661200139359e-01 -7.723539457229131600e-01 -3.719425070898220720e-01
5.313207368416619225e-01 -4.111738125478017758e-01 -7.406985692418599498e-01
5.313207368416619225e-01 -4.111738125478017758e-01 -7.406985692418599498e-01
7.188689331690304440e-01 -5.570598723349005077e-01 -4.158265931354613310e-01
-7.449704256129446867e-01 -4.869529296148521480e-01 4.559560387817899185e-01
8.714615446965333634e-01 -3.977657286184946850e-01 -2.869445961361358766e-01
-8.403176556020617305e-01 -4.681941131280563662e-01 -2.732407548585817358e-01
5.349845689186871756e-01 -4.044717245368160130e-01 -7.417507229987043704e-01
5.349845689186871756e-01 -4.044717245368160130e-01 -7.417507229987043704e-01
3.335435395512157952e-01 6.404788173665333373e-01 -6.917626700888197533e-01
5.365665372394996524e-01 -7.665194528656318340e-01 -3.529083159878569353e-01
-7.555417807028163013e-01 -3.821493099245243386e-01 5.320888295544525803e-01
3.728799313228036705e-01 5.369728433760561082e-01 -7.567170688529067935e-01
-8.019987199101579201e-01 1.502799271022319527e-01 -5.781124430183247620e-01
4.878547090069858538e-01 -7.670912804342576718e-01 -4.166158306899053199e-01
-9.969984151858662935e-01 -7.496658236342870762e-02 -1.934351688856267640e-02
-8.262433902389124674e-01 3.307615676240621000e-02 5.623413802489880542e-01
-8.054808658530818732e-01 -1.373990690612350296e-01 -5.764738247012395345e-01
3.054731446563022645e-01 -7.324554717425217909e-01 6.084366358202221159e-01
-7.740368082526468685e-01 -6.306511233119571624e-01 5.609082042029396586e-02
2.458454036977701929e-01 -7.291314428347316356e-01 6.386919261666167413e-01
-6.875524390373329853e-01 -3.011077511913926585e-01 6.607615044373247315e-01
-2.898408081076092602e-01 -7.596863494654836346e-01 -5.821245196616743334e-01
6.312841179930258617e-01 -6.203936363762382333e-01 -4.653945619725646243e-01
2.452375770413399159e-01 -6.485879399744609586e-01 -7.205499392315414253e-01
-7.291912469655708051e-01 -6.842168033581208508e-01 -1.129120680843218906e-02
5.597889777505072884e-01 -3.379254531367346659e-01 -7.565994240754977396e-01
7.873083414582259243e-01 -3.986563726025174059e-01 4.703388906455644447e-01
-6.839422546375617529e-01 -7.272301460153520747e-01 -5.795952939576285573e-02
5.664999466351451352e-01 -3.386144993994081864e-01 -7.512775993325410129e-01
5.653164663029818238e-01 -3.332928935249376834e-01 -7.545416754908135237e-01
5.653164663029818238e-01 -3.332928935249376834e-01 -7.545416754908135237e-01
7.825761385532746806e-01 -5.208313915303468544e-01 -3.410414182523997528e-01
-8.557159201326695885e-02 -8.003489487204211716e-01 -5.933962107415511333e-01
5.717649181528449143e-01 -2.854234971145343525e-01 -7.691672806773438564e-01
5.717649181528449143e-01 -2.854234971145343525e-01 -7.691672806773438564e-01
-7.227180522280965969e-01 -5.453668713185683137e-01 4.245628253295645194e-01
3.392072277982547401e-01 -7.588083096958786467e-01 -5.560111561343947795e-01
6.628359409998718643e-01 -7.472946070501026439e-01 4.689654137190637367e-02
-5.598693657942721558e-01 -8.117575403857131278e-01 -1.661204047432365549e-01
-5.440933183376642779e-01 -8.381798709629841859e-01 -3.764259359800004034e-02
5.623485759310986598e-01 -8.261145116493036067e-01 -3.604015525352003563e-02
6.165238406282536054e-01 -6.115685669798017754e-01 -4.958651447916654909e-01
6.798708195512044306e-01 -5.865302289141474112e-01 -4.401794625975767317e-01
-3.834097595077501919e-01 -8.534130211016985879e-01 -3.531050434761318080e-01
-4.672791985106260482e-01 -8.803261868071059482e-01 -8.170652030852487702e-02
5.870436499896560800e-01 -8.093138012017656591e-01 -1.977180293172916409e-02
-9.994845890999997096e-01 8.215658517772625805e-03 3.103319362753581556e-02
-4.915593976396647746e-01 -8.588990639669100702e-01 -1.437419789375937729e-01
-4.315141826315974649e-01 -8.946062588172188912e-01 -1.160825218232425515e-01
-4.990005336503675615e-01 -8.621682657627093294e-01 -8.754626735829719453e-02
6.952226947969480930e-01 -6.481096414512896864e-01 -3.108364478261042008e-01
-4.070391242763614081e-01 -6.736398683118385300e-01 -6.168699045415831916e-01
4.982984698090046072e-01 -3.159312009094855656e-01 -8.073946440730795926e-01
-4.192218920507900237e-01 -8.889191248837432502e-01 -1.845963018082318330e-01
6.009651838122456180e-01 -5.812290895440156424e-01 -5.486470571445255517e-01
6.009651838122456180e-01 -5.812290895440156424e-01 -5.486470571445255517e-01
-4.875300209473284463e-01 -6.395626023688698591e-01 -5.943687040265969168e-01
7.558254324444529937e-01 -4.713881428467236456e-01 -4.544459642836237157e-01
5.200077561303303453e-01 -2.874375636317910154e-01 -8.043454361017527976e-01
-4.510516646683833120e-01 -8.422981664431509197e-01 -2.951037014447402962e-01
5.199055009865620747e-01 -2.912466996505303496e-01 -8.030402418226534333e-01
5.199055009865620747e-01 -2.912466996505303496e-01 -8.030402418226534333e-01
-4.743001458212534049e-01 -7.709223312251334281e-01 -4.251095516362144444e-01
4.479822839058654194e-01 -5.843337995774170457e-01 -6.766578780875188714e-01
5.123759027687664336e-01 -2.923873961374534036e-01 -8.074531223803966817e-01
-5.323209512408768607e-01 -6.966506796906245524e-01 -4.809493064311443078e-01
4.349701001893554464e-01 -6.017415709774979193e-01 -6.698567710330283198e-01
3.578421207507058166e-01 -5.814875051900889602e-01 -7.306307534756825151e-01
6.706259233172405798e-01 -5.942382708264529190e-02 -7.394117119370980928e-01
3.195382673279020258e-01 -5.671304538364567716e-01 -7.591168184438655819e-01
-8.780830576775796592e-01 -3.291739083359745410e-01 -3.472962451429781883e-01
-9.994963007749601003e-01 2.992724215831587750e-02 1.055958872153349784e-02
3.528553822571889875e-01 -5.519100272435153443e-01 -7.555715724140203982e-01
2.237031194687927604e-01 -5.710065436531595040e-01 -7.898787511037396181e-01
2.237031194687927604e-01 -5.710065436531595040e-01 -7.898787511037396181e-01
5.413909297067936999e-01 -2.388860757254963330e-01 -8.061199067481749081e-01
2.120997719668057946e-01 -5.998830487573274528e-01 -7.714622573692396790e-01
2.031741168037340672e-01 -6.051123308573531645e-01 -7.697787638701160118e-01
2.031741168037340672e-01 -6.051123308573531645e-01 -7.697787638701160118e-01
1.481554088576347017e-01 -5.752269474770260738e-01 -8.044649984446121671e-01
-3.312792118769528060e-01 -5.882243895348541196e-01 -7.377304055917265346e-01
-5.649545998819487380e-01 -4.450214551723797873e-01 -6.948253050288862864e-01
7.558976170700320019e-01 -2.705171118518400197e-01 -5.961872899544123916e-01
-9.995252575012352203e-01 3.081005707702645646e-02 0.000000000000000000e+00
6.450183143073091874e-02 -6.154896137417285029e-01 -7.855011452048552556e-01
6.450183143073091874e-02 -6.154896137417285029e-01 -7.855011452048552556e-01
5.759558902777527772e-03 -5.712500620125863238e-01 -8.207558675585947539e-01
5.759558902777527772e-03 -5.712500620125863238e-01 -8.207558675585947539e-01
2.765133045554250824e-02 -5.722786603997644939e-01 -8.195929103982594333e-01
-1.535031577824400549e-02 -5.561903453420835586e-01 -8.309131528347363238e-01
3.402137404531963005e-03 -5.899101930881663902e-01 -8.074616954083722042e-01
-1.357337125239870684e-02 -5.880417463252917143e-01 -8.087166797906085725e-01
-7.287762014327571480e-02 -5.254353079908039570e-01 -8.477066648309788954e-01
-5.344126770645875046e-01 -3.629777010415611849e-01 -7.633153209121664728e-01
8.855870541636688964e-01 -4.146859048398491843e-01 -2.092156060739028545e-01
-9.999941257099215219e-01 3.408779361346701495e-03 -3.588438591778123576e-04
-5.474368629703324496e-01 -3.548697382857514682e-01 -7.578788490980625792e-01
5.944769499631761267e-01 -5.346570416407483289e-02 -8.023332066172499388e-01
8.675692455738130970e-01 -4.973111352768960214e-01 -2.288856502642114699e-03
-5.501061925425031474e-01 -2.950804514289655511e-01 -7.812238501933157497e-01
8.133762834911121287e-01 -5.785883698005734876e-01 6.045262430780822677e-02
5.692086651645735795e-01 -4.818102707680694402e-02 -8.207801679691025809e-01
8.697903022574511311e-01 -4.785191073374228665e-01 1.203507125524723859e-01
-9.971434192644024197e-01 5.182974965471594253e-02 5.494250147586871025e-02
-5.534505269706344599e-01 -2.934739601479692817e-01 -7.794649119177816665e-01
5.585317859380853900e-01 -3.786792706361751665e-02 -8.286182861829186619e-01
5.585317859380853900e-01 -3.786792706361751665e-02 -8.286182861829186619e-01
9.129811399259358806e-01 -4.060025073446320021e-01 4.034107298289069110e-02
-9.980948703703554914e-01 4.217517618293393535e-03 6.155357248383424434e-02
-5.226394300273421445e-01 -2.079501827183119211e-01 -8.268039354575639210e-01
-5.853504484656375517e-01 -1.243841152081151813e-01 -8.011825287442126964e-01
9.742319051929755336e-01 -2.145112938292481897e-01 -6.969289579122754652e-02
-5.393031215556639557e-01 -2.963486414598160909e-02 -8.415901127671153725e-01
5.869595151740217842e-01 1.341530100075010723e-01 -7.984243843048661748e-01
-6.616068479025400961e-01 -1.748669547247360678e-01 -7.291761974679111802e-01
9.677723345334280358e-01 -9.306911626963630668e-02 -2.339975386804474256e-01
6.083032442853718580e-01 7.938391153739862705e-02 -7.897248619493461019e-01
9.467724676642530479e-01 -9.945523214481843954e-02 -3.061544565606734158e-01
-6.916754394161716002e-01 -2.080797832304721040e-01 -6.915836105050535698e-01
9.478051745248289306e-01 -9.236935584678729327e-02 -3.051774127362771871e-01
9.478051745248289306e-01 -9.236935584678729327e-02 -3.051774127362771871e-01
6.108769414392148933e-01 7.112800752997132381e-02 -7.885240446319226049e-01
-8.551053798148200435e-01 -1.424713451909078443e-01 -4.984944384958026053e-01
6.147780336475557883e-01 5.174132517613084375e-02 -7.870011465134360007e-01
5.814791189447179320e-01 4.861397627531602317e-02 -8.121075763357817889e-01
5.814791189447179320e-01 4.861397627531602317e-02 -8.121075763357817889e-01
-8.803097462145086372e-01 -2.389860835738450984e-01 -4.098053227787339936e-01
9.254298904276251347e-01 -6.521339841180300891e-03 -3.788627588319938844e-01
-9.509604819773933571e-01 -1.485343501052863446e-01 -2.713147776220896645e-01
8.436385767152850823e-01 -1.148170791648891881e-01 -5.244911726710483890e-01
5.678007936589789528e-01 5.442010218524206272e-02 -8.213651509519876992e-01
5.678007936589789528e-01 5.442010218524206272e-02 -8.213651509519876992e-01
-9.764461795229553154e-01 -1.936676995067191098e-01 -9.510878331047920020e-02
-9.985938645936980329e-01 -9.279122315286511199e-03 5.219378779970824250e-02
-9.985938645936980329e-01 -9.279122315286511199e-03 5.219378779970824250e-02
5.593271109845491251e-01 2.024908612906893904e-02 -8.286996786705153051e-01
-9.753535680982717837e-01 -2.206477201458425519e-01 2.814981042400318563e-05
8.425954083293558661e-01 8.665906017816840667e-02 -5.315291009449271131e-01
-9.850386403508846200e-01 -1.514708951507623413e-01 8.219151378279387909e-02
-9.821192507113778447e-01 -1.674592906314329166e-01 8.601838968115557704e-02
8.441441709928918513e-01 2.156661238397031832e-01 -4.908245527749006687e-01
5.112590679863305843e-01 2.040932189756508586e-01 -8.348413761726869442e-01
-9.933611479890662732e-01 -6.381600298337235244e-02 9.571388315741082009e-02
5.131830592621624554e-01 2.214484937736120596e-01 -8.292187360954444975e-01
5.049223487210300343e-01 2.232106462905902033e-01 -8.338047907901318112e-01
5.049223487210300343e-01 2.232106462905902033e-01 -8.338047907901318112e-01
5.049223487210300343e-01 2.232106462905902033e-01 -8.338047907901318112e-01
9.067451085269446764e-01 2.474877907477744388e-01 -3.414133881282999661e-01
-9.963716390190971994e-01 5.436294325422555591e-03 8.493529103032015914e-02
-9.963716390190971994e-01 5.436294325422555591e-03 8.493529103032015914e-02
4.352880129874324711e-01 3.421186745587496136e-01 -8.327539602233166027e-01
8.830951842727224887e-01 2.137036915314516894e-01 -4.177004042853639798e-01
4.519670448698578924e-02 5.987451521667916943e-01 -7.996633670866021282e-01
4.519670448698578924e-02 5.987451521667916943e-01 -7.996633670866021282e-01
5.102880631350853458e-02 6.343819345549668309e-01 -7.713336645295058025e-01
-2.426136050209954168e-02 5.765143524321697521e-01 -8.167267522411049141e-01
-1.509957909918462904e-01 5.694298920530144192e-01 -8.080531350964731407e-01
1.213691263861962077e-01 6.244543588955577818e-01 -7.715739036648331384e-01
9.879631530299920472e-02 6.191847310958393802e-01 -7.790054921888057704e-01
9.879631530299920472e-02 6.191847310958393802e-01 -7.790054921888057704e-01
3.231725147807470305e-02 6.278025744714378353e-01 -7.777014354776115024e-01
3.231725147807470305e-02 6.278025744714378353e-01 -7.777014354776115024e-01
8.022591545010564207e-02 5.821430723941528607e-01 -8.091188081818940780e-01
-1.689574376024693403e-01 5.498410971333075326e-01 -8.180025380046498373e-01
1.905655631677823370e-01 6.403633827272564583e-01 -7.440561162954386631e-01
4.794589426859672820e-01 3.628387180108870735e-01 -7.990414175689958265e-01
-9.619504436248346169e-01 2.718789895296000458e-01 -2.707691013294409588e-02
