6.137804253719300303e-04 -5.753844515419648253e-01 8.178828499224946036e-01
8.276926365056288537e-01 -5.212957174570103103e-01 -2.077875704543987734e-01
2.008378970577412437e-01 -2.097482593014223518e-01 9.569063730718107008e-01
2.503765479308757147e-01 -1.112673580366060067e-01 9.617334138324257209e-01
-4.961927381457376662e-01 1.282235948924332070e-01 8.586917236845227341e-01
-4.595826100301617090e-01 -1.906411132992567523e-02 8.879303937905631550e-01
-2.043828208715599837e-01 -1.358997651293198522e-02 -9.787966975173965078e-01
-9.760542766120557934e-01 2.074663912497210494e-01 -6.538918572007255958e-02
-9.760542766120557934e-01 2.074663912497210494e-01 -6.538918572007255958e-02
-4.415056582008434205e-01 -1.794265773517763132e-02 8.970790460210504857e-01
-4.448899608345192880e-02 -2.294160494252443783e-01 9.723111670106440174e-01
1.288075823308204859e-01 -2.254517930329555664e-01 9.657018669094070695e-01
-2.524634153506703504e-01 -1.838503161102405803e-01 9.499796235581264847e-01
-2.524634153506703504e-01 -1.838503161102405803e-01 9.499796235581264847e-01
-9.285772970326134912e-01 -2.027805979214047372e-01 -3.108443863772399340e-01
-9.373455008864822746e-01 3.351196630007995947e-01 9.527971157649532674e-02
-1.631944427835658462e-01 6.131134399038216110e-01 -7.729550333970692799e-01
3.090129541079485870e-02 -8.307501370805579766e-02 -9.960640802876795652e-01
-1.050729155614539730e-02 -8.688007201299809482e-03 9.999070533579730302e-01
3.043564515399970957e-02 -2.063497223181562368e-02 9.993237060257561533e-01
7.412066093605799155e-01 -6.688556275552308694e-01 -5.696412667539833136e-02
-8.491177741019891867e-01 1.820715288734357507e-01 4.958315884226950354e-01
5.158302908570364664e-01 4.567641705159388166e-01 7.247658956982119260e-01
-9.970716198047814283e-01 -7.596365585502136419e-02 -8.815212363267330500e-03
-4.842578712083187020e-01 2.560066558166097447e-02 8.745506961260526291e-01
-4.842578712083187020e-01 2.560066558166097447e-02 8.745506961260526291e-01
8.862585419000427178e-01 -2.758467771063495277e-01 3.720945477553386782e-01
8.862585419000427178e-01 -2.758467771063495277e-01 3.720945477553386782e-01
-8.146233822262659574e-01 -3.898247957223802129e-01 -4.294477544128548208e-01
-8.624882595485559023e-01 -4.002097670512813621e-01 3.097517465611163145e-01
-8.865822385921604543e-01 -3.682106411502874543e-01 2.799872460606154800e-01
4.696941271603338741e-01 -2.100143364135968194e-01 -8.574855132373074840e-01
4.696941271603338741e-01 -2.100143364135968194e-01 -8.574855132373074840e-01
4.696941271603338741e-01 -2.100143364135968194e-01 -8.574855132373074840e-01
2.517121996069859313e-01 -3.753641516268498846e-01 -8.920441257261145784e-01
2.517121996069859313e-01 -3.753641516268498846e-01 -8.920441257261145784e-01
2.517121996069859313e-01 -3.753641516268498846e-01 -8.920441257261145784e-01
-9.483205004112285064e-01 -3.408285284037813889e-02 3.154783473426635565e-01
-9.483205004112285064e-01 -3.408285284037813889e-02 3.154783473426635565e-01
-7.040220561005950950e-01 6.981316941348655325e-01 1.302500755019857792e-01
9.025422923750797688e-01 -3.463360772597470771e-01 2.558685835788886420e-01
9.229178619403014538e-01 -2.447764875519665984e-01 -2.971650909061571699e-01
8.110790344934547605e-03 2.839453208515625438e-01 -9.588061690698927997e-01
8.110790344934547605e-03 2.839453208515625438e-01 -9.588061690698927997e-01
-8.897656761125503078e-01 -4.147123524574096720e-01 1.906061550192376663e-01
-8.897656761125503078e-01 -4.147123524574096720e-01 1.906061550192376663e-01
6.918841978251193403e-01 -4.537623720169266517e-01 -5.616012522613026414e-01
-7.737889314065602916e-03 2.942987687097421978e-01 -9.556821437093471205e-01
7.342771539555673632e-01 -1.258758437645260408e-01 6.670774566236522540e-01
-3.747610785749566631e-01 1.453032432513469974e-01 9.156642951900958449e-01
9.152316324330032060e-01 -5.869707558304481515e-02 3.986297935579055651e-01
8.149054848945427310e-01 -3.886903033499158888e-01 4.299405758596649418e-01
8.516005036753241386e-01 -9.408325267161735117e-02 5.156790898481947716e-01
9.153350993803348601e-01 -2.954237769516894208e-01 2.736538833161170081e-01
8.980180850792118807e-01 -3.094767070660251473e-01 -3.127102279335213786e-01
9.669543172217758276e-01 -7.536273941078322491e-02 2.435565764143349243e-01
5.569055417372876793e-01 -7.566949137505216694e-01 3.424456527485620905e-01
-9.462413961397224682e-01 -2.346304225147001488e-01 2.226562037359886004e-01
-9.724031608010030858e-01 -1.944710565630454815e-02 2.324949525168475972e-01
2.111474964692237055e-01 9.886482348251202437e-03 9.774042112665347615e-01
2.847251905769752067e-01 -3.325866833919201015e-01 8.990648830208350928e-01
4.309034065252326795e-01 2.321032828474099419e-01 -8.720380268866750884e-01
-9.837799252382118942e-01 -7.627018457065505574e-02 -1.623573763148949967e-01
-9.822452862139114949e-01 5.038152328724180423e-02 1.807094347891337327e-01
-9.696821609740218229e-01 -1.781576853527861437e-01 -1.672613100465525637e-01
-9.772527657877644325e-01 -1.420870818274905523e-01 -1.574429831333002405e-01
9.588247734092413266e-01 1.505679086892904583e-01 2.407994160492307190e-01
-8.646768389099198648e-01 4.721600814355191855e-01 1.714608461181515719e-01
3.333089681266860893e-01 -8.305048878177940797e-01 4.462810359818988881e-01
9.945125233429076284e-01 2.495603371427401393e-02 1.015974276021520684e-01
8.834334702863034794e-01 -2.298717810716456034e-01 4.082943397168867783e-01
-4.117389545279055429e-01 -8.325498061329904553e-01 3.705831264806687675e-01
-7.445069695253317965e-01 6.141235050146077734e-01 -2.618428783006699900e-01
-8.447358046183952585e-01 4.442843819864372712e-01 -2.983836596039430300e-01
-5.055193708311792045e-02 -9.973908087582875615e-01 -5.153713478292532013e-02
-6.247923049916454669e-02 -8.364840600174944241e-01 5.444178203300119590e-01
-8.360347602424140767e-01 -5.206228604184774955e-01 -1.731984898204716739e-01
-2.763432289054656987e-01 -5.161480131158723283e-01 8.106945469131012771e-01
-4.097445947311223469e-01 3.054557219434834159e-01 -8.595383464515201632e-01
-4.500490552108196152e-01 -8.009736034101965219e-01 3.948381118179121185e-01
-6.851424782667430158e-01 -5.632856965746905198e-01 -4.618322298290484795e-01
4.703721405184303761e-03 -7.462066122971748872e-01 6.656978043894362651e-01
-9.671457634234440492e-01 8.488994292147764020e-02 2.396304861299409228e-01
-9.671457634234440492e-01 8.488994292147764020e-02 2.396304861299409228e-01
-2.078540581528954823e-01 -6.616230118038727293e-01 7.204524139462266108e-01
-5.541751437964852478e-01 -6.769331496447266172e-01 4.844083204386719355e-01
-4.851608223688656518e-01 -7.572141514155815711e-01 4.373164818919437757e-01
-5.116461316171435625e-01 -6.838195244817332208e-01 -5.202010130120746645e-01
-5.719797723050533689e-01 -7.737065287125667323e-01 -2.724286099171845388e-01
-3.856575183741857704e-01 -4.117751914343588671e-01 8.256569930913573163e-01
-6.813464808356103353e-01 -6.154246073764124692e-01 -3.962568935533083425e-01
-2.235978650759197495e-01 -7.509250370408692143e-01 6.213819948137054849e-01
-4.477979456882582032e-01 -7.686899849281167985e-01 4.567195057237948275e-01
-4.491644988637144009e-01 -8.002516154759929945e-01 3.973016547770369389e-01
-4.126200228413873794e-01 -8.318218215626972389e-01 3.712373552358235185e-01
-7.004047676870009953e-01 -3.036906978245245692e-01 -6.459141749924454112e-01
-4.465404025474165595e-01 -7.117789014697823990e-01 -5.421922761486562825e-01
-3.110472142851459232e-01 -7.110600378466981342e-01 6.305896074808896579e-01
-4.067135540202080901e-01 -6.349985951362476788e-01 6.567806857324923753e-01
-4.303311332402633971e-01 -5.593480087754929553e-01 7.084807131058981078e-01
-4.245039157105131022e-01 -5.467186303785307455e-01 7.217306732732543528e-01
-4.245039157105131022e-01 -5.467186303785307455e-01 7.217306732732543528e-01
-4.215807492040833382e-01 -5.713489471471310255e-01 7.041520095081662545e-01
-4.794836882440558501e-01 -6.890554337261067808e-01 5.434132883546408666e-01
-4.233061527570332050e-01 -8.121572829343896016e-01 4.015127006891177630e-01
-1.870504165495321530e-02 5.371150785675927741e-01 8.433015556679682723e-01
6.527311067422639354e-04 5.188972404064062793e-01 -8.548363748932999995e-01
-6.115288877350546493e-01 7.866757979451837191e-01 8.469715693478203911e-02
-4.195315594756972577e-01 -5.479522314829704532e-01 7.236999534452953631e-01
-8.376100118000758821e-01 5.149700776156732607e-01 1.822506167144137823e-01
-3.461554199920980901e-01 -8.536519153361042944e-01 3.891719833866449929e-01
3.743868405752023149e-02 7.078419258725276997e-01 -7.053780212858296039e-01
-4.570069456695777244e-01 -6.412990608914522772e-01 6.163441945126967303e-01
-8.727477789592282820e-01 -4.158509845577727515e-01 2.556937092774577702e-01
8.862233462092505842e-01 -3.693901189066258750e-01 -2.795695274664735663e-01
-9.609035162938395214e-01 -2.687489747382116878e-01 6.662147515099602069e-02
6.780946992583001265e-01 -7.349690046620734885e-01 2.853247945161498707e-03
2.016512550260845527e-01 8.561058065663383898e-01 -4.758357062157109740e-01
-5.479313997493309163e-01 -7.576569387871696648e-01 3.545802367256162824e-01
-5.182552086538367853e-01 -7.820084673077377646e-01 3.462286755342068867e-01
-4.785592409612666187e-01 -5.382096536951045396e-01 6.937661144506641620e-01
-4.385390018334626161e-01 -5.937590114391534390e-01 6.746360353595926007e-01
-5.885128500027559939e-01 -4.595809439600590518e-01 -6.651601170623616666e-01
-4.694847308740500158e-01 3.019285606102920516e-01 -8.297127405095802155e-01
-6.090975317380172005e-02 -9.825150764815231419e-01 -1.759378482726594584e-01
-3.544283947756758368e-01 -7.700331749033469952e-01 5.304992200983986717e-01
-3.544283947756758368e-01 -7.700331749033469952e-01 5.304992200983986717e-01
-4.134383220190277486e-01 -6.753292353927949909e-01 6.107365861890653447e-01
5.097901083087601481e-01 -3.565347143478044267e-01 7.829412768116598142e-01
-4.955065296134872899e-01 -5.579771975013249063e-01 6.656836532309966525e-01
4.543232137038130669e-01 5.267206212495051387e-01 -7.184398406549951099e-01
-6.904828257745161679e-02 -9.765445715942967508e-01 -2.039437039057980239e-01
-8.331313455642063159e-01 -3.462887349380797120e-02 -5.519900380975411025e-01
-4.307981924859040634e-01 -6.007705062346884173e-01 6.734149658192890575e-01
-5.130304616612518798e-01 2.719257552888222906e-01 -8.141597687298521846e-01
-7.408418391506433887e-01 6.469387627605676094e-01 1.806200614597346654e-01
-5.158786147092134788e-01 -8.383724879717702194e-01 -1.760705151288169679e-01
-8.890680668830648337e-01 -4.575138482746057278e-01 -1.546127697737882493e-02
-3.187730579088162708e-01 -8.423268618069860159e-01 4.345908367992327714e-01
-4.624378874033901465e-01 -5.457289491444514695e-01 6.988069220890577027e-01
-4.624378874033901465e-01 -5.457289491444514695e-01 6.988069220890577027e-01
-4.624378874033901465e-01 -5.457289491444514695e-01 6.988069220890577027e-01
-4.073643016282686991e-01 -6.604152638158755639e-01 6.307979114406772059e-01
-4.149782620139683686e-01 -6.763923429277471921e-01 6.085116601056870245e-01
-4.149782620139683686e-01 -6.763923429277471921e-01 6.085116601056870245e-01
-3.807371450983980110e-01 -7.677716683408516429e-01 5.153308564751645227e-01
-3.842188026627068043e-01 -7.716702853328313294e-01 5.068539063820881596e-01
-3.842188026627068043e-01 -7.716702853328313294e-01 5.068539063820881596e-01
-3.814710276633150876e-01 -8.030715424404231140e-01 4.577728178647720858e-01
-3.330369084368477450e-01 -8.339158937447888054e-01 4.400803333241066762e-01
-4.184713919499777890e-01 -7.290251138758663263e-01 5.416678663699077134e-01
2.550544417025854549e-01 -1.213628970289126335e-01 -9.592800837047187335e-01
-5.069097637674592205e-01 -5.532258520272235192e-01 6.610473871410211810e-01
-5.069097637674592205e-01 -5.532258520272235192e-01 6.610473871410211810e-01
-5.404210134385252218e-01 -5.564104566955565545e-01 6.311517503056768286e-01
-6.401946758522891745e-01 -4.785551633749702827e-01 6.009456985598099488e-01
-4.300462976611300614e-01 -7.446239515825499033e-01 5.104854087998436096e-01
-4.300462976611300614e-01 -7.446239515825499033e-01 5.104854087998436096e-01
-9.898032054301317828e-01 -1.291414234588502130e-01 -6.010080920635225282e-02
-5.104435317489173229e-01 -6.353701657711643414e-01 5.794412423564749837e-01
-8.072122910593668710e-01 4.764874814519139967e-01 3.483790998069486444e-01
-7.797856685257539278e-01 -6.139796730958001492e-01 1.223244545747802503e-01
-1.172734261677307877e-02 -9.516871506345241372e-01 -3.068452977516347713e-01
-3.123759322548512740e-01 -9.208907401364549994e-01 2.331984598552157562e-01
-4.828845077570012578e-01 -5.895624681916991072e-01 6.474864077862870770e-01
-5.446462521936640266e-01 -5.527273098855145506e-01 6.307558805735529184e-01
-1.612986683140673477e-02 -9.971859762890394885e-01 7.321172097742598139e-02
-5.045416340442751002e-01 -5.974562225452904052e-01 6.232846874886670552e-01
-3.889658969476388339e-01 -6.056248662339166478e-01 6.942074995351674715e-01
-3.310107532980951506e-01 -7.803021912232074309e-01 5.306226263299452794e-01
1.145955136863695129e-01 8.835789939482042721e-01 4.540440834285105476e-01
7.433508792878793514e-01 -6.334520468643222157e-01 -2.148673418305750149e-01
-1.446837094211131103e-01 6.141082126615363679e-01 7.758464586307010080e-01
-5.503349198139216858e-01 -5.721188762041061748e-01 6.081212605429571205e-01
-3.722036495510863685e-01 -6.853940829412822344e-01 6.258589252618604881e-01
-3.774909360944387338e-01 -8.282116711015373722e-01 4.142052884956242687e-01
-9.278434082300817121e-01 -2.200927610848271154e-01 -3.011075992432660220e-01
-4.398896557322093392e-01 -6.329812942088519634e-01 6.370492696499111540e-01
-5.698817480024306326e-01 -5.354942434881746482e-01 6.232822061351676046e-01
-5.698817480024306326e-01 -5.354942434881746482e-01 6.232822061351676046e-01
-4.252196972630897243e-01 -6.179277854623860256e-01 6.613270454268734833e-01
-9.617442115754685217e-01 2.186656861345682434e-01 1.650254198854792242e-01
-9.405072293547094286e-01 -3.289670887265628285e-01 -8.501062325555397425e-02
-9.078397218243687838e-01 -1.157927000247726684e-01 -4.030125185386000952e-01
-3.050286266106623789e-01 -8.065583437077120665e-01 5.063804648122647301e-01
-6.151947128833096246e-01 -3.677148342865824704e-01 6.973673822928724286e-01
1.658062405621513746e-01 5.353748360263643757e-01 -8.281799777466183343e-01
-3.986280423866427336e-01 -6.206689500082253064e-01 6.751783011313974292e-01
-3.986280423866427336e-01 -6.206689500082253064e-01 6.751783011313974292e-01
-3.986280423866427336e-01 -6.206689500082253064e-01 6.751783011313974292e-01
-3.841284983868042957e-01 -6.733474892791120325e-01 6.317028220679523631e-01
-3.721730349740315913e-01 -7.513863605583567251e-01 5.448906029700690823e-01
-3.721730349740315913e-01 -7.513863605583567251e-01 5.448906029700690823e-01
-1.969089432712883003e-01 -9.799405070340490020e-01 3.071596870742649560e-02
-4.767059639586858633e-01 -5.682440162856116084e-01 6.707087012122457947e-01
-4.429633893659410959e-01 -5.540128110034165942e-01 7.048781745277195032e-01
-4.355132998557011970e-01 -6.140231919340422007e-01 6.582580690093579046e-01
-4.739780420173819175e-01 -8.557368152072436507e-01 -2.075073945292850719e-01
-4.125645540490913699e-01 -6.277800525908429075e-01 6.600626442325856491e-01
-4.125645540490913699e-01 -6.277800525908429075e-01 6.600626442325856491e-01
-3.346609320220162442e-01 -7.906387677935747815e-01 5.127303379360471647e-01
-3.122454776283288269e-01 -9.209057376204096146e-01 2.333139175412949351e-01
-3.122454776283288269e-01 -9.209057376204096146e-01 2.333139175412949351e-01
-3.937587054105128881e-01 -7.012009135723830111e-01 5.943663522766849949e-01
-4.056202183097927239e-01 -5.963547100800454803e-01 6.927000059648195096e-01
-4.334395174250177951e-01 -5.894960737711352206e-01 6.816337460416582728e-01
-4.480528628106885680e-01 -6.195495777472304066e-01 6.445207156022021433e-01
-4.418712280649772506e-01 -6.245705862602158875e-01 6.439420785962968186e-01
-3.822470937263908186e-01 -6.135081190180203814e-01 6.910100919933791497e-01
-5.754792346953468973e-01 -7.617304975545025059e-01 -2.976412261932608883e-01
-3.482372503308078793e-01 -6.653382391763132953e-01 6.603452468003395692e-01
-3.326915962564649942e-01 -7.503537327038543037e-01 5.712141258737548632e-01
-4.008914716607193673e-01 -6.000180901422541568e-01 6.922891877328032351e-01
-4.008914716607193673e-01 -6.000180901422541568e-01 6.922891877328032351e-01
3.919572782728169003e-01 7.925250906859871991e-01 4.671974664337695815e-01
3.919572782728169003e-01 7.925250906859871991e-01 4.671974664337695815e-01
-4.394828794409877393e-01 -5.737976722227192683e-01 6.910940818948221320e-01
-4.394828794409877393e-01 -5.737976722227192683e-01 6.910940818948221320e-01
-3.816941381910229913e-01 -6.259977556188240921e-01 6.800267603784481141e-01
-3.816941381910229913e-01 -6.259977556188240921e-01 6.800267603784481141e-01
-3.816941381910229913e-01 -6.259977556188240921e-01 6.800267603784481141e-01
-3.920660754119093538e-01 -6.256531282443481556e-01 6.744200142560748956e-01
-5.306493375100478777e-02 2.964767328946434910e-01 -9.535647118356045393e-01
1.218443362674689473e-01 4.081395169267338363e-01 -9.047519507811809802e-01
-7.791752974993504388e-01 -2.573986303426188393e-01 5.715171046124014609e-01
-3.924724085276283247e-01 -6.066266588397397630e-01 6.913533867201754335e-01
-3.924724085276283247e-01 -6.066266588397397630e-01 6.913533867201754335e-01
-3.308261892094476742e-01 -6.104996697595104216e-01 7.196139143712295683e-01
-3.659248087752368095e-01 -6.450855125452223948e-01 6.707933480790296832e-01
-3.659248087752368095e-01 -6.450855125452223948e-01 6.707933480790296832e-01
-3.639016409996236878e-01 -7.276804638782143897e-01 5.814264684100370895e-01
-3.258422984262426825e-01 -7.920274616270144286e-01 5.162550693068027607e-01
-4.735878155713125204e-01 8.269721731904927653e-01 3.030373008574790417e-01
-8.264032525566875065e-02 -9.734740610418638473e-01 -2.133514216505215111e-01
-1.157461399923985779e-01 3.880577907497637646e-01 -9.143380021169810190e-01
-3.148751268718896212e-01 -9.164798801968893072e-01 2.468162953933684955e-01
-3.943542835535682745e-01 -7.385435431627740410e-01 5.468437929569353040e-01
-4.133687067849758368e-01 -6.491553529354081586e-01 6.385324110851559043e-01
-4.133687067849758368e-01 -6.491553529354081586e-01 6.385324110851559043e-01
-4.133687067849758368e-01 -6.491553529354081586e-01 6.385324110851559043e-01
3.367718142003017223e-01 9.183793869716311287e-01 2.077595888180577555e-01
-4.189077831724189460e-01 -5.838566213037298391e-01 6.954334727041565634e-01
-4.189077831724189460e-01 -5.838566213037298391e-01 6.954334727041565634e-01
-2.914140031556775590e-01 -7.357401602787480011e-01 6.113626545004077206e-01
-4.147703568008235253e-01 -6.173900120717306095e-01 6.684273514102980762e-01
-7.296593005925303688e-01 2.604789679477715336e-01 -6.322562868929683111e-01
-3.930406340138170029e-01 -6.061544823379242386e-01 6.914447219812005496e-01
-2.972846600954964225e-01 -7.448137848930117544e-01 5.973895351487601424e-01
-8.829677749674320619e-01 -2.767996052961353981e-01 -3.791436230203085733e-01
-4.300278552813281974e-01 -5.716974963010035271e-01 6.987403068417515906e-01
-4.300278552813281974e-01 -5.716974963010035271e-01 6.987403068417515906e-01
-4.300278552813281974e-01 -5.716974963010035271e-01 6.987403068417515906e-01
-4.239065371516322900e-01 -5.864022541827268453e-01 6.902431774740903636e-01
-4.239065371516322900e-01 -5.864022541827268453e-01 6.902431774740903636e-01
-4.239065371516322900e-01 -5.864022541827268453e-01 6.902431774740903636e-01
-7.974749705259898125e-01 -2.793736762568280740e-01 -5.347747379965852588e-01
-3.208240719187506196e-01 -6.358248523735325897e-01 7.019962051048764806e-01
-3.208240719187506196e-01 -6.358248523735325897e-01 7.019962051048764806e-01
-2.818832477690244587e-01 -7.902641714455749256e-01 5.440812199999425225e-01
-8.637147177146210497e-01 4.977910429369644119e-01 7.874619974882392237e-02
-1.989385946433134822e-01 -9.192491461291340963e-04 9.800115257191370777e-01
-4.884634301666187506e-01 -2.894298829485033031e-01 8.231851676544448271e-01
-9.069048388985211373e-01 4.106862095985928662e-01 9.412996562194297923e-02
-4.225384431224802340e-01 -6.075667012555617807e-01 6.725503457801992324e-01
-4.104764675971815935e-01 -5.722297458476014453e-01 7.099733709908629953e-01
-4.104764675971815935e-01 -5.722297458476014453e-01 7.099733709908629953e-01
-3.651527720493369378e-01 -5.855586862165546025e-01 7.237295614116003861e-01
-7.486011524577798060e-01 -5.383895851424468360e-01 3.869534457128246396e-01
-3.853419270777614369e-01 -6.573784837902082456e-01 6.475840704384906443e-01
-3.746831327795024924e-01 -6.494403670407929985e-01 6.616946120896389782e-01
-3.746831327795024924e-01 -6.494403670407929985e-01 6.616946120896389782e-01
-3.746831327795024924e-01 -6.494403670407929985e-01 6.616946120896389782e-01
-9.976440520116962585e-01 -5.818813343534742083e-02 3.633850042302870509e-02
-9.832982365061513352e-01 -8.124128349076391309e-02 -1.628632307817402258e-01
-2.737572982797996102e-01 -7.848584144304258103e-01 5.559264438181574786e-01
-2.737572982797996102e-01 -7.848584144304258103e-01 5.559264438181574786e-01
-9.091553745549220134e-01 -1.821840537356365641e-01 -3.744936254228503070e-01
-4.219434736543759557e-01 -5.759201567034611946e-01 7.001997416045935285e-01
-4.219434736543759557e-01 -5.759201567034611946e-01 7.001997416045935285e-01
-2.911450530512776358e-01 -5.981246469702908852e-01 7.466468139424647932e-01
-2.911450530512776358e-01 -5.981246469702908852e-01 7.466468139424647932e-01
-7.369830273433937151e-01 -6.228189591153823201e-01 -2.625881977054538297e-01
-2.487914465116347618e-01 -8.844067775381820873e-01 3.948765224562950094e-01
-2.729682905327143194e-01 -8.671432801470885243e-01 4.165943399272192815e-01
-3.872185343736605501e-01 -6.018482310446164885e-01 6.984558063513970350e-01
-6.155764834541677111e-01 -2.431586754394706174e-01 7.496262079041281501e-01
-3.330954228156671748e-01 -6.123766393212570769e-01 7.169674266749187508e-01
-3.330954228156671748e-01 -6.123766393212570769e-01 7.169674266749187508e-01
-9.488722571945528150e-01 -2.362116316055168919e-01 2.093931818870281292e-01
-3.313480879165874304e-01 -5.957125238384465282e-01 7.316659303097621248e-01
-8.985640344891623332e-01 -4.029945135585845661e-01 1.737184445136424060e-01
7.326842576835004284e-01 -6.039145377103664059e-01 -3.137849736441382653e-01
-3.260952152360543921e-01 -7.432921418465735508e-01 5.841050440368448227e-01
-3.260952152360543921e-01 -7.432921418465735508e-01 5.841050440368448227e-01
-3.996130806495292731e-01 8.158932781103660492e-01 -4.178846066895904321e-01
7.890620111337031117e-01 -6.077020138537824190e-01 -8.988551019876872550e-02
8.697722626421036662e-02 6.059103513754461323e-01 -7.907639396226080475e-01
-2.591264133982809081e-01 -6.331742460187238519e-01 7.293448265792825680e-01
-2.728643505453515750e-01 -6.461286084570970756e-01 7.127852885229597479e-01
-2.728643505453515750e-01 -6.461286084570970756e-01 7.127852885229597479e-01
-2.605278733591273599e-01 -6.939072437035950225e-01 6.712808386500020985e-01
-2.605278733591273599e-01 -6.939072437035950225e-01 6.712808386500020985e-01
-2.747682202051764944e-01 -7.276138846808002381e-01 6.285542617666309839e-01
-2.747682202051764944e-01 -7.276138846808002381e-01 6.285542617666309839e-01
-2.561824908494407249e-01 -7.821240480078880397e-01 5.680250917960677493e-01
-2.561824908494407249e-01 -7.821240480078880397e-01 5.680250917960677493e-01
-9.761805191621257816e-01 -1.833883362102456671e-01 1.159323602382025392e-01
-9.051312012009118391e-01 -3.869765378818360579e-01 1.760303034752322970e-01
-9.051312012009118391e-01 -3.869765378818360579e-01 1.760303034752322970e-01
-9.806161303248197569e-01 -1.880030110602200488e-01 -5.519848529685216637e-02
-7.839685340425315285e-01 -5.690483984782663818e-01 2.481476532641889166e-01
-8.976222620722142942e-01 -3.042099655323700080e-01 3.189523028654210890e-01
-3.323914683641100987e-01 -5.838674003436035154e-01 7.406853384364733284e-01
-2.941940741557790839e-01 -5.719393144034402576e-01 7.657253210984646952e-01
-2.941940741557790839e-01 -5.719393144034402576e-01 7.657253210984646952e-01
-7.746790128260493402e-01 -5.786620847547171431e-01 2.549953308478070113e-01
-6.488182501497395949e-01 -3.421635249913019261e-01 6.796756582651438672e-01
4.705308275113123107e-01 -5.742357639562827298e-01 6.699656914761112914e-01
6.343767722459617286e-02 7.293993334964889996e-01 -6.811404212078634446e-01
-9.142030139301193792e-01 1.280791159598523021e-01 3.844848363408219782e-01
-2.378231432819243596e-01 -7.258844075066855916e-01 6.453928876724416286e-01
-5.858469168746514022e-01 -5.523597452054223034e-01 5.930279098533781656e-01
7.962194259459027812e-01 -5.543460970556266521e-01 -2.423531110292807267e-01
7.495338320377126218e-01 -5.684559566385238849e-01 -3.392003242820421094e-01
-3.200704962859708957e-01 -6.010770242290384147e-01 7.322986333124050784e-01
-2.441565450619044564e-01 -8.059406183526369727e-01 5.393026063285839555e-01
-9.704477273226110867e-01 -2.086964211608375308e-01 -1.211487198819584526e-01
-9.445405070906857103e-01 -1.690784230583514958e-01 -2.815239196249073594e-01
-8.095781907686052659e-01 -4.854328940373115464e-01 3.300576592330376480e-01
-8.049087399479007976e-01 -5.560021630805177528e-01 2.073246608709826411e-01
-4.695027072121047973e-01 6.496141712126839440e-01 -5.979704311085645152e-01
-4.622466950089230281e-02 -9.750616121736395137e-01 2.170671149549751877e-01
8.261805239820287916e-01 -4.628508910212583150e-01 -3.212394659340716552e-01
8.148715438969119651e-01 -5.047226116713039445e-01 -2.850253536350076389e-01
1.636026717509544703e-01 3.042016647412951746e-01 -9.384537884012051911e-01
-2.058110407649037521e-01 -6.552556091773814595e-01 7.268300366253762634e-01
8.731140679820333927e-01 -4.747475154627321947e-01 -1.108450308034970994e-01
-8.624768188156924920e-01 -4.894333575798743285e-01 1.287972262653741540e-01
8.426530822536966170e-01 -5.019976451246954685e-01 -1.947669049340906566e-01
8.426530822536966170e-01 -5.019976451246954685e-01 -1.947669049340906566e-01
-2.995441802202170045e-01 8.159007371982177070e-02 9.505873678766156853e-01
-7.984917421701361873e-01 -5.370137718932862514e-01 2.720793018276957964e-01
3.419126762346717807e-02 5.352152641403763456e-01 -8.440234465045670653e-01
-9.831300771454412057e-01 3.077643927026108353e-03 1.828818731308743395e-01
8.592407807342566928e-01 -4.869477549605067401e-01 -1.568029485121603950e-01
8.592407807342566928e-01 -4.869477549605067401e-01 -1.568029485121603950e-01
-8.578321259737796411e-02 -2.489732470674353437e-01 -9.647038730518141536e-01
-3.095902096368620127e-01 -6.577044432189084189e-01 6.867159292364705125e-01
-9.977607972142019666e-01 -9.804530722134750104e-03 -6.616088511952322726e-02
3.986302133196065189e-01 3.626391422269701348e-01 -8.423697558398284269e-01
-2.446640133164127984e-01 -6.056459988577457265e-01 7.571871926119125851e-01
9.567128888877247661e-01 -2.909208048511661704e-01 8.095278923787019992e-03
-9.875792502308585741e-01 -1.552267506550987497e-01 2.432859211945873762e-02
-8.234227573245171961e-01 -5.481284156027071974e-01 1.467317372927716967e-01
-9.930057595599357523e-01 -2.780117431657005631e-02 -1.147460508576008120e-01
-9.930057595599357523e-01 -2.780117431657005631e-02 -1.147460508576008120e-01
-9.694162144056998054e-01 8.507735796164535291e-02 2.302043579291850883e-01
-8.463506983479922585e-01 -4.853124009473637201e-01 2.194592647681367359e-01
-8.463506983479922585e-01 -4.853124009473637201e-01 2.194592647681367359e-01
-1.443384319823359241e-01 4.041131249547876281e-01 -9.032491346755648909e-01
-1.443384319823359241e-01 4.041131249547876281e-01 -9.032491346755648909e-01
-1.422507463717723464e-01 -8.311144735880325873e-01 5.375997181446072748e-01
-1.800481905896618440e-01 -8.002832066220757490e-01 5.719523041863514567e-01
-9.943208478283589447e-01 9.661760284107111241e-02 -4.462163595318533599e-02
8.537281459637253711e-01 -2.448635569309977333e-01 4.595542310505256745e-01
-2.644192367421869250e-01 -6.121333470769081408e-01 7.452350183915814608e-01
-2.644192367421869250e-01 -6.121333470769081408e-01 7.452350183915814608e-01
-2.207429381098162946e-01 -5.878057338306393875e-01 7.783039088623860957e-01
-2.207429381098162946e-01 -5.878057338306393875e-01 7.783039088623860957e-01
-8.552021070379914880e-01 -3.010647706629311984e-02 -5.174195165979307287e-01
-4.716109824454793320e-01 -8.431113197176712815e-01 2.583532151933407017e-01
-7.037552726315036145e-01 -5.804798611214865289e-01 4.095993738712717658e-01
-9.104476910977687965e-01 4.086384470908566713e-01 6.402828542070024276e-02
-9.958421678668737398e-01 9.038062067813043554e-02 -1.138947338734201328e-02
-8.666697693326199659e-01 -4.253947541693081646e-01 2.606200568839187048e-01
-8.666697693326199659e-01 -4.253947541693081646e-01 2.606200568839187048e-01
-8.744356489312540281e-01 -3.931549990743299361e-01 2.842383552250477563e-01
-8.533543991591119315e-01 -4.597778316226899809e-01 2.457450202631343839e-01
-8.533543991591119315e-01 -4.597778316226899809e-01 2.457450202631343839e-01
-9.438746024412274505e-01 -6.989184531526948518e-02 -3.228248206455647806e-01
8.248152636108205815e-01 3.697103744155590815e-02 5.641922751200229014e-01
-2.272141949272410144e-01 -6.272521768758860805e-01 7.449351758562806625e-01
-7.230447168649868361e-01 2.100513410206462095e-01 6.580917652949770380e-01
-1.737995062550592995e-01 -6.193785108556998376e-01 7.656134742255215064e-01
-1.737995062550592995e-01 -6.193785108556998376e-01 7.656134742255215064e-01
8.734488196471926758e-01 -3.492072463096242974e-01 -3.393250043568485919e-01
-9.584780215521808699e-01 -3.451543905861968742e-02 2.830698971420440579e-01
-1.471296161749320874e-01 -7.681134933379962781e-01 6.231809828583644295e-01
-1.471296161749320874e-01 -7.681134933379962781e-01 6.231809828583644295e-01
-1.471296161749320874e-01 -7.681134933379962781e-01 6.231809828583644295e-01
-2.379546662636529697e-01 -7.281992347510430896e-01 6.427312434535518149e-01
-2.372879095746440736e-01 -7.801223443296801952e-01 5.788813141286039965e-01
-2.372879095746440736e-01 -7.801223443296801952e-01 5.788813141286039965e-01
-9.896091806622338005e-01 -1.302890325983925845e-01 6.081478055207705652e-02
-2.640026627869079476e-02 3.305812655288229984e-01 -9.434082111269628257e-01
-2.640026627869079476e-02 3.305812655288229984e-01 -9.434082111269628257e-01
-1.864149177132903568e-01 -7.596632671123846325e-01 6.230258414015305002e-01
7.764259330663157987e-01 -6.101236736018439411e-01 1.578349561177475602e-01
7.764259330663157987e-01 -6.101236736018439411e-01 1.578349561177475602e-01
-5.484408189401944744e-01 -6.291290866558718609e-01 5.508259801822688040e-01
8.714957644645355828e-01 -4.710190519817265553e-01 1.365144138565974608e-01
-4.002090203084943121e-01 -2.539450274435712251e-01 -8.805365768100716917e-01
-2.065801241194265003e-01 -8.148018801093247498e-01 5.416849162466239598e-01
-2.065801241194265003e-01 -8.148018801093247498e-01 5.416849162466239598e-01
-6.019479670490995860e-01 -7.983418997172687659e-01 1.757430286750079340e-02
-4.760243291955231215e-01 -7.897190082030955960e-01 3.869686370969503963e-01
-4.760243291955231215e-01 -7.897190082030955960e-01 3.869686370969503963e-01
-5.682965393080282590e-01 -7.069912850505890578e-01 4.209541142132182112e-01
-7.951021944734814051e-01 -5.047150349230890010e-01 3.362666112864002299e-01
-9.847922877235021355e-01 1.723908471877086679e-01 2.157651144682737332e-02
-9.847922877235021355e-01 1.723908471877086679e-01 2.157651144682737332e-02
-7.130262527487257751e-01 -6.531627873004312024e-01 2.548959320527535155e-01
-1.706508097481779229e-01 -9.575712723124878423e-01 2.322403056623338069e-01
-1.694896940753317649e-01 9.211460362598273832e-01 -3.503758317650622067e-01
9.368934253499998643e-01 -2.159920090078376598e-01 -2.749148260474548744e-01
-1.385766949581349605e-01 -6.216178392526964247e-01 7.709654736350318727e-01
-1.934304126181049521e-01 -5.940420388807347019e-01 7.808320763882649063e-01
-1.981257888670215628e-01 -7.992969792534915241e-01 5.673363294749099728e-01
-1.981257888670215628e-01 -7.992969792534915241e-01 5.673363294749099728e-01
-5.213468299555800156e-01 -6.181983546558864617e-01 5.882416826407512733e-01
-5.213468299555800156e-01 -6.181983546558864617e-01 5.882416826407512733e-01
-6.435308267667495530e-01 7.647095116915161306e-01 3.297632073817066689e-02
-8.009300825834717585e-01 -5.126735884660651443e-01 3.093166573305755063e-01
-8.073372536042755510e-01 -4.878705115150731575e-01 3.319471688939768517e-01
-8.073372536042755510e-01 -4.878705115150731575e-01 3.319471688939768517e-01
7.814448460054734813e-02 5.321369889149588639e-01 -8.430442838635675562e-01
1.039714396865829837e-01 4.678121565083423472e-01 -8.776911335729179475e-01
-5.848591334182284829e-01 -6.400586961516285811e-01 -4.982616376342411946e-01
-8.595609897248286391e-01 -1.476168155959342310e-01 -4.892485878330045113e-01
-3.491695326951979594e-02 5.177066325338000041e-01 -8.548453947965605204e-01
-8.425722218031914124e-02 3.240046673787014830e-01 -9.422959705035744982e-01
-6.738115296188257330e-01 -3.883513836045687784e-01 6.286185054587204446e-01
-7.464620186458894580e-01 6.305153134043002261e-01 -2.127084725199747950e-01
-1.343270989122012128e-02 -6.873055428598436878e-01 7.262442103446428154e-01
-9.431930382027310655e-02 -3.379572224397876523e-01 -9.364234003524488648e-01
-6.543245025797540526e-01 -3.867747796967504481e-01 -6.498189864218246736e-01
7.102882283211191250e-02 2.599501310865821035e-01 -9.630061451907528935e-01
7.102882283211191250e-02 2.599501310865821035e-01 -9.630061451907528935e-01
-1.498187394236042969e-01 -6.533058192569197731e-01 7.421225315556501112e-01
-8.697547826494359535e-01 -4.496109184970115691e-01 -2.034124873912761811e-01
-2.748066686447583340e-01 4.783410003635676366e-01 -8.340690512418927893e-01
8.913012726001207087e-01 -4.519726208932666744e-01 -3.609420208671709762e-02
-4.203076059597829484e-01 -8.438317393976155767e-01 3.336008272734800051e-01
-5.087657645104726178e-01 -5.059242777604484598e-01 6.965615708856200960e-01
6.532917745528065145e-01 -6.398704725830803297e-02 7.543974516690841181e-01
-6.655456468574607598e-01 6.641462530267409070e-01 3.405271597679463413e-01
-8.370870510099253092e-01 -4.850295508161661662e-01 2.530446677299779124e-01
-8.370870510099253092e-01 -4.850295508161661662e-01 2.530446677299779124e-01
5.975268416273108452e-01 -7.332830942106399741e-01 3.244342418422573315e-01
-5.621216041839567357e-01 -4.726538924480453430e-01 6.786881463996307096e-01
-5.621216041839567357e-01 -4.726538924480453430e-01 6.786881463996307096e-01
-7.831088754695320064e-01 -5.450425344828098151e-01 2.994480334972998148e-01
-7.831088754695320064e-01 -5.450425344828098151e-01 2.994480334972998148e-01
-8.399652779037858341e-01 4.591877754791389710e-01 -2.891451517257995762e-01
-7.728665140146432355e-01 -5.080639822771689795e-01 3.801951359861376334e-01
-8.999328919644190572e-01 -1.439230799565353602e-01 -4.115907397116487232e-01
-7.941390874832554569e-01 1.253404683346686921e-01 -5.946703933515676832e-01
-5.532338747212079966e-01 -4.485175048670312914e-01 -7.019717427993886760e-01
-8.342757464275398771e-01 -8.630949746666119471e-02 5.445499514000744501e-01
-3.314932990691773444e-03 -6.727700449191360565e-01 7.398442254142224561e-01
-9.395110477025213624e-01 9.460281774414022737e-02 3.291949242011177335e-01
-6.074733505007564593e-01 -7.791492910265557237e-01 -1.546043683865385987e-01
-4.302255865659748713e-01 -8.302231260496947263e-01 3.544509918680375793e-01
5.964104336491502512e-01 -7.420869852965960023e-01 3.059436237084251498e-01
5.964104336491502512e-01 -7.420869852965960023e-01 3.059436237084251498e-01
-5.958951433008734533e-01 -7.692777778855055537e-01 2.304792368999216412e-01
-5.958951433008734533e-01 -7.692777778855055537e-01 2.304792368999216412e-01
-5.791012822588890163e-01 -7.887988862971948567e-01 2.060049073745955084e-01
-7.570097310763090892e-01 -5.535475370367631820e-01 3.471619093395869049e-01
-7.561157096180602943e-01 -5.522946889573955298e-01 3.510834804120392949e-01
-7.974800066490743689e-01 -4.554939837216639975e-01 3.956650980164421183e-01
-8.750241155622147105e-01 -3.846816430131642095e-01 2.938585215937364326e-01
-8.338628060718263901e-01 -4.816479649609747282e-01 2.696072300569322677e-01
-8.190371121486167416e-01 -5.028044028639556684e-01 2.763438824795568793e-01
-5.498961199232588887e-02 -6.173650309918257140e-01 7.847525476743579809e-01
4.397314762397160348e-01 -7.831045117740917938e-01 -4.397539680811321516e-01
6.102263437270819546e-01 -6.961400420727477112e-01 -3.781703997465038491e-01
8.580745998889082182e-01 -3.998142303242538942e-01 -3.222678424163890054e-01
8.399080428613475702e-01 -3.788495719499630487e-01 -3.886225435691430530e-01
9.069713904207823418e-01 -2.878493485337777491e-01 -3.074827629426934439e-01
-1.488997547731423232e-01 -7.967433317011068938e-01 5.856867135408808656e-01
-6.131640037603056648e-01 -7.891882545037881558e-01 -3.481096732204037175e-02
7.599925006093305457e-01 4.736029040682658287e-01 -4.450973918994377554e-01
7.599925006093305457e-01 4.736029040682658287e-01 -4.450973918994377554e-01
-6.366285691314882422e-01 -7.021137674792916616e-01 3.189675884500319802e-01
-7.542437484928801172e-01 -5.582026559374634322e-01 3.457255598936397889e-01
-7.542437484928801172e-01 -5.582026559374634322e-01 3.457255598936397889e-01
-7.092419955176225699e-01 -5.877430915543877532e-01 3.892734901380661139e-01
1.364335752502470467e-01 -9.716301017783055549e-01 1.931859851612295897e-01
8.731006997030121841e-01 4.473715728809317116e-01 1.937881419389534121e-01
-6.861936219216634159e-02 -6.125492473264595450e-01 7.874482857509617073e-01
7.752411583064309220e-01 -6.265862859968620580e-01 7.994230837523982891e-02
7.752411583064309220e-01 -6.265862859968620580e-01 7.994230837523982891e-02
-1.451074806063553102e-01 -7.938396669938186934e-01 5.905610909797726071e-01
-1.451074806063553102e-01 -7.938396669938186934e-01 5.905610909797726071e-01
7.228318782281025756e-01 2.219975373305478894e-01 6.543937417460571337e-01
7.745303907764184981e-01 -6.209662340222739108e-01 -1.204309344309959090e-01
-5.367222998385147159e-01 -8.022277589411807019e-01 2.614570627087100529e-01
-5.367222998385147159e-01 -8.022277589411807019e-01 2.614570627087100529e-01
9.427814238295987304e-01 -3.333875762428311629e-01 3.988845542868973276e-03
-7.983846698359866600e-01 -4.723947565805720616e-01 3.733967232395922209e-01
-6.609941661218878828e-01 -6.092129228592670920e-01 4.381167960419899421e-01
-6.597662166236993864e-01 -7.225892101345047225e-01 2.063331597180694532e-01
-2.403407276674572601e-01 2.358309905683598703e-02 9.704020672191258079e-01
-6.507817647374539716e-01 -7.126347032613018495e-01 2.619825841403990441e-01
7.952405743130506188e-01 -5.992190883081521813e-01 9.235211515388400128e-02
-9.802947924318412554e-01 -1.470813765001126316e-01 -1.318680727767162497e-01
1.183870312373247885e-01 -3.839091699808357405e-01 -9.157501078566349095e-01
1.183870312373247885e-01 -3.839091699808357405e-01 -9.157501078566349095e-01
-8.873437611534795710e-02 -7.926837508540585109e-01 6.031406814561266483e-01
3.239687611665418299e-01 -1.498348088795596611e-01 -9.341272781780017853e-01
-9.133766792882975771e-01 4.070921726699365251e-01 4.359436104915750086e-03
-1.127380153711512317e-01 -7.990786758589979444e-01 5.905619439801422788e-01
-2.245720205840850414e-01 -9.625918873023302513e-01 -1.516056267772383781e-01
-1.695216001856768850e-01 -6.980022415457561857e-01 6.957408266499724991e-01
-1.373302193848337238e-01 -9.849782355526053301e-01 1.046818338174759916e-01
-5.700552435783818872e-01 -7.647240173268109453e-01 3.003900740576080364e-01
-6.757701241606427489e-01 -5.979656290980450706e-01 4.310125818456912450e-01
-6.845557128386982049e-01 -5.786360053999737296e-01 4.433552179400432891e-01
-7.375864959902602713e-01 -5.261897378187964103e-01 4.231908798012972150e-01
7.430007832866329931e-01 -6.382321894317801725e-01 2.015180101344941632e-01
-3.669263798732497750e-01 -8.450930810042226460e-01 3.888222166902270960e-01
3.641629404247683777e-01 -3.365203843085585178e-01 8.684119896489260748e-01
-6.095534267335438461e-01 -6.197242184473575888e-01 4.943546429712236678e-01
-7.239367770582780803e-01 -5.627745435348709968e-01 3.989991929460391384e-01
-2.915844240224946954e-02 -6.345308855861587771e-01 7.723472926565611019e-01
-9.407927803565846459e-02 -6.591590465088287276e-01 7.460954636303996912e-01
-9.407927803565846459e-02 -6.591590465088287276e-01 7.460954636303996912e-01
7.522870974158027968e-01 -6.439201004263329642e-01 -1.393952198916719176e-01
-8.142750678022845356e-01 -5.290902976210434261e-01 2.387877109879414650e-01
-1.036140898968463953e-01 -2.043902883619927446e-01 -9.733903278737412457e-01
8.532468743474930228e-01 -2.837849200067963373e-01 -4.375338736520520411e-01
2.116423750103446078e-01 9.129590536499031517e-01 3.488742917709100611e-01
2.116423750103446078e-01 9.129590536499031517e-01 3.488742917709100611e-01
-5.212439723166139016e-01 -8.217950012165438078e-01 2.301253947288251778e-01
-5.212439723166139016e-01 -8.217950012165438078e-01 2.301253947288251778e-01
-9.999504528515948953e-01 5.293468397455468669e-03 8.430363824625190794e-03
-6.513552728897350486e-01 -6.746168758475704630e-01 3.473159646494852204e-01
-7.693180894552825722e-01 -4.816010146734350239e-01 4.197739152238877947e-01
-1.001059986937513635e-01 -2.643597351229444170e-01 -9.592146368103716680e-01
-3.695738252739851071e-02 -1.832540441544935061e-01 -9.823706567165707559e-01
-9.514581722375606287e-02 -6.688170842576122155e-01 7.373133535139381189e-01
-5.004977122452125560e-01 -8.357694869100176227e-01 2.258127648904595663e-01
-5.004977122452125560e-01 -8.357694869100176227e-01 2.258127648904595663e-01
-7.699825649591458543e-01 -4.789825581989850534e-01 4.215478129466341262e-01
-7.427118382276911568e-01 -4.537427489432874772e-01 4.924394817008815317e-01
5.280616925039851584e-01 -2.501684612363151428e-01 -8.115211580189889418e-01
-9.975982517946976325e-01 -3.671170102005182762e-02 -5.873652206572407136e-02
-9.975982517946976325e-01 -3.671170102005182762e-02 -5.873652206572407136e-02
-1.555486437939739286e-01 -8.398620594862182820e-01 5.200349415658753749e-01
-5.522415320317277665e-01 -5.055041439108193257e-01 6.629440781757084400e-01
-5.720832710251755326e-01 7.800488738671295108e-01 2.534649589031164330e-01
-5.720832710251755326e-01 7.800488738671295108e-01 2.534649589031164330e-01
8.414867078957109781e-02 3.701552205752079994e-01 -9.251508600683823191e-01
7.861984250686725462e-01 -5.108677824332465978e-01 -3.477156097894885112e-01
5.401335340937923890e-01 -7.039794996377510827e-01 4.611600908980867941e-01
-1.245499610409939728e-01 -9.527725368133086459e-01 -2.769689518682902363e-01
-4.647947844844020904e-01 -1.001290364163173602e-01 8.797385886628131813e-01
-3.468130246674682726e-01 -7.645767640311971203e-01 5.432707408139931804e-01
-5.051293730348188626e-01 -8.315671519246006227e-01 2.309553817027414913e-01
-5.413691545988610354e-01 -8.026637649472938563e-01 2.503004572300058794e-01
-5.584044612510000727e-01 -7.689301388015621352e-01 3.113372757920112588e-01
-5.843394958098155900e-01 -7.089875921968508132e-01 3.948214124735922037e-01
6.849885675348955649e-01 -6.872533435486983810e-01 -2.418129527705794590e-01
6.849885675348955649e-01 -6.872533435486983810e-01 -2.418129527705794590e-01
-7.163606895433302091e-01 -5.308580547717778320e-01 4.527881272305276927e-01
-7.163606895433302091e-01 -5.308580547717778320e-01 4.527881272305276927e-01
9.632615015179275542e-01 -2.454629728836884850e-01 -1.089734308743606772e-01
1.275827084491018837e-01 -8.682646190163340050e-01 4.794154814659325470e-01
2.864723700414612551e-01 -3.647277629784060893e-01 -8.859499083557691446e-01
-1.731120562625067805e-01 5.175795589290235199e-01 -8.379401029640508591e-01
-2.390841036601221992e-01 -9.328953085056113093e-01 -2.693420404341962948e-01
9.168325071341459909e-01 -3.100781460108629761e-01 -2.515346839475266494e-01
-4.775449758008248891e-01 -8.429695329080044708e-01 2.476957058090637764e-01
-5.330448672062350068e-01 -7.916875003829252355e-01 2.984862999913445170e-01
-6.098068239895296783e-01 -7.125196923891699008e-01 -3.470609822112615261e-01
-3.655320376780000213e-01 -7.400728504932909679e-01 5.645161692934086428e-01
8.461550063871873251e-01 4.852580152523237600e-01 -2.203323938944853344e-01
8.416938385149090249e-03 -7.356521125743676892e-01 6.773072599737068877e-01
8.416938385149090249e-03 -7.356521125743676892e-01 6.773072599737068877e-01
-6.417269993178378873e-02 -7.864492644391979370e-01 6.143121511467192208e-01
-5.020658873392343235e-02 -7.933510165548448567e-01 6.066905825699759891e-01
-5.749686068107391357e-01 -1.803614368866729989e-01 7.980481522228419777e-01
-5.651744513335693609e-01 -9.899183601774833030e-02 8.190106568059014602e-01
-5.040817038463467625e-01 -8.333947629545845892e-01 2.266159855950937718e-01
-5.040817038463467625e-01 -8.333947629545845892e-01 2.266159855950937718e-01
-3.357903864216586071e-02 3.681875412035634509e-01 -9.291449739767966287e-01
-7.131208913043565190e-01 -5.367250065704648465e-01 4.509821079679487976e-01
-6.086687713901065555e-01 -7.593906517538153711e-01 2.298872870851570438e-01
-6.058389945702669088e-01 -7.627071526055761996e-01 2.263557201008678799e-01
-2.946379669447085625e-01 -8.317193950373008571e-01 4.705648906935949727e-01
-1.760266068636301418e-02 -7.211112895755779073e-01 6.925955922350413019e-01
-9.477661852811372079e-01 3.186399653875250371e-01 1.441632739216058834e-02
-4.340551007071199452e-01 -2.021537801510558674e-01 8.779123069650923705e-01
-4.314397835138133463e-01 -8.790204035494454393e-01 2.029355645157442656e-01
-9.945078966716730529e-01 -6.283051005420967061e-02 8.370406479982174519e-02
2.370803950322232512e-01 -8.369393904328042977e-01 4.932801871485726353e-01
1.428437115141381886e-01 -9.119783593234619401e-01 3.845661792286890202e-01
3.651340983492249448e-01 -3.979127201420819548e-01 -8.416308914077641479e-01
-2.866355718988007895e-01 -7.111257339668006772e-01 6.419814946027856406e-01
-1.488717239346561312e-02 -7.576665575330433500e-01 6.524720374806529666e-01
-1.488717239346561312e-02 -7.576665575330433500e-01 6.524720374806529666e-01
-1.224527435257498492e-01 -9.813454659472629071e-01 1.482106678608741124e-01
-2.146643997118983516e-01 -9.269523199624190024e-01 3.076988657967708596e-01
-3.971114197073193908e-01 -7.501676937969632419e-01 5.287257810258385593e-01
-3.774336258409182743e-01 5.912260922060771362e-01 -7.127380767009076079e-01
-5.124876327511745933e-01 -8.315238666644215737e-01 2.142999893713162796e-01
-5.059771549723555140e-01 -8.022872999370889158e-01 3.167368103106055210e-01
-5.059771549723555140e-01 -8.022872999370889158e-01 3.167368103106055210e-01
-5.424887234658050117e-01 -7.375016914013500235e-01 4.022402765668665059e-01
-6.263329229594136738e-01 -6.290049406416180489e-01 4.604995703207023228e-01
-6.263329229594136738e-01 -6.290049406416180489e-01 4.604995703207023228e-01
-6.263329229594136738e-01 -6.290049406416180489e-01 4.604995703207023228e-01
8.350024150912102039e-01 -5.232560612036200043e-01 -1.702176876987807619e-01
-7.288480378631063683e-01 -4.821676141260317072e-01 4.861017687594956227e-01
7.480872270001488467e-01 -6.140486854316360432e-01 2.516142140637274149e-01
5.817904510949332281e-02 -9.232172009419055136e-01 3.798489154850133165e-01
-9.537734636657198284e-02 -9.040043344241254220e-01 4.167485154652202373e-01
-1.827131131090864169e-01 -7.177415666335457134e-01 6.719099357982508680e-01
-9.396722042808085540e-01 3.411505987389987782e-01 2.514791208169734477e-02
8.453882019412847226e-01 -4.282494183917013864e-01 -3.192510354965993891e-01
7.166745294465868277e-01 -6.713553494040657155e-01 -1.888375324692052049e-01
-5.172363549001888217e-01 -8.075294300395624569e-01 2.834832848503512359e-01
7.752325503571411147e-01 -5.636999249881455842e-01 -2.850559373791780038e-01
