-2.425890962639672133e-02 9.983442220505162057e-01 5.215668319676836084e-02
5.525812866228903969e-02 9.852795548590400632e-01 1.617737246697181497e-01
1.622467569367602447e-01 9.308381865490762408e-01 3.274389413700378171e-01
9.988455227025176963e-01 -4.668690687793806277e-02 1.131169763143030117e-02
9.990610291650524610e-01 -3.858023831851307289e-02 1.971357945561626537e-02
-7.356520541379444333e-01 3.340194213929147393e-01 5.892767443018308571e-01
-2.289795105864435021e-01 9.372297134887850323e-01 2.629997108084395907e-01
-2.289795105864435021e-01 9.372297134887850323e-01 2.629997108084395907e-01
-2.289795105864435021e-01 9.372297134887850323e-01 2.629997108084395907e-01
-1.833390037042420817e-01 9.658732585526556003e-01 1.829635431817246138e-01
-2.562841010975599465e-01 9.337688888499002804e-01 2.497881537235867311e-01
-2.562841010975599465e-01 9.337688888499002804e-01 2.497881537235867311e-01
7.213958500252069805e-02 9.507767418839517815e-01 3.013626841004067858e-01
2.557009244990725572e-01 8.628520333662423880e-01 4.360084927224016083e-01
6.531917748300083981e-02 9.502476823569990794e-01 3.045697739896331413e-01
4.672637661483558524e-01 6.954750156928739546e-01 5.458745967636259300e-01
4.164615157257144928e-01 7.123853017029193602e-01 5.648601489192532910e-01
5.324092599019263350e-01 6.007791792649960216e-01 5.963260498522272579e-01
5.313955758483481784e-01 6.016182913972433211e-01 5.963842498130413894e-01
6.026361578432086752e-01 4.282323581819841851e-01 6.733845176909490915e-01
9.980707924624878657e-01 -6.184683267197412654e-02 5.446331035354608566e-03
9.983858321422710569e-01 -5.566656532058256862e-02 1.126781624781143278e-02
-6.741864857309248782e-01 -1.318902514932759340e-01 7.266894412462766573e-01
-8.098250248985383593e-01 3.143230941126168299e-01 4.953629190356829137e-01
6.194108396202681055e-01 2.617936323805621357e-01 7.401312760625007314e-01
6.435351355120744188e-01 2.783873160163921612e-01 7.129958146038765099e-01
9.977921443478061647e-01 -6.637358440928160797e-02 2.320338438825524010e-03
9.979842315084069826e-01 -6.322439225600222368e-02 5.490891041844722480e-03
-6.376727793990963900e-01 -2.282071928794179028e-01 7.357274655275058972e-01
-6.320189509230697000e-01 -2.398784128540528138e-01 7.368923888334869554e-01
6.501487731278551285e-01 1.827576451752839781e-01 7.374999769019180418e-01
6.187772383020054834e-01 1.894666942074829663e-01 7.623759578747425492e-01
6.279079474680290263e-01 2.036314338002614133e-01 7.511763099798453025e-01
6.377437055289187917e-01 2.086822166790294475e-01 7.414409608999021906e-01
9.979545654537583799e-01 -6.388552646624515163e-02 2.307552411331004021e-03
-6.079670589302881289e-01 -3.093743231291435913e-01 7.312069361296018588e-01
6.081379037329460724e-01 1.803566868112422283e-01 7.730716367619300255e-01
6.392885991274003255e-01 1.964001190971916833e-01 7.434628976918316035e-01
9.980026041577439999e-01 -6.297791688048406944e-02 -4.958233531840843325e-03
9.982387211207056632e-01 -5.931773379335068125e-02 -9.285003605026222922e-04
-5.902628174046118392e-01 -3.087600026924273711e-01 7.458264323064327517e-01
-5.614590674425994354e-01 -3.223353881942764843e-01 7.621440894634895491e-01
-5.614590674425994354e-01 -3.223353881942764843e-01 7.621440894634895491e-01
6.244224545715086894e-01 1.734904817696871493e-01 7.615757683659677424e-01
6.269079595177948772e-01 1.698588755516283744e-01 7.603514797049922835e-01
9.991901071318587402e-01 -4.012351530569036734e-02 -3.038639389334931145e-03
-5.513296484135896680e-01 -3.419178248856117319e-01 7.610044808052311982e-01
6.243616415925227203e-01 1.741773286994834358e-01 7.614688428786843266e-01
6.437314866736163488e-01 1.705339978024309200e-01 7.460079950365787749e-01
9.997742394910402730e-01 -2.033918215597437656e-02 -6.147171653535672513e-03
9.997953915047297357e-01 -1.950443472438250989e-02 -5.362103317404243522e-03
-5.312981398931535537e-01 -3.670975516858582255e-01 7.635192689725149862e-01
-5.282361466920515447e-01 -3.541398110729352955e-01 7.717198763419009788e-01
6.282075329046411527e-01 1.556603677660173268e-01 7.623156469001620694e-01
6.160429084230887309e-01 1.459560014354063240e-01 7.740723355259567784e-01
6.389281576626718584e-01 1.601740919634490889e-01 7.524061865837285978e-01
6.433163982722394092e-01 1.547841505238152782e-01 7.497905563960206576e-01
9.998678888992560410e-01 1.257034640554994913e-02 -1.030490850951618596e-02
9.998678888992560410e-01 1.257034640554994913e-02 -1.030490850951618596e-02
-4.986691940041899640e-01 -3.620781066846499585e-01 7.875458587351411577e-01
-5.073523066797608339e-01 -3.726286334834624236e-01 7.770080684362121737e-01
6.396019264451908715e-01 1.532302973012588387e-01 7.532793981495634617e-01
6.396019264451908715e-01 1.532302973012588387e-01 7.532793981495634617e-01
6.258059952587328167e-01 1.280654354641358461e-01 7.693933327873385686e-01
9.960747075826247299e-01 8.165245772958033832e-02 -3.417679126114454152e-02
-4.925416950477657929e-01 -3.771368998619143431e-01 7.843280164586867720e-01
-4.912667236775326574e-01 -3.833086213881645166e-01 7.821326658417019351e-01
6.290547848945178266e-01 8.161192885788014217e-02 7.730650494424180508e-01
6.268783364605725605e-01 1.352947317714389419e-01 7.672801879569937089e-01
9.897622640601939636e-01 1.377953699515462038e-01 -3.719000756057101037e-02
9.889390890473684914e-01 1.455833852995295497e-01 -2.837174789979633044e-02
-4.711534867417573325e-01 -4.093379077074880135e-01 7.813173934098361917e-01
-4.694836392459364460e-01 -3.741640716153529778e-01 7.997414332098922163e-01
-4.434853738444646809e-01 -3.867749513848412479e-01 8.085331534125789199e-01
5.988822021548533270e-01 7.253168523634457784e-03 8.008042828859752715e-01
5.988822021548533270e-01 7.253168523634457784e-03 8.008042828859752715e-01
9.708999882956613758e-01 2.372010811820486342e-01 -3.299787589454292874e-02
-4.453537642487550019e-01 -3.829128596506958249e-01 8.093440347488766173e-01
-4.453537642487550019e-01 -3.829128596506958249e-01 8.093440347488766173e-01
1.817558531203354866e-01 -1.647218611310231062e-01 9.694490797984343100e-01
3.993667150495380791e-01 4.926673926036959084e-02 9.154665560866719343e-01
3.993667150495380791e-01 4.926673926036959084e-02 9.154665560866719343e-01
9.281730707495922106e-01 3.720418322928056298e-01 8.923326705014217666e-03
9.450109892255866839e-01 3.246837259380613849e-01 -3.917535390849807148e-02
-4.412249927377114300e-01 -3.898955419095192498e-01 8.082709769518442444e-01
-4.425103955276533663e-01 -3.883705049029346212e-01 8.083024809880268169e-01
-4.496836573216078659e-01 -3.837979615584291015e-01 8.065257175325888372e-01
2.042356511092229820e-01 -3.649748609546181743e-01 9.083397765633457466e-01
2.385131723884391930e-01 -2.655794730331850935e-03 9.711356307702611046e-01
3.885887623997328344e-01 -1.947530265692870022e-01 9.005942662368812135e-01
3.885887623997328344e-01 -1.947530265692870022e-01 9.005942662368812135e-01
5.341440456237479539e-01 -1.831345098643314892e-02 8.451950993928343259e-01
8.716261725283100947e-01 4.901525164916185617e-01 4.280880818507723333e-03
8.031033621547080115e-01 5.948111671988247640e-01 3.499521497827476346e-02
-4.469990950659212259e-01 -3.871339449092505158e-01 8.064236589468645189e-01
-4.258774928668987991e-01 -3.764254619992948858e-01 8.227589152528350658e-01
-4.127986431880842910e-01 -3.889622737222371840e-01 8.235931215126216509e-01
-3.872293930583791122e-01 -3.646862841771267849e-01 8.467923660996946600e-01
-3.671322205529766181e-01 -3.853865392488436958e-01 8.465761324285252520e-01
-2.557406241017846638e-01 -3.775340600942482805e-01 8.899802057645901376e-01
-2.557406241017846638e-01 -3.775340600942482805e-01 8.899802057645901376e-01
-1.299203676819904174e-01 -2.330586704958656774e-01 9.637449632387584675e-01
1.724332523540633016e-02 -3.907301991347748582e-01 9.203437288420698303e-01
9.701403278240729178e-02 -1.144475343782481308e-01 9.886809593180369005e-01
2.355708971857267964e-01 -2.652273552199285733e-01 9.349656691248902085e-01
7.329704860891995688e-01 6.788865755333585161e-01 4.321208260142018337e-02
5.985207690983519457e-01 7.939870357506545462e-01 1.065714596775603901e-01
-4.244583803243517917e-01 -4.045606313191704162e-01 8.100406032780470555e-01
-4.199698276482405346e-01 -4.059802239490807874e-01 8.116682829995031101e-01
-3.870313111547784013e-01 -3.835045762584492479e-01 8.385290717528166571e-01
-3.299519295717018297e-01 -3.652232710987410313e-01 8.704847422096759768e-01
-2.215925765270398973e-01 -3.765467520799291035e-01 8.995050158426934894e-01
5.993111291255217576e-01 7.861112778034886617e-01 1.511794609609999618e-01
5.993111291255217576e-01 7.861112778034886617e-01 1.511794609609999618e-01
-3.474178271483351343e-01 -4.336659175052762216e-01 8.314052714373636466e-01
4.382343111867746388e-01 8.792270460614489691e-01 1.868434905815875291e-01
-1.139778308750716007e-01 9.881092780609577186e-01 1.031945186473892662e-01
-7.037014071494322731e-02 9.929362440729216921e-01 9.552831256815046135e-02
-3.590285309050832846e-02 9.947282513756695588e-01 9.605566643912276381e-02
3.617763957779863981e-02 9.948190992851075887e-01 9.500598976983666566e-02
3.469658016094539360e-02 9.947256324572851804e-01 9.652493697272850059e-02
9.151942394149825688e-02 9.912212002750695472e-01 9.541869401048660992e-02
3.456472034471473886e-01 9.190665564562897627e-01 1.893269012917701832e-01
3.116532681025294127e-01 9.327418499035611266e-01 1.812867395026333817e-01
2.790296895101326280e-01 9.237991189119114654e-01 2.621786037598321517e-01
2.611458272438750283e-01 9.471359409512980498e-01 1.863769467273552194e-01
2.295053257582450046e-01 9.463079407511768570e-01 2.276589262907758315e-01
9.388028541467779986e-01 1.201497125983454484e-01 3.228207670029893950e-01
9.238171006555855325e-01 8.915757854400754856e-02 3.723075217135385362e-01
9.474434774257530778e-01 1.988677812895279368e-02 3.193045147489251834e-01
1.295177762314701775e-01 -3.368792803310405870e-01 9.325971778445906191e-01
4.083415160292060975e-01 8.988546513694110063e-01 1.591148076030138858e-01
3.843328386298272559e-01 9.040262583323184220e-01 1.871491207470858675e-01
4.784777381703783083e-01 8.670064845178451218e-01 1.391359402863490413e-01
4.892602030245981615e-01 8.583823099670855328e-01 1.542863042265877616e-01
9.269052074687774700e-01 3.261877794084724891e-02 3.738753157041906916e-01
8.806395954073502619e-01 2.518883490540108766e-02 4.731167145608859426e-01
9.080093881163074920e-01 -4.755895724976749728e-02 4.162416325621017821e-01
8.701093090912815908e-01 -1.202105639664829834e-01 4.779740689028567080e-01
8.701093090912815908e-01 -1.202105639664829834e-01 4.779740689028567080e-01
7.698133739779527973e-01 -1.828229554710897597e-01 6.115252539327353798e-01
1.362072113920576033e-01 -3.234741045647873126e-01 9.363824535096800794e-01
-4.240395995007880114e-01 3.239797245279281701e-01 8.457112723323599868e-01
6.129092875296286991e-01 -4.151436069438220744e-01 6.723079583595572561e-01
2.686816763194511126e-01 -7.014549936069959246e-01 6.601295696709693628e-01
-3.659813988683130459e-01 3.637563865098218385e-01 8.565856098229236437e-01
-3.474834761048582465e-01 3.369504965943684316e-01 8.750540535754879334e-01
5.777637946794530466e-01 7.967565522040125359e-01 1.771101185070275974e-01
6.486592577926429959e-01 7.337276768652043479e-01 2.022000580659853997e-01
-1.701068045492694636e-01 -7.566955720994108514e-01 6.312491474934298630e-01
-2.578003149147143902e-01 -7.192673988358951886e-01 6.451305345445365047e-01
2.716675638530797326e-02 -7.473588320934554385e-01 6.638650039273099601e-01
4.291061405522106353e-01 -1.085276518305905782e-02 9.031888715148497226e-01
3.109820173345454464e-01 -4.004368032426772750e-01 8.619399929828768236e-01
2.842213655892466551e-01 -3.884097095886713258e-01 8.765592466227412061e-01
6.386265000857557217e-01 7.437915580621315970e-01 1.973076570833602883e-01
6.516476615902374592e-01 7.353633101937140371e-01 1.860003418408660014e-01
6.732719513213690776e-01 7.115087858192109538e-01 2.011470289762891106e-01
6.923454692221389095e-01 6.965236356743296220e-01 1.884478076141768987e-01
6.840788251730355318e-01 7.078916252891461758e-01 1.758567820567935036e-01
7.038905895353892994e-01 6.857818347546486004e-01 1.850440841639363343e-01
7.282599869925251435e-01 6.650521333111464317e-01 1.653573443302113199e-01
7.443819215947989898e-01 6.518567277614210065e-01 1.448390875247681786e-01
7.248570747640793455e-01 6.692366790867487758e-01 1.634150804834179904e-01
7.508536545100213955e-01 6.493467392594567400e-01 1.206963202506884797e-01
7.709195817593773592e-01 6.269520201931017001e-01 1.123127901698431214e-01
8.167982293474711497e-01 5.729104540138871826e-01 6.792837563520522093e-02
9.272226083863803758e-01 3.154254876896956938e-01 2.019034328902672704e-01
9.125468301403947269e-01 2.046931337530637496e-01 3.540607346135238309e-01
9.651800581719198746e-01 1.966730650629404387e-01 1.724736524400109772e-01
9.916710938702553157e-01 -1.102172209513203049e-01 6.663787052374203768e-02
9.863339323517892332e-01 -1.640061907808193220e-01 -1.572715095055355478e-02
9.064495640763950979e-01 -4.206286410832182354e-01 3.769262641682537968e-02
8.252395667816557756e-01 -5.647803742611281486e-01 1.669211635776100908e-03
8.334744930506619021e-01 -5.523165249235159058e-01 1.633173996711178091e-02
7.866924464832848463e-01 -6.173266591393380409e-01 4.773946167211354404e-03
7.765288840844311036e-01 -6.299908203255470962e-01 -1.069852738148692299e-02
7.767918573887009348e-01 -6.296676041826088088e-01 -1.063571988844459575e-02
7.833042976820290271e-01 -6.212310543011225761e-01 -2.250231998659160335e-02
7.966507411963391627e-01 -6.034126605820133715e-01 -3.522438928724668655e-02
7.989925510177082746e-01 -5.983569805105686257e-01 -5.983165794535470067e-02
7.884098363101322837e-01 -6.133959041342645913e-01 -4.642622966318285527e-02
8.130774810360226201e-01 -5.782942883640257437e-01 -6.693822433902242575e-02
8.068159318201926222e-01 -5.869590993681472746e-01 -6.728348853951936215e-02
8.006218522894062994e-01 -5.914815509709011598e-01 -9.567771160378671369e-02
8.167897997896312878e-01 -5.679118340926351260e-01 -1.016394197993736592e-01
8.106124537823006238e-01 -5.684179951233228056e-01 -1.407424335196022780e-01
8.014478931535006234e-01 -5.858523447913657201e-01 -1.202426906812795043e-01
8.014478931535006234e-01 -5.858523447913657201e-01 -1.202426906812795043e-01
8.103064141878904003e-01 -5.689253129687181776e-01 -1.404546310714205326e-01
8.082376580339837302e-01 -5.644217737869338114e-01 -1.678688458617389190e-01
7.941032992564468485e-01 -5.739527733528867470e-01 -1.999454027242337784e-01
7.657635540939489172e-01 -5.988035147739714237e-01 -2.346071821486757636e-01
7.456633046632142880e-01 -6.119378681203985204e-01 -2.636631973541173068e-01
7.454909987844871022e-01 -6.193425778783964164e-01 -2.462883309421099731e-01
7.200784271396628577e-01 -6.351656943168955127e-01 -2.793771635817882681e-01
7.382062485315502576e-01 -6.230761395256464441e-01 -2.585104620374047979e-01
6.735326395057396054e-01 -6.800066528154756762e-01 -2.897321791709100980e-01
6.993350302099664573e-01 -6.635929472074653113e-01 -2.656593983613898535e-01
7.042913740136578227e-01 -6.535714126574790894e-01 -2.771607278220723503e-01
6.567642870695039603e-01 -6.946837897632496261e-01 -2.933855883820050137e-01
6.659492807878709675e-01 -6.868125988738256193e-01 -2.912044117905818741e-01
5.097925340782405446e-01 -8.309740472753098794e-01 -2.226964412669789339e-01
5.097925340782405446e-01 -8.309740472753098794e-01 -2.226964412669789339e-01
5.198801606629311900e-01 -8.220212335658003688e-01 -2.323912866611931860e-01
4.988769742951495445e-01 -8.391540493621849617e-01 -2.166615931750815183e-01
5.039042012183260200e-01 -8.344438736904568055e-01 -2.231232342338775598e-01
5.594896755385079246e-01 -7.905094946245277976e-01 -2.491305719382685413e-01
-8.570055181837398228e-01 -1.464766571489223637e-02 5.150990076594249567e-01
6.604158431474325130e-01 2.148426163367636588e-01 7.195092524251789357e-01
6.211185603383879705e-01 2.219755672923572343e-01 7.516239628487136892e-01
5.844637764254522194e-01 2.410213494351840513e-01 7.747972658463256890e-01
6.249710907294855344e-01 2.457395411982897793e-01 7.409610068310283904e-01
5.436872771682768057e-01 2.575770273759895312e-01 7.987854653243849912e-01
4.513721071133007245e-01 2.421126325176825855e-01 8.588624418936111615e-01
-3.123967185164765459e-01 6.489058139965776517e-01 6.937791686275801561e-01
-3.123967185164765459e-01 6.489058139965776517e-01 6.937791686275801561e-01
-1.177584045374762273e-01 7.070562512651645815e-01 6.972835977618007108e-01
-4.484575033262739874e-01 6.895865922663441117e-01 5.686441765083467548e-01
-4.484575033262739874e-01 6.895865922663441117e-01 5.686441765083467548e-01
-4.484575033262739874e-01 6.895865922663441117e-01 5.686441765083467548e-01
-4.484575033262739874e-01 6.895865922663441117e-01 5.686441765083467548e-01
-4.484575033262739874e-01 6.895865922663441117e-01 5.686441765083467548e-01
-4.987528794050048453e-01 8.219798843101366881e-01 2.749447855019457321e-01
-4.987528794050048453e-01 8.219798843101366881e-01 2.749447855019457321e-01
-4.392363242552836944e-01 8.736365815338630325e-01 2.093575287887520509e-01
-3.530163679243928931e-01 8.134049339380096111e-01 4.623330589767206122e-01
-8.508302718648251828e-01 -1.646144956423529690e-02 5.251827007401060898e-01
8.385682894797961140e-01 8.274704899333379382e-02 5.384757652502327741e-01
8.385682894797961140e-01 8.274704899333379382e-02 5.384757652502327741e-01
7.607413335098305307e-01 1.067040590834926472e-01 6.402240758240753671e-01
-8.643370416378332033e-01 1.028011343281354795e-01 4.922940231544630785e-01
-8.412452770266221069e-01 1.118969054811550234e-01 5.289475081935286482e-01
5.396508125259507072e-01 3.054331910290370988e-01 7.845301564362590074e-01
5.483243381987691345e-01 3.166922342360041220e-01 7.739809099154124628e-01
3.870539478404733669e-01 3.207644301335427772e-01 8.644648181517902152e-01
4.086699659254787974e-03 9.645740308279667774e-01 2.637806625554339202e-01
-2.891875687611589196e-02 9.538785189317497970e-01 2.987967145423647830e-01
-2.891875687611589196e-02 9.538785189317497970e-01 2.987967145423647830e-01
-2.759925273610136856e-02 9.742214577603554027e-01 2.238991569606655074e-01
-7.276791110013920705e-02 9.613180391572005989e-01 2.656547735409192090e-01
-5.621648956632988026e-02 9.815499262016023074e-01 1.827551604591996226e-01
-6.792833461908168169e-02 9.868164045032965515e-01 1.468983497492882540e-01
2.795278060027496236e-01 3.812976990842393277e-01 8.811789093846685850e-01
-5.281892165286911772e-02 7.242552275398570494e-01 6.875060195348241532e-01
-2.322362124582199039e-01 7.598046434910608049e-01 6.072587960272644025e-01
-4.107667744079181449e-01 8.869212784169774322e-01 2.112848857199892405e-01
-2.067037550174158078e-01 7.659249175808724441e-01 6.087960071242533022e-01
-2.067037550174158078e-01 7.659249175808724441e-01 6.087960071242533022e-01
-4.475877505347148344e-01 8.681289429947813829e-01 2.145165352741779663e-01
5.362769072318640529e-01 4.784764100332143388e-01 6.953182032793000511e-01
6.581141144381655872e-01 3.394065513999499073e-01 6.720781243606001043e-01
4.897707261693515779e-01 4.808742759684747625e-01 7.272445025569744814e-01
-8.120620458917249262e-01 2.231608963229838594e-01 5.392165130765826930e-01
5.428717632605450927e-01 3.462369318561357434e-01 7.651210594887819516e-01
2.738438082550143648e-01 4.878414530689919038e-01 8.288668682894290152e-01
3.868460387246150933e-01 3.839201448631922586e-01 8.384243941413555001e-01
1.220537171309261926e-01 5.769046664876403829e-01 8.076409449249761785e-01
1.220537171309261926e-01 5.769046664876403829e-01 8.076409449249761785e-01
2.257087119232722983e-01 4.877812823536593623e-01 8.432822765523753095e-01
2.257087119232722983e-01 4.877812823536593623e-01 8.432822765523753095e-01
-7.255368926186327172e-02 9.897789187959800117e-01 1.227748104521187017e-01
-7.255023906451890658e-02 9.899538548352636580e-01 1.213582634536395088e-01
-8.599234707578137793e-02 9.912560100569512977e-01 1.000841584386431976e-01
1.904639175501404436e-01 9.405963098207859030e-01 2.810730831349268488e-01
1.744620684532734167e-01 9.362938254263769577e-01 3.048226683490690148e-01
2.000093412705000184e-01 9.387928844665879291e-01 2.804713594637503471e-01
6.557792773276053255e-01 4.526475451474464839e-01 6.042050473967213176e-01
7.433450041442643541e-02 6.211432036780217825e-01 7.801637665085077167e-01
-2.787431917801842449e-02 6.190991354944133107e-01 7.848179933974702704e-01
-6.836451905965025555e-02 6.507809056451904217e-01 7.561815293838961560e-01
4.777351637060388012e-01 6.628566017106328756e-01 5.765329469574100862e-01
-5.946058508811229854e-03 6.809010314450182344e-01 7.323513021530855260e-01
1.183062830894740652e-01 7.399304434849460765e-01 6.621982801138374120e-01
1.183062830894740652e-01 7.399304434849460765e-01 6.621982801138374120e-01
9.264706952918548843e-01 -3.512807971556364262e-02 3.747239901326362976e-01
9.264706952918548843e-01 -3.512807971556364262e-02 3.747239901326362976e-01
9.194012863671513491e-01 -1.397711328295529916e-02 3.930724041836349825e-01
-5.840083552046670956e-01 4.954347875818538860e-01 6.430230262633388483e-01
2.880421008309418940e-01 8.136205257689902437e-01 5.050281063428941897e-01
2.873074267734571086e-01 8.140125233235895319e-01 5.048148714065161524e-01
2.860888621304120694e-01 8.126909970579450082e-01 5.076283150750057205e-01
2.764492514235218912e-01 8.101048763183836821e-01 5.170163447634421594e-01
2.926930068698907483e-01 8.101207335022310163e-01 5.079716536178660036e-01
2.944186014047783240e-01 8.059212645458960766e-01 5.136230159363948111e-01
2.735509492640440521e-01 8.112427706573214214e-01 5.167736885842514338e-01
2.771466498887473207e-01 8.042572392119696767e-01 5.256995602343460527e-01
2.813457548184228885e-01 8.018456113878326130e-01 5.271510046881489053e-01
2.770224485219804911e-01 8.046108369382352077e-01 5.252237276594033943e-01
2.770224485219804911e-01 8.046108369382352077e-01 5.252237276594033943e-01
2.696775316973167302e-01 8.027798197390915158e-01 5.318069103700275857e-01
2.800801379530483137e-01 7.963392938650623032e-01 5.360959292614477789e-01
2.593687495274140664e-01 8.085579565393844481e-01 5.281684226508056579e-01
2.526198980714463027e-01 8.083084601365327915e-01 5.318088193797457786e-01
2.451775101554583836e-01 8.068583415269962034e-01 5.374640501673347837e-01
2.401119109329303003e-01 8.029246415937505432e-01 5.455806907778939507e-01
2.494887734152441416e-01 8.040918196773021442e-01 5.396218096665496011e-01
2.444112343223631412e-01 8.024127090151198516e-01 5.444235418752898514e-01
2.538404264987810799e-01 7.927865707926635697e-01 5.541249778215433519e-01
2.486862996781896984e-01 7.905391829867787212e-01 5.596453560201907207e-01
2.486862996781896984e-01 7.905391829867787212e-01 5.596453560201907207e-01
2.581638718022407075e-01 7.644460953121449132e-01 5.907398603938042170e-01
2.865193833552498459e-01 7.698295232849472480e-01 5.703237221443610006e-01
2.865193833552498459e-01 7.698295232849472480e-01 5.703237221443610006e-01
2.888923297033328952e-01 7.578537620094796257e-01 5.849776895289766632e-01
2.923540296816475870e-01 7.163594738015828245e-01 6.335283936996207732e-01
2.626723318815385455e-01 7.908775692365421772e-01 5.527349423931993133e-01
2.827714636487591027e-01 7.554987224125641054e-01 5.909839082233304675e-01
2.914273405848077925e-01 7.377360253181045602e-01 6.089463540473095682e-01
3.327658324179517124e-01 6.598247194970399132e-01 6.737197045625428204e-01
3.457134762909544468e-01 6.450142801245117852e-01 6.814974473512586117e-01
3.457134762909544468e-01 6.450142801245117852e-01 6.814974473512586117e-01
3.192321054923599744e-01 6.636865130214297803e-01 6.764695671324544302e-01
3.379634464905375002e-01 6.472026160593798982e-01 6.833077510186260639e-01
3.595536128017260968e-01 6.672619185395084473e-01 6.522903736743326242e-01
3.595536128017260968e-01 6.672619185395084473e-01 6.522903736743326242e-01
3.287236591466279334e-01 6.851536080270682616e-01 6.500040686986061633e-01
3.150965131578292167e-01 6.618677039212933488e-01 6.801803657131929581e-01
3.979814283525640040e-01 6.611431770847809863e-01 6.360035236385839230e-01
3.147327104354591398e-01 7.255168725090043180e-01 6.120200884666308072e-01
4.337335310420431522e-01 6.440767795072289692e-01 6.301113601177154022e-01
3.020151581815109232e-01 7.369278778212874359e-01 6.047513101419547121e-01
4.981577048704267097e-01 7.038618002316053834e-01 5.063768036284368446e-01
-5.625004923787767924e-02 6.675106619620386761e-01 7.424725234833523535e-01
-5.518879876602733603e-02 6.664727863758942439e-01 7.434838407868152865e-01
3.845760594398776600e-01 7.308730849397733209e-01 5.638490828371671704e-01
3.845760594398776600e-01 7.308730849397733209e-01 5.638490828371671704e-01
4.311801174062341313e-01 6.680354358748580301e-01 6.064753603972997675e-01
4.918669744609983630e-01 6.945838436125829629e-01 5.249953939102269818e-01
5.467221675412466952e-01 6.304611072092817237e-01 5.510114915457278162e-01
5.631556810845177452e-01 5.890970380172390053e-01 5.795000937545640163e-01
6.152675581457988097e-01 4.822158049221015319e-01 6.236294968782633008e-01
5.917146349301291020e-01 4.112281658155431119e-01 6.933723288749618074e-01
5.437898967593681743e-01 3.312452739385809974e-01 7.710830802681318819e-01
5.720558218737811229e-01 2.143067009593659922e-01 7.917226626693374403e-01
4.385634980942343386e-01 2.359916951655723627e-01 8.671620252018812369e-01
5.885126687633888132e-01 1.063739970173750438e-01 8.014595507344967062e-01
5.885126687633888132e-01 1.063739970173750438e-01 8.014595507344967062e-01
5.975076485130846882e-01 2.848472948645642822e-01 7.495642924904467597e-01
4.757557155386313297e-01 8.309940755517943867e-01 2.882799776782003498e-01
4.757557155386313297e-01 8.309940755517943867e-01 2.882799776782003498e-01
4.561190491179533124e-01 8.898334549417233896e-01 -1.232215477138240423e-02
9.671070503367474869e-01 1.513385087788191030e-01 -2.044519722320113642e-01
7.209693481441248331e-01 6.161885658452075365e-01 -3.170407708138847092e-01
7.209693481441248331e-01 6.161885658452075365e-01 -3.170407708138847092e-01
5.618544708620691885e-01 8.235539489246431755e-01 -7.796439432799043279e-02
6.276654260640094352e-01 6.762845743113997665e-01 -3.855843454710450313e-01
5.879397369439112175e-01 6.854129716978748510e-01 -4.295764471553493724e-01
6.805384735707595834e-01 5.699007374321760633e-01 -4.605220249502108287e-01
6.560719720276976252e-01 6.130691527694208665e-01 -4.401315501554876608e-01
6.782635457877684848e-01 5.596942891888282423e-01 -4.761311427588156842e-01
7.092867915806907453e-01 5.402783851692435357e-01 -4.527819716023202545e-01
7.098355484937910465e-01 4.720681697242778974e-01 -5.227668096079637339e-01
7.670953800916835430e-01 3.453362042165145640e-01 -5.406547733067057493e-01
8.100853443889171057e-01 2.444353259298875092e-01 -5.329288003512656635e-01
8.027569267927516794e-01 2.509884742053527518e-01 -5.409122870691012164e-01
9.359091395253162915e-01 8.492737219487036388e-03 -3.521391145094543984e-01
9.352386623115312991e-01 4.963254927703474040e-02 -3.505214038685799394e-01
6.381030839312251679e-01 -6.322774670374982087e-01 4.393741673723037255e-01
9.500433363253573127e-01 -9.898875787354391442e-02 -2.960048731329213978e-01
9.341005128161157245e-01 1.364773298730800333e-01 -3.298941805903584656e-01
5.367507290933304365e-01 -5.868637382692282189e-01 6.062092110174877035e-01
6.841272756663752119e-01 -5.451781384226547233e-01 4.845107512484237988e-01
6.841272756663752119e-01 -5.451781384226547233e-01 4.845107512484237988e-01
6.841272756663752119e-01 -5.451781384226547233e-01 4.845107512484237988e-01
5.202262983807273145e-01 -6.212706298154989648e-01 5.859926646313414755e-01
5.091729464765338831e-01 -6.234273228383092613e-01 5.933643768503996663e-01
5.185336692537766412e-01 -6.236158187648859208e-01 5.850009781499652117e-01
4.856719824771976723e-01 -6.327662107814043813e-01 6.031000314458720979e-01
4.721111150764534248e-01 -6.314775900885292170e-01 6.150992994933833780e-01
5.546592921723754177e-01 -6.379214114697775440e-01 5.342371593171392208e-01
4.516081435107515696e-01 -6.456001680260120557e-01 6.158331817623644566e-01
4.941773502996190670e-01 -6.333084458091465807e-01 5.955746459661045433e-01
1.012110836767809302e-02 6.868112671205016673e-01 7.267653311225987789e-01
-2.057107773880972879e-02 7.169667782126433186e-01 6.968037526449223362e-01
5.006581439807991085e-01 -7.580470490345698753e-01 4.179785811685592378e-01
4.331771511016784815e-01 -7.873627279943071766e-01 4.386541807948446947e-01
1.786079566538784774e-02 6.873435113446118017e-01 7.261128627084489917e-01
-1.675719811488894373e-01 8.057153352767660870e-01 5.681042418726379717e-01
-4.708593143905989709e-02 7.330543700341036750e-01 6.785382860490775103e-01
3.658299224068279898e-01 -9.155203075368246735e-01 -1.673052131868343062e-01
2.412687986538716023e-01 -8.767446761414495748e-01 4.160626631335022085e-01
6.008460177744211206e-02 7.177177811691310971e-01 6.937370014803200258e-01
-2.672319954797436892e-01 8.138325899216672932e-01 5.160073412009809068e-01
-9.691518802409604394e-02 9.213283625316308623e-01 3.765122769911201650e-01
-4.865989222340091347e-01 8.197588095527454932e-01 3.020214943366886229e-01
2.554805549251275010e-01 -9.462238575415616859e-01 1.984693867434348113e-01
2.312699685238490954e-01 -9.278859180251632921e-01 2.924755114357061592e-01
5.327063897535776471e-01 4.903345312969771275e-01 6.897796385321063317e-01
4.805225356924728852e-01 5.088833883702302829e-01 7.142379083558288988e-01
3.829353632008030139e-01 5.679236682336558095e-01 7.285761557107791608e-01
-5.448319349554155977e-01 3.633879098042713252e-01 7.557164743875977031e-01
5.703491749287830093e-01 -7.494402832041950901e-01 3.362158243879549979e-01
7.819507133018643863e-01 -4.143278840491346204e-01 4.657096589787163565e-01
4.737850315913955113e-01 -8.459815483633102984e-01 2.446282151934985050e-01
4.238757813581409128e-01 -8.800011854515055187e-01 2.143064058351274725e-01
5.329091702064240321e-01 -7.694009173673347357e-01 3.521789952058530515e-01
5.329091702064240321e-01 -7.694009173673347357e-01 3.521789952058530515e-01
-7.427691791017135836e-01 2.450241134089193862e-01 6.231028249211677528e-01
2.748252447568602652e-01 5.276339989889583526e-01 8.037869418914764807e-01
7.276185477051688721e-01 -2.903669272623966569e-01 6.214968194509243871e-01
8.967206178413404949e-01 -1.657167288399175875e-01 4.104023627135227614e-01
9.273479467217505823e-01 -1.250392054933568142e-01 3.526910585775365758e-01
1.033769124879005408e-01 5.587362737807615165e-01 8.228772632209853111e-01
8.694283034399582499e-01 7.609620628778017426e-02 4.881636944367364062e-01
8.694283034399582499e-01 7.609620628778017426e-02 4.881636944367364062e-01
1.475197700583645230e-02 6.289712369856721441e-01 7.772885964808262660e-01
1.475197700583645230e-02 6.289712369856721441e-01 7.772885964808262660e-01
-8.452980217873200253e-02 6.291067723389988098e-01 7.727091183238565808e-01
-8.359507237662190671e-02 6.683693817479462451e-01 7.391171987014071298e-01
8.771568881586976341e-01 1.111445521326972219e-01 4.671645128720417484e-01
8.771568881586976341e-01 1.111445521326972219e-01 4.671645128720417484e-01
8.627710230935342617e-01 1.366945024660644603e-01 4.867656260518928302e-01
-7.829389239599354733e-02 6.686550895349808732e-01 7.394392724574827547e-01
-4.044981746198601791e-02 6.856341212926670980e-01 7.268216177209674278e-01
-1.968224513196315320e-02 6.997429554612176750e-01 7.141235225848298063e-01
8.423029312296036464e-01 1.817854161519326384e-01 5.074247082242706597e-01
8.699620710113453725e-01 1.609045540940765573e-01 4.661284366710931604e-01
-2.772883108878551259e-02 6.998576753968340780e-01 7.137438939245569491e-01
8.779469813799930522e-01 1.801270798149754160e-01 4.435801314340932500e-01
-6.354027632094677580e-01 4.825676794165897898e-01 6.028198431440862093e-01
3.577178141927671029e-01 6.116865067294413594e-01 7.056044096335297722e-01
2.159871534686703121e-01 6.649987916912200037e-01 7.149308753898647728e-01
8.889368967044793957e-01 2.513430122837894687e-01 3.829071478224460590e-01
8.850139328913150250e-01 2.070035105521400021e-01 4.170130516031090306e-01
-6.434572528763163879e-01 4.934744011515065920e-01 5.851886696861329229e-01
8.911862241461226963e-01 2.887669300897932612e-01 3.498582198243930796e-01
8.930070991154893667e-01 2.680822473792495164e-01 3.614833738492402304e-01
-4.644157006660334930e-01 5.616978006892605624e-01 6.846996696915552683e-01
-4.644157006660334930e-01 5.616978006892605624e-01 6.846996696915552683e-01
-4.777353558636928121e-01 5.592144680827135783e-01 6.775308911368975728e-01
8.989251912991756965e-01 3.147123144480078460e-01 3.047780497058776850e-01
8.717256861976280247e-01 3.541349059052725234e-01 3.386484850737390140e-01
6.488367077080037237e-01 -3.962946754145226236e-01 6.495856040344003546e-01
-8.567288434520680118e-01 2.176375054688264310e-01 4.675998342713441613e-01
8.713921949556088231e-01 3.871627406823069384e-01 3.012982821023228452e-01
-6.571727782438996357e-01 3.987854926502223396e-01 6.396046203608241054e-01
8.846844022423763221e-01 3.917526058060297189e-01 2.527120975996888785e-01
8.652792569331232420e-01 4.163497591251826280e-01 2.791857546467308437e-01
8.652792569331232420e-01 4.163497591251826280e-01 2.791857546467308437e-01
5.654879542429041006e-01 -6.011211532186258033e-01 5.646917147960331951e-01
8.745087547112461168e-01 4.181007459558777062e-01 2.458174203845696348e-01
4.328298053714417781e-01 -6.640304505984242489e-01 6.096900198134896920e-01
-9.497670388010895914e-01 6.393270372647387456e-02 3.063579302078413558e-01
-8.719467877092019759e-01 2.230060809673700406e-01 4.358636108407979437e-01
8.781916770662447913e-01 4.270776618244372935e-01 2.153695640106747244e-01
8.677070448813568593e-01 4.399743647425076731e-01 2.313158936015626832e-01
9.051283110795037556e-01 3.699315841563510787e-01 2.095074307177138551e-01
9.146122433610287539e-01 3.407292856241646573e-01 2.176878458071390132e-01
9.385145018230132141e-01 2.662258477600241702e-01 2.198052043341053585e-01
9.535161473426214673e-01 1.852432353755789907e-01 2.376802484525626369e-01
9.429972316198022009e-01 1.438398060279075519e-01 3.001105319032358332e-01
9.422974807011653686e-01 7.162348432638362961e-02 3.270252809144659767e-01
9.526602659450821298e-01 4.327235325728553961e-02 3.009417238154623031e-01
9.389640360886210013e-01 1.388575981798015856e-02 3.437349627350178016e-01
9.449314808434466917e-01 -3.834266061351209939e-03 3.272457714238359849e-01
9.390896174132645768e-01 -2.246162753148285909e-02 3.429375537255219819e-01
9.472576997673187726e-01 -7.705500098712048107e-02 3.110713375648794243e-01
9.470863912300490073e-01 -1.099089101816823483e-01 3.015748646845713421e-01
9.470863912300490073e-01 -1.099089101816823483e-01 3.015748646845713421e-01
9.556369686380966622e-01 -8.504534721237952399e-02 2.820022572422344886e-01
9.718649533021853637e-01 -2.750115893301312633e-02 2.339277640646405254e-01
9.842633903541235796e-01 -1.600314330754438741e-01 7.493676558556443268e-02
9.650998249377529259e-01 -2.253913771480264006e-01 -1.333456223969689824e-01
8.603758199330870937e-01 -3.192490880561361655e-01 -3.972826050178807078e-01
9.477088434056389898e-01 -4.092292789966970462e-02 -3.165015988946411896e-01
5.857160464977304581e-01 -2.709414216057992597e-01 -7.638896902912730713e-01
5.937635948624416793e-01 -2.689917764373580544e-01 -7.583457111536296980e-01
5.937635948624416793e-01 -2.689917764373580544e-01 -7.583457111536296980e-01
5.668631572273747921e-01 -3.200327628337322206e-01 -7.591081554635155104e-01
5.346767138301951050e-01 -2.516550436600485940e-01 -8.067159045712453125e-01
5.323542687215178093e-01 -2.571234644186217722e-01 -8.065274059939585571e-01
5.272574192077225108e-01 -2.587112539777975950e-01 -8.093627746293052816e-01
5.171199343303441998e-01 -2.521154593821471335e-01 -8.179393428969592428e-01
5.301319998505785724e-01 -2.479116594475701818e-01 -8.108636579871971728e-01
5.409024515639355712e-01 -2.107574911754449831e-01 -8.142516919267387410e-01
5.932492260665193085e-01 -2.012887543783508926e-01 -7.794473639267042175e-01
5.638800571034500164e-01 -2.125740245514908255e-01 -7.980298022548983905e-01
4.923445481873742757e-01 -2.153324989871323314e-01 -8.433437974812686422e-01
5.203978832283915335e-01 -2.188313168079573101e-01 -8.254083219325480947e-01
5.115469504960526992e-01 -2.114445378597959169e-01 -8.328330714179441596e-01
5.981136181549492337e-01 -1.676797884331801547e-01 -7.836731387055444475e-01
5.719125825078413827e-01 -1.778485166022526764e-01 -8.008032861518423751e-01
5.639657528287687072e-01 -1.704944641658860949e-01 -8.080063535177602896e-01
5.411747214270611339e-01 -1.877013633940184945e-01 -8.196939179159312694e-01
5.371409916068026202e-01 -1.836998184080616270e-01 -8.232459728735428417e-01
5.226164342698024212e-01 -1.928741879331863363e-01 -8.304646953725552949e-01
5.867499109844549476e-01 -6.528051215714941735e-02 -8.071325768993805605e-01
6.195022625564710061e-01 -1.068016621474745798e-01 -7.776955391732357503e-01
5.732034714110222362e-01 -1.239049327567524339e-01 -8.099909555056143962e-01
6.489541617038928623e-01 -2.580209890820619328e-02 -7.603898655947017859e-01
6.229451426077903253e-01 -5.993004546046740155e-02 -7.799664986090530938e-01
6.186172510371549249e-01 -5.887155056247896784e-02 -7.834837823807222490e-01
6.503117000371105849e-01 1.758770790947969398e-02 -7.594638670307719552e-01
6.759562891930067652e-01 -1.102552474390783820e-02 -7.368592354748237927e-01
6.195724352549879521e-01 -4.394401186951156502e-02 -7.837084415093510392e-01
6.791525264041963217e-01 5.660701581337656413e-02 -7.318111037962606868e-01
6.902051321090555414e-01 3.679503022090480774e-02 -7.226776607598743851e-01
7.388552136543209414e-01 4.901597782640976925e-02 -6.720791673408338385e-01
6.906649472507628840e-01 2.500661963684794667e-02 -7.227424158117736752e-01
7.376552476467166386e-01 1.075541006068764793e-01 -6.665559624381940385e-01
8.020379838920754789e-01 1.169240772363390191e-01 -5.857165121086869153e-01
7.709492510422425449e-01 5.432464875084132283e-02 -6.345755154869301418e-01
8.289419622754179429e-01 6.824724609513349582e-02 -5.551554165991805512e-01
8.548204710244969862e-01 6.779458672228297345e-02 -5.144762932620041695e-01
8.353577980691742066e-01 -6.084552820587482529e-03 -5.496729276779003248e-01
8.981429910633181857e-01 3.087977272644278678e-03 -4.396926562955082440e-01
8.697585502356958154e-01 -3.219564460576358755e-02 -4.924261414266305481e-01
9.205763660190935394e-01 8.270243746244817715e-03 -3.904750406818056629e-01
9.258630960598039916e-01 -2.558943203995918403e-02 -3.769916555076869291e-01
9.238873467891839386e-01 -5.950302230485552540e-02 -3.780100008986930771e-01
9.359545253702807877e-01 -1.013577223969147761e-01 -3.372176427018643841e-01
9.381803019653121023e-01 -7.832901586297205676e-02 -3.371680386368406390e-01
9.523137882974637147e-01 -6.811708720442183340e-02 -2.974197556473318071e-01
9.599898818341295881e-01 -1.224871027027602255e-01 -2.518260043116622993e-01
9.547536209240651273e-01 -1.507388854537549394e-01 -2.563655822152153263e-01
9.687922510247903851e-01 -2.470931572475110749e-01 -1.966077302081993203e-02
9.892895705096910186e-01 -1.447244830553998940e-01 -1.899920222267833386e-02
9.881317768260799994e-01 -1.524263629306225887e-01 -1.902092296067879607e-02
9.892039619474568557e-01 -1.233476022749277756e-01 -7.912579023605717521e-02
9.714786161634303419e-01 -2.332411794236464997e-01 4.275336896961973165e-02
9.672755393509858690e-01 -1.886047247185461129e-01 1.697241549900924684e-01
9.889755811615610348e-01 -2.025930961723133167e-02 1.466862646602800357e-01
9.914042546919531462e-01 -3.686946317350925893e-03 1.307823008114850916e-01
9.897480139667839127e-01 8.604662671826123280e-03 1.425651732686176176e-01
9.909580564551787596e-01 2.720324091584235687e-02 1.313853645968582062e-01
9.961803257306267589e-01 8.181571790138696121e-03 8.693572631700334508e-02
9.937350634509827252e-01 2.826970361713210256e-02 1.081269972091657844e-01
9.977224472861688787e-01 -1.798295581887289973e-03 6.742910583937691826e-02
9.983208177428176677e-01 -2.637528595755217822e-02 5.157411319615241158e-02
9.976697259707719700e-01 -9.989914111995160453e-03 6.749310703649563647e-02
8.815815039474738102e-01 9.375582348256579490e-02 -4.626271689609421367e-01
8.815815039474738102e-01 9.375582348256579490e-02 -4.626271689609421367e-01
8.605765777653614501e-01 3.487482735491053559e-02 -5.081256736464159207e-01
9.178389712609221762e-01 -5.437866285354665818e-02 -3.932106100564332074e-01
9.135798806743959943e-01 -1.521225726800029265e-01 -3.771346238522438887e-01
9.972716050521399644e-01 -6.203651875948936606e-02 4.001019991117543695e-02
9.357483318805813743e-01 -2.166370813536864504e-01 -2.782866047176285051e-01
8.858144112307859697e-01 -2.941220556641783168e-01 -3.589220601018191514e-01
9.179952358558799430e-01 -3.426158065402395980e-01 -1.997477310376478965e-01
9.940216115810143194e-01 -1.067686911183810261e-01 2.283598709823701778e-02
8.566703442142873381e-01 -4.765380632790751081e-01 -1.975535258860312005e-01
9.880001198573579169e-01 -1.528352520941222148e-01 2.229683563137578248e-02
9.724173646703057061e-01 -2.200645285756760716e-01 7.730505902218194614e-02
9.615812130534109325e-01 -2.628488980966621202e-01 7.919613293653500474e-02
9.625651754366364443e-01 -2.576311893052312674e-01 8.422857789259635686e-02
9.509825856609476213e-01 -2.971940170399478554e-01 8.548589360401848136e-02
9.509825856609476213e-01 -2.971940170399478554e-01 8.548589360401848136e-02
9.462644678683209687e-01 -3.122034567644934588e-01 8.433598540471545779e-02
9.429002690951006072e-01 -3.273107324675169627e-01 6.169900284416510172e-02
9.285134174027784848e-01 -3.699874482014745003e-01 3.117886906824439419e-02
9.450701500420136680e-01 -3.220953514002043994e-01 5.565066132531402282e-02
9.348311519159576699e-01 -3.537916703362045667e-01 3.036727528445853572e-02
9.108986806115165757e-01 -4.100934588158585137e-01 -4.568313361235128156e-02
9.248526567521311303e-01 -3.801535392863553131e-01 -1.143896265323217018e-02
8.968207226253062103e-01 -4.351637036981121920e-01 -7.965640246436817007e-02
9.131121023220065691e-01 -4.051401083171197737e-01 -4.569224470167805585e-02
9.131121023220065691e-01 -4.051401083171197737e-01 -4.569224470167805585e-02
8.614607426459267581e-01 -4.904279032985115472e-01 -1.317795907800373423e-01
8.554953102909382823e-01 -4.930805980663900967e-01 -1.581116626966594940e-01
8.455611055889453720e-01 -5.180076348576161394e-01 -1.292072248150976099e-01
8.046421712804140425e-01 -5.696301889626413928e-01 -1.675482736990336341e-01
7.951715227237347028e-01 -5.698386204605770944e-01 -2.073311266568619027e-01
8.070713579916983793e-01 -5.581621132098262272e-01 -1.925899231179475923e-01
7.513391798610690175e-01 -6.149419437750732742e-01 -2.394490396552689804e-01
7.135898212292226539e-01 -6.503310650686269234e-01 -2.604977405751375819e-01
7.366344990094131351e-01 -6.325248631036849423e-01 -2.393364001250449236e-01
7.428304942564654123e-01 -6.226517896888804637e-01 -2.459829376195220574e-01
6.913056466608369366e-01 -6.733849657039308045e-01 -2.620099060317337414e-01
7.014760614505080039e-01 -6.632578220004541336e-01 -2.608072022914568744e-01
6.499213165367726530e-01 -7.103910679492321245e-01 -2.700866766226309168e-01
6.572779989583992233e-01 -7.054953245097770331e-01 -2.650697628551528240e-01
5.823274504803573892e-01 -7.659342017441731487e-01 -2.724693359179398144e-01
6.300236397332444893e-01 -7.306572518647306280e-01 -2.630783033143448968e-01
5.497140654726831999e-01 -7.953531188192789481e-01 -2.553974600616468749e-01
5.624482975680817898e-01 -7.851704929698599678e-01 -2.591509396707515900e-01
4.965407622930670395e-01 -8.332139725536847896e-01 -2.433140919115190648e-01
5.056873099078179612e-01 -8.282820670970878485e-01 -2.413071940982483010e-01
3.700720010776661351e-01 -9.000647817403750750e-01 -2.300654313212283641e-01
3.995220640913949572e-01 -8.877838545759966227e-01 -2.285212197112929666e-01
3.995220640913949572e-01 -8.877838545759966227e-01 -2.285212197112929666e-01
4.272459524294885402e-01 -8.751351323363049106e-01 -2.271550049709167296e-01
4.626436448636436216e-01 -8.536394160892302185e-01 -2.392918827836017504e-01
3.351270245314965646e-01 -9.113997348390306952e-01 -2.388313228284981715e-01
3.407825398642665427e-01 -9.098723461332980378e-01 -2.366422917940655124e-01
3.438706238284549022e-01 -9.082628745633409828e-01 -2.383517248894294616e-01
3.501283857150813139e-01 -9.020630156032788394e-01 -2.523735909267649236e-01
3.410636331631188845e-01 -9.073464124477131909e-01 -2.457602204422797976e-01
4.442468811542353846e-01 -8.713316088575682183e-01 -2.083889056317927146e-01
3.894233383918922486e-01 -8.793881985004121660e-01 -2.739084881012518458e-01
4.848497873749645914e-01 -8.417511787648879196e-01 -2.374355422643652236e-01
7.905647427630434487e-01 -5.994682850154161580e-01 -1.250806250411261034e-01
7.905647427630434487e-01 -5.994682850154161580e-01 -1.250806250411261034e-01
9.959374995456986568e-01 -3.760692236722164294e-02 8.181819106242507744e-02
8.614177111482376192e-01 -4.449966364068913549e-01 -2.448214053278111868e-01
9.541072740098958116e-01 2.940338411926674556e-01 5.677508181315769203e-02
9.773386387589643176e-01 2.012264541699018694e-01 -6.570463705845236424e-02
9.773386387589643176e-01 2.012264541699018694e-01 -6.570463705845236424e-02
9.250030965295626961e-01 3.764020758449870274e-01 5.187242726444621366e-02
9.169124352244598652e-01 3.966889611743926181e-01 4.369730212646748269e-02
9.095802952475520176e-01 4.114963788552957746e-01 5.774440826915631930e-02
9.234952939775472602e-01 3.830416406491936598e-01 2.086967968363458506e-02
9.252617078773183179e-01 3.787489654443632614e-01 2.097601274724400847e-02
9.415569856206295052e-01 3.318565760972940204e-01 -5.780705605697843835e-02
3.618241771305198418e-01 -7.234735690939180230e-01 5.879364418594327235e-01
9.538682873783091987e-01 2.945336183001058816e-01 -5.818279836016008316e-02
3.510787155880218391e-01 -7.294432856534079912e-01 5.870742955335597202e-01
9.603118434735519182e-01 2.510837857485719304e-01 -1.214829034004106106e-01
9.743176660578676263e-01 1.690971923607642036e-01 -1.486984369227065672e-01
-9.499496670052236524e-01 -5.248048351576539532e-03 3.123589091816720842e-01
-9.499496670052236524e-01 -5.248048351576539532e-03 3.123589091816720842e-01
-9.259648898390860916e-01 1.615036676087022449e-01 3.413291492595185717e-01
9.778703255293460517e-01 1.081414852806796417e-01 -1.790950742215411673e-01
9.789225247701930366e-01 1.397314929171364906e-01 -1.489489858464944916e-01
3.647532702531720572e-01 -7.444007717194187634e-01 5.593054111155640884e-01
3.354439873004495531e-01 -7.449576257085510633e-01 5.766415414125609651e-01
9.757078465239086285e-01 8.196213252521086789e-02 -2.031659594115026446e-01
9.779495529782252783e-01 1.074640043853278687e-01 -1.790702643968554997e-01
9.731509414813012127e-01 5.302918071585946413e-02 -2.239757823664465242e-01
9.724673885685131136e-01 3.357391288421309600e-02 -2.306078284542388002e-01
9.741128857296119659e-01 1.874493356752567758e-02 -2.252836286130814047e-01
9.742829788892409804e-01 8.780856092182487416e-03 -2.251567756319917124e-01
9.706472412657520810e-01 -1.122183610395596776e-02 -2.402457146707112912e-01
9.722205365805135502e-01 -4.683390974862913433e-03 -2.340198583455581904e-01
9.722205365805135502e-01 -4.683390974862913433e-03 -2.340198583455581904e-01
9.719646411389457619e-01 -6.482444513646938751e-03 -2.350376869541728475e-01
9.621075689759439609e-01 -4.909641799829159853e-02 -2.682136600901163237e-01
9.596071712031404299e-01 -5.940531574285700528e-02 -2.750001553399528675e-01
9.619432868621717869e-01 -5.254981810878849025e-02 -2.681485213040242233e-01
9.550723846534490136e-01 -7.342088044578880257e-02 -2.871343141927470977e-01
9.549896204179433301e-01 -7.445348036345268705e-02 -2.871436994881858551e-01
9.460092560378871029e-01 -9.487513916143520964e-02 -3.099438585610975738e-01
