1.535314454311073086e-02 9.263099359742626993e-01 3.764494434422713809e-01
3.382620037629999188e-03 9.810700610741062144e-01 1.936235862330063506e-01
3.382620037629999188e-03 9.810700610741062144e-01 1.936235862330063506e-01
3.382620037629999188e-03 9.810700610741062144e-01 1.936235862330063506e-01
3.382620037629999188e-03 9.810700610741062144e-01 1.936235862330063506e-01
-2.014993349923812092e-05 8.789580974521644663e-01 4.768990066222109636e-01
8.563240021879904573e-02 4.891642715776066130e-01 8.679777689807018914e-01
-1.130201388945383445e-03 9.869338668669997983e-01 1.611218950849682696e-01
-1.130201388945383445e-03 9.869338668669997983e-01 1.611218950849682696e-01
-1.130201388945383445e-03 9.869338668669997983e-01 1.611218950849682696e-01
-1.130201388945383445e-03 9.869338668669997983e-01 1.611218950849682696e-01
8.342024009342486170e-04 9.808234885231387201e-01 1.948963531409826089e-01
1.698539243000514454e-02 8.722184720556127591e-01 4.888214740055625840e-01
6.176287635782705399e-02 9.344131331272549357e-01 3.507954443023947877e-01
-1.377696041614461658e-02 9.833846200281091132e-01 1.810107302174747690e-01
-1.377696041614461658e-02 9.833846200281091132e-01 1.810107302174747690e-01
-1.377696041614461658e-02 9.833846200281091132e-01 1.810107302174747690e-01
-1.377696041614461658e-02 9.833846200281091132e-01 1.810107302174747690e-01
-2.387446367673728628e-02 9.844018530700354708e-01 1.743072048322409640e-01
-1.272377945115669463e-02 9.836461639376240518e-01 1.796617087953772396e-01
-4.004379061300966658e-02 9.786175231979609146e-01 2.017529135433484000e-01
-5.238742360386891561e-02 8.946956485740403808e-01 4.435935687888475920e-01
4.096135114747199296e-02 5.256013226432758589e-01 8.497443246929117233e-01
-1.136912812719585997e-01 9.344647796062769407e-01 3.374164611250207724e-01
1.878679039073450630e-01 6.529990894322549311e-01 7.336878354464563268e-01
1.878679039073450630e-01 6.529990894322549311e-01 7.336878354464563268e-01
-1.602419988626537992e-02 9.785051910409136022e-01 2.055986773400789724e-01
-1.602419988626537992e-02 9.785051910409136022e-01 2.055986773400789724e-01
-1.602419988626537992e-02 9.785051910409136022e-01 2.055986773400789724e-01
1.009427051324003344e-01 4.842228017215651215e-01 8.691023234196713076e-01
-2.076648999831983561e-02 9.829631325475145509e-01 1.826259372201189390e-01
6.890477010987527962e-02 7.010366453929143260e-01 7.097885279943276782e-01
-2.506688972470374685e-02 9.836188344123014682e-01 1.785094945063569194e-01
-2.506688972470374685e-02 9.836188344123014682e-01 1.785094945063569194e-01
-1.201421018691496093e-03 8.461028152989845674e-01 5.330183697872600268e-01
-2.131505887412980110e-02 9.802885430661948396e-01 1.964180251360589657e-01
-2.131505887412980110e-02 9.802885430661948396e-01 1.964180251360589657e-01
-2.131505887412980110e-02 9.802885430661948396e-01 1.964180251360589657e-01
-3.241372242645487733e-02 9.796918123834865710e-01 1.978719367348997782e-01
-3.241372242645487733e-02 9.796918123834865710e-01 1.978719367348997782e-01
-1.941608649327164135e-02 9.759256970643958029e-01 2.172373112397106842e-01
-1.215068708295100608e-01 7.697691506864959843e-01 6.266510472285284905e-01
-4.316527578238554819e-02 6.699014430876054638e-01 7.411941820574242668e-01
-1.797211898541343500e-01 5.485000884191991721e-01 8.166075844134347284e-01
-2.714304522821324450e-02 9.789812195175541243e-01 2.021361593769450959e-01
-8.493955186338174312e-02 9.739893970673398904e-01 2.100712425098861524e-01
-8.109453392718947440e-02 9.019783136377728106e-01 4.240976282582718526e-01
4.395296978110341951e-02 7.543981847673071339e-01 6.549439023818859340e-01
-3.862794606028925517e-03 9.801939235583263521e-01 1.980024015944387983e-01
-3.862794606028925517e-03 9.801939235583263521e-01 1.980024015944387983e-01
-6.472139384137783058e-02 9.063758508065703490e-01 4.174852790864545526e-01
4.787171120220031634e-02 7.730494340862748004e-01 6.325368540452511734e-01
-2.970282586812689196e-01 7.444619948956709976e-01 5.979553091166018852e-01
-2.405735179560849479e-01 7.848898835198887536e-01 5.710273664250852255e-01
-2.405735179560849479e-01 7.848898835198887536e-01 5.710273664250852255e-01
-9.705187547096903733e-02 8.910892546071582654e-01 4.433293062625418557e-01
1.314340569402352721e-01 4.696662617746471535e-01 8.730055505132023885e-01
5.674095857360713507e-02 7.765069278902592131e-01 6.275487666776026208e-01
5.948881550359591281e-04 9.907648393753613059e-01 1.355901145570622968e-01
-1.097031436953884304e-01 8.959637154992025065e-01 4.303652411292216984e-01
-5.515299914817407834e-02 9.376302469353260394e-01 3.432312146599738600e-01
9.900680540017187115e-02 9.931301786411017574e-01 6.237067224862787029e-02
-9.907762133698981566e-02 8.829772494677374794e-01 4.588407151426222574e-01
-1.077443786028915995e-01 8.882752341911133165e-01 4.464955287594706279e-01
-1.937902101805052402e-01 5.283426046163492984e-01 8.266192875716169564e-01
-1.028509041634313864e-01 4.535430616145852412e-01 8.852798330324898046e-01
-1.689424475810272774e-01 8.729917551517575314e-01 4.575410854146170769e-01
-4.621525259502697325e-01 5.458655612175900701e-02 8.851188341960368744e-01
-6.388933277726728532e-02 1.523608683990723134e-01 9.862577345389774708e-01
-6.039980052048271597e-02 8.972717260251243943e-01 4.373274674348504587e-01
-6.039980052048271597e-02 8.972717260251243943e-01 4.373274674348504587e-01
3.736285045386641274e-02 4.092468403559330614e-01 9.116584015214512782e-01
7.150801601545471670e-04 9.229302042444847975e-01 3.849666566776895893e-01
-1.554080558476143847e-01 9.292045094473493361e-01 3.353018279108773703e-01
-1.412484569635442944e-01 8.875127919398730914e-01 4.385999516056851566e-01
-2.418732673980087955e-01 5.432447677382914453e-01 8.039791320943480146e-01
7.389994832635646271e-02 8.040773431199441657e-01 5.899139122944410119e-01
-2.601812396704039632e-01 8.580003527143137410e-01 4.428782194528027016e-01
-2.530147318462488970e-01 8.596866694597971037e-01 4.437593670243955013e-01
-1.622771941316375754e-01 9.024531372055355494e-01 3.990544416651060633e-01
-1.622771941316375754e-01 9.024531372055355494e-01 3.990544416651060633e-01
-2.631797736971502877e-01 8.310112404527885133e-01 4.900578791916669341e-01
1.562519183219942057e-02 5.819565081344141300e-01 8.130697854552256798e-01
-2.561373226096865796e-01 6.627092828941230085e-01 7.037116443063157201e-01
-2.854989480750472763e-01 6.356164301920416149e-01 7.172740789391228722e-01
-2.644375724452285858e-01 7.377632747460576290e-01 6.211103933402237764e-01
-4.940597169519933378e-03 6.316395332768507398e-01 7.752464708087426493e-01
-6.040136023208813459e-02 8.035755964256275918e-01 5.921299996717869218e-01
-1.573813848767146584e-01 3.546527778131143283e-01 9.216574780707468273e-01
-4.526593389573125292e-01 5.778022151675292761e-01 6.791495586409705965e-01
-3.159971882434643997e-01 6.489836157793281712e-01 6.920737269050268869e-01
-3.169358286274955305e-01 -3.293573835953289564e-02 9.478749483296387002e-01
-2.349368189387693664e-02 9.576093535736919238e-01 2.871103844503805624e-01
4.065174760456859160e-02 6.163443916123763078e-01 7.864267456951501423e-01
-3.421084466951272718e-02 8.299635253450299288e-01 5.567676038562662244e-01
1.662210921630152549e-01 3.100175793076747621e-01 9.360874152771971879e-01
-4.546380650945695545e-01 5.659930527610103068e-01 6.877180337851682701e-01
-2.209748997499034751e-01 2.646015502221351623e-01 9.386991601682420638e-01
-7.542628562495687361e-02 9.519600649741644105e-01 2.967876515814078520e-01
1.586045887715919755e-01 2.397892524185444851e-01 9.577816550995063016e-01
-5.007517873613579473e-01 3.954030867972829211e-01 7.700026275316115276e-01
-2.650677265094593116e-01 5.244578753706633512e-01 8.091248589215364051e-01
1.492605912717361906e-02 6.372634334697581115e-01 7.705014789870732184e-01
-1.107595999533131509e-01 5.063214073200763554e-01 8.552022822160844084e-01
-6.087725191091238885e-01 5.252752720372967643e-02 7.916039911871293189e-01
-1.973166570852493210e-02 9.881630961889689146e-01 1.521326943776298846e-01
-2.066346190138898253e-01 5.004258392228713159e-01 8.407592483363293123e-01
-1.194531634837068959e-03 8.394953518793490943e-01 5.433655558343215564e-01
-3.561884155848210609e-02 1.778645826152311094e-01 9.834101323339827783e-01
1.535671427134383676e-02 6.564958295293632506e-01 7.541733203563631971e-01
-2.050802001665236463e-01 6.691469961043485792e-01 7.142719433830405640e-01
-1.176452229294584068e-01 6.181864463454079806e-01 7.771776624921191701e-01
2.475163655901681768e-03 9.921236003429669825e-01 1.252383136559460930e-01
-1.788082846374825507e-01 5.885156364875879786e-01 7.884649281703089985e-01
-1.705324696107530791e-01 3.785354986325420446e-01 9.097414759608744017e-01
-1.713415222047423581e-01 7.985213143605057740e-01 5.770665414668676441e-01
-6.831101878869914878e-02 1.774137924905251351e-01 9.817626754700847780e-01
-3.085536470021428904e-02 9.671434809677573741e-01 2.523518054042530045e-01
-4.103891441098980047e-02 7.797488751484765723e-01 6.247459477328786148e-01
4.736719657694496433e-03 3.150708387314397063e-01 9.490563366144033619e-01
-3.337333085677601230e-01 6.160500315766291868e-01 7.135155480764594493e-01
-4.468125819112295782e-01 8.384602021246649883e-01 3.119984072056884994e-01
-3.477501004428413811e-01 3.772029070836500075e-01 8.583634629512355563e-01
-2.322889313833914615e-01 5.358782963618458073e-01 8.117119586682752796e-01
-1.758014336555310531e-01 5.204706830788402572e-01 8.355860960907052215e-01
-4.253535455395549558e-01 6.011895224418034589e-01 6.764950254090018600e-01
-3.489970056307486468e-01 6.373191288745281291e-01 6.870410599311980171e-01
-2.780208146447249451e-01 5.560874977866562263e-01 7.832439731205463884e-01
-1.367499830551354156e-01 5.240306757124147952e-01 8.406493282259911437e-01
-6.748869088646522463e-02 2.401846703884659984e-01 9.683783355243007485e-01
-5.522637889649305576e-01 4.776501553429329805e-01 6.832679097535391266e-01
-3.330039300099781330e-01 4.821593314821092102e-01 8.103275644223359997e-01
-2.338547061441030861e-01 6.272197253081726043e-01 7.429046995399852804e-01
-1.591416785912840026e-01 8.132865863739603407e-01 5.596774558255308563e-01
-7.109635474183273463e-02 2.396422174796451199e-01 9.682545718682984415e-01
-7.109635474183273463e-02 2.396422174796451199e-01 9.682545718682984415e-01
-6.217342458785426462e-01 4.613994534228063604e-01 6.328957827975910666e-01
-3.609786666726082505e-01 6.257070682655988536e-01 6.915092674214388113e-01
-1.372402050418016217e-01 7.737990722878032024e-01 6.183850918696370824e-01
-1.114537874953886593e-01 5.840886043970963115e-01 8.040015892188181468e-01
-1.150562774628764579e-01 1.754696794388043435e-01 9.777384336385824826e-01
-6.061861051553026902e-01 4.815221474245040545e-01 6.329888051587788667e-01
-5.100492884027896245e-01 5.506454809396943428e-01 6.607868625513830807e-01
-4.814950535126202857e-01 4.919653010213042577e-01 7.253500231156654321e-01
-4.280504280894388280e-01 5.202869016442721595e-01 7.389684506052012214e-01
-4.280504280894388280e-01 5.202869016442721595e-01 7.389684506052012214e-01
-2.585849970885160665e-01 6.735428809234041969e-01 6.924404572511149158e-01
-1.357079316955938919e-01 7.872567056572038480e-01 6.015066389265132374e-01
-2.041489534200893741e-01 4.243563973829795888e-01 8.821818706013069278e-01
-1.289810158823288533e-01 3.604256755583816196e-01 9.238274892750522049e-01
-4.996839646434613758e-01 5.753354295207705471e-01 6.475377047063302083e-01
-4.808719719623686939e-01 5.699068313172900302e-01 6.663095003066583644e-01
-4.344075645345991665e-01 5.797157517653102055e-01 6.893618172123398002e-01
-1.346452177006688400e-01 7.470284303981313823e-01 6.510139703011325052e-01
-2.643598529047129220e-01 7.627841817023586213e-01 5.901475750326031777e-01
-3.052723605606488810e-01 7.400022886845724068e-01 5.993374663904502686e-01
-2.831210158642375463e-01 7.141647573288703033e-01 6.401649707422281121e-01
-1.831997489105738064e-01 8.089949397229393435e-01 5.585383062080704342e-01
-2.600802915901394979e-02 2.712047094660581248e-01 9.621702489594524677e-01
-1.771204694216353681e-01 1.955102798306051493e-01 9.645745537761287736e-01
-4.063000586617671051e-01 7.292751713240550604e-01 5.505251918138848177e-01
-3.824699667884258747e-01 7.841018169050119058e-01 4.887750660898320110e-01
-3.009585290034659244e-01 7.967358971031983650e-01 5.240571286484246860e-01
-4.790981294374638960e-02 3.068203785917871240e-01 9.505608371400998680e-01
-3.142934928216057355e-01 7.060427898940945246e-01 6.346047425039925693e-01
-3.434134540999173035e-01 7.227964196841880629e-01 5.996937011799297057e-01
-1.524663008756352023e-01 7.260867052370965080e-01 6.704864827684730022e-01
-2.121728414073431601e-01 6.053596711454369006e-03 9.772134052170945440e-01
-4.617347953563259444e-01 5.864631641238171600e-01 6.654787268449177118e-01
-3.360051262714102704e-01 7.644032643432633334e-01 5.502619417883604092e-01
-2.943528215537860593e-01 7.229625862664031954e-01 6.250452106066558544e-01
-4.324936414609387714e-01 6.356627837055597308e-01 6.394388755053572737e-01
-2.403517778323865095e-01 4.239745529068046359e-01 8.731990617151889067e-01
-3.275154430371356451e-01 4.161400102087476349e-01 8.482694892990388924e-01
-2.757213662389503273e-01 3.368515398347531331e-01 9.002826046915949343e-01
-3.435664716243206351e-01 3.202351625381411604e-01 8.828428627166813314e-01
-2.158994338752333875e-01 1.908372305456239870e-01 9.575847669475689994e-01
-1.538839601831843429e-01 5.848036817810912252e-02 9.863568184668735084e-01
-5.031303642906072016e-01 5.961649441614175204e-01 6.256574109541216400e-01
-4.173541454021130193e-01 6.140831545612189801e-01 6.698637149449238049e-01
-3.648007486146588318e-01 4.834660116283411857e-01 7.957267303605988218e-01
-6.824699410858771076e-01 2.835201137705297136e-01 6.736847368033398453e-01
-4.476748046776922729e-01 4.507213859013672330e-01 7.722936627656222797e-01
-4.476748046776922729e-01 4.507213859013672330e-01 7.722936627656222797e-01
-4.285956433034609492e-01 4.875204579851864506e-01 7.606770520971476435e-01
-4.076944359567656884e-01 5.178942275669838891e-01 7.520444241816381936e-01
-3.471436953510161350e-01 4.940627590184250573e-01 7.971155781498329151e-01
-3.126327466620416606e-01 9.507957416488346802e-02 9.451035077128705497e-01
-2.413725476450891971e-01 1.916738625877440483e-01 9.513151021843465616e-01
-5.714260820903055427e-01 4.104134490573153604e-01 7.106567621150182701e-01
-3.942797041700014105e-01 1.931038355398778106e-01 8.984733850144944745e-01
-1.690288871243326441e-01 -2.422687854435689320e-02 9.853132972174416526e-01
-6.266148187784232881e-01 1.845660270052264240e-01 7.571586693440087723e-01
-3.579077741408783209e-01 1.706302888152676223e-01 9.180344926789735238e-01
-3.005337399656302089e-01 -6.934711664623977034e-02 9.512467863573172977e-01
-5.079992083323857655e-01 2.258934922711682280e-01 8.312093204982754502e-01
-5.079992083323857655e-01 2.258934922711682280e-01 8.312093204982754502e-01
-4.412292102932621751e-01 8.036371660420844887e-02 8.937888212757768569e-01
-3.957910928891968938e-01 1.925577603959386652e-01 8.979258987805595060e-01
-3.476433598659877111e-01 6.274698542784139244e-03 9.376058460244819370e-01
-6.958265041236368909e-01 1.036758137292081855e-01 7.106875556858054388e-01
-6.958265041236368909e-01 1.036758137292081855e-01 7.106875556858054388e-01
-5.304561235255444984e-01 1.399937584443153304e-01 8.360729923941371267e-01
-5.243935232693686110e-01 1.126093344006211527e-01 8.439967835003799879e-01
-4.178726450189645947e-01 6.678497913079926851e-02 9.060475810394027496e-01
-4.119084429517306245e-01 -1.064355736131781527e-01 9.049877917931901106e-01
-3.783876970509435500e-01 -1.314508997866840334e-01 9.162660157758523161e-01
-6.027882134465888386e-01 -3.445989217006565491e-02 7.971567509351576986e-01
-6.370616011431773362e-01 -6.366570097113613547e-02 7.681791424327694129e-01
-5.926175602755718863e-01 -1.694051287158562513e-01 7.874683038813644620e-01
-5.926175602755718863e-01 -1.694051287158562513e-01 7.874683038813644620e-01
-5.926175602755718863e-01 -1.694051287158562513e-01 7.874683038813644620e-01
-5.501572418828624134e-01 -7.651253486744674648e-02 8.315484599300267954e-01
-5.658537308066561300e-01 -1.956783682423995641e-01 8.009491441622121899e-01
-4.829621317931134805e-01 -5.824224252185516981e-02 8.737021348491010864e-01
-4.810606728210726768e-01 -5.765270601390104499e-02 8.747895715851964349e-01
-4.679956304771323850e-01 -2.136293810767648030e-02 8.834725319610785554e-01
-4.284040072452449111e-01 -2.421501337924430314e-02 9.032627744478675114e-01
-5.141134879802528035e-01 -5.243399021048505276e-02 8.561179814414514588e-01
-3.826556672928677627e-01 -6.395194963817056599e-02 9.216749906697735417e-01
-4.634384127472225834e-01 -7.087127945973044352e-02 8.832904954419444898e-01
-4.578213469347613418e-01 -4.094895129716208393e-02 8.881006686623447166e-01
-4.482588539670424588e-01 -3.523695172288860561e-02 8.932090220510719991e-01
-5.338986412558180961e-01 -2.105503657618717356e-02 8.452862984220002041e-01
-5.338986412558180961e-01 -2.105503657618717356e-02 8.452862984220002041e-01
-5.338986412558180961e-01 -2.105503657618717356e-02 8.452862984220002041e-01
-4.760483988789248055e-01 3.363794031092733061e-02 8.787755179205042344e-01
-4.411352119395801630e-01 -7.733773285660820729e-03 8.974073286628473367e-01
-5.370068954617051027e-01 2.282002293505999008e-03 8.435747665098299874e-01
-4.840854635045477306e-01 2.906549939129381491e-03 8.750158947076553950e-01
-4.675795475124780998e-01 -8.225711635888208542e-03 8.839127244338715883e-01
-4.027260403099204300e-01 -1.922809957136249748e-02 9.151185806457905469e-01
-5.086018922326647207e-01 3.164799369531021145e-02 8.604199670581886839e-01
-4.871065260599863334e-01 3.755656851255752271e-02 8.725346620228523475e-01
-5.430757758781096928e-02 2.853706536011350048e-01 9.568773573869353566e-01
-5.271520982860657956e-01 9.919756155587136984e-03 8.497130478640489981e-01
-5.011651730105999292e-01 2.577310837064788682e-02 8.649677544545636421e-01
-3.985568006533569685e-01 4.179241671966124616e-02 9.161909574743086759e-01
-2.339963837112888911e-01 3.994969949598327075e-01 8.863677811315699984e-01
-2.343444769075894996e-01 1.521450589240439799e-01 9.601742275170207508e-01
4.084913976219805426e-02 3.823490358448951576e-01 9.231145988278851577e-01
-4.423139028171381160e-01 5.133113630121551030e-02 8.953901528499724760e-01
-4.277400319159351261e-01 5.065606970338864395e-02 9.024812616884408945e-01
6.204473488157806471e-02 5.816157125988179466e-01 8.110940843895017016e-01
-1.889934276170939648e-02 9.315059542346678656e-01 3.632347341162960319e-01
1.310657392078956318e-01 8.907657565118693999e-01 4.351530064606296544e-01
-2.908687920631121693e-01 1.407929477685298802e-01 9.463470249662087053e-01
-3.160762411768089364e-01 1.352745274439205725e-01 9.390402611115051812e-01
1.747077356778616586e-01 5.526927116575810484e-01 8.148668440763218168e-01
-3.088127163391369279e-01 2.617960383141378911e-01 9.143836943812297946e-01
-2.179827255845890044e-01 1.528241974875034215e-01 9.639130126774999585e-01
-2.179827255845890044e-01 1.528241974875034215e-01 9.639130126774999585e-01
-6.952105325893738474e-02 7.625162982222295771e-02 9.946620089775334295e-01
-1.361486646429657388e-01 1.937012751695441071e-01 9.715674742979150125e-01
-2.316364835751996698e-02 2.196307713736076472e-01 9.753080383451185886e-01
-3.473363876571324005e-02 9.361400587480857016e-01 3.499076517386028873e-01
-5.285240754869910962e-01 2.252118908521012763e-02 8.486195246827694660e-01
-2.757454678965600148e-01 1.507845073334823371e-01 9.493305374224018101e-01
-1.932763936753204015e-01 2.474080718817475988e-01 9.494385086015937336e-01
-1.017855916177500125e-01 6.392800854528208898e-01 7.622077575585667342e-01
-3.171637996553584027e-01 1.403485378870308053e-01 9.379282553058887473e-01
4.646914435968237111e-02 6.480538381308192930e-01 7.601755333516022617e-01
-6.095491205483946073e-01 6.888493832711398146e-02 7.897497925991170398e-01
-5.257952121884490460e-01 7.190135009291261092e-02 8.475668650286655170e-01
-4.903167820671429089e-01 8.229435331206616522e-02 8.676503285519293618e-01
-4.153349027436870622e-01 7.478868900266616437e-02 9.065889755342023681e-01
-4.211967694142885188e-01 6.836575335120306796e-02 9.043889678692951239e-01
-1.088250281376581252e-01 4.362051058343223153e-01 8.932425308363375338e-01
2.842312983952101357e-02 5.680553577946814148e-01 8.224993836902749766e-01
-9.700801915928843402e-03 9.025002089282692097e-01 4.305801520351564271e-01
-4.307988260293375143e-02 9.338725802783846008e-01 3.550015880515317024e-01
-7.788354695036427133e-02 9.477387671583038520e-01 3.093951879711269171e-01
-7.734964065174835257e-01 2.023402373655345532e-01 6.006344457716350504e-01
-4.212558741916562766e-01 8.279945488634717077e-02 9.031543271941662177e-01
-4.212558741916562766e-01 8.279945488634717077e-02 9.031543271941662177e-01
-3.354446348087246066e-01 8.618850923085097371e-02 9.381089690726791552e-01
-3.511830252042364431e-01 1.337893474853809328e-01 9.266989226862393236e-01
-1.855368639076994952e-01 2.040683098922397298e-01 9.612139184536502290e-01
-1.855368639076994952e-01 2.040683098922397298e-01 9.612139184536502290e-01
7.560795748191169452e-02 5.578326617450611868e-01 8.265023643377152895e-01
-7.485336701042319962e-01 1.989510575733728359e-01 6.325470902713293819e-01
-7.485336701042319962e-01 1.989510575733728359e-01 6.325470902713293819e-01
-7.049386637576215975e-01 2.080091222888593439e-01 6.780808841017695876e-01
-7.094007855578109423e-01 2.113950699799837241e-01 6.723560439515052778e-01
-7.094007855578109423e-01 2.113950699799837241e-01 6.723560439515052778e-01
-6.399135142225642614e-01 1.023944748219184075e-01 7.615944234573094329e-01
-5.006410025452486812e-01 1.431552514446877700e-01 8.537360016739932167e-01
-2.166136784093360690e-01 5.092214360994529176e-01 8.329297949664109524e-01
-1.356848837026406185e-01 6.651372152605503629e-01 7.342901995873574172e-01
-1.963348950218014692e-03 7.073079211766197805e-01 7.069028574717379776e-01
-4.192468510053855985e-02 9.362536471168386720e-01 3.488143188569511888e-01
-4.076581024536430481e-02 8.801032734233121824e-01 4.730289386756472703e-01
7.228665986085205941e-02 8.049983133329964291e-01 5.888568198952887078e-01
-6.580336038839469381e-01 4.919385102113781327e-01 5.700774318726490320e-01
-5.862703965755692304e-01 1.204634394407021608e-01 8.011089700267006730e-01
-5.375018015529087201e-01 1.345679765157712371e-01 8.324561688304245033e-01
-4.764767677187812800e-01 3.572126003002371736e-02 8.784610870187308240e-01
-4.226620653649104664e-01 1.598567456626370786e-01 8.920776868455007058e-01
-2.653044566315534980e-01 1.583025203285762517e-01 9.510803632443773914e-01
-2.086588725568520319e-01 3.934493202176979620e-01 8.953541798213345837e-01
4.035373007247028410e-02 8.078023936324723042e-01 5.880704628791402211e-01
-6.279898106485751752e-01 1.445950303660454850e-01 7.646705662669441850e-01
-3.803396586564595783e-01 1.297167648564982179e-01 9.157048132276316421e-01
-9.027009004860486741e-02 4.807795352825840474e-01 8.721825206320515944e-01
-1.860466371541911329e-02 9.424275821354730631e-01 3.338923762506748050e-01
1.093920155581429993e-01 8.732885533357851449e-01 4.747636143859578217e-01
-6.592910886799031589e-01 5.134515003704698266e-01 5.492748102312551284e-01
-5.691318036935556490e-01 2.413014332469945455e-01 7.860423705739190137e-01
-5.086018616674581327e-01 1.834180207751450187e-01 8.412383585900753413e-01
-3.639797611329435023e-01 3.412912299490553081e-01 8.666250803233577216e-01
5.776920589775969700e-02 9.623583744195545187e-01 2.655731124087956085e-01
8.464009032320345127e-02 8.448931965406013544e-01 5.281964989939680333e-01
-5.051721799643509314e-01 6.431339500510000473e-01 5.754822246445701062e-01
-6.537449679790372503e-01 2.427442591334090516e-01 7.167236158379740596e-01
-7.086543388131285592e-01 1.657347485850084734e-01 6.858141302078805124e-01
-5.522562651142366441e-01 2.019552116815084009e-01 8.088430689056753664e-01
-5.522562651142366441e-01 2.019552116815084009e-01 8.088430689056753664e-01
-4.019738528661603305e-01 2.621679779097338958e-01 8.773169170662650229e-01
-3.441351773267749548e-01 3.506401927193298906e-01 8.709893426305629349e-01
-2.988728199429657173e-01 3.741667011099244489e-01 8.778805825850438671e-01
-1.841207403632138528e-01 3.201276184893021015e-01 9.293104222209442877e-01
-4.259144818868897120e-02 8.644369950803738600e-01 5.009337781359965991e-01
3.235742790413820985e-02 9.525820650187368788e-01 3.025564513674554035e-01
-4.657078689452834874e-01 7.349260703471384160e-01 4.929501515635792974e-01
-4.671376569189847894e-01 7.604952554431806400e-01 4.510314578127033180e-01
-6.060117076638756872e-01 2.064782373086976874e-01 7.681904371262417985e-01
-5.745061564520649311e-01 2.231432884674025563e-01 7.874958723768837876e-01
-4.596495559512657758e-01 2.287659797183296817e-01 8.581307663971249333e-01
-4.078068630059821231e-01 3.013840578820838334e-01 8.618939680376866974e-01
-4.078068630059821231e-01 3.013840578820838334e-01 8.618939680376866974e-01
-2.059348636857324666e-01 6.777491862254015897e-01 7.058660442956190550e-01
-6.813803267441043143e-02 6.368675690708992532e-01 7.679563190501034198e-01
1.024139345874843926e-01 5.982784996895607055e-01 7.947164417649347223e-01
-6.304385104205567636e-01 5.096483687422519449e-01 5.854962210100685960e-01
-6.304385104205567636e-01 5.096483687422519449e-01 5.854962210100685960e-01
-6.565578908394552604e-01 4.901761134299960077e-01 5.732879850468781679e-01
-6.406671409355195745e-01 4.908450192518967747e-01 5.904377880870362860e-01
-5.844661645415447637e-01 5.354734579424423879e-01 6.096453709700905277e-01
-6.174480314413156590e-01 4.156692958982288744e-01 6.678150679018216573e-01
-5.687393638583267824e-02 7.964642776515119538e-01 6.020049914951168812e-01
-1.050854660899476350e-01 8.560494914237686270e-01 5.060991138598895933e-01
-1.050854660899476350e-01 8.560494914237686270e-01 5.060991138598895933e-01
-1.038969097228467295e-03 9.498816342896780895e-01 3.126080635274549047e-01
-2.248444726408171113e-01 9.337040336445896482e-01 2.786426756236304314e-01
-6.397356391017152699e-01 4.775358432937358844e-01 6.022439957632289564e-01
-5.552762684828761452e-01 4.889657134302770602e-01 6.727412554239208253e-01
-5.552762684828761452e-01 4.889657134302770602e-01 6.727412554239208253e-01
-4.781657253433235222e-01 3.159595025641188659e-01 8.194675904795307719e-01
-4.781657253433235222e-01 3.159595025641188659e-01 8.194675904795307719e-01
-3.631822519094035639e-01 4.081379462938466429e-01 8.375691426342398715e-01
-2.936779046099571855e-01 4.661298016538240607e-01 8.345515540420925804e-01
-1.775051135015511539e-01 6.998193218297709128e-01 6.919139046691583639e-01
-1.170910579110248373e-01 8.233067423833069221e-01 5.553878753659137191e-01
-4.705714684975095125e-02 7.971564136440387749e-01 6.019362733018630562e-01
-7.938560176614777031e-02 9.770939202134767410e-01 1.974472013326257491e-01
-5.489443681137580466e-02 9.128544235393589723e-01 4.045780545602868927e-01
3.564707623327415670e-02 9.253624051972545450e-01 3.774039016803765190e-01
-9.516971322633122413e-03 7.743277452143596529e-01 6.327131816613983384e-01
4.460115950111936262e-02 8.224340275522702415e-01 5.671093429800881935e-01
4.460115950111936262e-02 8.224340275522702415e-01 5.671093429800881935e-01
-2.071806040664344040e-01 9.535217924418358804e-01 2.187975974209400987e-01
-5.636883087215855959e-01 5.301114633228772854e-01 6.334329696694638301e-01
-6.232319519323641366e-01 3.445280284973539220e-01 7.020558180588648556e-01
-3.954048315055962437e-01 5.578165246295718749e-01 7.297230598468279483e-01
-6.419178222505764753e-01 3.207287109518663359e-01 6.964729739539300413e-01
-5.570156356521512864e-01 2.187283042693825841e-01 8.011813218931593816e-01
-3.775956882342788035e-01 4.183762576500419939e-01 8.260646483548530483e-01
-2.424177882555679786e-01 6.180291150245864618e-01 7.478459927814050667e-01
4.394429617561230496e-03 9.677532813612492735e-01 2.518616195510364753e-01
-5.717890386885065429e-02 9.792413775132526865e-01 1.944656718248853611e-01
-2.627168015496251785e-01 9.164016644759120922e-01 3.019732960533309529e-01
-3.849303172129104333e-01 8.561977265659863612e-01 3.446071733345150712e-01
-2.953865280593697684e-01 8.315152974430615185e-01 4.704562776275900693e-01
-4.425960406154450522e-01 7.699616599692966634e-01 4.596387570787047738e-01
-4.425960406154450522e-01 7.699616599692966634e-01 4.596387570787047738e-01
-4.409869789713893318e-01 5.377895656482351017e-01 7.185491406003977621e-01
-3.401128618045058949e-01 5.532927455756342372e-01 7.603883079904146802e-01
-2.539370718819384809e-01 6.904827790678594868e-01 6.773104866564172433e-01
-3.863084955382155294e-02 8.191855894392369164e-01 5.722260283470510522e-01
1.018189310771447087e-01 5.330268493793292039e-01 8.399495717690755869e-01
-1.575688781677691552e-01 9.570652401144291721e-01 2.433067504153157701e-01
-2.290825096239043068e-01 9.257551331124123095e-01 3.008299142379851077e-01
-2.290825096239043068e-01 9.257551331124123095e-01 3.008299142379851077e-01
-4.387382966093947845e-01 7.725003821283502603e-01 4.590771903502062767e-01
-4.886770135482300104e-01 4.427380656073422460e-01 7.517830682396695607e-01
-3.255844356893234370e-01 6.758160135375338440e-01 6.612620441875525223e-01
-1.148677369517828173e-01 8.607426072097558167e-01 4.959108459605698349e-01
-1.907482666518340308e-01 6.907825999563076413e-01 6.974485632409925806e-01
1.093447669372289363e-02 9.348547301985885571e-01 3.548620445254161426e-01
-2.104792318335646853e-02 8.114354758644763965e-01 5.840628848319828759e-01
-2.104792318335646853e-02 8.114354758644763965e-01 5.840628848319828759e-01
-4.107092840970010261e-01 7.519183041151670244e-01 5.156905543958508753e-01
-4.131203706058683145e-01 5.158115364730960772e-01 7.505131699255741529e-01
-4.131203706058683145e-01 5.158115364730960772e-01 7.505131699255741529e-01
-1.113075574026551467e-02 9.892790666620355777e-01 1.456126180691161842e-01
1.123030337140594886e-01 9.470661033936984552e-01 3.007554229291558023e-01
-7.325131800600370724e-02 9.538633862605793157e-01 2.911681383013677848e-01
-7.325131800600370724e-02 9.538633862605793157e-01 2.911681383013677848e-01
2.268626531070359539e-02 6.136375064657478839e-01 7.892618982471861777e-01
6.742186417278592248e-02 3.617037197862860154e-01 9.298519835566466663e-01
-1.556755662412651897e-01 9.562283184867693686e-01 2.477751420127267123e-01
-3.744728356878415654e-01 8.132752436219570225e-01 4.453689183626909909e-01
-1.690443133628188599e-01 8.179622126601544529e-01 5.498743845459590496e-01
-1.690443133628188599e-01 8.179622126601544529e-01 5.498743845459590496e-01
-1.188303759243399260e-01 9.293833358420573454e-01 3.494652440755302569e-01
-3.946668922392707057e-02 9.359481561032293451e-01 3.499191757087155019e-01
-1.464696298057533153e-01 9.232804475605359551e-01 3.551054247642265738e-01
-7.648390565237868366e-02 9.025450032470549999e-01 4.237484268878548566e-01
-4.294523379361511739e-01 8.442788323784555793e-01 3.205681559962647031e-01
-1.323647561233331216e-01 9.504772634695344280e-01 2.811984049810306585e-01
-2.187853074252656960e-01 9.437231400177010787e-01 2.480314985036430053e-01
-1.248834706932369365e-01 9.614015893434912918e-01 2.451756569388987284e-01
-2.447130691999568342e-01 9.040334556857220205e-01 3.504839864582525166e-01
-2.848440622269290956e-01 8.341215446590837246e-01 4.723400353025407061e-01
-3.644073897849025578e-01 7.631660338691915735e-01 5.336523765697314126e-01
-3.644073897849025578e-01 7.631660338691915735e-01 5.336523765697314126e-01
-3.030539074664294064e-01 7.841994809424124302e-01 5.414697620910882137e-01
-2.787844513757414266e-01 7.999179535844603839e-01 5.314230868191333057e-01
-2.743418937646433520e-01 7.908152732199039692e-01 5.471267942330715339e-01
-1.581889817949863886e-01 8.160153518964203823e-01 5.559633005046524801e-01
-5.786839287486326283e-02 8.757664460329178668e-01 4.792539839260105961e-01
-1.013162401113236744e-01 9.104539246958761600e-01 4.010095640948985185e-01
-2.594835550735343291e-02 9.287071318236878037e-01 3.699050501767762178e-01
1.020170571359417799e-01 3.631520301196978218e-01 9.261280273662299001e-01
-3.854826491719355319e-01 8.613641561170564120e-01 3.308397160924570479e-01
-2.878406976168939591e-01 8.520456030858065688e-01 4.372253687259738397e-01
-2.715100971621894343e-01 8.423632921434298648e-01 4.655172941881548510e-01
-2.187097994350394592e-01 7.824632809355601681e-01 5.830242170087306386e-01
2.360405665516197848e-02 9.942547355178833479e-01 1.044048342256421597e-01
-1.551054060946111812e-01 9.291887465967247905e-01 3.354855976017948049e-01
-4.150893583306496798e-02 9.255393864535955695e-01 3.763693031705804271e-01
-4.150893583306496798e-02 9.255393864535955695e-01 3.763693031705804271e-01
3.430668528580388659e-03 7.606823794219707002e-01 6.491152040665632006e-01
3.430668528580388659e-03 7.606823794219707002e-01 6.491152040665632006e-01
4.158042129617482013e-02 6.614873673194966441e-01 7.488027319939171145e-01
-5.983600229877588106e-01 6.975060187823105551e-01 3.942722874518825305e-01
-1.357333600935605178e-01 9.617845994771979656e-01 2.377957929951620974e-01
-8.666473994420377525e-02 9.699087011836405869e-01 2.275221620384850207e-01
-8.666473994420377525e-02 9.699087011836405869e-01 2.275221620384850207e-01
-1.023967905217055135e-01 9.659179896544435318e-01 2.377337471895233645e-01
-2.446974055032739848e-01 9.048650107191394953e-01 3.483424925503888492e-01
-3.104519533841358925e-01 8.707037777315900229e-01 3.814374340359270033e-01
-1.752430042978141422e-01 9.340486626509071355e-01 3.111960559594678655e-01
-2.046534778410070698e-01 8.217296356185099793e-01 5.318621625513995088e-01
-1.543337566858139775e-01 9.036971398583730775e-01 3.993902489533766587e-01
-1.352392593378785868e-01 9.013374732609943374e-01 4.114621513933309216e-01
-2.640154962541555253e-02 9.292227827205087332e-01 3.685756072375530046e-01
-7.704508477880619988e-02 7.164244653104696603e-01 6.933974620778722286e-01
-1.130321797658298266e-01 5.726164863577005715e-01 8.119938952287428791e-01
-1.130321797658298266e-01 5.726164863577005715e-01 8.119938952287428791e-01
2.179967746272204465e-02 2.752437573366934287e-01 9.611272798696853803e-01
-1.049649187326196498e-01 9.716959078655690307e-01 2.116351305260123217e-01
-2.120713141444022579e-02 9.562231073762692546e-01 2.918691941552630231e-01
-3.597753591068402756e-01 8.580595883135625490e-01 3.664634141121096422e-01
-4.708443934119443258e-02 9.712609309991137030e-01 2.333136504507622166e-01
-4.708443934119443258e-02 9.712609309991137030e-01 2.333136504507622166e-01
-1.585149994178079447e-01 9.019537255087856087e-01 4.016870324025840766e-01
-1.670910243962872230e-02 9.350870361728086388e-01 3.540240679349560549e-01
-3.111543983954756162e-02 3.386679540739636618e-01 9.403913261440404181e-01
6.231802508595121748e-02 1.787143019007757239e-02 9.978963251422203751e-01
-5.752458995427213173e-01 7.109765039937535613e-01 4.044806124254972102e-01
-5.752458995427213173e-01 7.109765039937535613e-01 4.044806124254972102e-01
-1.882582151814246041e-01 9.470972567803689346e-01 2.599338966272086715e-01
-2.759553155129240709e-01 8.929565526868180614e-01 3.556364138468334768e-01
-2.759553155129240709e-01 8.929565526868180614e-01 3.556364138468334768e-01
-1.106024818738074733e-01 9.764637879169287826e-01 1.851636084393402382e-01
-1.106024818738074733e-01 9.764637879169287826e-01 1.851636084393402382e-01
-6.935130557942890961e-02 9.881216701958867032e-01 1.371348289229249728e-01
-6.092330798077970344e-02 9.356536483881277011e-01 3.476213468742462842e-01
-1.013939787890454636e-01 7.744030867596961576e-01 6.245151081298041529e-01
-1.013939787890454636e-01 7.744030867596961576e-01 6.245151081298041529e-01
2.434132188319314272e-02 6.844666457407312388e-01 7.286377089592681600e-01
3.624373142934954328e-02 2.966817890400626490e-01 9.542883777894735076e-01
-4.049467708601998117e-01 8.283159998507280131e-01 3.871830538145820122e-01
-4.437387717711319679e-01 8.117848194526251504e-01 3.796067825175362676e-01
-1.317702720521844173e-01 9.591845710495275901e-01 2.502030256887933235e-01
-1.317702720521844173e-01 9.591845710495275901e-01 2.502030256887933235e-01
-2.272277297055063650e-01 9.101362263066438141e-01 3.464384626700429681e-01
6.542107164318526798e-03 9.847574443131142941e-01 1.738101743390028098e-01
-7.297477923501118069e-02 9.775455215363395567e-01 1.976851914530960985e-01
-1.883227803099005865e-02 9.824220177464511039e-01 1.857210929085744144e-01
-5.936469018033965067e-02 9.357329751011644881e-01 3.476774839820889196e-01
-5.487892556537486699e-02 9.565148591522851795e-01 2.864744801019351583e-01
-9.445157704281945121e-02 7.719752142689465524e-01 6.285961884616692030e-01
-4.400442914430204300e-01 8.152641699931516550e-01 3.764377168852605648e-01
-2.572793826537274620e-01 9.096400704374753010e-01 3.261322761025378658e-01
-1.424060214519714540e-01 9.315919464286935847e-01 3.344502510141361129e-01
-7.913539089675292182e-02 9.641441031499415892e-01 2.533056222605668539e-01
-7.913539089675292182e-02 9.641441031499415892e-01 2.533056222605668539e-01
-5.695079564227585600e-02 9.751927168336781415e-01 2.139059884862069549e-01
-8.347274051155016694e-02 9.699352278364083979e-01 2.285999899243781053e-01
-1.268145259960672400e-01 9.242233472144640860e-01 3.601795114385118457e-01
-1.268145259960672400e-01 9.242233472144640860e-01 3.601795114385118457e-01
-1.245617015747262218e-01 9.259349881338722055e-01 3.565512308916276574e-01
-1.245617015747262218e-01 9.259349881338722055e-01 3.565512308916276574e-01
-5.204445401125022685e-02 9.392576880855472155e-01 3.392438211358662636e-01
-1.720770124700319453e-02 9.889425580378360392e-01 1.472973588336700945e-01
1.212572735172097547e-03 9.554449610054873698e-01 2.951668276696838289e-01
-1.126368544209764705e-01 7.932824045014316150e-01 5.983443538085529978e-01
-2.869005706226678276e-01 5.650549595573398642e-01 7.735638016712265141e-01
-7.170201270196250309e-01 5.230847734092346490e-01 4.607216700744282689e-01
-4.491323660711445398e-01 8.108790053605199333e-01 3.751737682899342619e-01
-1.925358028331891069e-01 9.430183416355530923e-01 2.713786505352080991e-01
-1.925358028331891069e-01 9.430183416355530923e-01 2.713786505352080991e-01
-1.546414474863291033e-01 9.392827283693897522e-01 3.063233241303837118e-01
-9.530075324550575655e-02 5.361123776571845578e-01 8.387498345475840056e-01
-8.076849214927553922e-01 3.076707447066838186e-01 5.029749302349731943e-01
-5.275184025999624104e-01 7.116355701079879470e-01 4.640033946809689058e-01
-1.269245773642518338e-01 9.502634918016311660e-01 2.844107026992430121e-01
-2.405282030881646105e-01 9.053678881072553253e-01 3.499359522875394313e-01
-2.432183306267717282e-01 9.201979594198506085e-01 3.067255436488283138e-01
-1.486606105122796617e-01 9.399608697907494426e-01 3.072028420186469488e-01
-1.451894361871506334e-01 9.160868950485238082e-01 3.737710908296842383e-01
-1.467039279756985615e-01 9.153034676259000912e-01 3.750966804285315592e-01
-1.472246420090209673e-01 9.152482910056307652e-01 3.750272931355635997e-01
-5.360099397324840503e-02 9.676715803667614857e-01 2.464521170442124931e-01
-1.658165844619204354e-01 8.263551217642500779e-01 5.381840512792759323e-01
-1.658165844619204354e-01 8.263551217642500779e-01 5.381840512792759323e-01
-1.476015879992023383e-01 7.616203431684783753e-01 6.309898763784115294e-01
-1.562267978868297769e-01 7.652595945062904415e-01 6.244765332965647175e-01
-1.562267978868297769e-01 7.652595945062904415e-01 6.244765332965647175e-01
-1.731860548022277346e-01 6.393334629380982292e-01 7.491724191330185745e-01
2.477291016595933315e-01 7.258044552908918812e-01 6.417461997322794209e-01
-1.226400170431597193e-02 2.145669930803772441e-01 9.766322745755650070e-01
-3.740669230786299732e-02 2.142360993200314034e-01 9.760653836289464591e-01
-7.404485857684136585e-01 3.741001942075914966e-01 5.583770558747900292e-01
-4.265881057117585362e-01 7.729827843177838886e-01 4.695957870483718488e-01
-4.332359254321321296e-01 7.696570133504663236e-01 4.689719764713071171e-01
-1.317870472367376755e-01 9.636401191165718805e-01 2.324433156914199328e-01
-1.613182307978166252e-01 9.099833298362115519e-01 3.819774441409636290e-01
-5.412514920172951938e-02 9.668272120629461952e-01 2.496309480783210910e-01
-1.084368999085574548e-01 8.681036649149872497e-01 4.843939158364697350e-01
-1.158694972911437915e-01 7.741037620118920159e-01 6.223645436852374146e-01
-8.182996662458150716e-01 3.752920477213232409e-01 4.353636814654202603e-01
-8.182996662458150716e-01 3.752920477213232409e-01 4.353636814654202603e-01
-4.381482790925845250e-01 7.897059710651120890e-01 4.294072248953376136e-01
-3.329157526114364662e-01 8.476326028366366616e-01 4.131417096730242156e-01
-1.529107622587596305e-01 9.410401593453330271e-01 3.017643406447411136e-01
-1.979588125536515530e-01 9.079028067265305646e-01 3.694926278972778810e-01
-7.011290472441325528e-02 9.604811705580098558e-01 2.693698230957221607e-01
-7.011290472441325528e-02 9.604811705580098558e-01 2.693698230957221607e-01
-6.628147349856698678e-02 9.657804308793634940e-01 2.507487300094053406e-01
-1.386196426597755549e-01 8.814740247912473681e-01 4.514289958423091109e-01
-3.266826992820403563e-01 8.344474232874329322e-01 4.438196838342836625e-01
-7.630785606644287233e-02 9.638499458446323498e-01 2.552849251284578513e-01
-1.194686041284713507e-01 9.560811669298594495e-01 2.676491264129829961e-01
-8.067621682635542357e-02 9.636817026579181933e-01 2.545759690169566714e-01
-8.110932266553702585e-02 9.653635222981207242e-01 2.479809419953545591e-01
-5.815905077334004858e-02 1.110736871767201706e-01 9.921089460488258238e-01
-1.402515953093297907e-01 9.018184352783553681e-02 9.860003677033335467e-01
-7.339474660226019687e-01 4.881336580831581173e-01 4.722781478804157773e-01
-5.872575970162599024e-01 6.132442492741636553e-01 5.282613041657089337e-01
-3.337497822412763271e-01 8.709139880853797866e-01 3.607213719910697391e-01
-2.248798594280463914e-01 8.796279109859831413e-01 4.191464983010800838e-01
-1.429180587541703795e-01 9.398855358389435199e-01 3.101444953609228672e-01
-2.247474889157653755e-01 8.317097759114219224e-01 5.076883048479947647e-01
-2.095276545773723242e-01 8.317523599197831352e-01 5.140877101576898367e-01
-1.526242384116875128e-01 8.308461551848199678e-01 5.351640012779769195e-01
-1.537795277300857688e-01 8.130069915976237960e-01 5.615794587273408300e-01
-2.009804529838952747e-01 7.171099062178240002e-01 6.673531598206842164e-01
-1.428743985218397239e-01 7.361895041997433831e-01 6.615224260394795275e-01
-1.200835947442963209e-01 2.021533944030889651e-01 9.719639578732313101e-01
-4.521678452947486826e-01 7.211462610125660699e-01 5.248736132719001857e-01
-4.521678452947486826e-01 7.211462610125660699e-01 5.248736132719001857e-01
-3.855481525456677661e-01 7.317863375464477294e-01 5.619976674764577407e-01
-4.229445567942312079e-01 7.738420171978167561e-01 4.714726230624054493e-01
-4.229445567942312079e-01 7.738420171978167561e-01 4.714726230624054493e-01
-3.246163977353626051e-01 8.343430650795012893e-01 4.455287241862862513e-01
-2.229636462262369612e-01 8.284451477684284804e-01 5.137760695093223084e-01
-2.176601453674169850e-01 7.098680677500581737e-01 6.698592296202493523e-01
-1.545596930718219908e-01 5.496198104915313021e-01 8.209929142159495541e-01
-6.433452982826817212e-01 5.373505535161698932e-01 5.453083621341535681e-01
-5.235039039722787502e-01 6.101353864943179772e-01 5.947087292727528673e-01
-2.807601239344729160e-01 8.137969625222071235e-01 5.088302827052736399e-01
-1.512556675024740449e-01 2.816883666817053822e-01 9.475090432943498175e-01
-5.790286523889746073e-01 6.222505901515882343e-01 5.268111832228015157e-01
-4.406207941430864694e-01 7.098700615651136747e-01 5.494886818327174849e-01
-2.277350322346169131e-01 8.511568165362586313e-01 4.729363897576077669e-01
-2.597166222444024508e-01 8.471352400221358048e-01 4.635829604748180066e-01
-2.796113797668491330e-01 6.810127973563765424e-01 6.767858199916143569e-01
-2.796113797668491330e-01 6.810127973563765424e-01 6.767858199916143569e-01
-2.796113797668491330e-01 6.810127973563765424e-01 6.767858199916143569e-01
-2.393209287195141588e-01 4.946285903358481062e-01 8.355046682689456494e-01
-2.393209287195141588e-01 4.946285903358481062e-01 8.355046682689456494e-01
-2.424275496684333009e-01 3.137730848905026515e-01 9.180279594653185660e-01
-1.920270692058187456e-01 4.616804119786752092e-03 9.813787697988699543e-01
-4.672977949469346859e-01 7.031130528432618654e-01 5.359709001048110766e-01
-3.234433748476167603e-01 7.803243499443819342e-01 5.352366692885135446e-01
-3.234433748476167603e-01 7.803243499443819342e-01 5.352366692885135446e-01
-3.449236835295062531e-01 7.717292752658702071e-01 5.342860453334448145e-01
-4.669636383021254500e-01 6.759594625334076623e-01 5.701085559042140538e-01
-3.222874203044961416e-01 7.680691777255589381e-01 5.533539165321382791e-01
-3.222874203044961416e-01 7.680691777255589381e-01 5.533539165321382791e-01
-2.658548551182463027e-01 4.911891549190213757e-01 8.294904520848891405e-01
-2.570579717059370828e-01 4.982915016906956374e-01 8.280258320398351524e-01
-1.964051880112993864e-01 2.203506238009174667e-01 9.554426224074330509e-01
-2.267300163438385197e-01 1.888231285973932805e-01 9.554785846869697785e-01
-5.998732092387664139e-01 5.070482848307945600e-01 6.189137013249365049e-01
-5.998732092387664139e-01 5.070482848307945600e-01 6.189137013249365049e-01
-4.635006503284265778e-01 6.946933317994489210e-01 5.500621073101712444e-01
-5.197172724116864151e-01 5.963632842194970252e-01 6.117554985383393262e-01
-2.792534429969843468e-01 7.647031627808478227e-01 5.807293581413789374e-01
-4.241061954227988706e-01 6.490623538237644263e-01 6.315473029415555883e-01
-3.265526329647931436e-01 6.775804883236529186e-01 6.589750069212345629e-01
-3.466642207027229583e-01 4.046233595737555588e-01 8.462291976597244858e-01
-1.359312582694779392e-01 5.716961148174175972e-02 9.890674034403840187e-01
-6.600209626155391085e-01 3.592285139605742583e-01 6.597933037442368365e-01
-6.176980970168671758e-01 4.177101361475406560e-01 6.663087145620595342e-01
-6.176980970168671758e-01 4.177101361475406560e-01 6.663087145620595342e-01
-2.175726005493166526e-01 6.277107938347326055e-01 7.474231216610690565e-01
-3.452405912491776641e-01 6.026192458317670697e-01 7.194852178516739638e-01
-3.508766712230094731e-01 2.935622926456191162e-01 8.892169262492184423e-01
-2.081429035111649617e-01 -1.022020828111955132e-01 9.727441934995014750e-01
-5.396327428905134393e-01 5.072480082951977831e-01 6.719344915101590487e-01
-5.274957396041758395e-01 4.967413520464553089e-01 6.891997343778529794e-01
-3.758089932291658886e-01 6.805491131020503515e-01 6.289837082660355572e-01
-2.564003808904837811e-01 8.662776473366567975e-02 9.626808791372474250e-01
-3.010585816749271060e-01 8.088129113884398591e-02 9.501694307562177366e-01
-6.719654352519953688e-01 2.574808919904463256e-01 6.943817711363111655e-01
-6.593160605751745562e-01 3.596136556928111738e-01 6.602880817543848035e-01
-4.774735991432026427e-01 5.131878192916933257e-01 7.132020921533198665e-01
-3.303252236853081447e-01 4.082463158855067498e-01 8.510112761668684467e-01
-5.205312921271220139e-01 3.853923534966071651e-01 7.619185703097247631e-01
-4.308286667880788512e-01 4.006772917406525303e-01 8.086064356391079455e-01
-4.445274265623235799e-01 4.594184591495394931e-01 7.689798738761247643e-01
-4.844230626190166311e-01 4.724689469989970525e-01 7.362794242164256708e-01
-4.838503598295960662e-01 3.394358418974938729e-01 8.066425097452465387e-01
-1.660748490110149911e-01 1.867311327506504248e-01 9.682719806891180170e-01
-4.741579088123796248e-01 2.122406794327033330e-01 8.544753779393619020e-01
-4.741579088123796248e-01 2.122406794327033330e-01 8.544753779393619020e-01
-4.240534056739705404e-01 1.291161780790972269e-01 8.963859222982887287e-01
-3.368934908624237612e-01 -1.084686423307366920e-01 9.352739328375707650e-01
