7.433425300674169067e-01 -2.951014956645631737e-01 6.002974181599560755e-01
6.676448344573231442e-01 3.817118417998064950e-01 -6.391763800800628337e-01
6.676448344573231442e-01 3.817118417998064950e-01 -6.391763800800628337e-01
5.520054259454837409e-01 3.491813861260011365e-01 -7.572069527611784423e-01
5.329147377504198646e-01 2.230072942271623115e-01 -8.162534097998495053e-01
6.754763378132123686e-01 1.523616438564538711e-01 -7.214690891062556233e-01
6.754763378132123686e-01 1.523616438564538711e-01 -7.214690891062556233e-01
5.933686095042101094e-01 1.107863714854557674e-01 -7.972703889823872236e-01
5.933686095042101094e-01 1.107863714854557674e-01 -7.972703889823872236e-01
2.653326832651181078e-01 2.442450039759985481e-01 -9.327073202372205829e-01
3.527907848038326355e-01 1.028870382876406891e-01 -9.300284509142144884e-01
5.132470701852541728e-01 1.397367957428586327e-01 -8.467886825305186438e-01
4.567549384651189426e-01 5.107588840572654387e-01 -7.283545074648074547e-01
-2.441222010933233044e-01 7.917425471594665698e-01 -5.599536498236178383e-01
-1.093920943108177973e-01 9.580758008044385488e-01 2.648096101262700230e-01
-3.107346205772207326e-01 -9.503496724955324826e-01 -1.671812077850903452e-02
-1.355684081159727605e-01 -9.884442230976688837e-01 6.781758286570523098e-02
-4.997873746477254353e-01 5.382860850841448830e-01 -6.785725243093172487e-01
-3.416854981076687392e-01 -9.381242495365285095e-01 -5.633749031009004093e-02
-2.536507479092730000e-01 -9.672573876426888706e-01 8.628101512360562830e-03
-3.834765371512697807e-01 -9.229229146659069238e-01 -3.404466241656679826e-02
-3.934502641357306985e-01 -9.184180337927133619e-01 -4.129412616644163869e-02
-4.808337850434952765e-01 -8.759412383466643748e-01 -3.906172198531147888e-02
-4.193581829711652276e-01 5.809537133161000177e-01 -6.975897772755542681e-01
-5.333799315676273078e-01 -8.438382677290162670e-01 -5.867560410431464646e-02
-4.082907439871562016e-01 5.476903490500392158e-01 -7.302971654962525649e-01
2.183993367335677893e-02 -9.519007514783052182e-01 3.056271856890043770e-01
9.593643396949912416e-01 -1.267284095359695649e-03 -2.821674285111858693e-01
5.923246601366773945e-01 -8.550317137832647019e-02 -8.011496144155709764e-01
4.193641333536267668e-01 -1.458860286133821793e-01 -8.960195256309859690e-01
3.334588934823918271e-01 4.487136706819448984e-01 -8.291328048633909154e-01
2.246296602696054578e-01 7.723697272516900636e-01 -5.941266869551575791e-01
4.067608554620880668e-01 -1.081852056320197764e-01 -9.071061502085121520e-01
-7.569630797732377347e-01 -3.643357431663773460e-01 5.424632357235081859e-01
-6.701354371743950544e-01 1.738213833805381525e-01 7.215986575117488977e-01
-4.959926781253571337e-01 -5.489695149197092450e-01 -6.727731675199709604e-01
-4.959926781253571337e-01 -5.489695149197092450e-01 -6.727731675199709604e-01
-4.758802942616349729e-01 -5.175306080617102511e-01 -7.111258786267985466e-01
-4.758802942616349729e-01 -5.175306080617102511e-01 -7.111258786267985466e-01
-4.758802942616349729e-01 -5.175306080617102511e-01 -7.111258786267985466e-01
-4.758802942616349729e-01 -5.175306080617102511e-01 -7.111258786267985466e-01
-6.393118195125181424e-01 -5.813165411807517113e-01 5.033403186525404749e-01
-7.811068893078263464e-01 -2.187017135948915725e-01 5.848432165516747050e-01
-7.811068893078263464e-01 -2.187017135948915725e-01 5.848432165516747050e-01
-6.594622652336773472e-01 -6.774750861167609939e-01 3.257867836852105792e-01
-6.259670137152965053e-01 6.872245029389585647e-02 -7.768156297127115639e-01
-5.821446819159711294e-01 3.259812554225305914e-01 -7.448783729107080198e-01
2.946287369696735155e-03 -6.443218079942097942e-01 -7.647488000211624115e-01
2.946287369696735155e-03 -6.443218079942097942e-01 -7.647488000211624115e-01
2.946287369696735155e-03 -6.443218079942097942e-01 -7.647488000211624115e-01
2.507629710916171872e-02 -6.187051686913381809e-01 -7.852229578647811348e-01
2.507629710916171872e-02 -6.187051686913381809e-01 -7.852229578647811348e-01
-7.411035288728047565e-02 -7.188175168175781060e-01 6.912373203980912706e-01
-3.715465182898201185e-02 -6.823530733835642126e-01 7.300779513801736176e-01
4.304106813869372494e-02 -7.760955370172728518e-01 -6.291448035828882679e-01
4.476303222525691849e-02 -7.737344280185145529e-01 -6.319266617613653603e-01
-7.209528195575126176e-03 -7.118892848756694924e-01 -7.022547036385053953e-01
-2.521874255157380840e-01 -7.529650424389775498e-01 6.078199957854404367e-01
-5.537806185115351498e-01 1.642884426880141524e-01 -8.162942693417175599e-01
-5.157752568564131224e-01 -3.220516610322120554e-01 -7.938882868773756707e-01
-4.674999764413286796e-01 -3.775495585678672605e-01 -7.993122686738679539e-01
-4.674999764413286796e-01 -3.775495585678672605e-01 -7.993122686738679539e-01
-4.674999764413286796e-01 -3.775495585678672605e-01 -7.993122686738679539e-01
-4.674999764413286796e-01 -3.775495585678672605e-01 -7.993122686738679539e-01
-4.674999764413286796e-01 -3.775495585678672605e-01 -7.993122686738679539e-01
-4.908742859195839303e-01 -3.281813355869151461e-01 -8.070560367132675328e-01
-6.898017936164606567e-01 1.316004015180564646e-01 -7.119373707313025879e-01
-1.253536666447844505e-01 -9.338435440991854630e-01 3.349965573001921770e-01
-2.538209953576888722e-01 7.207496793004699587e-01 6.450541078885567714e-01
-3.201522506860552397e-01 -8.413086242298837281e-01 4.355483155484284885e-01
-2.310018765615091951e-01 -8.861139760104701502e-01 4.017961604395656194e-01
-8.954682666710761518e-01 -2.301939828966546864e-01 3.809820384523039949e-01
-6.272508360806123839e-01 5.825972524649715156e-01 -5.168528127585636511e-01
-3.773353599686051774e-01 4.993325436851794308e-01 -7.799263022454437921e-01
-3.982944069402756804e-01 4.398909259769878677e-01 -8.048959800143135057e-01
-3.982944069402756804e-01 4.398909259769878677e-01 -8.048959800143135057e-01
-3.555716630220229768e-01 3.816091547762416325e-01 -8.531959009786178605e-01
-3.555716630220229768e-01 3.816091547762416325e-01 -8.531959009786178605e-01
-9.215601178342325284e-01 -3.356464612209468790e-01 1.951112561776248977e-01
-9.215601178342325284e-01 -3.356464612209468790e-01 1.951112561776248977e-01
-9.215601178342325284e-01 -3.356464612209468790e-01 1.951112561776248977e-01
-3.495612741945213764e-01 3.286385194516032171e-01 -8.773845446075290155e-01
-3.495612741945213764e-01 3.286385194516032171e-01 -8.773845446075290155e-01
-3.495612741945213764e-01 3.286385194516032171e-01 -8.773845446075290155e-01
-3.495612741945213764e-01 3.286385194516032171e-01 -8.773845446075290155e-01
-3.495612741945213764e-01 3.286385194516032171e-01 -8.773845446075290155e-01
-2.156000229773873400e-01 4.775670316636841384e-01 8.517313897938055822e-01
-5.578222972946488695e-02 4.131710460559268605e-01 9.089433588224627991e-01
-8.177386777033368581e-01 5.126283781001758633e-02 5.733023429636948665e-01
-8.839336993623485572e-01 -4.013359042847529645e-01 2.399806389347539370e-01
-7.423370044390420475e-02 3.776386146225327867e-01 9.229726076457409611e-01
-7.570985172409654407e-01 -6.434784085616865879e-01 1.128599703457823233e-01
-3.381928780938400769e-01 8.182155516424847175e-01 4.649181522128267852e-01
9.927197916793011057e-02 1.471591528990999764e-01 9.841185182030166567e-01
8.790698883771991268e-02 3.415726092810764669e-01 9.357352798213829370e-01
-6.852173809315925679e-01 -7.263878018952385496e-01 5.327196379947370108e-02
-6.292684146034699388e-01 -7.749712503601459135e-01 5.865853303371346139e-02
-6.751338349166974284e-01 7.190286702088951598e-01 1.649002012379047755e-01
-3.614662288595509865e-01 4.244718403479538216e-01 -8.301601183781812665e-01
-3.504658672981471046e-01 4.307617446761016766e-01 -8.316357346714717824e-01
-3.504658672981471046e-01 4.307617446761016766e-01 -8.316357346714717824e-01
-5.974915866978337542e-01 3.509801742781135658e-01 7.209831628332316056e-01
-3.338859563105351924e-01 9.359437257885397932e-01 1.119352953078969759e-01
-5.377543251111526201e-01 7.002884862699344515e-01 4.694851667752802937e-01
-8.696717014670495294e-01 4.387508242683282877e-01 2.262053179553244475e-01
-8.696717014670495294e-01 4.387508242683282877e-01 2.262053179553244475e-01
-1.342448982360524568e-01 9.787063922003412797e-01 -1.552807301753306723e-01
1.696054152421255234e-01 7.520259134568764159e-01 -6.369387950265682496e-01
-8.807963631712880659e-01 3.560117877789455987e-01 3.121752289767267818e-01
-8.841093675965430165e-01 3.517503966465849174e-01 3.076073545723689295e-01
1.548404518715759404e-01 9.038602625818116243e-01 -3.988245982756637442e-01
-3.535400436477924985e-02 1.337589314839339460e-01 -9.903830787244154443e-01
-5.851512770354598825e-01 3.984046864570482405e-01 -7.063084940681596535e-01
-7.039581870824543897e-01 6.016446621687411289e-01 -3.774474418027569667e-01
2.627094127967952719e-01 -2.001542840835277282e-01 -9.438866600344414381e-01
1.810777224658144113e-01 -9.310295662804464190e-01 -3.168513928298837268e-01
-3.720850019688166227e-02 -9.970197201603210324e-01 -6.758110035012650230e-02
9.167488955819838581e-02 -9.514084560099871357e-01 -2.939688154501843842e-01
-7.774964381235698052e-02 -9.790249911984059139e-01 -1.883216915175006945e-01
-7.015089614394725004e-01 5.228309194722809972e-01 -4.842860793620668569e-01
-7.015089614394725004e-01 5.228309194722809972e-01 -4.842860793620668569e-01
-6.987126066456883500e-01 6.121202376270764578e-01 -3.702830106847451730e-01
2.033109869954962401e-01 -8.934309048332695902e-01 -4.005569383442536546e-01
-5.949791627158246277e-01 -8.024199559363834888e-01 -4.606528246986817815e-02
-2.518134508052765064e-01 -9.539396944314368909e-01 1.630614773071654144e-01
-2.419733570831403835e-01 -9.600757447956265178e-01 1.403690091047097577e-01
-2.806246164288914158e-01 -9.491195942040573374e-01 -1.429049353663588706e-01
-4.145047019225906459e-01 4.110604444156605308e-01 8.119206630705145811e-01
-4.322813041092203878e-01 3.942985606177821234e-01 8.109633279084675905e-01
-4.183652917904882029e-01 4.049861216526862706e-01 -8.129924500841168022e-01
-6.480112377474483987e-01 9.908753201280304235e-02 -7.551576635065234688e-01
-6.283628556338799465e-01 9.719132538157530810e-02 -7.718250889484019606e-01
-6.283628556338799465e-01 9.719132538157530810e-02 -7.718250889484019606e-01
-6.463921803605905403e-01 9.287110688057338692e-02 -7.573322300519496064e-01
-6.463921803605905403e-01 9.287110688057338692e-02 -7.573322300519496064e-01
-6.195370068273465813e-01 1.019165291798547895e-01 -7.783231451340403284e-01
-6.751929681878365841e-01 1.132178576207186066e-01 7.289006601900384075e-01
-6.751929681878365841e-01 1.132178576207186066e-01 7.289006601900384075e-01
-6.751929681878365841e-01 1.132178576207186066e-01 7.289006601900384075e-01
-6.751929681878365841e-01 1.132178576207186066e-01 7.289006601900384075e-01
-7.363189907518021826e-01 -2.393019684327166163e-01 6.329051364639685096e-01
-7.252760676850519284e-01 -8.939754734916387224e-02 6.826292582150738086e-01
-7.252760676850519284e-01 -8.939754734916387224e-02 6.826292582150738086e-01
-6.948762990758408087e-01 1.151208844550596633e-01 7.098549928999213776e-01
-6.948762990758408087e-01 1.151208844550596633e-01 7.098549928999213776e-01
-6.948762990758408087e-01 1.151208844550596633e-01 7.098549928999213776e-01
-6.948762990758408087e-01 1.151208844550596633e-01 7.098549928999213776e-01
-6.938535866072456093e-01 1.496512766982763254e-01 7.043945596999152681e-01
-6.684686250550883058e-01 1.922051251170522335e-01 7.184753908072969431e-01
-8.611427825383299872e-01 -4.318838707273021660e-01 -2.681593374987068512e-01
-8.611427825383299872e-01 -4.318838707273021660e-01 -2.681593374987068512e-01
-8.611427825383299872e-01 -4.318838707273021660e-01 -2.681593374987068512e-01
6.675593349967164913e-01 -4.614844021660857026e-02 7.431250606219089727e-01
1.264865274270874640e-01 -1.571832849146445610e-01 9.794358444139558140e-01
9.449000536002004000e-03 -1.266336720701192464e-01 9.919045465602566169e-01
2.609592867925958903e-01 3.784398845654886601e-01 8.880785463047508044e-01
7.368956967985670348e-01 1.483058368088564227e-01 6.595378008940649961e-01
3.963807800073930743e-01 -1.183547540547717769e-01 9.104254112410117283e-01
1.948166950467209724e-01 -3.535001986605769697e-01 9.149229830308153177e-01
3.317978711656998092e-01 -6.250376748026670315e-02 9.412775636020878078e-01
2.129100110582130834e-01 1.457236148710887025e-01 9.661438584704113985e-01
-4.852779641307494174e-01 -1.631266017755613473e-01 8.590081543980082612e-01
3.434794086427436222e-01 2.500704483405717937e-01 9.052550285445404299e-01
4.846220357497915687e-01 1.123433705267597033e-01 8.674793654977707158e-01
3.749752015531694904e-01 3.153408283651752964e-01 8.717532679526501793e-01
3.930669737097406968e-01 -2.055058789920403972e-01 8.962509067657197237e-01
4.049471722854635081e-01 3.523071393494703885e-01 8.437401657035180635e-01
7.710198684384585999e-01 -1.838945030239208522e-01 6.096812070506415493e-01
5.191111407552354562e-01 6.854480543429664063e-02 8.519537740932736636e-01
3.356693505667511235e-01 1.283937658373554280e-01 9.331886883070314997e-01
3.356693505667511235e-01 1.283937658373554280e-01 9.331886883070314997e-01
3.647089261678090888e-01 1.173490793842860980e-01 9.236972408431153303e-01
4.019016052285279139e-01 4.213583683578697725e-02 9.147128899107525024e-01
4.019016052285279139e-01 4.213583683578697725e-02 9.147128899107525024e-01
5.419366854123529587e-01 -3.575876596149883679e-02 8.396582278886947082e-01
5.817542259705927865e-01 -7.561751747442241323e-02 8.098419670629337652e-01
2.689947258779966099e-01 4.489778549406836516e-02 9.620946036162711934e-01
3.319899259844830142e-01 4.102481953044963547e-01 8.493992625934057017e-01
6.215059927185296873e-01 1.220688694580410877e-01 7.738407408014846833e-01
1.482900263047745582e-01 3.094513693969532797e-01 9.392815967945287170e-01
1.357913540463038804e-01 3.830732223425152294e-01 9.136824472924897078e-01
3.283834484978166990e-01 9.043458101796331139e-02 9.402052421193933807e-01
7.227158560400404053e-01 1.011826035651733763e-01 6.836986705882091009e-01
4.136055477498808419e-01 -3.230812659462753977e-01 8.512044093313152482e-01
3.968733446950281074e-01 2.199848607057642846e-01 8.911218824217295165e-01
5.430929473247010364e-01 3.433822812205254427e-01 7.662497370374476979e-01
7.844840508484567376e-01 2.962445706158030601e-01 5.448154993619899189e-01
5.232788566536743513e-01 -8.966248260243718515e-02 8.474313408133964387e-01
2.999051453465372830e-01 -8.982786924436268750e-02 9.497304131708586006e-01
3.054906488103975026e-01 -2.430547735458792047e-01 9.206518563202724659e-01
2.911623895385134220e-01 -2.203837208467704645e-01 9.309433272245715152e-01
2.980417493300181464e-01 -6.796866552693263397e-02 9.521299155907193557e-01
3.007194431070492890e-01 -3.983454422593390998e-01 8.665383575864358257e-01
-5.518042263286024873e-01 -2.396394197018598682e-01 7.988022560877305889e-01
4.917852352082370260e-01 6.109978647856182388e-01 6.203457839452077849e-01
-9.218547885591827917e-01 -1.518091658125767240e-01 3.565637754817418958e-01
-7.686293828893654700e-02 -9.219891025693970343e-01 3.795104523736717583e-01
-9.508266689335644894e-01 7.310207733949967979e-02 3.009729754203049890e-01
3.982921702239304862e-01 5.971936793805133759e-01 6.962205515828127078e-01
3.982921702239304862e-01 5.971936793805133759e-01 6.962205515828127078e-01
4.111198427836070257e-01 5.725010770258467385e-01 7.093821196462649636e-01
-9.593637286981021584e-01 -9.658901060350917611e-02 2.651260060595894696e-01
-1.717019059693715710e-01 -3.218471334112937843e-01 9.310923038031289067e-01
-1.796176875180128252e-01 -8.822732184555897028e-01 4.351223440903682071e-01
-7.738958529636465189e-02 -8.907557678385048527e-01 4.478448550001353778e-01
-1.891531168493490803e-02 -8.920023554267167976e-01 4.516348180743497975e-01
-1.891531168493490803e-02 -8.920023554267167976e-01 4.516348180743497975e-01
3.188314346425505930e-01 6.158787974639616802e-01 7.204441845959460577e-01
-9.687899432447194537e-01 3.389903491801304208e-02 2.455542736331835230e-01
-9.687899432447194537e-01 3.389903491801304208e-02 2.455542736331835230e-01
-9.317025783859665677e-02 1.192810078876666152e-01 9.884793089445989001e-01
-9.423290588599071704e-02 1.372775879859920445e-01 9.860400718454752633e-01
-8.933408512676902502e-01 1.652006011027668808e-01 -4.179125325371360611e-01
4.027320530752350088e-03 3.399288443361478951e-01 9.404425349151502855e-01
-1.370795779137844450e-01 5.613458668527767648e-01 8.161495004509181639e-01
-5.655320988974812252e-02 3.440477627989977916e-01 9.372474973901879780e-01
-3.847708125945270563e-01 -1.802491194920047002e-01 9.052412256949547986e-01
-3.612746731260767508e-01 -2.184154970979952370e-01 9.065182188930799301e-01
-3.506643243784927644e-01 -2.028639875991828934e-01 9.142651333959607163e-01
-3.525082336895884461e-01 -1.797705308530621049e-01 9.183792797193623958e-01
-9.105479934454244750e-01 3.545779788736521110e-01 -2.125483675081672463e-01
-8.051618518435039729e-01 5.009199746898752581e-01 -3.174800329038567348e-01
-2.332386349743069964e-01 -1.757754076723032077e-01 9.564009332978284927e-01
-8.505527056630547422e-01 4.698991949163503490e-01 2.361246312992842655e-01
-1.831549860784067729e-01 -2.740854788609282111e-01 9.441034908060631503e-01
-2.073573011246360731e-01 -2.349010059600672717e-01 9.496443897950724855e-01
-8.141662718765150242e-01 5.782153377170621278e-01 5.291790781427697932e-02
-8.574777911586395351e-01 5.012179569034889148e-01 1.162428378318107886e-01
-2.759286531495789285e-01 -9.549597248315012665e-01 -1.091572366854473702e-01
-3.419507467374003906e-01 -9.378342081329399393e-01 5.947003330582507907e-02
-3.773669377832419292e-01 3.961377936340493844e-01 8.370597605445181388e-01
-7.568996871631525902e-01 6.402421979361747617e-01 -1.311212856639908386e-01
1.216382497816366204e-01 -9.252222735587124491e-01 -3.593993331948561742e-01
7.115699311214528089e-02 -8.825917164722421049e-01 -4.647241594169808088e-01
-2.027903872467529400e-01 -9.118017168990699695e-01 -3.570625826101360700e-01
-7.783651011028834832e-01 -2.602688764960005563e-01 -5.713211717699665515e-01
1.745666047185699676e-01 -8.576581555725489858e-01 -4.836827355787303162e-01
-9.138803294462477522e-01 -1.235983952917055484e-01 3.867120118803307194e-01
4.797601336025969498e-02 -8.870494188513670109e-01 -4.591749455899224452e-01
-1.845846752115245723e-02 -9.470835840961725483e-01 -3.204558779493965615e-01
-1.462955964940858000e-01 -9.606160487691681737e-01 2.362507254878823126e-01
-1.462955964940858000e-01 -9.606160487691681737e-01 2.362507254878823126e-01
-2.177495795109483101e-01 -9.455348189339989329e-01 2.419690616716420883e-01
-8.994751783705183801e-01 -2.086498112670704674e-01 -3.839396563960800757e-01
2.053021847210796946e-01 -8.255270063035782258e-01 5.256958957536224109e-01
6.403910501364385999e-01 -7.092141367688248321e-01 -2.948128408200697548e-01
3.453881216569583135e-01 -8.429138675583009999e-01 4.125569746061569232e-01
3.693940065950218066e-01 -8.554385821034568016e-01 3.630053720546081442e-01
3.367380958684113579e-01 -8.833603105092269203e-01 3.260092277957157836e-01
3.194590305290683219e-01 -8.824919154674860655e-01 3.451868290476265422e-01
-4.602975212629321633e-01 -6.688405542991568975e-01 5.837623701849897762e-01
2.525356654790435473e-01 -9.601283240914335604e-01 -1.199138813417008897e-01
2.570538224549189232e-01 -9.537877056123648112e-01 -1.556031650835412172e-01
3.156919855928941865e-01 -9.417507051898974524e-01 1.159490384037169253e-01
3.156919855928941865e-01 -9.417507051898974524e-01 1.159490384037169253e-01
3.156919855928941865e-01 -9.417507051898974524e-01 1.159490384037169253e-01
2.292869399230202943e-01 -9.636550289853220708e-01 1.371002709407798392e-01
2.292869399230202943e-01 -9.636550289853220708e-01 1.371002709407798392e-01
1.134826767697441063e-01 -9.285861538171218399e-01 -3.533403982172128033e-01
1.969047675924759377e-01 -9.684507599014759993e-01 -1.527469742600703617e-01
1.969047675924759377e-01 -9.684507599014759993e-01 -1.527469742600703617e-01
1.414921079513821109e-02 -9.298476207823045403e-01 -3.676726831835105958e-01
3.902354012994416893e-02 -9.380679841995558377e-01 -3.442464529018541830e-01
3.052052440418839829e-01 -5.450078642658432448e-01 -7.809072844440103633e-01
7.653484983825808996e-01 -5.176962052182784157e-01 3.824033408929931044e-01
7.653484983825808996e-01 -5.176962052182784157e-01 3.824033408929931044e-01
-1.941536695322823233e-02 -8.629026175547476196e-01 5.049971446882016712e-01
3.058145151345806889e-01 -6.578196996359804150e-01 -6.882955216357504735e-01
3.058145151345806889e-01 -6.578196996359804150e-01 -6.882955216357504735e-01
1.419379220586842183e-01 -9.420628036461375920e-01 3.039264718119196740e-01
4.761037390032858974e-01 -7.765511848962691754e-01 -4.126663142822434294e-01
2.521743153957290914e-02 -9.356731752970883775e-01 3.519656093654759399e-01
1.989354372120667458e-01 -9.189632037715007584e-01 3.404868895203796431e-01
1.989354372120667458e-01 -9.189632037715007584e-01 3.404868895203796431e-01
1.989354372120667458e-01 -9.189632037715007584e-01 3.404868895203796431e-01
4.059276020474142377e-02 -7.965989330455004458e-01 6.031437371719369223e-01
6.093982343615450548e-01 -7.893583804326790299e-01 -7.447911920618781323e-02
4.777876162327038267e-02 -8.189981232039167391e-01 5.718035188123703483e-01
2.616996198122877038e-02 -7.974980555596915544e-01 6.027536681501093341e-01
4.611824731204640371e-02 -7.990869095244287346e-01 5.994440910473320949e-01
-4.164657804771961305e-03 -7.584220832905311793e-01 6.517504117395090946e-01
-1.753681990739838423e-02 -7.856796569422405119e-01 6.183849420988991596e-01
1.611329805824563144e-01 -8.804581921010241619e-01 4.459030550812695393e-01
1.894460860465263519e-01 -7.121917207654693271e-01 6.759387053237680965e-01
2.284214439054084722e-01 -8.300898473854865234e-01 5.086988197663800948e-01
2.529288662970024526e-01 -8.297072477253435441e-01 4.976071459150769316e-01
2.487633781462234572e-01 -8.201954177968067139e-01 5.151662433801351693e-01
1.923637619484104555e-01 -8.068787796984706606e-01 5.585184132697528225e-01
-7.644747949559037650e-03 -7.229331844855658717e-01 6.908756534994893173e-01
-7.644747949559037650e-03 -7.229331844855658717e-01 6.908756534994893173e-01
-7.644747949559037650e-03 -7.229331844855658717e-01 6.908756534994893173e-01
-7.644747949559037650e-03 -7.229331844855658717e-01 6.908756534994893173e-01
8.466745072676261363e-02 -6.159971713979123242e-01 -7.831851043126407674e-01
-1.811662247333498399e-01 -7.222052196173848193e-01 6.675315870977718280e-01
5.207290157249146872e-02 -7.016183933800723693e-01 7.106476222380453400e-01
5.977263339379234458e-02 -6.496946889831497485e-01 7.578417007556785823e-01
5.150319861147414358e-01 -7.324498113389846798e-01 -4.452632110877681737e-01
4.659386721581170177e-01 -7.462646947779389972e-01 -4.753842226194723297e-01
2.420554393202661581e-01 -7.197231162847979036e-01 -6.506979331308593295e-01
3.384266962399071210e-01 -7.417829053681984641e-01 5.789866082869757902e-01
3.983775861370292826e-01 -7.076941303441971476e-01 5.834932019655451052e-01
3.983775861370292826e-01 -7.076941303441971476e-01 5.834932019655451052e-01
3.983775861370292826e-01 -7.076941303441971476e-01 5.834932019655451052e-01
3.661473173434504624e-01 -7.138785264291145349e-01 5.969200880399238018e-01
5.561557061676348779e-01 -6.919303839646990806e-01 -4.603511423290308491e-01
1.096384421828114630e-01 -9.375732742374269790e-01 3.300541886288325677e-01
1.390987564373072083e-01 -8.695824434529292324e-01 4.737909982218191374e-01
-3.306492744124405192e-01 -9.333095906763777538e-01 1.400152323214108041e-01
-2.250542062869224924e-01 -9.676107553161397146e-01 1.143679606755889783e-01
-2.250542062869224924e-01 -9.676107553161397146e-01 1.143679606755889783e-01
-6.622853721657379067e-02 -9.977840431009350475e-01 -6.386250175520435425e-03
-6.622853721657379067e-02 -9.977840431009350475e-01 -6.386250175520435425e-03
-6.622853721657379067e-02 -9.977840431009350475e-01 -6.386250175520435425e-03
-6.622853721657379067e-02 -9.977840431009350475e-01 -6.386250175520435425e-03
-6.622853721657379067e-02 -9.977840431009350475e-01 -6.386250175520435425e-03
5.244833936822354548e-02 -9.909424672047276728e-01 -1.236211890725973234e-01
5.244833936822354548e-02 -9.909424672047276728e-01 -1.236211890725973234e-01
-3.778004185722939612e-01 -9.190543746183130747e-01 -1.122760002028070359e-01
6.621199483917631357e-01 -7.493451243046967969e-01 -8.891491577200412097e-03
4.532801113532571313e-01 -7.151623834829862192e-01 5.320525405469962443e-01
4.532801113532571313e-01 -7.151623834829862192e-01 5.320525405469962443e-01
4.532801113532571313e-01 -7.151623834829862192e-01 5.320525405469962443e-01
4.532801113532571313e-01 -7.151623834829862192e-01 5.320525405469962443e-01
4.532801113532571313e-01 -7.151623834829862192e-01 5.320525405469962443e-01
4.532801113532571313e-01 -7.151623834829862192e-01 5.320525405469962443e-01
5.269063621003317044e-01 -7.578419542689397437e-01 3.847664979283257902e-01
-5.126058457989954853e-01 -8.580144337667539034e-01 -3.234931684925114459e-02
-3.605839458805971121e-01 -9.257796526021458972e-01 -1.136276938119775703e-01
7.200306694786070549e-01 -6.126975885408008082e-01 3.258182008520649764e-01
7.842884368254138261e-01 -4.661353931459252253e-01 4.094013228100792379e-01
4.206438078062625929e-01 -8.107425861729163907e-01 4.071305023206923113e-01
3.896129510857304634e-01 8.425927995051656350e-01 3.718052212762963382e-01
2.564187273148054724e-01 7.903088282277286325e-01 -5.564722745182998365e-01
8.628779955533292245e-01 4.060935511853254187e-01 -3.008813594684131010e-01
8.115825318020370993e-01 -4.046978093869040283e-01 4.213709495815254891e-01
3.215248053374467063e-01 -9.462830055658046913e-01 3.420925211202757027e-02
1.774953911473429180e-01 -9.509756651951410955e-01 2.532600843562026194e-01
9.166605226881576751e-01 3.293438365093593334e-01 2.264202365036524223e-01
5.964077575702930734e-01 4.269405526725810751e-01 -6.797202006661310358e-01
6.884678501902091741e-01 7.192405746354095797e-01 -9.330067016156673443e-02
9.244082504148155577e-01 3.809808751245905012e-01 1.797106992699201364e-02
5.831793334922450445e-01 -7.082791037144743340e-01 -3.977971546265277603e-01
3.695514653326926191e-01 -9.239615118170713126e-01 9.862473904234952959e-02
9.959622172050981437e-01 -7.780885760970003562e-02 -4.477771295385973849e-02
4.124490308017527140e-01 -4.904843039049507913e-01 -7.676659068980272727e-01
-1.051687035569908446e-01 1.581352826507620712e-01 -9.818007823245534782e-01
3.669079794858149945e-01 -6.264102633180439472e-01 -6.877417513859802600e-01
9.700817032240767190e-01 -5.645040691700229686e-03 -2.427130457669371411e-01
9.714807647871790408e-01 -6.528982042224156478e-03 -2.370284709523517441e-01
2.167069961718109672e-01 -4.581828889035216013e-01 8.620362626515278848e-01
3.907711589734468860e-01 -6.429696225610952443e-01 6.587017274747287710e-01
7.862256378225058670e-03 -9.414430723676325830e-01 3.370802966885423912e-01
7.351802547367959628e-02 -9.164663978100531239e-01 -3.932994299710043662e-01
5.236147407187079494e-01 -8.319937100523261408e-01 1.833414021312317899e-01
3.901214604240662576e-01 -2.012873632530780832e-01 -8.984924281880272146e-01
7.505467186721814787e-01 -2.204524099447320307e-01 6.229609602856194250e-01
7.246401967408343525e-01 5.695772557865148855e-02 6.867695412322186721e-01
8.089682708074479311e-01 -4.045872976639563467e-01 -4.264732762973370006e-01
6.740118548952602762e-01 -3.808753149081052780e-01 -6.329628851317447014e-01
4.402189947305377715e-01 -3.678528561887061121e-01 -8.190796743127286561e-01
4.096182877320382332e-01 -1.993795427457422942e-01 -8.902025928348961115e-01
-6.611308959637743343e-02 2.750118246418199464e-01 9.591650304776536684e-01
5.662398569070739018e-01 -6.425138312732781021e-01 5.162832566260404654e-01
4.123189083990878162e-02 4.351292298391510327e-01 8.994234178168550864e-01
6.683316578957851917e-01 -6.843276737469482507e-01 -2.915963477109440039e-01
7.915237705279002389e-01 5.520284196519819053e-01 2.622112594566285981e-01
7.624048005259055349e-01 1.703032862278776594e-01 6.242881632988405149e-01
7.281312172765692925e-02 -3.248663789301683424e-01 -9.429528541475833414e-01
8.678710224319647892e-01 4.960030108770556723e-01 -2.794461708078297552e-02
9.503450805424691339e-01 2.855567942542092119e-01 1.236994144852226751e-01
3.404136123367807465e-01 -9.215989696331838843e-01 1.864776439868268965e-01
9.072748027234120993e-01 4.188344093628775244e-01 3.781758687228962967e-02
9.072748027234120993e-01 4.188344093628775244e-01 3.781758687228962967e-02
1.167741075583140498e-01 -8.244347571984337320e-01 5.537789621564896958e-01
6.340403772091430801e-01 -7.169961387762524563e-01 2.896710842463092184e-01
8.439056310277550654e-01 -4.489421711856172448e-01 2.937247229138029159e-01
3.866131525904546729e-02 -6.749198223285602927e-01 7.368775584385952593e-01
9.165142230817202584e-01 -3.982732919879599098e-01 3.714920965490218357e-02
3.258570199863591865e-01 -6.900616416117317797e-01 -6.462446388959302013e-01
-3.313618844318908518e-01 8.360864427677815458e-01 -4.372170648152507999e-01
-1.721452520622724081e-01 -8.817475202577507165e-01 4.391893927586638657e-01
5.810670048151768130e-01 -6.004289202372067313e-01 -5.494053582355211685e-01
6.641658626008796196e-01 5.174239629798285112e-01 5.395888707987577249e-01
-4.217306174562243104e-01 -7.452142669605119618e-01 5.165258779756329854e-01
7.545213504352626943e-01 4.903491723936317936e-01 4.361825545230207934e-01
-3.784329238601562007e-01 -8.498157156838668236e-01 3.668811408554146225e-01
-9.538033300664337799e-02 -9.865902443330700766e-01 1.324472795581492779e-01
-6.633549963533670324e-01 -7.453905216052197913e-01 -6.597817149726666053e-02
9.840329299499317450e-01 1.740269442538414368e-01 -3.733383783945871254e-02
-2.800821491768860083e-01 -9.376656948102698452e-01 2.057596522363663860e-01
-2.800821491768860083e-01 -9.376656948102698452e-01 2.057596522363663860e-01
-3.178866311385316057e-01 -7.533015554709800998e-01 5.757472155976066652e-01
-2.176548655641531715e-01 -8.779466341740086444e-01 4.264224044756322329e-01
1.580930441782408408e-02 -9.501835014951937053e-01 3.112898639213260155e-01
-7.673624813261877842e-01 4.517105242213215743e-01 4.550960608054245848e-01
-2.034325119905739387e-01 5.931271361848817758e-01 7.789835770966713202e-01
2.662447495007498888e-01 5.346450927830159738e-01 8.020401225165254555e-01
-5.720298515079186297e-02 7.864328000411490160e-01 6.150213569537861247e-01
6.608203355956157043e-01 4.044907376153780154e-01 6.322212644689081396e-01
1.592194777813233375e-01 6.913860177146483599e-01 7.047230182161803302e-01
4.778962388486347052e-02 8.489624277332004088e-01 5.262878947366107507e-01
5.213276190189152226e-01 6.159102515185533866e-01 5.906539390560442415e-01
2.759564529609597194e-01 3.231477588330601280e-01 9.052201732343220231e-01
5.405911143888655346e-01 2.846743660685117083e-01 7.916575979217881365e-01
3.767425236664535548e-01 3.661742606319094984e-01 8.508710135573465116e-01
2.598545244107791086e-01 6.458232079585533025e-01 7.179052933398463177e-01
3.655058529133011214e-01 4.681007102253424701e-02 9.296312649308786646e-01
1.586029727013175961e-01 8.257478658122591186e-02 9.838833780847048294e-01
4.026808117902586637e-01 -2.836468426531616946e-02 9.149008735936736691e-01
-3.074120422988626533e-01 1.740274252399135191e-01 9.355278143989137485e-01
3.518193654347959720e-01 8.990536756513954897e-01 2.606254446572181527e-01
1.622360070385248099e-01 7.374224328746702417e-01 6.556581681893379754e-01
2.226559018295555525e-01 8.682913882693864549e-01 4.432769049225201430e-01
-2.371247504287584129e-01 8.878826842535283426e-01 3.942539685746341283e-01
-6.064666844883039865e-01 5.405995462763438786e-01 5.830525629577277824e-01
1.621607939418740763e-01 -3.001029307736393092e-01 9.400223975253001463e-01
1.854135289485988880e-01 -7.243939116945473655e-01 6.639844004061385974e-01
9.996147481405064095e-02 -6.870826331485978544e-01 7.196701736063466637e-01
-4.272302519433418544e-01 6.416327294735466591e-01 6.370100095703010723e-01
-4.272302519433418544e-01 6.416327294735466591e-01 6.370100095703010723e-01
-4.997667284745408445e-01 5.676268195067397659e-01 6.542423181715760760e-01
-4.997667284745408445e-01 5.676268195067397659e-01 6.542423181715760760e-01
-4.997667284745408445e-01 5.676268195067397659e-01 6.542423181715760760e-01
-9.367766613412111809e-01 7.474897689682317992e-02 3.418509576106110170e-01
-3.159906775731368134e-01 6.404805085182352364e-01 6.999532912238450866e-01
-2.198544587704188980e-01 -9.600634059642106921e-01 -1.730383584271569797e-01
1.840045342520991722e-01 -6.522412136572559582e-01 7.353391942373109780e-01
3.842920460376541558e-01 6.109262038715230769e-01 6.921624063580192887e-01
7.657979655847286793e-01 3.357316917737617756e-01 5.484867428161035452e-01
3.630439000656900950e-01 9.348301463246412590e-02 9.270706837131243994e-01
4.218847955896328772e-01 6.464700804440194626e-02 9.043417404948203009e-01
6.248951817200412151e-01 5.367287986336201078e-01 5.669463895117311525e-01
3.449482837629091470e-01 8.177497161968463324e-01 4.607559909420612665e-01
-5.572794679969906850e-01 7.145524219150413137e-01 4.229118476518949898e-01
3.303526279857121190e-02 9.525013642124529056e-01 3.027372170468068391e-01
-1.250664143384098148e-01 3.974309331641905918e-01 9.090693292421505589e-01
-5.604628900471551045e-01 5.042257626263315640e-01 6.569914224583793816e-01
-6.051320658805174890e-01 5.655031960702253668e-01 5.603760505924008095e-01
-5.901275040450354448e-01 5.928995913141387186e-01 5.479229905644622534e-01
1.602604009584938649e-01 -8.107715927626336638e-01 5.629973607875660147e-01
-5.913428329466465794e-01 5.983719681626965547e-01 5.406150586505479305e-01
-5.913428329466465794e-01 5.983719681626965547e-01 5.406150586505479305e-01
-1.887640686076742791e-01 9.301838040038872268e-01 3.148431628152897344e-01
4.155854424863255486e-02 9.094079872175045987e-01 4.138236341546256414e-01
4.435682642246991381e-01 2.243572195023084692e-01 8.677044618012980104e-01
2.772356017678327955e-01 3.776848144857370970e-01 8.834560555111397040e-01
4.705812923282428617e-01 2.686316605171306660e-01 8.404702720968124652e-01
4.416043921525802940e-01 6.780095010522381171e-01 5.876126932890790577e-01
4.836782544929784100e-01 -1.073743796895146735e-01 8.686346117424273983e-01
8.397705221533264819e-01 1.119335307138209362e-01 5.312780390946603148e-01
3.926032360414359879e-01 7.095637066064582887e-01 5.851342113709436799e-01
3.906923326629195281e-01 7.080272720339837456e-01 5.882659970238989233e-01
5.930394911884272480e-01 3.435792230325163121e-01 7.281878050278950409e-01
4.978591458261060754e-01 5.472865450151482847e-01 6.727657159536908349e-01
1.851617713892594330e-01 7.052104976551634152e-01 6.843926303029193026e-01
3.172241385564646410e-01 6.125776519672686549e-01 7.239595749953007253e-01
4.078951382668302150e-01 3.518888786189775519e-01 8.424937823405951320e-01
4.357165420643493436e-01 3.693636739886788090e-01 8.208054405942195597e-01
-2.512731667708045791e-01 7.177142194775887329e-01 6.494213538378968975e-01
4.585152590600536371e-01 4.113891509603005980e-01 7.877326473374421933e-01
7.022608411554822627e-01 -1.054636189843402433e-01 7.040647243331541461e-01
3.578352887693990736e-01 1.995143150205334892e-01 9.122214337611279644e-01
2.420393714873396718e-01 -4.379073071587183397e-02 9.692777282870910227e-01
6.045086074817748178e-01 2.844428807633199163e-01 7.440843978094886513e-01
2.411097868036272962e-01 7.946147268751253545e-01 5.571835483399336653e-01
5.871946791516606812e-01 2.592310555137231631e-01 7.668126685398586329e-01
4.458803771654469839e-01 3.657769289669343671e-01 8.169442621711208163e-01
8.679798236066693651e-01 2.819992150135037789e-01 4.087633405082978788e-01
7.415760615232878938e-02 5.592814306661064716e-02 9.956770019754782597e-01
7.842461995796536911e-01 8.968657153119859171e-02 6.139333981238105364e-01
8.362887549836300893e-02 6.437069293850866680e-01 7.606888984627699912e-01
3.975007049214399069e-01 6.192766799986045845e-01 6.771185887249473456e-01
-1.811307842224323117e-01 6.411845690319073476e-01 7.457036860860577487e-01
9.372388345982815006e-01 1.703005431729670838e-01 3.042714115980129641e-01
2.452524362436021288e-01 6.953583110086793972e-01 6.755205857912359724e-01
2.452524362436021288e-01 6.953583110086793972e-01 6.755205857912359724e-01
6.791153459960178607e-01 3.581621999244646859e-01 6.407200522677409804e-01
4.774619817024651769e-01 2.255493987650123919e-02 8.783628696136480674e-01
-7.669893584441096479e-01 -3.827393304848258904e-01 5.150125522096720143e-01
2.576146283784643276e-01 -4.851809752199900266e-02 9.650288583551642763e-01
1.394903988942201856e-01 1.355729818774560266e-02 9.901306117286647890e-01
1.394903988942201856e-01 1.355729818774560266e-02 9.901306117286647890e-01
4.350302441618444371e-01 2.044526698114197960e-01 8.768966828945521375e-01
9.017092088614120371e-02 -9.859493389582327239e-02 9.910339267838530475e-01
-7.254608225866511217e-01 5.051960961531912764e-01 4.674221853137427996e-01
2.791025022459682203e-01 1.893753564580892002e-01 9.414025534310022092e-01
5.747075189034007298e-02 -3.523235197207642000e-01 9.341120115536099000e-01
3.241470078797264454e-01 8.031095698980933451e-02 9.425915698063513926e-01
5.206961205542728344e-01 1.176185263243569312e-01 8.456012253450302385e-01
9.644514250613267503e-02 -1.041636728074077367e-01 9.898728523170251536e-01
4.971933237625917879e-01 8.757891030995308690e-02 8.632083950442255293e-01
-4.834466322373739411e-01 6.423145211958327661e-01 5.947364203067688759e-01
-1.609844361764048992e-01 8.666209883888188747e-02 9.831447970333793140e-01
1.647155629456228121e-01 -1.075428940184217086e-01 9.804607637583713231e-01
-6.062342324280701744e-01 -7.883542337542089884e-01 -1.047743172450310983e-01
-7.668492332724186067e-01 -5.552297807589624545e-01 -3.219660603042788782e-01
-7.142232171513946959e-01 -6.641310251855655489e-01 -2.209415702575713014e-01
-7.260993997170127612e-01 5.046430950215567979e-01 4.670278453985990952e-01
1.000763325554835798e-01 -1.782975743599684859e-01 9.788742016416591696e-01
-6.802014659131845331e-01 -7.329486600275005870e-01 -1.059374973491662535e-02
-6.364747848115479556e-01 -7.687365275873007109e-01 -6.280126951035847060e-02
6.883022215961981383e-01 -3.970093140973932622e-01 6.071438513776249435e-01
3.427838441181787488e-01 5.127680164343233482e-01 7.871265448030408951e-01
-8.396544137213703962e-01 -4.717433401293132933e-01 2.691443600781197598e-01
4.640421205734686638e-01 7.402846121106674421e-03 8.857822013356249080e-01
5.423644513902803332e-01 1.699250967018111347e-01 8.227795958693923106e-01
2.689537353606310521e-01 6.927319438748510416e-01 6.691683959743868204e-01
-8.396561868442519172e-01 3.821629856715789697e-01 3.859131252973334036e-01
-1.771330913916424332e-01 -1.902698271454478784e-01 9.656196253246313033e-01
-7.076471111990935148e-01 2.941375673086712994e-01 6.424318310212491223e-01
2.878391255161391604e-02 8.098214185655704389e-01 5.859699279064313204e-01
1.655362395676490961e-01 6.904639751091798949e-01 7.041713232347875939e-01
-7.417256929734900028e-01 -1.206155063082597068e-01 6.597688201339906300e-01
8.031637851925758909e-02 -7.499464771819359665e-01 6.566045695119364645e-01
7.242665776672316258e-02 -7.543291264148038744e-01 6.524890407409315030e-01
7.242665776672316258e-02 -7.543291264148038744e-01 6.524890407409315030e-01
6.354303255909453663e-01 -4.702167686351617637e-01 6.124740744012695526e-01
9.145024172224766601e-02 -5.810345359960537026e-01 8.087247500038520220e-01
-5.357312758200367953e-02 -8.958883166220870109e-01 4.410374634213353739e-01
1.658017360629729930e-01 -5.472874108242654634e-01 8.203574064222105555e-01
-2.836120430368473458e-02 -8.856077284684129580e-01 4.635672479451738992e-01
1.928903003189207099e-01 3.422990002605924009e-01 9.195785591582024132e-01
9.259463419612247448e-02 -7.659564567763682552e-01 6.361893900723885054e-01
-3.451047124517282461e-01 5.652821147688742442e-01 7.492388592205019293e-01
4.585372777850900416e-02 -7.264133903566272199e-01 6.857266379246215182e-01
4.585372777850900416e-02 -7.264133903566272199e-01 6.857266379246215182e-01
-2.043834916545902436e-01 -9.749220199910908491e-01 8.805931680162447373e-02
-4.495795465300522764e-02 -4.818195661452853024e-02 9.978262781517701629e-01
7.723684533734807844e-02 -2.781727377154442071e-01 9.574207004834548451e-01
7.909577257918682935e-01 -5.500594691119589097e-01 2.679933888185034863e-01
-3.172730554881442733e-01 -9.246237737220029951e-01 2.107336834236501200e-01
5.563185427100760805e-01 -4.930224185635425638e-01 6.689084943627880975e-01
-6.571085210218204076e-02 -7.556124056899560237e-01 6.517146432937059863e-01
5.897462600050502185e-02 -8.786206633550386336e-01 4.738646678257961153e-01
4.152966486837404436e-01 -2.309138209263133235e-01 8.798906187119308608e-01
-1.827019956072503670e-01 -9.319486035980822924e-01 3.131960744529100338e-01
-1.370184487793959793e-01 -9.531971961784339031e-01 2.695200361599490169e-01
-1.930117093819732621e-01 -9.623400269201612955e-01 1.914370722424265647e-01
-2.600372079900408750e-01 -9.282641468880016289e-01 2.659066077837005659e-01
8.437913160762725573e-01 -5.361943210985532504e-01 2.262443227869644427e-02
8.437913160762725573e-01 -5.361943210985532504e-01 2.262443227869644427e-02
-1.987940887427859515e-01 -9.259790936034790754e-01 3.210040941953926641e-01
-3.679497490337843013e-01 -8.951998161795006181e-01 2.514563009712885155e-01
9.318174092085228510e-01 -2.754415791411175540e-01 2.363223484483931436e-01
5.060172398623354884e-01 3.681785727280789122e-01 7.799942894316714836e-01
-5.691012918443474206e-02 7.415939829847572051e-01 6.684307006691229125e-01
6.976054862938704249e-01 -6.736855186243204674e-01 -2.439147545528420613e-01
3.079706600885971368e-01 -1.061116254577231521e-01 9.454598856997126211e-01
3.006620408037789516e-01 3.725225635109662148e-02 9.530029415570860918e-01
7.135339662779754955e-01 -6.268146636871976263e-01 -3.130058407671111875e-01
1.320463852624831624e-01 6.894270899369719929e-01 7.122176912996126541e-01
2.142977367502102437e-01 4.337523353222750844e-01 8.751773486706623251e-01
8.208684754134227823e-01 3.456185068338991639e-01 4.546677839987662839e-01
9.216261704161728963e-01 -1.973440306396259392e-01 3.341564537382538669e-01
-2.270540434195770785e-01 8.429347478432828167e-01 4.877575957842195109e-01
4.194698506172466757e-01 -2.360177407898868263e-01 8.765504380556674580e-01
6.715922516747259152e-01 -6.490668755158562897e-01 -3.573178397429321862e-01
-1.976002841801572096e-01 4.293350608930253109e-01 8.812636002808146296e-01
-2.064478517729725071e-01 5.383554535862602464e-01 8.170389770948855990e-01
-8.825928755351569732e-02 -9.944044610001275819e-01 5.805227044303619410e-02
8.468249006448335114e-01 1.089563237179923261e-01 -5.205920736716300734e-01
9.265434087727246748e-01 6.757104462429380787e-02 -3.700695415569906777e-01
2.550732081084388647e-01 -8.095263187011347839e-01 5.287766994067135684e-01
-4.012201651181011575e-01 -6.891677414857892980e-01 6.033823026887514818e-01
6.840343952068715927e-01 -1.734015825309612180e-01 -7.085399334897980461e-01
5.214005785574350460e-01 2.723441240951912645e-01 8.086841872763403938e-01
7.803914787891560456e-01 -4.135122969753237121e-01 -4.690380795665378133e-01
7.662667001250895726e-01 -4.623221383954147501e-01 -4.461990414925798842e-01
5.768626639882470375e-01 3.664572968092200678e-01 7.300263806956991397e-01
-4.538862949733512009e-01 7.899702483300798939e-01 4.122308066953219718e-01
-4.160882090510566178e-02 5.000855038797683561e-01 8.649758348255776053e-01
2.811649714273221079e-01 3.040654874349498771e-01 9.102145011991511492e-01
3.059229547511078118e-01 4.257866830680940434e-02 9.511036761371339798e-01
4.338366105401577077e-01 2.033299857583134584e-01 8.777486612046477843e-01
2.994848547857539289e-01 1.957160744527689233e-01 9.338115655498995249e-01
2.894442072644868857e-01 1.829193093635645695e-01 9.395544567203060193e-01
3.702101441415466820e-01 2.044723389913685185e-01 9.061652783913617393e-01
4.364664648056341689e-01 6.201477503394291907e-02 8.975807444333693264e-01
6.541590055707403595e-01 5.294836180625261957e-01 5.401139635615035406e-01
4.221372791507118638e-01 7.650374344917334479e-01 4.863309998113841681e-01
8.425779680300586882e-01 1.417546378286872466e-01 -5.195844401484661645e-01
6.299428485813189926e-01 5.347176191124357603e-01 5.632486798315480270e-01
5.136881845826657411e-01 7.256630258189847860e-01 4.577527957089945199e-01
1.479084155496229180e-01 5.192029644713856973e-01 8.417549419479074535e-01
4.092298137685883574e-01 3.110022232028251121e-01 8.577928518505074651e-01
-2.466253394206601446e-01 6.078831647969817897e-01 7.547542645868584588e-01
6.003263491127731610e-01 -6.371201213928132656e-01 -4.834110316049229916e-01
6.003263491127731610e-01 -6.371201213928132656e-01 -4.834110316049229916e-01
5.365527182859216593e-01 4.441636570699841191e-01 7.175164292461920779e-01
5.365527182859216593e-01 4.441636570699841191e-01 7.175164292461920779e-01
5.365527182859216593e-01 4.441636570699841191e-01 7.175164292461920779e-01
5.440631499878965105e-01 4.594860490785876994e-01 7.020454825204683891e-01
7.047589409485214285e-01 -6.020937574929756675e-01 -3.752305189361713755e-01
7.047589409485214285e-01 -6.020937574929756675e-01 -3.752305189361713755e-01
6.402319010887062012e-01 2.090971152410410483e-01 7.391762369193263238e-01
8.309556837145690711e-01 4.546214490964586297e-01 3.206742735610217387e-01
7.037299969870600691e-01 2.670168313091269008e-01 6.583814267871062054e-01
6.071719333978068400e-01 3.799477851797604666e-01 6.978409015176481045e-01
6.870158376664791122e-01 4.261273278053059332e-01 5.885785752921487424e-01
-1.348918376141265973e-01 -9.890996062956002310e-01 -5.904372084288597028e-02
8.221920627184585717e-01 3.049215054630385890e-01 4.806486112628647889e-01
8.221920627184585717e-01 3.049215054630385890e-01 4.806486112628647889e-01
8.221920627184585717e-01 3.049215054630385890e-01 4.806486112628647889e-01
4.139360003201260074e-01 -7.686574918834683245e-01 -4.876706345581949265e-01
3.127977878971741621e-01 -6.733014568134623179e-01 -6.699423050826867065e-01
3.127977878971741621e-01 -6.733014568134623179e-01 -6.699423050826867065e-01
7.640701505289779760e-01 4.463731914171625847e-01 4.657765333877204039e-01
7.426362550919415328e-01 4.470261761768071773e-01 4.986571872897839763e-01
6.917219397456261243e-01 4.030603989482459126e-01 5.992187187281695637e-01
1.318853365918220832e-01 -9.598089011051346153e-01 2.477360114141979319e-01
1.975715192859642533e-01 -9.746336882830585191e-01 -1.051411833241261695e-01
1.457767293055811098e-01 -9.439871368820853537e-01 2.960361981145722687e-01
4.044802925401470572e-01 -8.638585700079111085e-01 -3.002400106090524212e-01
3.570808235806807174e-01 -9.306470911549784564e-01 -7.993295412856854520e-02
3.570808235806807174e-01 -9.306470911549784564e-01 -7.993295412856854520e-02
3.570808235806807174e-01 -9.306470911549784564e-01 -7.993295412856854520e-02
6.467593495834951245e-01 2.207030368197645531e-01 7.300633625000421123e-01
6.188620558718649356e-01 3.373606848418320703e-01 7.093641689041663145e-01
6.188620558718649356e-01 3.373606848418320703e-01 7.093641689041663145e-01
-3.373863742333690907e-01 2.445881254786413661e-01 9.090363487542758580e-01
7.033813595878976033e-01 -3.621242626527085839e-01 -6.116540536794575766e-01
2.666625324276906683e-01 4.356292462232418949e-01 8.597198692796513830e-01
1.599500046151455107e-02 3.367736485933043866e-01 9.414497700745322328e-01
1.401769303565899849e-01 3.858254927678676505e-01 9.118602509848949822e-01
2.643112202631799357e-01 3.217380488123033344e-01 9.091887630131821885e-01
-1.633339266968716619e-01 4.732770695349494128e-01 8.656389800847646976e-01
8.106310308954849386e-01 -4.042793926738377785e-01 -4.235982818763508462e-01
8.106310308954849386e-01 -4.042793926738377785e-01 -4.235982818763508462e-01
5.567384637243436574e-01 4.343547089604128386e-01 7.080806944224455890e-01
