-4.592923108394641463e-01 4.447864154349971955e-01 7.689054674329159900e-01
-4.592923108394641463e-01 4.447864154349971955e-01 7.689054674329159900e-01
-4.614035821959946437e-01 4.510121449089164458e-01 7.639992012308405300e-01
3.434617471164644886e-01 1.646979590120457582e-01 9.246126813779769194e-01
3.252029921247976407e-01 1.856506012169973352e-01 9.272415371308849741e-01
3.448211065988975310e-01 1.520941145743326117e-01 9.262644248570499617e-01
3.325369539004409680e-01 1.655946065405828616e-01 9.284382588924723345e-01
3.305276968654118908e-01 1.525960058112003637e-01 9.313784948211518699e-01
-4.560982740765557875e-01 4.718958120527365629e-01 7.545122311476966104e-01
-4.535820557730768643e-01 4.786162397081772379e-01 7.517910705563574103e-01
-4.723581127064687135e-01 4.792286299118269643e-01 7.397416668224227054e-01
-4.723581127064687135e-01 4.792286299118269643e-01 7.397416668224227054e-01
3.570804897516096643e-01 1.330541090464242848e-01 9.245486076484095150e-01
3.445169764440726978e-01 1.473095620263525640e-01 9.271504440366936661e-01
3.563960120834723244e-01 1.215305954422950807e-01 9.263974292615662076e-01
3.328532289153051660e-01 1.210364080207706333e-01 9.351785476229043104e-01
-4.531241409490361916e-01 4.921392025613606780e-01 7.432883143111196356e-01
-4.407334420220747617e-01 4.839085176269483646e-01 7.560334514103618231e-01
-4.608079549405368902e-01 4.983079597539273320e-01 7.344012567455195928e-01
3.664875103434844794e-01 1.027033306607761515e-01 9.247372224764275339e-01
3.579859672490401379e-01 1.121570033526260585e-01 9.269664793571169570e-01
3.670441647640779737e-01 9.181213853638524325e-02 9.256614458483273244e-01
3.357674445983298561e-01 8.650345488272143113e-02 9.379644851705529751e-01
3.442061706053555770e-01 9.274950683029986598e-02 9.343016863411587325e-01
-4.544439165276105141e-01 5.289192651734322403e-01 7.167462156575663546e-01
-4.291019017032393079e-01 5.084589261100439517e-01 7.465527968025333916e-01
-4.453054913087619582e-01 5.058645567801065557e-01 7.387855369482597689e-01
-4.594024116351845821e-01 5.119695515174832456e-01 7.258351069649107146e-01
3.669375055634989669e-01 8.689557099256599304e-02 9.261781830472542998e-01
3.669375055634989669e-01 8.689557099256599304e-02 9.261781830472542998e-01
3.786771849677147972e-01 6.763628567443182027e-02 9.230541275814185820e-01
3.453226833240514715e-01 6.640316800700635236e-02 9.361318623252335991e-01
-3.921017907110604384e-01 5.310159436639825259e-01 7.511845667316587871e-01
-3.921017907110604384e-01 5.310159436639825259e-01 7.511845667316587871e-01
-4.240813945305752508e-01 5.420041103873340926e-01 7.255249927716046487e-01
-3.990613519775969564e-01 5.273579742423782912e-01 7.500957301310196002e-01
-4.175568499064891692e-01 5.614739905875621995e-01 7.144181093658306114e-01
3.729630750488427959e-01 7.751860671835102135e-02 9.246022984302801895e-01
3.902785880860254464e-01 9.603079266618494425e-02 9.156750026846219859e-01
3.729252126536130585e-01 8.370777175092723732e-02 9.240778077173762428e-01
3.785117774914655842e-01 7.705915435437778183e-02 9.223831747329519493e-01
3.612531861578430759e-01 8.456442095694854943e-02 9.286253249825909828e-01
3.612531861578430759e-01 8.456442095694854943e-02 9.286253249825909828e-01
-3.284897907708613785e-01 5.536341626567260477e-01 7.652343897778650650e-01
-3.705482695642710045e-01 5.634101003543793285e-01 7.384192838364883604e-01
-3.474201010363234809e-01 5.475150033772454572e-01 7.612664411838510059e-01
-3.820834064446682610e-01 5.609228502516694359e-01 7.344234654374692806e-01
3.717497091435648104e-01 1.173016678782836247e-01 9.208922154436141039e-01
3.176668907001868880e-01 2.089270700546228821e-01 9.248984949448594284e-01
3.610453258996821901e-01 1.619594958008344077e-01 9.183764992452343456e-01
3.104568008019896186e-01 2.086483343407707081e-01 9.274063011499412701e-01
-3.221656912782118187e-01 5.727695601216679089e-01 7.537534732001325288e-01
-3.457268354101907248e-01 5.948468448353982918e-01 7.256929009344288417e-01
-3.214063285695624717e-01 5.729084573133068625e-01 7.539720628075826658e-01
3.149771772358989641e-01 3.153821886991277634e-01 8.951667179201049374e-01
2.249081571630203169e-01 4.049700206804986435e-01 8.862367647483209154e-01
3.205838635094317435e-01 3.155254711746577900e-01 8.931235432443688227e-01
2.715023149487756360e-01 4.280442171724427314e-01 8.620119727258354070e-01
2.715023149487756360e-01 4.280442171724427314e-01 8.620119727258354070e-01
1.716877937573672575e-01 5.687271285346681138e-01 8.044083258789895829e-01
2.478842610164364857e-01 4.291186114227048543e-01 8.685681380703443866e-01
1.730022577699944497e-01 5.686213561903790126e-01 8.042014499431709984e-01
-3.034719664308390685e-01 6.264302651626179053e-01 7.179762450658739859e-01
-3.100328730024067281e-01 6.221285110724852352e-01 7.189128830175504081e-01
2.580663744988231367e-01 4.955725689851206983e-01 8.293428574615694382e-01
2.375848957417550922e-01 5.517261171446162793e-01 7.994696423103910821e-01
1.926085542634387582e-01 5.977775491119933227e-01 7.781798934707876425e-01
1.234244021352979698e-01 5.645703343923552664e-01 8.161046222646018977e-01
1.014964562037412033e-01 6.711785148263673673e-01 7.343145583559907985e-01
8.528123047396680978e-02 7.353355417858660203e-01 6.723159619667919973e-01
1.206109282371676389e-01 6.937554506269267840e-01 7.100397022105161549e-01
8.613041018422845641e-02 6.956830026062691408e-01 7.131666792035521452e-01
8.613041018422845641e-02 6.956830026062691408e-01 7.131666792035521452e-01
8.538170979196728350e-02 6.962532822208574723e-01 7.127000285040566707e-01
5.384037555452797497e-02 6.982920960422117629e-01 7.137852356032042822e-01
1.140329875092767065e-01 6.695133320384166753e-01 7.339948065092327667e-01
8.627625937008634449e-02 6.497410756182417924e-01 7.552436307070425903e-01
5.452262446213668873e-02 6.518497785171710746e-01 7.563855826685723649e-01
8.138380941488716769e-02 5.948614087890875535e-01 7.996978053606146331e-01
-2.285688634624053195e-01 6.424379226107270746e-01 7.314573058266063965e-01
-2.457436896250647651e-01 6.416592190600550749e-01 7.265559067303081209e-01
-2.845944358802023899e-01 6.582053586003898671e-01 6.969732512627450083e-01
1.150519317740553715e-01 6.146618727787391823e-01 7.803549417714936709e-01
8.607840333242394726e-02 5.855310988245752135e-01 8.060668959763984676e-01
1.040636223826813811e-01 5.691890532786860746e-01 8.155946199701831212e-01
7.417464878254781402e-02 5.526463026724315331e-01 8.301085384577590043e-01
7.417464878254781402e-02 5.526463026724315331e-01 8.301085384577590043e-01
1.143840850957351801e-01 5.210581424237585857e-01 8.458219040026768720e-01
5.858307105953317745e-02 4.996497464663247623e-01 8.642442679250879056e-01
5.858307105953317745e-02 4.996497464663247623e-01 8.642442679250879056e-01
9.518913336776325951e-02 5.224972215621203064e-01 8.473108534348883225e-01
9.028492747794136797e-02 4.981250804572181501e-01 8.623920431507893225e-01
8.551415038246676370e-02 4.718070229339765831e-01 8.775451345626291699e-01
8.010174706343871354e-02 4.766980376105495187e-01 8.754100131113626837e-01
7.787569151288974145e-02 4.688976949210129086e-01 8.798126666337271473e-01
6.991444281445263753e-02 4.691280206778113415e-01 8.803583764018285684e-01
-1.449060822270812066e-01 6.342362272383046395e-01 7.594383683960932441e-01
-1.449060822270812066e-01 6.342362272383046395e-01 7.594383683960932441e-01
-1.611073562355576638e-01 6.548235781194347016e-01 7.384107944130080536e-01
-1.835538682044892955e-01 6.290855290051122761e-01 7.553538076051029559e-01
-2.153198721960842277e-01 6.535079139718428243e-01 7.256478202362578456e-01
9.877496177799545418e-02 4.697890925907386994e-01 8.772352679917320151e-01
9.528742919792387855e-02 4.650485499706870640e-01 8.801421203459199871e-01
8.990624747581957288e-02 4.654078717202150828e-01 8.805182449022146418e-01
7.835892058133374360e-02 4.625721402704632834e-01 8.831120509940577623e-01
6.172348967996854618e-02 4.630633902927712153e-01 8.841733469135401036e-01
7.190511376450349490e-02 4.718170441579431773e-01 8.787595413175184333e-01
7.612245607270537451e-02 4.715221911882566674e-01 8.785625731264017357e-01
3.408538578882039372e-02 4.952606554272492856e-01 8.680754976736750894e-01
9.998396892622142540e-03 5.293856761694329949e-01 8.483223667487553854e-01
5.283983074650528550e-02 4.948645409605095247e-01 8.673621149131572894e-01
-2.295098203274327509e-02 5.292355494435563301e-01 8.481644802919476867e-01
1.199454636844953480e-02 5.527200339300392118e-01 8.332806819732421211e-01
-4.694819359864656205e-02 5.512332930766271621e-01 8.330292454180232564e-01
-9.104885015295990924e-02 5.775540208714741164e-01 8.112591816805629907e-01
-4.997111281948068973e-02 6.155386262895712335e-01 7.865208753931013375e-01
1.455521758480141266e-02 6.275084804672096395e-01 7.784736685224443731e-01
-1.216737832280386788e-01 6.234110329332529510e-01 7.723691957167057032e-01
-1.782183121401753959e-02 5.681707375619049483e-01 8.227176887064845401e-01
-1.257824529790145807e-01 -2.523212130263822184e-01 9.594335724684003308e-01
-5.053978827719738387e-01 -8.051212502561437834e-01 3.104073975851576739e-01
-5.053978827719738387e-01 -8.051212502561437834e-01 3.104073975851576739e-01
-5.053978827719738387e-01 -8.051212502561437834e-01 3.104073975851576739e-01
-6.024837477388873541e-01 -5.775554085842048435e-01 5.508566816565239055e-01
7.874001560149740397e-01 2.934364193051297587e-01 5.421218148469757470e-01
7.911832839103428716e-01 2.885327815457454648e-01 5.392382082478214267e-01
7.911832839103428716e-01 2.885327815457454648e-01 5.392382082478214267e-01
1.450835039217749090e-01 -4.508431061714865962e-01 8.807333708378636272e-01
2.197024492870643386e-01 -4.933318723800075856e-01 8.416379848077800707e-01
2.197024492870643386e-01 -4.933318723800075856e-01 8.416379848077800707e-01
-3.803976355496250794e-01 -8.860867439955555369e-01 2.648545279650879603e-01
-5.587519182601670131e-01 -7.527091389914206676e-01 3.481741603269516427e-01
-5.587519182601670131e-01 -7.527091389914206676e-01 3.481741603269516427e-01
-5.587519182601670131e-01 -7.527091389914206676e-01 3.481741603269516427e-01
-5.587519182601670131e-01 -7.527091389914206676e-01 3.481741603269516427e-01
-6.260234850154242636e-01 -7.697484343445669674e-01 1.248276573249335608e-01
7.865357459351162150e-01 2.969159507460517600e-01 5.414817065782173700e-01
7.887962993101211850e-01 2.956309978489494728e-01 5.388902590560458172e-01
-6.109076947359664000e-01 -7.857221093125560385e-01 9.712134394567970008e-02
-6.038652839215816748e-01 -7.930008469402557436e-01 8.060009693756195470e-02
-6.133964987089538523e-01 -7.861694286475828797e-01 7.538146212119767320e-02
-6.135943998174246961e-01 -7.860048544205997523e-01 7.548696139033905794e-02
-6.404291051840278470e-01 -7.643381717599231351e-01 7.508475493656190103e-02
-6.277271342130338327e-01 -7.741182185853126008e-01 8.185125916559879422e-02
7.910634607895311587e-01 2.769810584824184962e-01 5.454356921266236835e-01
7.910634607895311587e-01 2.769810584824184962e-01 5.454356921266236835e-01
7.288111911574017832e-01 -6.432616403566722152e-01 -2.346246144149679302e-01
2.265851912612796837e-01 -7.328624817486038001e-01 6.415385677777810658e-01
6.675696219506342954e-01 -6.459690796343512398e-01 -3.702360706428213799e-01
6.843217608373397542e-01 -6.047840780015734108e-01 -4.073572714955133733e-01
7.304052823004377748e-01 -4.776511871622248218e-01 -4.882186671872912886e-01
6.444992160880572696e-01 -2.662591031357363081e-01 -7.167474105005425811e-01
7.263667992304553289e-01 -2.946260012614109192e-01 -6.209563530204152970e-01
5.157944727143470853e-01 -2.420760027833659123e-01 -8.218000187355536390e-01
5.798609973305525189e-01 -2.390369162874203535e-01 -7.788597925343289097e-01
5.798609973305525189e-01 -2.390369162874203535e-01 -7.788597925343289097e-01
6.098154363401733224e-01 -5.865192502971343369e-02 -7.903702203977278629e-01
4.786703243484367598e-01 -8.578043489359285512e-02 -8.737942764619304192e-01
4.811617824574477287e-01 -8.975935776722269999e-02 -8.720244244260521027e-01
4.804811153263053858e-01 -4.566844027518462273e-02 -8.758152153152064523e-01
-8.366282725819942367e-01 1.447840253311849512e-01 5.282903742501535715e-01
4.768942705929814507e-01 1.044319021519193001e-02 -8.788986258117129635e-01
4.768942705929814507e-01 1.044319021519193001e-02 -8.788986258117129635e-01
5.736015393361153514e-01 1.658905270789033937e-01 8.021605868507393211e-01
5.733662317563662514e-01 1.654840948801349354e-01 8.024127233682223359e-01
-8.362944265012589584e-01 1.436457561064902744e-01 5.291290286456840075e-01
-8.365375812837906322e-01 1.441041598456462569e-01 5.286197747105625400e-01
4.764026459892461429e-01 -2.842091076121157356e-02 -8.787677569904054353e-01
4.617550453010770828e-01 -5.804886003904011216e-02 -8.851059868666397712e-01
-8.367131215795855503e-01 1.441024810827238878e-01 5.283423389454501296e-01
5.732026346248927373e-01 1.658411827158823570e-01 8.024558815127963429e-01
5.733482799662132923e-01 1.656435743567596930e-01 8.023926446161513404e-01
5.288215140811706183e-01 -5.965662448711486071e-02 -8.466338602959969650e-01
5.288215140811706183e-01 -5.965662448711486071e-02 -8.466338602959969650e-01
-8.370171946131550467e-01 1.429597615908627384e-01 5.281711109932151205e-01
-8.367298878615885283e-01 1.423855342517491296e-01 5.287811025320187097e-01
5.723566201112724183e-01 1.654352009901609855e-01 8.031432585088078557e-01
5.724327769068920935e-01 1.655952289263450117e-01 8.030559980969543821e-01
5.716643851599573223e-01 1.668569823616962711e-01 8.033421302140429932e-01
-8.368635017179041347e-01 1.420298200192955385e-01 5.286653097355018538e-01
5.704490098218266692e-01 1.695288452653074540e-01 8.036466249641747162e-01
5.707937475414202044e-01 1.691121171381421706e-01 8.034896325433681374e-01
-8.382925446472447861e-01 1.393940510054120785e-01 5.271004725222203646e-01
-8.376166428944631370e-01 1.404602122689073973e-01 5.278913603342860750e-01
5.702292940335530469e-01 1.714426145643504484e-01 8.033965285818301938e-01
-8.263246647809213696e-01 1.300719154904202979e-01 5.479679234912852026e-01
4.759107663661258369e-01 1.502259936367324467e-01 8.665685739124533438e-01
5.702482236722783426e-01 1.714748752026183654e-01 8.033762073728955011e-01
5.702277990498503257e-01 1.714426917810734918e-01 8.033975732012283988e-01
3.250342926213147243e-01 -9.430572726111549064e-01 7.068018955387447844e-02
3.375598709147173970e-01 -9.405921654882080096e-01 -3.660207330524687525e-02
2.309298667757944401e-01 -9.705663192728529731e-01 6.835507679799897318e-02
5.666406760827871203e-01 1.710497796330911480e-01 8.060150849059297684e-01
-8.390585195755618786e-01 1.380597411785732809e-01 5.262321812597283710e-01
3.027638190113269290e-01 -9.417395549422062917e-01 -1.464946434342622172e-01
2.724332104966823431e-01 -9.276472006570284368e-01 -2.554423945464986967e-01
-8.383482530378406627e-01 1.389989093820754584e-01 5.271162204096873083e-01
1.570420917599061050e-01 -9.764673719889933601e-01 -1.478149277190295985e-01
2.434592175267876468e-01 -8.978020892208879999e-01 -3.669864002818808979e-01
2.434592175267876468e-01 -8.978020892208879999e-01 -3.669864002818808979e-01
5.694869107586731927e-01 1.746240251050559245e-01 8.032378902483695571e-01
-8.427894484743054804e-01 1.350372013166720730e-01 5.210286938364687703e-01
-4.886520391456272011e-02 -8.116252227429752164e-01 -5.821311618989351011e-01
1.214646502158985703e-02 -8.551353917838523389e-01 -5.182624095052201785e-01
1.214646502158985703e-02 -8.551353917838523389e-01 -5.182624095052201785e-01
-1.307671651158532067e-01 -8.044085903182288666e-01 -5.795056240881557574e-01
-8.422894350366511018e-01 1.355351117889697921e-01 5.217075244789848298e-01
-1.912956684292484721e-01 -7.504660096965294347e-01 -6.326189497085710212e-01
-8.412613632737913072e-01 1.357326540028698236e-01 5.233124929715126106e-01
-8.417099007839312641e-01 1.372449100298808455e-01 5.221956315340015031e-01
-8.417099007839312641e-01 1.372449100298808455e-01 5.221956315340015031e-01
5.747902604354372391e-01 1.915120855319016879e-01 7.955748095583368151e-01
5.747902604354372391e-01 1.915120855319016879e-01 7.955748095583368151e-01
5.736157629263739510e-01 1.894083251452994832e-01 7.969249920086873828e-01
-8.412146698883306017e-01 1.361578437822760501e-01 5.232770974743958803e-01
5.716382168917359952e-01 1.881905766564677951e-01 7.986326163177550619e-01
5.739470139256068748e-01 1.864404773706283269e-01 7.973862135776436100e-01
-8.405066648893259051e-01 1.368544532348332232e-01 5.242322051404486594e-01
-8.398378895151042967e-01 1.380015006177471026e-01 5.250027668137238201e-01
-8.398378895151042967e-01 1.380015006177471026e-01 5.250027668137238201e-01
5.683825024473259102e-01 1.833854092653382506e-01 8.020667818706245233e-01
5.736816486814243499e-01 1.830619633126782941e-01 7.983593699295264967e-01
-8.397168742640379602e-01 1.391848784892440738e-01 5.248839306705515018e-01
-8.397313902273634278e-01 1.389386722884646541e-01 5.249259353561588348e-01
-8.393816317644241520e-01 1.382675724966320741e-01 5.256620156073494865e-01
5.743069360155945713e-01 1.768254368846725599e-01 7.993148992199035074e-01
5.736462840607277069e-01 1.758437083153955860e-01 8.000055818737823454e-01
5.742540146765497955e-01 1.768340009122624790e-01 7.993510259887246505e-01
-8.388876300703316247e-01 1.404243515618279481e-01 5.258788316745811597e-01
-8.397103298570657293e-01 1.392532232946353532e-01 5.248762727856843835e-01
5.740624380187302478e-01 1.717595011181114739e-01 8.005941487618111196e-01
5.747779793541153426e-01 1.719882065560506823e-01 8.000314564160795339e-01
5.745937853621281288e-01 1.717691520795249227e-01 8.002108098601903308e-01
-8.382639451163319544e-01 1.415104977105244299e-01 5.265817480275238882e-01
-8.388925836306454498e-01 1.403760790759023547e-01 5.258838175422175798e-01
5.742872559385542308e-01 1.688816548239988058e-01 8.010450264064269410e-01
5.749292283337457121e-01 1.685296557004876405e-01 8.006585649058146625e-01
5.750380884044286045e-01 1.686755818640437443e-01 8.005496517812039636e-01
-8.381504462065869632e-01 1.424607585906700058e-01 5.265061839954684464e-01
5.756116499665229203e-01 1.661666519890574734e-01 8.006621460950709146e-01
5.757340046911215703e-01 1.657939448965915497e-01 8.006514370673105674e-01
5.754132016377979664e-01 1.663220790966332685e-01 8.007725103835121594e-01
-8.378211454564914451e-01 1.435234121936845020e-01 5.267416429125898469e-01
-8.378973536778979714e-01 1.433003379048495007e-01 5.266811538833829909e-01
5.752866126656153156e-01 1.658757304370823971e-01 8.009560258464172300e-01
5.754632419271308308e-01 1.657021557957610025e-01 8.008650652609052845e-01
5.745792149469277632e-01 1.659423004814555014e-01 8.014498603542797861e-01
-8.373910817559470088e-01 1.447216406999145555e-01 5.270975459141596930e-01
-8.376976693224242876e-01 1.443048707073477932e-01 5.267245191766884993e-01
5.749911048193271368e-01 1.658361259922686848e-01 8.011763904999483765e-01
5.744891022712206308e-01 1.668013949807921892e-01 8.013361130038185731e-01
-8.371055213377387449e-01 1.453012819716808235e-01 5.273915846913549421e-01
-8.373751438502272659e-01 1.448541072107147332e-01 5.270864787546709618e-01
5.750196181229673131e-01 1.655325429260227632e-01 8.012187067250498007e-01
5.723849890107972627e-01 1.659591508477246957e-01 8.030149342353550823e-01
5.735386727072783186e-01 1.678232333390693720e-01 8.018034380450073106e-01
-8.372249537615188419e-01 1.450319659860105914e-01 5.272761189749212152e-01
5.723134742303289668e-01 1.666269589772814141e-01 8.029276080422158568e-01
-8.376372788201453812e-01 1.442113434444415865e-01 5.268461611824949431e-01
-8.372609657498896185e-01 1.447601021440969582e-01 5.272936450013340215e-01
5.717673274083194812e-01 1.643355725804606926e-01 8.037884938794531697e-01
5.717673274083194812e-01 1.643355725804606926e-01 8.037884938794531697e-01
5.709054932200141597e-01 1.678305437114347987e-01 8.036789324156360381e-01
-8.383027813443476584e-01 1.430478250239161087e-01 5.261043304766251927e-01
-8.376656964607086531e-01 1.440094750783507127e-01 5.268561967564333592e-01
5.711446291802183550e-01 1.636331924396676740e-01 8.043742853240607449e-01
5.679650391699356815e-01 1.642284915066129225e-01 8.065015293588448930e-01
5.687687171380290119e-01 1.660734079828623533e-01 8.055568071626720839e-01
-8.387257362263719207e-01 1.422988387853185988e-01 5.256331228831381264e-01
-8.382898855273794858e-01 1.429601762733570536e-01 5.261487012455546841e-01
5.668073136541857959e-01 1.651809482932947715e-01 8.071212570048278412e-01
5.680364666497822457e-01 1.634853541759598849e-01 8.066022015380268639e-01
5.680364666497822457e-01 1.634853541759598849e-01 8.066022015380268639e-01
5.654595887390357900e-01 1.656529727134582741e-01 8.079693967807658472e-01
-8.387339444684075440e-01 1.426329816294988062e-01 5.255294501242965266e-01
5.654745337012772044e-01 1.656960081228980308e-01 8.079501127096024859e-01
5.654745337012772044e-01 1.656960081228980308e-01 8.079501127096024859e-01
-8.390725885403288453e-01 1.423341239746664932e-01 5.250696985282967688e-01
-8.390257721598197715e-01 1.423769942233524544e-01 5.251328833424370179e-01
5.654235600744691448e-01 1.661838220795226750e-01 8.078855952371937210e-01
5.632784977739324628e-01 1.665755155162532142e-01 8.093021262643738112e-01
-8.390362552705794563e-01 1.433336333645554850e-01 5.248558200954221986e-01
5.646121786459677994e-01 1.656168678041604614e-01 8.085691935903772665e-01
5.612396933809845612e-01 1.667918596355391914e-01 8.106728576515541684e-01
-8.387313673966447780e-01 1.453027278142416390e-01 5.248016869586977773e-01
-8.386125750643974586e-01 1.451577586574708534e-01 5.250315933783410438e-01
6.447680829022760518e-01 -1.095925478149709226e-01 -7.564810590715057570e-01
5.637507226294560247e-01 1.668559288368644533e-01 8.089154601976361603e-01
5.610694852514378494e-01 1.689141214280322767e-01 8.103511907203458930e-01
5.600865535804142592e-01 1.677783926500065748e-01 8.112665797739938567e-01
5.848140038402426244e-01 -1.686931294435024264e-01 -7.934325484821644903e-01
5.848140038402426244e-01 -1.686931294435024264e-01 -7.934325484821644903e-01
5.585611860279426910e-01 1.695873025263465450e-01 8.119418379938896368e-01
-8.380200356508611392e-01 1.481288555192487033e-01 5.251478477631673636e-01
-8.387986637781380539e-01 1.480481452276747878e-01 5.239260905305782590e-01
-8.385143769536781422e-01 1.472810485798873026e-01 5.245969237149543662e-01
5.588828641211472936e-01 1.693344961756419187e-01 8.117732273219440131e-01
5.585222668275225955e-01 1.699751088514781516e-01 8.118875167341679244e-01
5.580518005045373986e-01 1.693550731969819534e-01 8.123404748848164214e-01
-8.384860474794908480e-01 1.506243434977239948e-01 5.236921379284786848e-01
-8.385707261222711262e-01 1.508520557889200531e-01 5.234909689335849325e-01
5.579286619645513756e-01 1.705348795184619959e-01 8.121782212212225183e-01
5.570710150309911013e-01 1.692967485768160363e-01 8.130255193618829423e-01
-8.382893981926980986e-01 1.530321766527905358e-01 5.233087404072601645e-01
5.553284428864923017e-01 1.691149262762891847e-01 8.142545438815980141e-01
5.543318401869290479e-01 1.709732186963532907e-01 8.145454986945674936e-01
-8.377467989029067086e-01 1.556148408820165474e-01 5.234160125800482177e-01
-8.371497851952202085e-01 1.564310688816154538e-01 5.241274251898596637e-01
5.553155743660319610e-01 1.692885995169544078e-01 8.142272305321851533e-01
5.543148290627926134e-01 1.680571872649215259e-01 8.151636964988628886e-01
5.534969234929244530e-01 1.695869052391329457e-01 8.154026227915146530e-01
5.534969234929244530e-01 1.695869052391329457e-01 8.154026227915146530e-01
-8.375908659176094506e-01 1.578093474573354082e-01 5.230083662681498380e-01
-8.372842814978370685e-01 1.612320784208198798e-01 5.224550208819448427e-01
-8.374555113572847986e-01 1.577805519737568718e-01 5.232337564761708748e-01
5.538024609650334940e-01 1.678380172512289881e-01 8.155570085495240651e-01
5.534434520015762971e-01 1.700654455470455850e-01 8.153392482074340863e-01
-8.379380336671361507e-01 1.594377679348307764e-01 5.219573257365132113e-01
5.509180526025551083e-01 1.685943845018113008e-01 8.173525755945616478e-01
5.521715576536050385e-01 1.668894392273658767e-01 8.168564659674103501e-01
-8.378000607692484003e-01 1.603617981598680631e-01 5.218957289209958939e-01
-8.382097692315290116e-01 1.614359140398456682e-01 5.209057769145456485e-01
5.510384947295341451e-01 1.673500106726417691e-01 8.175270951192235014e-01
5.501932511539240345e-01 1.660344774886339247e-01 8.183641846206073378e-01
5.490724060876214230e-01 1.675110395653190976e-01 8.188159405488490972e-01
-8.382798270783327066e-01 1.613607120119487370e-01 5.208163324364143421e-01
5.502841194416628889e-01 1.651705524274361125e-01 8.184779022680632732e-01
5.490364967787003669e-01 1.678370244933751754e-01 8.187732643498946139e-01
5.476822844620526931e-01 1.665380110491939958e-01 8.199446360347787399e-01
-8.385328082693791485e-01 1.631682539701506118e-01 5.198450253221638118e-01
5.464398184913010770e-01 1.660788387341445849e-01 8.208662157086938915e-01
5.464398184913010770e-01 1.660788387341445849e-01 8.208662157086938915e-01
-8.390824570696484574e-01 1.622569931343166294e-01 5.192430051690364312e-01
-8.390824570696484574e-01 1.622569931343166294e-01 5.192430051690364312e-01
-8.394137512534050050e-01 1.634604441670925445e-01 5.183292750746224531e-01
5.466739567788689858e-01 1.641667349461237990e-01 8.210949202844116668e-01
5.434640407480439972e-01 1.670619905958458939e-01 8.226403392199789222e-01
-8.395525683431194208e-01 1.624303255578877780e-01 5.184282730789578908e-01
5.420457654348759258e-01 1.655833429686071334e-01 8.238741073158326600e-01
5.437714380097058431e-01 1.639419206520196792e-01 8.230648029516166586e-01
-8.396230756813128915e-01 1.626604969771395515e-01 5.182418870629835750e-01
-8.401137373446725398e-01 1.628502498206274296e-01 5.173864169633040078e-01
-8.405445752272073801e-01 1.638645295745749519e-01 5.163654064743462557e-01
5.390832686497700754e-01 1.639761928078128095e-01 8.261362101095284238e-01
5.383559876906688357e-01 1.659853833424070890e-01 8.262092247332261108e-01
5.391418520855635332e-01 1.630656903493434839e-01 8.262781879976262012e-01
6.925619823371900186e-01 -1.865677454273261260e-01 -6.968144494679672230e-01
7.342581497399233159e-01 -2.377565284741063323e-01 -6.358748325798447842e-01
6.614797109843126854e-01 -3.321644185539996963e-01 -6.723922895176546177e-01
6.614797109843126854e-01 -3.321644185539996963e-01 -6.723922895176546177e-01
7.610117759607457621e-01 -2.817937998594520765e-01 -5.843400818101072147e-01
7.066781662278994736e-01 -3.470862451751168809e-01 -6.165525993676548300e-01
7.807591987755235774e-01 -3.195812378935393161e-01 -5.369198319245018780e-01
5.383068107080970499e-01 1.663421756017647857e-01 8.261695093389422873e-01
-8.407973485530664259e-01 1.637270941589076823e-01 5.159973423423935834e-01
-8.407973485530664259e-01 1.637270941589076823e-01 5.159973423423935834e-01
-8.410616859876119955e-01 1.636267815685835403e-01 5.155982124844719072e-01
5.377064484568648828e-01 1.609303051664507933e-01 8.276310845823384721e-01
7.876755793969932862e-01 -3.563186953005370028e-01 -5.025974223978215694e-01
8.054183730188365642e-01 -2.911857594346134448e-01 -5.162480972421862324e-01
8.054183730188365642e-01 -2.911857594346134448e-01 -5.162480972421862324e-01
8.248080419750396519e-01 -2.147589958849569769e-01 -5.230394512651852512e-01
8.130494192710230328e-01 -2.528349356225589872e-01 -5.244283908712308317e-01
8.130494192710230328e-01 -2.528349356225589872e-01 -5.244283908712308317e-01
8.376678664769454663e-01 -1.413740608941653765e-01 -5.275660341400447706e-01
8.417153411852652534e-01 -6.579103079114627384e-02 -5.358981476743606143e-01
8.356004435208708170e-01 -8.208536921531840724e-02 -5.431702228109608344e-01
8.371417781411147896e-01 -7.995062242136272146e-02 -5.411113945068695141e-01
8.305836821384540158e-01 -1.796563379111378034e-02 -5.566039731872306495e-01
5.384274421169062963e-01 1.602756082757643141e-01 8.272893199886477422e-01
5.363392664982566949e-01 1.620270321452859374e-01 8.283039490828849605e-01
5.372256754861184369e-01 1.609439995012521551e-01 8.279405791619496302e-01
-8.409564239483208192e-01 1.639165503970199111e-01 5.156778621639611648e-01
-8.414523265727034129e-01 1.638783770133503681e-01 5.148804323848934494e-01
5.381285641770049422e-01 1.580487276138000663e-01 8.279119808992100316e-01
5.358753072675684903e-01 1.591371545460561199e-01 8.291640495727451432e-01
5.351739468485169349e-01 1.592660402982319090e-01 8.295921739157757768e-01
-8.411325754298708546e-01 1.635293070975655794e-01 5.155134879621509070e-01
-8.413718117252670936e-01 1.638553798994863697e-01 5.150193092614457901e-01
5.381986157012741412e-01 1.558023638593207805e-01 8.282921425880364064e-01
5.360725498749732143e-01 1.549701638237785395e-01 8.298255657636582905e-01
5.354958172199895117e-01 1.550943266294868006e-01 8.301746681194516198e-01
5.353750128491771010e-01 1.567820643222773425e-01 8.299355275704184409e-01
-8.410176781766801613e-01 1.626014085613398663e-01 5.159942314873046110e-01
5.359565120482477907e-01 1.507598506300382446e-01 8.306756795712060271e-01
5.362743638124857215e-01 1.502910915823395810e-01 8.305554734685111073e-01
-8.409863940682589245e-01 1.606366994678979920e-01 5.166601743662146973e-01
5.363611431636468030e-01 1.454927763264305673e-01 8.313534604132066796e-01
5.368966783804796084e-01 1.450406565009011162e-01 8.310867371735608522e-01
5.365850539044525469e-01 1.454587175407304755e-01 8.312149189095211499e-01
5.334727783985746541e-01 1.455040402074722627e-01 8.332078786179398788e-01
-8.411631619779129654e-01 1.572969997378496909e-01 5.173994480136121510e-01
5.369878525847436856e-01 1.414598317704983677e-01 8.316448533910901775e-01
5.337615729099168815e-01 1.416387755495167877e-01 8.336888151736024932e-01
5.337615729099168815e-01 1.416387755495167877e-01 8.336888151736024932e-01
5.338745233151068748e-01 1.417725624638238868e-01 8.335937463102206513e-01
-8.399506380087341517e-01 1.527596602641910217e-01 5.207181693629380215e-01
-8.415013178809497285e-01 1.545864644762262041e-01 5.176664534286197217e-01
5.384836728546311679e-01 1.296832876353714026e-01 8.325968886424378601e-01
5.369921946853805084e-01 1.413690675714708023e-01 8.316574833312999626e-01
5.386645427658486307e-01 1.413441529296169674e-01 8.305795210571160769e-01
-8.433302917894153206e-01 1.466318471168992499e-01 5.170039848603353860e-01
-8.437972590324652744e-01 1.459583046116657290e-01 5.164323372564761927e-01
-8.404865758881002735e-01 1.485027104466906112e-01 5.210846963228559225e-01
8.457625485845914337e-01 5.319691513231826485e-03 -5.335329533345628539e-01
8.341619717702557502e-01 1.860069640802149149e-02 -5.512057863860788665e-01
8.183708044479340860e-01 6.066609501201361554e-02 -5.714795283675825344e-01
8.290529729641130663e-01 8.789865887702975888e-02 -5.522182483284896470e-01
8.176491317020323502e-01 1.156775902570958414e-01 -5.639757020823006339e-01
5.371074221127487558e-01 1.519913753493864206e-01 8.297073212469560088e-01
5.405201684892861902e-01 1.496905890054449351e-01 8.279074072742171886e-01
5.376803774021871041e-01 1.534918902457899637e-01 8.290597393345161548e-01
-8.499492207795598109e-01 1.388600693822945320e-01 5.082363655105401890e-01
-8.359290476702915251e-01 1.425871244563832740e-01 5.299920180533846947e-01
-8.403957222254183623e-01 1.491466193323755240e-01 5.210473260721534272e-01
5.365168705786932390e-01 1.955876279312613597e-01 8.209111568158080630e-01
5.464093082455304673e-01 2.100239178222957359e-01 8.107569437292623249e-01
-8.398606412462328308e-01 1.525341600281219512e-01 5.209293937857432111e-01
5.315444680216965256e-01 3.087081417538327655e-01 7.887710451901914777e-01
5.396612220753523870e-01 2.522124313669463214e-01 8.032151983448212462e-01
5.651547591786331148e-01 2.867618316448307114e-01 7.735423389119970849e-01
5.651547591786331148e-01 2.867618316448307114e-01 7.735423389119970849e-01
-8.323824685862249995e-01 2.790879268633033039e-01 4.787999113089366765e-01
-8.381911485422415264e-01 1.869734600265190450e-01 5.123246273127515238e-01
5.240076639790199886e-01 4.499060910936140134e-01 7.231877192597473414e-01
4.920857264432824119e-01 5.689620938979340625e-01 6.588882860835102440e-01
5.181554230728937505e-01 5.605018512090484961e-01 6.460283525754734191e-01
-7.108073377673812532e-01 5.732727490020722572e-01 4.075675205750026175e-01
-7.108073377673812532e-01 5.732727490020722572e-01 4.075675205750026175e-01
-6.771743498339799494e-01 6.827142478036906104e-01 2.744743262543283269e-01
-6.771746844293016210e-01 6.827149269079890725e-01 2.744718115674079639e-01
-8.156017343197792258e-01 4.735245543910358568e-01 3.325181308791134716e-01
4.763680356463557142e-01 6.361735923754974209e-01 6.069239284939149659e-01
4.763680356463557142e-01 6.361735923754974209e-01 6.069239284939149659e-01
4.405896730040684828e-01 6.636335281256432461e-01 6.045422072855450857e-01
4.984979032831320378e-01 6.284650388863590731e-01 5.971026170767367303e-01
-6.040226767025834720e-01 7.614550335102451273e-01 2.352505854848349620e-01
-6.042000911362018778e-01 7.649516203225049660e-01 2.231395716518689565e-01
-6.042000911362018778e-01 7.649516203225049660e-01 2.231395716518689565e-01
3.970883757555321303e-01 7.901659694648740517e-01 4.668603244434774702e-01
4.346583551031494852e-01 7.461651214129854104e-01 5.042913105792814488e-01
4.456596289839819813e-01 7.412180426028864844e-01 5.019793904273411878e-01
4.456596289839819813e-01 7.412180426028864844e-01 5.019793904273411878e-01
-6.600460504737015732e-01 7.045204372987449171e-01 2.607492371656202068e-01
4.762857625797316530e-01 6.941574805059629316e-01 5.397196166728213118e-01
4.513152364297466357e-01 7.044590686897953535e-01 5.477700045704112508e-01
-6.075606860167677148e-01 7.352797792239985641e-01 3.003891793509589903e-01
5.196705288629290820e-01 5.748120747123577345e-01 6.320867188892665967e-01
4.791467022338533610e-01 6.044132401905397689e-01 6.364770795722308749e-01
5.131489562558230189e-01 5.355927510888053300e-01 6.706851375084171840e-01
4.844640935683378613e-01 5.704072510341527957e-01 6.632722744172786511e-01
-7.795048744631322135e-01 4.494599017642395000e-01 4.363002949738820080e-01
-7.986682873916118863e-01 4.276955262464134933e-01 4.233267101704700219e-01
5.107673327311403888e-01 4.868940104449506756e-01 7.085555408064697636e-01
5.052181874125549754e-01 4.930675763024889857e-01 7.082647445036083234e-01
5.176931985491797228e-01 4.704694196969108622e-01 7.145993823856633398e-01
4.990107291423651059e-01 4.808388013402395966e-01 7.209593187735953146e-01
-7.812353990491814892e-01 5.081571924681038688e-01 3.625569183113190319e-01
5.139900657361822223e-01 4.558100939955016528e-01 7.266714323105919471e-01
5.096791974552205007e-01 4.570701634977600847e-01 7.289128763587134907e-01
5.038989098411419398e-01 4.569836059951418172e-01 7.329746738548241769e-01
-2.721714264335565736e-01 9.563276699793986646e-01 -1.065837804963653546e-01
-2.721714264335565736e-01 9.563276699793986646e-01 -1.065837804963653546e-01
-2.666870171540023926e-01 9.618997138133273950e-01 -6.022437585678660360e-02
-4.243844138887380435e-01 8.241119525879900820e-01 3.751497818870787593e-01
-4.243844138887380435e-01 8.241119525879900820e-01 3.751497818870787593e-01
-4.058142341914124929e-01 8.987792184903398152e-01 -1.658635696514801638e-01
-5.910688980598327591e-01 6.715322431682562154e-01 4.468579238770921669e-01
-5.910688980598327591e-01 6.715322431682562154e-01 4.468579238770921669e-01
4.323897663353502563e-01 6.591119000997667232e-01 6.153134104790308756e-01
-1.414490384872692519e-01 9.856039080753939974e-01 -9.261266596711947852e-02
-1.705301604884445488e-01 9.841282402934363738e-01 -4.910265798029530421e-02
-1.568099349693229394e-01 9.833849864321261292e-01 -9.145825689790838819e-02
-1.557989625880653040e-01 9.834586132295174421e-01 -9.238960613162662538e-02
-1.697454356946045406e-01 9.811678309907506668e-01 -9.217469549586018718e-02
-1.543713884127624336e-01 9.822016222765992399e-01 -1.070020917399876620e-01
4.610188699732112316e-01 6.672788436818937186e-01 5.849790990310494987e-01
4.610188699732112316e-01 6.672788436818937186e-01 5.849790990310494987e-01
4.610188699732112316e-01 6.672788436818937186e-01 5.849790990310494987e-01
-1.183395279704026193e-01 9.654944600325786608e-01 2.319831971633760370e-01
-1.466278282149930667e-01 9.600508854931891767e-01 2.383329126593681513e-01
-1.627952303620988639e-01 9.611686652089681537e-01 2.228284317401209857e-01
-1.502840530353332926e-01 9.881523735597320668e-01 -3.113824066225987994e-02
-1.536249232208046489e-01 9.875117320144971567e-01 -3.492795583955719124e-02
-1.409155847714459453e-01 9.887878400857162964e-01 -4.941057849434256355e-02
-1.733904448519969499e-01 9.836967586646032657e-01 -4.771205955290537537e-02
3.886117689878570980e-01 7.770346538552673765e-01 4.951747567396315164e-01
3.886117689878570980e-01 7.770346538552673765e-01 4.951747567396315164e-01
3.914300194485295648e-01 7.760164050773529221e-01 4.945513915917592040e-01
3.980415632246459001e-01 7.700343501926112388e-01 4.986080760167478920e-01
-1.765939401922581031e-01 8.732029339601216078e-01 4.542369606392774872e-01
4.102750927174889650e-01 7.525233779796377531e-01 5.151532916421782682e-01
4.063815690961487537e-01 7.538297060927702242e-01 5.163281848892617987e-01
3.893673784182352104e-01 7.579222738976957308e-01 5.233993421408332791e-01
3.496008504693150498e-01 7.747571957792991348e-01 5.268116674290047596e-01
-2.905401593269449911e-01 6.919887196281505615e-01 6.608615798528963969e-01
3.769769092455758086e-01 7.157127099689420957e-01 5.879147273921330186e-01
3.430208744825157252e-01 6.965561508591147089e-01 6.301953731737358622e-01
3.097791507818355439e-01 6.747682836273263263e-01 6.698691224049044823e-01
-1.956451871705822965e-01 6.731670796194897388e-01 7.131402692693460388e-01
-1.839210458062499332e-01 6.646993073693023835e-01 7.241186917158711767e-01
-2.750798490862470524e-01 6.650089965663332769e-01 6.943299727885338113e-01
3.649558509750346347e-01 6.304340072244978277e-01 6.850986712685627200e-01
2.048064278166860930e-01 6.637994784074578991e-01 7.193223057788180608e-01
2.634572386155571433e-01 5.877650817347257473e-01 7.649329984478618893e-01
2.193425068263261946e-01 5.464039539580063387e-01 8.082892946205584295e-01
1.932284638751756434e-01 5.938447424695072474e-01 7.810321264773711913e-01
-9.810328806016252456e-02 5.999903787406712929e-01 7.939693257868408738e-01
-1.446487635318887965e-01 6.110728266303000478e-01 7.782459352690196397e-01
-1.436035977656067997e-01 6.100631499909151545e-01 7.792310053712800944e-01
-1.733265227553394128e-01 6.078465366251004642e-01 7.749067714392572359e-01
-1.886817282889380332e-01 6.197379790513558584e-01 7.617900253555702772e-01
-1.886817282889380332e-01 6.197379790513558584e-01 7.617900253555702772e-01
-2.127681017726743284e-01 6.186330928777058480e-01 7.563219098139473129e-01
-2.192274318487736073e-01 6.379125429387459967e-01 7.382458402770813999e-01
2.861982041292966406e-01 5.287767415091333412e-01 7.990530305256019483e-01
2.230025532171116542e-01 5.173725396911511565e-01 8.261933892450227246e-01
1.710884951237305052e-01 5.233966821229446564e-01 8.347362697157652001e-01
1.662814051081112909e-01 5.202046628661387562e-01 8.376977993570230430e-01
1.114591635058336111e-01 5.248410469102385845e-01 8.438712759353435011e-01
5.931767069067554049e-02 5.290675594027950401e-01 8.465039465539440089e-01
-4.484399178817311676e-02 5.593347333198864790e-01 8.277280184350858105e-01
-6.943672161852702807e-02 5.592772955709061078e-01 8.260674599267086027e-01
-6.943672161852702807e-02 5.592772955709061078e-01 8.260674599267086027e-01
-1.268520321213407465e-01 5.839423981258563545e-01 8.018228218364142901e-01
-1.268520321213407465e-01 5.839423981258563545e-01 8.018228218364142901e-01
-1.064062983931463729e-01 5.722918610462203182e-01 8.131172888596835957e-01
6.554875913073450466e-02 1.581951468574397945e-01 9.852297476665906606e-01
2.666825793596161454e-01 1.735899565669911937e-01 9.480226415255978978e-01
2.833869806657033918e-01 1.586911874584180093e-01 9.457848202483550848e-01
3.920163741974108107e-01 1.561517703145934022e-01 9.066089493208933092e-01
4.052143488316994335e-01 1.503529101264105272e-01 9.017734382412365690e-01
-7.327396987515642779e-02 2.197577709508107546e-01 9.727987702734136599e-01
2.488591763086839548e-01 1.916471701478205669e-01 9.493895262437307414e-01
3.976140642467376196e-01 1.757424719987946415e-01 9.005651777905606670e-01
4.524624325584120088e-01 1.784166006411702088e-01 8.737535486273996232e-01
-7.481889107174735654e-02 1.563817097764979291e-01 9.848588195199214912e-01
2.464313924645099851e-01 1.960449250170617497e-01 9.491248369856607470e-01
2.464313924645099851e-01 1.960449250170617497e-01 9.491248369856607470e-01
2.489123857199369294e-01 1.934027718313295341e-01 9.490194898331477669e-01
4.237194854475533345e-01 1.524414202378321093e-01 8.928736814622397766e-01
4.537546884676186276e-01 1.504672650102187315e-01 8.783315347031547260e-01
-7.656367599459535933e-01 1.241962562253814406e-01 6.311700577174597093e-01
-1.487877626793333297e-01 1.888418412017548731e-01 9.706703666479210568e-01
3.988283236315355307e-01 1.703148584637825258e-01 9.010709279827646689e-01
2.463057871543429811e-01 1.913132428012848107e-01 9.501224670236654291e-01
4.255053448072764199e-01 1.684664910500297264e-01 8.891367965244331151e-01
4.231947575706315190e-01 1.660955592221134702e-01 8.906842663769400925e-01
4.531029837166660745e-01 1.623053877576333681e-01 8.765584106332555692e-01
-5.875678876104855064e-01 1.770294873424573256e-01 7.895723767079357858e-01
-5.454191723184922402e-01 1.289033878001042410e-01 8.281919119872317436e-01
-3.206334394334152682e-01 2.691967572628859440e-01 9.081449792826282730e-01
4.568450821496612413e-01 1.540684966456957461e-01 8.761024308019036422e-01
4.562607850775768359e-01 1.639758823007111954e-01 8.746073439115958914e-01
4.693842484140213211e-01 1.566471308133652596e-01 8.689879767572993297e-01
-7.640897038021762233e-01 1.321130142559120979e-01 6.314373096418358644e-01
-6.039927440292777172e-01 1.922170828812337917e-01 7.734632235656795363e-01
-5.880615127438939549e-01 1.723185918518360393e-01 7.902467716679159038e-01
-3.094921180227041546e-01 1.884967206716550436e-01 9.320319818428187686e-01
4.388844948599477935e-01 1.471062875324928576e-01 8.864198442836982439e-01
4.388844948599477935e-01 1.471062875324928576e-01 8.864198442836982439e-01
4.582167617054271891e-01 1.610581191162178405e-01 8.741268109141475673e-01
4.582167617054271891e-01 1.610581191162178405e-01 8.741268109141475673e-01
-7.970101597716550135e-01 2.490663932747430864e-01 5.502188082589254403e-01
-7.602529211740609583e-01 1.322406257353658521e-01 6.360250881462350403e-01
-5.313112625993763327e-01 1.298154272321740410e-01 8.371716055191938954e-01
4.499843610676910743e-01 1.805537543348673668e-01 8.745938580793293227e-01
4.605721179926275388e-01 1.623930082621711235e-01 8.726407250382872682e-01
4.725986605933840679e-01 1.621906905238404417e-01 8.662243854295139656e-01
-8.271055681520799174e-01 1.276977512671803594e-01 5.473478450246521687e-01
4.775940436869894334e-01 1.870499306067965051e-01 8.584382638808119026e-01
4.664753351877837240e-01 1.613181419387711979e-01 8.696994991046432810e-01
4.601719932569218185e-01 1.687615685943077704e-01 8.716428566721236004e-01
-8.374586041364759925e-01 1.391831596079192435e-01 5.284800227438514186e-01
-8.224834168865456929e-01 1.305019693459983643e-01 5.536156292441974935e-01
4.789592684143735291e-01 1.663712450778209728e-01 8.619272753609922288e-01
4.677275987639623045e-01 1.649168977656998436e-01 8.683509141964643741e-01
4.660766829101307684e-01 1.668604918089602873e-01 8.688671370933309657e-01
4.723365098475414414e-01 1.691783810164115553e-01 8.650299976658087919e-01
4.687089744741840813e-01 1.648155109615461467e-01 8.678408521116317553e-01
4.687089744741840813e-01 1.648155109615461467e-01 8.678408521116317553e-01
-8.218812904770795846e-01 1.362760254049460718e-01 5.531184224590254273e-01
4.731198177033869579e-01 1.745017853072441116e-01 8.635431460100291279e-01
4.675604290637544458e-01 1.678320448150870947e-01 8.678822788298562463e-01
4.734452112553263481e-01 1.670313604261070006e-01 8.648411163754898823e-01
-8.281995855356307779e-01 1.312921666242280738e-01 5.448374193295880685e-01
-8.198220053251834560e-01 1.444990493588233504e-01 5.540865494839153360e-01
4.801141738644544854e-01 1.845737313270220947e-01 8.575680251493013051e-01
4.741808871068837750e-01 1.690748854463228756e-01 8.640406063454665331e-01
4.728163540263789488e-01 1.677125052082825418e-01 8.650532994919813978e-01
4.734079505950184452e-01 1.676154050546610486e-01 8.647485115926978327e-01
-8.290393815270002964e-01 1.354755712205812923e-01 5.425311728184714077e-01
4.746108022703877105e-01 1.697443705830595506e-01 8.636732223611079950e-01
-8.301728942840744807e-01 1.382128350902595282e-01 5.401020068582560452e-01
4.762720104985845304e-01 1.716638539472152836e-01 8.623783933190960482e-01
4.745136586558625358e-01 1.685509851037456097e-01 8.639602729116568902e-01
4.747900706596062670e-01 1.682299914942014252e-01 8.638709734473701829e-01
4.747900706596062670e-01 1.682299914942014252e-01 8.638709734473701829e-01
4.813963343678825946e-01 1.682772008851296797e-01 8.601978568442446571e-01
-8.380428072086583136e-01 1.328194673453444441e-01 5.291911208438123682e-01
4.762934495808643920e-01 1.714499107188992288e-01 8.624091128929715078e-01
4.742406170307490454e-01 1.722459487069112338e-01 8.633812427383109611e-01
4.784200523608118094e-01 1.721355858993080801e-01 8.610944161740802238e-01
4.784200523608118094e-01 1.721355858993080801e-01 8.610944161740802238e-01
-2.083492190533372812e-01 -7.077646134205978212e-01 -6.750258179576957840e-01
5.698478715831534203e-01 1.751639399647631767e-01 8.028642459271496667e-01
5.665987241672013619e-01 1.753503207546865394e-01 8.051199604924276221e-01
-8.400483235020469452e-01 1.363558834158583866e-01 5.250960742942961668e-01
-8.397305058845399017e-01 1.372047633276393674e-01 5.253832224263550454e-01
-8.390481238375886441e-01 1.381423738222112563e-01 5.262270711768705089e-01
5.694864871270921558e-01 1.798706249122856982e-01 8.020796090621603591e-01
5.687345833534848127e-01 1.782331027263721612e-01 8.029781658241204045e-01
-8.405777627200970992e-01 1.361931682609718031e-01 5.242904211784863433e-01
5.704651347267031269e-01 1.838420391868265114e-01 8.004821264018788796e-01
5.728456259953439433e-01 1.797519573768922851e-01 7.997106492958427904e-01
5.728456259953439433e-01 1.797519573768922851e-01 7.997106492958427904e-01
-8.411058156849892109e-01 1.356305846631657985e-01 5.235889144403428341e-01
5.767972945500740023e-01 1.844876050647049626e-01 7.957821338640398423e-01
-8.418621082679076384e-01 1.352126655545720924e-01 5.224803591871576280e-01
4.777853259567659272e-01 1.512760287296573969e-01 8.653535378284245017e-01
4.770644015131793036e-01 1.502780923423869541e-01 8.659249689036603304e-01
4.781017279338906079e-01 1.514341932114438016e-01 8.651510982903662939e-01
-8.420073934917734482e-01 1.341412491843192445e-01 5.225224153780009262e-01
-8.423761518916491609e-01 1.352029874997191794e-01 5.216536886626682579e-01
-8.414894590987594958e-01 1.356165065381435553e-01 5.229757674883863672e-01
4.904738015819968822e-01 -8.709697738102422093e-01 2.910503514238452563e-02
4.292988665845169360e-01 -9.009659252313959588e-01 6.295144733192128972e-02
-8.425632679000953917e-01 1.337157894721633933e-01 5.217348246296656944e-01
-8.432729064596951041e-01 1.350108899947103092e-01 5.202526932307552920e-01
-8.429136082383077433e-01 1.347240954321883011e-01 5.209088856572281490e-01
3.782478460104664597e-01 -9.256151616427772399e-01 1.285066245209867328e-02
-2.252957547320974530e-01 -6.489858628643309091e-01 -7.266768007181284572e-01
-2.478750733752141666e-01 -6.525164341742287766e-01 -7.160867622933561050e-01
-1.992572036129093560e-01 -6.454569387135177250e-01 -7.373478874147114670e-01
