-1.213548698648969637e-01 -4.450482767521106442e-02 9.916109700248750825e-01
-3.263080764362943226e-02 4.483614708276217192e-02 9.984612913414807611e-01
-1.955953938218568319e-02 2.425902155529444798e-02 9.995143442153976432e-01
2.245297097938599162e-01 6.282092061830996110e-02 9.724401993709190783e-01
1.907092583755688187e-01 9.021583080114707609e-02 9.774922417301834532e-01
1.997911052910684715e-01 -1.364708190871223026e-01 9.702882199554229148e-01
1.669906436847463094e-01 1.299920741721509732e-01 9.773516181877309750e-01
1.101980761995796365e-01 9.087175898484800562e-02 9.897467895481708577e-01
-1.108687693769995486e-01 3.077569300123673621e-02 9.933584311300344138e-01
-2.816285495846514442e-01 9.682703034854452107e-02 9.546255214756870222e-01
-2.171080564828700710e-01 4.899385438681142652e-02 9.749172754867742041e-01
2.079995822549673135e-01 3.235746690749215920e-02 9.775935597768070640e-01
1.415639885278961452e-01 -5.479388853549611860e-02 9.884114866447240022e-01
6.482723185749428296e-02 1.713777500823486233e-01 9.830702400064842417e-01
7.744839874621139986e-02 1.303713946884472175e-01 9.884356554569634357e-01
2.432591674545692140e-02 -1.823052773325208389e-02 9.995378420215315085e-01
6.864418242203390585e-02 4.335459164632330525e-02 9.966987286049837635e-01
8.608718922704144960e-02 9.056404730132129599e-02 9.921628642452767766e-01
9.474633658056741403e-02 1.594906930347591290e-01 9.826422800489779119e-01
7.240008078503500089e-02 1.016579842214100637e-01 9.921813758312338916e-01
-4.814228009477268533e-02 1.223530643470150808e-01 9.913183386340492786e-01
-2.664796785985319022e-02 -1.283111705307103112e-01 9.913758769134839444e-01
1.237914003886103759e-01 1.047735862505742577e-01 9.867614629757388567e-01
-4.179038247960720903e-02 1.026101149679749386e-01 9.938434123333852455e-01
-9.143744196886768871e-02 8.836914309206223006e-02 9.918820941802330982e-01
-2.172894061248921427e-01 -6.399484005325908886e-02 9.740071737068722868e-01
-2.925044704911384796e-01 -7.501892799047732430e-02 9.533169961696152939e-01
1.671703359604142236e-01 -4.155995685318542715e-02 9.850516985220845179e-01
7.747490410925218784e-02 -3.406082351663682756e-02 9.964123140219769414e-01
1.112509254394821456e-01 -8.231446186503328308e-03 9.937582577682247953e-01
-3.882482720982164542e-02 2.079086052931008663e-02 9.990297157295064956e-01
2.236568156961017337e-02 -2.118363454108575933e-02 9.995254023363070450e-01
-1.141416777846260416e-01 9.213252832888785271e-02 9.891831350241659937e-01
-1.445503846402452219e-01 -6.033902044017915023e-02 9.876560073794301564e-01
-1.785135401299478564e-01 7.254920452807323006e-02 9.812591548172262534e-01
-2.346727941763632475e-01 3.294030735591664538e-02 9.715161428534042631e-01
2.523257275667467603e-01 -2.233310536925207923e-02 9.673845975683497134e-01
7.653009855678223616e-02 -2.376155382326266760e-02 9.967840952657669451e-01
3.589949882880864862e-02 -9.937790685131249468e-02 9.944019597796921461e-01
-2.627024643077871882e-02 -5.770609853194993283e-02 9.979879159311935144e-01
8.466109088936407678e-02 6.040109316836143188e-02 9.945774015296596771e-01
2.290996918472894273e-01 -6.057909763083831750e-02 9.715160853664288609e-01
2.152596321880766717e-01 7.114396415633494897e-02 9.739619228257211381e-01
-7.388494976710514861e-02 -5.544764712775821641e-02 9.957241448442977205e-01
1.531268151777229539e-02 -4.523727217530858213e-02 9.988589044459044164e-01
-1.492547579808359004e-01 -5.541229030047301052e-02 9.872449013814852403e-01
1.221693026703746798e-01 -5.324904763891220860e-02 9.910798153582703884e-01
2.801298868343924942e-01 9.263418573026130365e-02 9.554821579371547413e-01
-3.695473206539254263e-02 1.062925086591361007e-01 9.936479509267466259e-01
-2.741139377332000859e-01 3.370276063832444279e-03 9.616913176168603306e-01
1.148146264972803726e-01 2.919103942313796066e-02 9.929579471254997847e-01
9.751792769887510093e-02 1.344052422472556962e-01 9.861163646516435399e-01
6.693573965803421844e-02 -6.933609051396880107e-02 9.953452231807166095e-01
9.014407360961851010e-03 2.375776022406066168e-02 9.996771025131397925e-01
3.158919677751720334e-02 -2.568465435594992005e-02 9.991708668578996866e-01
7.035913557374977312e-02 -5.356641200732290692e-02 9.960824421432075138e-01
6.148485739777960479e-02 3.317151715683738095e-02 9.975566463917165949e-01
-2.046048910014147959e-01 7.823844018017460725e-03 9.788133765141754372e-01
6.868237501817354984e-02 -1.894065410056894327e-02 9.974587625481594610e-01
-2.129593134699446499e-01 -3.391698596511563690e-02 9.764722058868094967e-01
-2.683003961554979444e-01 -2.600826897198234983e-02 9.629841469971786028e-01
3.556994314426607795e-02 6.584070912670805797e-02 9.971959587595639052e-01
7.715384804931887941e-02 7.765965058746211735e-02 9.939900715811077481e-01
1.160492166658119856e-01 -3.532714540531603498e-02 9.926150170679280960e-01
1.032475233167863549e-01 -8.133928126208937737e-02 9.913243012519750152e-01
-1.760240953159235011e-01 -1.993428133112137846e-03 9.843838398269695311e-01
6.787061097288643596e-02 6.190632616369838581e-02 9.957716540186715148e-01
3.785088453834478672e-02 6.237330288079723228e-02 9.973348894064647530e-01
-3.723719206135198134e-02 1.794371363005786008e-02 9.991453421142233449e-01
3.198349511430881309e-02 -8.351023249430757078e-02 9.959935226240278494e-01
-2.651362547343301124e-01 -9.430764524796540760e-02 9.595878461471030185e-01
1.246014721865697644e-01 -4.518029030877639129e-02 9.911776906773850371e-01
-2.422995266336146897e-02 -4.751883772691982422e-02 9.985764214395480565e-01
-2.635838806525972119e-02 7.503390394925693596e-02 9.968325579738730458e-01
9.713987686300205870e-02 3.312769937619994276e-02 9.947192568041904881e-01
-6.333176377328170181e-02 1.966680339177309944e-01 9.784225938378054988e-01
6.107861089009371074e-03 4.168005284377945818e-02 9.991123396434743453e-01
7.776776088023416855e-02 3.756666197970747606e-02 9.962634798462589591e-01
3.064928526221450192e-02 2.948431456213253645e-04 9.995301568139076664e-01
-2.814280764554067948e-01 -2.024331905439573365e-02 9.593687746723216225e-01
7.920608992017602601e-02 1.817232467555344316e-02 9.966926115585703627e-01
3.018011653437572758e-02 8.164450540401435585e-02 9.962044646071936960e-01
4.431450913542442360e-02 -5.081271448681562442e-03 9.990047071763732411e-01
7.446362172891374601e-03 -8.216393853092878244e-03 9.999385193912879721e-01
7.915499135961351351e-02 -4.315649263345179565e-02 9.959277104722201734e-01
-4.937071877989462898e-02 2.951228989819604590e-02 9.983444079435318530e-01
-1.010679271989030903e-01 2.275865146649689447e-02 9.946191823382172226e-01
8.951869188169810088e-02 -1.248344013183527723e-01 9.881309508619178228e-01
2.137022700071631309e-01 -1.426777721000206667e-01 9.664235060998672688e-01
-2.734730471907961813e-02 4.040350080661520710e-02 9.988091319402179202e-01
-5.098265078590138999e-02 -2.187404223131655598e-02 9.984599619390380765e-01
3.015166953769009978e-02 6.223707243735395606e-02 9.976058458321690470e-01
7.982285872194995469e-02 3.175172712434153055e-02 9.963032364948319897e-01
1.306963016916757973e-02 -9.906810819862928164e-02 9.949948214464162666e-01
2.396800815721397415e-01 -1.700162517540121099e-01 9.558493252794024730e-01
2.942566986940332863e-02 4.370158160125162117e-02 9.986111864576151520e-01
6.610470144587379804e-02 5.739543053506870190e-02 9.961605959886418171e-01
6.848009858441340969e-02 5.582537485573658281e-02 9.960893552388188077e-01
6.752413693144827811e-02 8.508763121442798616e-02 9.940827862637903189e-01
2.196799183512736231e-01 1.712237753970247411e-01 9.604286294212427411e-01
6.284004801241145632e-02 -4.100922493353754972e-02 9.971807117248850938e-01
-6.799155066244710888e-02 3.118925839019494328e-02 9.971982647395579713e-01
-9.691254624182450358e-03 -6.679105287027089013e-03 9.999307321691709438e-01
6.018070927902652301e-02 3.949007903967906991e-02 9.974060436392558904e-01
1.840198266441034347e-01 8.444294148983838913e-03 9.828862585763418203e-01
5.979482115411489940e-02 -1.854473443605045568e-01 9.808332487394499921e-01
1.527715995502038071e-02 1.064748586316106166e-01 9.941980249744450937e-01
-2.690900901603085482e-01 1.254107246570976622e-02 9.630333560572691409e-01
-1.773578510331650648e-01 -1.821771360871199397e-01 9.671378824986603950e-01
-3.518426629488377588e-01 -1.029383222190164426e-01 9.303818798470896434e-01
-2.739934811313232688e-01 -9.866068279799039553e-02 9.566575364086008504e-01
-3.035971786282503082e-01 -2.296867103650149511e-01 9.247014481499766791e-01
2.486905277630016009e-01 4.791332475190085427e-02 9.673971959397952292e-01
7.404172183950577524e-02 -1.866844067982040278e-01 9.796258243255145937e-01
-5.554819214451789389e-02 2.464506029486765101e-02 9.981518017578979718e-01
-6.373271570900093273e-04 -3.493613849352468492e-02 9.993893435699903183e-01
7.173922028707852006e-02 3.069689831011991870e-03 9.974186990812552445e-01
6.518339205031058181e-02 -3.015320935431152760e-01 9.512252740357152181e-01
7.847962045543567522e-02 9.113681004567980581e-02 9.927411702089665724e-01
-7.932621876843594377e-02 -2.257893653589431934e-02 9.965929673847846448e-01
-3.034125924590013734e-01 -1.756777554892468285e-01 9.365244924525830683e-01
-3.962344307507016383e-01 -1.008220301769271049e-01 9.125969505311040120e-01
-2.911335862591060697e-01 -1.502073735524773468e-01 9.448169028348180065e-01
2.702355232625324732e-01 -8.063971736568749382e-02 9.594112767474684000e-01
2.344486505498260265e-01 -1.211793016417640062e-01 9.645462182337246615e-01
2.278400537411212901e-01 3.026554221848879248e-02 9.732280857360539050e-01
2.257905112162176819e-01 -5.910048643895225717e-02 9.723814979458413887e-01
6.864409550724791254e-02 -5.154119952885833494e-02 9.963089344691826721e-01
6.080387736384657710e-02 -9.726872145704448802e-02 9.933990559305129198e-01
-3.067088893527786242e-01 -4.078487712588663855e-02 9.509291514039368565e-01
-1.956337084750143507e-01 -9.589513000005991938e-02 9.759772416150823693e-01
-1.981144466315784280e-01 -2.275981598169520836e-01 9.533885586075598884e-01
-3.363430116968082473e-01 -1.025660921599869657e-01 9.361375834896010772e-01
-3.000423037719992525e-01 -9.326513959899132566e-02 9.493556918683174750e-01
-3.006006820139461855e-01 -2.145472674361065257e-01 9.293054933704256726e-01
-3.859043073329219697e-01 -8.352528392958975811e-02 9.187499074973445312e-01
-4.315250811008290999e-01 -1.772023296525721270e-01 8.845255444285505808e-01
8.579298850668011511e-02 -2.355413301003173032e-01 9.680701652967443893e-01
-1.602907808572192824e-02 -2.726001403491839503e-01 9.619938836278155714e-01
-3.137940118480904428e-02 -4.014078945471107052e-02 9.987011816370476858e-01
3.822044292137469212e-02 -1.787849098297161765e-01 9.831455404771329842e-01
1.219603708298863387e-01 -1.282628409831771399e-01 9.842125337395174478e-01
-7.585098479960712681e-02 -8.420907327687357502e-02 9.935569737477463192e-01
-2.733647361220291061e-01 -2.724493740207195938e-02 9.615245365724633952e-01
-2.237022243732315341e-01 -1.660086494097973986e-01 9.604157657658496383e-01
-3.399031316880362641e-01 -1.821818424230792766e-01 9.226459978561645237e-01
-3.360901571456245129e-01 -2.751715358994440142e-02 9.414277521552767425e-01
-3.537692344535601358e-02 -1.481862425844399367e-01 9.883265203343715166e-01
5.125349312377983774e-02 -1.177872100247628340e-01 9.917153082398157959e-01
1.011001721774499595e-01 -1.371360861603084791e-01 9.853793427195042254e-01
8.372966353374497461e-02 1.211588336105092790e-02 9.964148477491225897e-01
-2.270383995776577568e-01 -1.192586129698889330e-01 9.665562313438955666e-01
-3.394162207962498345e-01 -8.275864905621531376e-02 9.369885992192122925e-01
-4.222651723508261123e-01 -1.358625785824389698e-01 8.962329406802997944e-01
-3.507869750588992752e-01 -6.635027008168645213e-02 9.341017823498222183e-01
-4.868784543406794452e-01 -2.748372215022341913e-02 8.730372361563969452e-01
-4.683490146102021190e-01 -6.169747651069959482e-02 8.813867606822015643e-01
2.341268801215271589e-01 -1.893522225237723455e-01 9.535881395182449483e-01
3.527758936928466205e-01 -1.600689681949504783e-01 9.219149061872343731e-01
2.892641522708075397e-01 -1.737576661051997706e-01 9.413471855169722735e-01
1.176192954188679494e-02 -6.656564142366183656e-02 9.977127203736094740e-01
-9.392969631482593618e-02 -6.364563362711252170e-02 9.935423722571715688e-01
8.232009170807208509e-02 -6.397231410017127640e-02 9.945506249205435800e-01
1.906466545848498895e-01 -3.157831252243833986e-02 9.811506832662555411e-01
-1.645656306270063263e-01 -1.225557668905947056e-01 9.787227580976105568e-01
-2.354630186719736118e-01 -1.098675040117654544e-01 9.656533013458331594e-01
-3.865874635145401528e-01 -4.075387575922451849e-02 9.213518625715128030e-01
-2.818114029528742126e-01 -1.371155705106796574e-01 9.496218476263399433e-01
-3.789394256111820458e-01 -1.512664596607808110e-01 9.129750105556891926e-01
-3.229913684518962436e-01 -1.750035028576077956e-01 9.300808297632732202e-01
-3.710946144052364448e-01 -6.218879702674688648e-02 9.265103025243675017e-01
-3.042666515247307579e-01 -7.651268539887266795e-02 9.495091435805034230e-01
-4.079186414058290633e-01 -2.102528529153220027e-01 8.884796676540158700e-01
2.316659423098668402e-01 -3.571645693573439195e-01 9.048559894090686395e-01
2.703977693418653794e-01 -1.986044603639325334e-01 9.420410366106640732e-01
-5.437505003827289296e-02 -1.233684395906683856e-01 9.908701136104058893e-01
-3.549818760556269770e-02 -1.332283214278897343e-01 9.904494399242330660e-01
2.347249645072240973e-02 6.818485975254869047e-03 9.997012304480654699e-01
6.521632552406927963e-02 -6.669803005395101569e-02 9.956395952713316122e-01
-2.221269842287550145e-02 -6.503770733510316759e-02 9.976355510171877050e-01
-1.408104445371338720e-01 -9.826534493627851752e-02 9.851478775766656648e-01
-1.014860855108757620e-01 -1.125456715540312375e-01 9.884503256421798278e-01
-4.512824873162515904e-01 -9.153551962858448576e-02 8.876741323751539126e-01
2.410283836541913249e-01 -2.536719726347836934e-01 9.367795090482208265e-01
1.323074761055831605e-01 -2.243443006540030149e-01 9.654865957281005828e-01
1.384897201332630223e-01 -1.169628342661659381e-01 9.834329122099971787e-01
1.995331258048088034e-03 -9.833990320674922125e-02 9.951508840826388536e-01
-2.155520171834062783e-03 -1.532274133411894862e-02 9.998802764985398328e-01
-6.448549284007080995e-02 -3.412152545298340056e-02 9.973351205657677854e-01
-3.844527563871886211e-01 -2.158269707054471798e-01 8.975604697302589363e-01
-3.822623069241219973e-01 -3.061054811283097088e-01 8.718801311695629774e-01
3.708956182729632456e-01 -1.807671504938241913e-01 9.109114543402445641e-01
3.839438059593516805e-01 -1.762794842886084012e-01 9.063733763104419028e-01
1.802065960322733196e-01 -2.993187486147732557e-01 9.369812535340006354e-01
3.404540424736024473e-01 -8.287904402032145179e-02 9.366013607857188727e-01
4.586242632304467497e-04 -1.632901561037887195e-01 9.865779820082066776e-01
7.665109964760205563e-03 -8.383306504546919613e-02 9.964503315741886080e-01
3.803630491757468979e-02 1.282019913606588296e-03 9.992755355422038299e-01
-8.440854569189779749e-03 -2.948175165837169445e-02 9.995296785455127786e-01
4.669647044824991669e-03 -6.190568052403557647e-02 9.980710801918534214e-01
-2.908185067782997554e-02 -1.030324698641294293e-02 9.995239312105984597e-01
-2.135331793865089534e-01 -2.127190168194855249e-02 9.767041965200735643e-01
-1.583131724476671554e-01 -5.434783180948133535e-02 9.858921100237914015e-01
-3.768816962246305247e-01 -1.304733628438559945e-01 9.170261112089780342e-01
-4.375916174804469483e-01 -1.592944530231294176e-01 8.849513283491404758e-01
-3.840353961506193792e-01 -1.714037524770928578e-01 9.072692919636419218e-01
1.957870013824788979e-01 -2.764940303451217662e-01 9.408605110605758881e-01
2.503980302859418750e-01 -1.661441507000236406e-01 9.537803455812499109e-01
2.218633507556904139e-01 -1.547877952947717128e-01 9.627135565780932103e-01
1.315982136572188821e-01 -1.426195215340301803e-01 9.809901030283808554e-01
-5.275342808037198489e-02 -4.538267829479238243e-03 9.985972561302564054e-01
2.756942128388333371e-02 -4.697061204744154561e-02 9.985157427972582989e-01
-5.404288290725884486e-03 -1.289152815133007973e-02 9.999022963119916785e-01
-8.430160562204254415e-03 4.967165285073306055e-03 9.999521286851317248e-01
-2.618476793978065098e-01 1.166315956568999140e-01 9.580359407081286971e-01
-3.164652891138308721e-01 -2.553762871083186670e-01 9.135823294968379304e-01
-2.940086888846538127e-01 -1.455044760606467522e-02 9.556919876899617750e-01
-2.853325562754313038e-01 -1.895695837993694455e-01 9.394938558753120894e-01
-5.048307565841594347e-01 1.950002465009556193e-02 8.629980627123742254e-01
-3.210157776141840391e-01 -8.880727690227362137e-02 9.429009163703063745e-01
-4.527359859906232020e-01 7.112230536408649384e-02 8.888035467237942466e-01
-4.547858750985019904e-01 -3.482917731761246000e-02 8.899195110897771821e-01
-3.890603440830125992e-01 -5.089691984503016270e-02 9.198051707901497842e-01
-5.547055517059736873e-01 -2.319711518250221760e-01 7.990564032829871044e-01
-5.416672930715068501e-01 -1.975018306044535599e-01 8.170615463503811959e-01
2.580363745432328049e-01 -2.455282602427833194e-01 9.344159153368142290e-01
8.800528450652844725e-02 -3.740240884634050272e-02 9.954175655027471814e-01
-6.116957901346464777e-02 1.013585206544208306e-01 9.929676393992217243e-01
3.032031723770108045e-02 -5.555710939902467477e-02 9.979950330326449182e-01
2.126137149058692291e-02 -4.838956305815679537e-02 9.986022252475607042e-01
-2.660173617627096046e-02 -1.543626274513365537e-01 9.876560772246217867e-01
-2.884815051788572893e-01 3.899503934586180665e-02 9.566910724346472383e-01
-4.483942369679221329e-01 -2.202887551729643678e-01 8.662652437898571423e-01
-3.946351882628178487e-01 -2.298148919035032656e-02 9.185504446351132612e-01
-3.093845021341352641e-01 -2.266779509053517272e-01 9.235249517000415631e-01
-4.115232693844323997e-01 -2.860714992643695331e-01 8.653390642192133608e-01
-4.683903581536786875e-01 -1.910161911780169086e-01 8.626258094310137459e-01
-4.909456726102096047e-01 -1.981992416319467987e-01 8.483450990969596539e-01
1.799300468907152339e-01 -2.282181073791489934e-01 9.568394189675633044e-01
3.995215997095300509e-01 -2.417617193967905309e-01 8.842701863117661265e-01
4.742565532254375271e-02 -2.845473357791358446e-02 9.984693963032805764e-01
1.040710261754531768e-01 -1.013766752201333415e-01 9.893897064514567408e-01
-5.271276459435118855e-02 -6.707457058871010847e-02 9.963545385198787629e-01
-1.848555532329652917e-01 -1.053096368378280689e-01 9.771071102126005492e-01
-4.413221723659341289e-01 3.675797048934065225e-02 8.965955564153312851e-01
-3.969659407531526685e-01 -8.799112966505784339e-02 9.136058247309020164e-01
-3.692823914046957645e-01 -2.376168135580644103e-01 8.984257149664300890e-01
-4.321147048902795329e-01 -2.644596667837659232e-01 8.621704973276493877e-01
-5.055704383875707641e-01 -2.109241883300777831e-01 8.366059518111841342e-01
-4.717859652577170992e-01 -1.918178183396695990e-01 8.605951008187611162e-01
-5.276570968301393938e-01 -7.999593599959857471e-02 8.456823507608143276e-01
-4.450872066836681351e-01 -1.842755235868314134e-01 8.763218072451059992e-01
-4.559380137266973443e-01 -1.176989558099375555e-01 8.821946970143292877e-01
-8.155610307170620132e-02 -4.625593741240031226e-02 9.955947922251588977e-01
1.498009053730113838e-01 -6.740880545347195012e-04 9.887159523112393211e-01
1.408936410642182557e-01 -3.570505472812464387e-03 9.900182995270015995e-01
-8.830199661152138280e-02 1.073570803473487406e-01 9.902914796632917849e-01
-2.475772128540342509e-01 3.773426164450276871e-02 9.681330741037476040e-01
-4.340831311819388083e-01 -1.597829112510196492e-01 8.865896776386653633e-01
-2.962204219869041255e-01 -2.414464768069506106e-01 9.240979712321693018e-01
-5.386279905099511378e-01 -5.235935724498629040e-02 8.409152071095538084e-01
2.315599259179657310e-01 -1.786290008842693622e-01 9.562801267159921625e-01
1.848149369344979642e-01 -3.291527479429306458e-01 9.260139888832754629e-01
2.423944987208566659e-01 -2.060604876868480095e-01 9.480421838737572715e-01
3.324940618994615127e-01 -1.240544087272342638e-01 9.349107992086376218e-01
2.552894673763855815e-01 -3.716203276581752507e-02 9.661502321934170023e-01
1.610968450187152678e-01 -6.765037149168430519e-02 9.846173032006156900e-01
8.968611473977411430e-02 -2.407756100582715553e-02 9.956790004207654032e-01
-1.658607006952590723e-02 -1.005062086157188644e-01 9.947981726507858502e-01
2.429471485589280999e-02 -5.484916438044776937e-02 9.981990462812702081e-01
7.732117219509329620e-02 -3.802779453323997666e-02 9.962807451583686191e-01
3.452736684333062439e-02 -1.787633133437582789e-01 9.832860920104724567e-01
-1.452583083641647010e-01 -2.148631096036824062e-01 9.657814804512546702e-01
-5.429344413541303122e-02 -1.312611050712627347e-01 9.898599619235974867e-01
2.648080927710964178e-02 4.861492612865710161e-02 9.984665020407718083e-01
4.939139585563834950e-02 -1.360851179343167683e-01 9.894651740674023088e-01
-2.308736693467578621e-02 7.555026610252835173e-02 9.968746815823245067e-01
-4.297399535719442255e-03 6.214908712640541261e-02 9.980576252534645310e-01
-1.309351991159004580e-01 -1.577967377766909540e-01 9.787523502804547082e-01
-1.830455674726207405e-01 -1.506223969498350079e-01 9.714974080077170004e-01
-3.448014221508028387e-01 -2.108630842043253406e-01 9.146850490757042484e-01
-5.976746199832624340e-01 -1.814530293462857796e-02 8.015334033022412097e-01
-4.803543055331224720e-01 -5.779120394934929295e-02 8.751685082896186740e-01
-5.516147786660231533e-01 -7.130795630013070374e-02 8.310453124382166656e-01
-5.468371472948121426e-01 -8.566859383578760700e-02 8.328445391360086436e-01
8.564352357758728274e-02 -3.918095560749481066e-01 9.160515589406347248e-01
1.714007647062464890e-01 -1.627006755495047641e-01 9.716739515052612575e-01
1.999033838399000840e-01 -7.194820667847262596e-02 9.771704522165565177e-01
2.093302197177126511e-01 -2.262379182430031624e-02 9.775832563809718767e-01
1.805367796421916693e-01 -1.973016841518797915e-01 9.635759008128308434e-01
1.196194806478958206e-01 -1.512798273505972513e-01 9.812265761210818837e-01
5.888470101806909940e-03 -2.747253978154725051e-01 9.615046966681911611e-01
-1.513627042312683246e-01 -1.199881927425008182e-01 9.811687751708093597e-01
-1.108352376099481368e-02 -3.359995072573822017e-01 9.417969455375377885e-01
5.512229711226086792e-02 -1.881232480475777402e-01 9.805973566684224041e-01
-3.576275480277515406e-01 -1.270291142250579430e-01 9.251843821805768586e-01
-2.820326349237811114e-01 -1.400862353206835664e-01 9.491224575952396103e-01
-3.400446765263945292e-01 -1.551404024676198701e-01 9.275241632907709199e-01
-4.588303044086863847e-01 -7.524068423530050342e-02 8.853324749448853170e-01
-4.558934831568993151e-01 -4.655287835878872682e-02 8.888160448211890330e-01
-5.361180584265994309e-01 1.631687467426355120e-01 8.282230300561140846e-01
-4.993588482204602830e-01 -8.149089804696534045e-02 8.625543311811925129e-01
-5.427180541207687892e-01 3.615276155368115675e-03 8.399071636256513207e-01
-5.954252241232148579e-01 1.171661409653416558e-01 7.948212993428831474e-01
1.855160162365435406e-01 -2.537344638419579135e-01 9.493169278900258634e-01
1.528249720418895785e-01 -3.580849860143642815e-01 9.210969931073970107e-01
2.637474809754998262e-01 -3.362814863474927751e-01 9.040752337161988006e-01
1.733534519380075245e-01 -4.850961030747225067e-03 9.848477287775279088e-01
2.153609377967913574e-01 -2.516957111385004220e-01 9.435406379514192921e-01
1.125208226262965905e-01 -1.259170812726305710e-01 9.856388553214017190e-01
-1.321597511074022605e-03 -3.531829221853980405e-01 9.355533532923721030e-01
-2.169326563250063150e-02 -2.444694382853205838e-01 9.694143056354479482e-01
-2.098221763900936371e-02 -3.291946545351895903e-01 9.440289328025950333e-01
2.297013669481785206e-03 -3.039837695854312183e-01 9.526744415364746255e-01
6.464906065076742037e-02 -2.877112880871314227e-01 9.555326858167736415e-01
1.048595825839044177e-01 -1.777314055016814831e-01 9.784763744918556494e-01
4.364255408566688338e-02 -7.060615024714726740e-02 9.965490951378948026e-01
-3.356712691962824846e-01 -1.158275141741583053e-01 9.348308863085301734e-01
-4.629833407083580044e-01 -9.118053523389806070e-02 8.816646393164400131e-01
-2.684822880581681503e-01 -1.827739029682122762e-01 9.457858961693271782e-01
-3.016174158334083977e-01 -8.519303743414181895e-02 9.496152277837175415e-01
-3.504153098460352500e-01 -8.696277702655438868e-02 9.325484362955829276e-01
-4.334860350260793527e-01 -1.270178021178635652e-01 8.921638500760473711e-01
-3.355419325511880269e-01 -2.932217890278757677e-01 8.952276771520784049e-01
-5.344037153995798706e-01 -3.646380282502629799e-01 7.625298533964982584e-01
-5.351759909803703863e-01 -2.005620015038351023e-01 8.205860967814128104e-01
-3.926169981616386417e-01 -4.716709307407873086e-01 7.895431754176989170e-01
2.360221248142910788e-01 -2.576556873213809995e-01 9.369669702764841235e-01
5.772578760124642827e-02 -3.348017153136118584e-01 9.405187636984596589e-01
1.907893379349747676e-01 -2.402863768538976152e-01 9.517677687486378879e-01
2.080230300786311548e-01 -3.446288900401901500e-01 9.154001021993450893e-01
2.879389873722816851e-01 -2.640430806854741075e-01 9.205283217224493608e-01
3.388723923440583596e-01 -1.124291737700553323e-01 9.340905644488640691e-01
-9.255655442008622891e-02 -1.084545772359471333e-01 9.897832535007113908e-01
1.100159549804352321e-01 7.056179088727429147e-03 9.939047741038427031e-01
6.838302934268467026e-02 -9.219859728630377949e-02 9.933897422242466968e-01
-8.764928814826455916e-02 5.155704738111134555e-02 9.948163012096475910e-01
-3.685934700827527277e-01 -2.116498938188929591e-01 9.051757709190001444e-01
-4.779353885362309096e-01 -9.117476823299697219e-02 8.736503454027710891e-01
-5.059978806910789828e-01 -1.385332023022803616e-01 8.513370053016680039e-01
-4.759907961758239603e-01 -2.195082152324486779e-01 8.516154680378758002e-01
-4.177721458078855199e-01 -3.439351662745419591e-01 8.409369985835907224e-01
-5.199530074582491279e-01 -2.630412636216274413e-01 8.126857717884935495e-01
9.144547853149956329e-02 -2.576622499177518844e-01 9.618980660254323745e-01
1.048750820431817721e-01 -2.915167744836150709e-01 9.507992360961934342e-01
1.115551779903480589e-01 -1.887932802877534677e-01 9.756600532878916265e-01
2.225343531259686425e-01 -2.383010825653384124e-01 9.453523447514131650e-01
7.100389943350066124e-02 -2.319676797620379982e-01 9.701285697324112389e-01
2.205425621277772030e-02 -1.879359877990131877e-01 9.819336404629950277e-01
5.580174709530145993e-02 -2.274940155765292349e-01 9.721793239407933163e-01
-2.033328818106468205e-02 -1.756373666633614383e-01 9.842449252210070387e-01
-2.147516848786393609e-02 -2.140376693922006746e-01 9.765893165602277382e-01
-1.630822423573853319e-01 -1.423472704087493101e-01 9.762896275362478171e-01
-2.355102535255103047e-01 -1.655909963123297357e-01 9.576609746797871692e-01
-1.713249944754328402e-01 -3.654455709068090558e-02 9.845365618477756042e-01
-3.415465768106497046e-01 -2.106231203726566248e-01 9.159606088874194807e-01
-4.016715435613864016e-01 -1.802826346301864557e-01 8.978630979964663528e-01
-3.572148478778721103e-01 -1.765633172312130461e-01 9.171820688739497074e-01
-4.447198142879417726e-01 -8.935448472742259229e-02 8.912014715196532322e-01
-3.862078156384194938e-01 2.149149263350806866e-04 9.224117719063298360e-01
-5.554393959691596994e-01 -2.211594711457158177e-02 8.312628719536562238e-01
1.259312933339496177e-01 -2.052865119042804887e-01 9.705662045370281321e-01
1.063956347457982801e-02 -3.576536769601948995e-01 9.337936854819285371e-01
1.516876615990957189e-01 -1.311703531154000679e-01 9.796862721209170788e-01
1.692938449798175315e-01 -6.180706187267425572e-02 9.836256814228759859e-01
-8.534456974419013520e-02 -2.418259148895733068e-01 9.665591194039814260e-01
-3.302956403480311783e-03 -1.731451649648668711e-01 9.848907768520758221e-01
-4.720871512326760971e-02 -1.202952558143929179e-01 9.916150405499908338e-01
1.189834123343063918e-02 -1.136192276943275570e-01 9.934531194646465391e-01
-1.277260916549305680e-01 -1.219595457573109804e-01 9.842824364526812086e-01
-2.927452461085707225e-01 -2.291288364914602013e-02 9.559159066799302051e-01
-4.073978935608364993e-01 -6.523051878438544671e-02 9.109181827921283281e-01
-3.478980186988551160e-01 -1.689091402683341181e-01 9.221912333779925808e-01
-4.297392177921325884e-01 4.556101692946944864e-02 9.018028600685178420e-01
-4.481699450971778353e-01 -5.641434780113190744e-02 8.921665324779703976e-01
-3.682006843047315181e-01 -7.794686201314215968e-02 9.264731743444230005e-01
-5.167399847778681998e-01 -1.049003009719447765e-01 8.496915410828591586e-01
-4.938360839716474660e-01 1.723888363060130380e-01 8.522957299462473602e-01
-4.828482193894793606e-01 -2.345880349980598578e-01 8.436978433468692584e-01
5.631565802402989374e-02 -2.721082956281463683e-01 9.606173130397275273e-01
1.188566561047905284e-01 -3.988514339223248606e-01 9.092802807482920358e-01
1.203555583601262774e-01 -2.168513520781479575e-01 9.687569512905191971e-01
3.967539550304943069e-02 -4.185894777579931558e-01 9.073084988591074707e-01
1.904087182212949036e-01 -2.009467176587512449e-01 9.609187981757343344e-01
6.820294281384149671e-02 -2.374873205286727462e-01 9.689933597190660830e-01
1.624425629443191632e-01 -2.303999661145886002e-01 9.594416445821377648e-01
1.542894042956674816e-01 -2.221202241696363378e-01 9.627343277025695034e-01
1.151988626015719858e-01 -1.735261510095499893e-01 9.780684520886638866e-01
-9.461566067394322141e-03 -3.365662882440424442e-01 9.416122409915775870e-01
2.811728938344255219e-02 -8.361483569663176463e-02 9.961013890609494714e-01
-1.937558972036837468e-02 -1.450179021754352815e-01 9.892393009639395274e-01
-1.913386341982562522e-01 -8.509169809400315976e-02 9.778286813029288815e-01
8.304293694897418865e-02 -6.006453217947439749e-02 9.947341969576342091e-01
-2.360847210315563105e-01 -1.601545591291143322e-01 9.584438020487228149e-01
-2.011657959655127614e-01 -2.121066200813277181e-01 9.563174704308381457e-01
-3.605204420810310117e-01 -1.573028659237752647e-01 9.193915483698252844e-01
-3.692784159321734760e-01 -1.090835034961985112e-01 9.228944906063852871e-01
-4.594061633663213962e-01 -1.861190857974241719e-01 8.685077218787221609e-01
-4.669746434586732886e-01 -1.434993818121300113e-01 8.725494884453154354e-01
-5.166311434829118365e-01 -2.764336806944157066e-01 8.103558982084827500e-01
-5.819300672211471515e-01 1.023597795665045877e-02 8.131744103322866568e-01
2.336408188113774931e-01 -1.446140000823663285e-01 9.615085848630403609e-01
-1.055539446653256247e-01 -6.702975558632333353e-02 9.921518919155609684e-01
-4.787725116731000874e-02 -1.456999429110874822e-01 9.881696693667378906e-01
5.147698357532840691e-02 -9.480194205662759166e-02 9.941643284408655523e-01
4.503513132887852072e-02 -1.533409760380267106e-01 9.871465858796737436e-01
-1.020191537319381642e-01 -2.141239499114662437e-02 9.945519602376551305e-01
2.703283345921577915e-02 -1.895663453170900181e-01 9.814957089250507805e-01
-2.272151528886982852e-01 1.366344403174358721e-02 9.737487276474137143e-01
-3.706408437387300747e-01 -1.259071119599094457e-01 9.202025668897891864e-01
-6.320745417890470952e-01 5.095360574863577047e-02 7.732305630815292652e-01
-4.334445539081642762e-01 1.673856121100911545e-02 9.010247717215869034e-01
-5.138923552640261017e-01 1.195081611981657771e-01 8.494895211880044705e-01
-5.995810192756276802e-01 1.357588795949392531e-02 8.001989106406671715e-01
-5.103445978024537810e-01 2.029703079332413340e-01 8.356742460979259546e-01
-3.812029124246046341e-01 7.605286147743363367e-02 9.213578576319264579e-01
-8.085760437844450310e-01 -2.140950836953774486e-02 5.880020530315094307e-01
-4.781615552025735016e-02 -3.584463640918083560e-01 9.323249537262344733e-01
1.609455646557627351e-01 -2.609304383370558700e-01 9.518465378236502517e-01
7.374571939790325326e-02 -2.138317656945014356e-01 9.740829250379340332e-01
1.801237469840263339e-01 -1.296180290872155083e-01 9.750664604569169169e-01
1.772776620957334515e-01 -1.381130711585742410e-01 9.744215771918320890e-01
1.715695076271282205e-01 -1.601826494224246611e-01 9.720624583207588820e-01
1.630430061703636857e-01 -1.157726196900106252e-01 9.798028774549720765e-01
2.201634095216386047e-02 -1.215886476025736379e-01 9.923363751799363364e-01
9.306433011104942032e-02 -1.311217224187431474e-01 9.869884114673909137e-01
-1.051056190918026323e-01 -1.813728486650171001e-01 9.777815188489020759e-01
-1.067720366688637984e-01 -6.717484442655344279e-02 9.920117300021462636e-01
4.064290936971134277e-02 6.570162153940502237e-02 9.970112591365547505e-01
-1.692632497407962344e-01 2.745463037904372419e-02 9.851884061223694644e-01
-3.671011047160405161e-01 3.340570305630576140e-03 9.301750477766513869e-01
-4.016530354367778277e-01 -4.638718789512821794e-02 9.146163501291699749e-01
-4.427696041515554737e-01 -1.679073753168679739e-01 8.807736320722114876e-01
-5.025983631490391623e-01 1.532987880482159782e-01 8.508198204924792840e-01
-4.161994327230246205e-01 -5.525658854699417449e-02 9.075928281025477107e-01
-4.296147527417252254e-01 -2.634221267742611894e-02 9.026279699067183415e-01
-3.331963143123651827e-01 1.531609227334614076e-01 9.303343204870441197e-01
-2.241435822077308959e-01 -5.546877962761767034e-01 8.012996338557536458e-01
-3.208838477101272901e-01 -7.065512863395492227e-01 6.307288133981769906e-01
-2.018349972575652629e-01 -7.812696161287341345e-01 5.906610032803070176e-01
-1.885876165928909443e-01 -7.984413691347699293e-01 5.717745105563966090e-01
-8.129635392769398727e-01 -1.378874815084038807e-01 5.657537682150963754e-01
-3.403184506460306125e-01 -7.873068131675211578e-01 5.141316310925513333e-01
9.416077953671890544e-02 -1.920339787000782672e-01 9.768606341856832520e-01
9.715625111503134459e-02 -1.299482122261369221e-01 9.867492716027226329e-01
4.272534672637863518e-02 -5.172978740684434917e-02 9.977467483494764089e-01
1.896494586515892755e-01 -1.439732778886291253e-01 9.712387853083106481e-01
1.234303545344025282e-01 -1.209518542134955382e-01 9.849546164884092070e-01
-1.101316563559766315e-01 -1.490810945546711119e-01 9.826728069478010141e-01
-1.023978627439257327e-01 -1.987968248725502096e-01 9.746766131010164980e-01
1.546390538493565411e-03 -7.207562709444011173e-02 9.973979710502952623e-01
3.112454613755305868e-02 -1.481695713016835947e-01 9.884720738432657416e-01
-2.519324951826895295e-02 -2.049687157887803979e-01 9.784442374129496134e-01
-5.862889068819178429e-02 1.244787505686796025e-01 9.904886136819203157e-01
-4.176808151454608486e-01 -9.757566633044913174e-02 9.033392087137545046e-01
-1.021771257692708212e-01 -6.964258304385877452e-01 7.103174625950385845e-01
-7.490332238964136913e-02 -7.714301842145186994e-01 6.318899929400269011e-01
-3.702960082025421595e-01 -6.151361316954000458e-01 6.960520137116782413e-01
-3.051183837446618807e-01 -7.503060404657375670e-01 5.864670643281446605e-01
-3.274362967101173694e-01 -7.712719353441250814e-01 5.458251307399574204e-01
-4.239478140800623240e-01 -6.255340880836987028e-01 6.549621024013774218e-01
9.242720950674403191e-02 -3.178454951960988928e-01 9.436267546685728203e-01
9.618925690480033264e-02 -2.384882647370722142e-01 9.663699987265760294e-01
1.468227926653726256e-01 -1.383184381751052794e-01 9.794442695808376342e-01
1.621821750117655725e-01 -2.253924513734376633e-01 9.606743386665045348e-01
2.395087392889522493e-01 -3.141794353683254326e-01 9.186549113763322616e-01
5.976378104250101159e-02 -2.930959173624932967e-01 9.542133271449012577e-01
4.443365201538521797e-02 -2.778129108225190769e-01 9.596070222486361434e-01
-4.594295589544659941e-02 -2.135396818771209126e-01 9.758534977482055117e-01
-3.350886934157656233e-02 -1.772946423724718057e-01 9.835871926074812865e-01
-3.472375162010030852e-02 -1.995070629035695653e-01 9.792809570930176566e-01
-1.636595862281386426e-01 -1.763970989994739225e-01 9.706181552496347953e-01
-7.298627771665747166e-02 -2.028375322272879255e-01 9.764885758599589627e-01
2.217595403055951098e-02 -2.371634290683947155e-01 9.712166261835486480e-01
-4.175389625614247396e-02 -1.736068846793543397e-01 9.839295003908362647e-01
-6.654314038066900909e-03 -9.135661463758681933e-02 9.957960077579355307e-01
-2.199903639244048803e-01 -2.034342417205545900e-02 9.752898978628680160e-01
-2.687475203231869947e-01 3.551179491890402856e-02 9.625558075985909401e-01
-1.422100570813692177e-01 -9.512086143299296193e-02 9.852554599621150544e-01
-2.332036392869855368e-01 -5.654314280630534650e-01 7.911405455302373824e-01
-4.412380957376447199e-01 -5.283826201305715786e-01 7.253418157074422723e-01
1.462399787243212623e-01 -3.253132079505677288e-01 9.342297283621521231e-01
1.145415213445334646e-01 -3.142402822422705189e-01 9.424082368614876692e-01
6.711492050589938640e-02 -1.228360492590540032e-01 9.901549840544731085e-01
4.560777940567388444e-02 -2.395763670714739224e-01 9.698056995081631992e-01
8.202396677552670212e-02 -3.142681271491213346e-01 9.457841260734877187e-01
4.528815576572634699e-02 -1.996066157573807009e-01 9.788289850087321664e-01
7.558573495768995676e-02 -2.424478212934851606e-01 9.672155140510040328e-01
7.671585321142820879e-02 -2.166018442418195245e-01 9.732411412065794520e-01
7.666561951686175214e-02 -1.427885074745731953e-01 9.867795219385531169e-01
1.348255077799260029e-02 -6.979158256756974599e-02 9.974704786745484109e-01
-6.233263724288185675e-02 -8.461095210104496722e-02 9.944624825094720011e-01
-1.972342233226900832e-02 -1.966283232653545099e-01 9.802796994232605421e-01
-4.500757862486891997e-02 1.007706103726044439e-01 9.938911419020992621e-01
2.284389623495805197e-02 -1.812687649497487230e-01 9.831682415835040212e-01
-1.797114895244104546e-02 -3.601277063403940937e-01 9.327299035258470594e-01
-3.751125737375400337e-01 -1.974938367765829150e-01 9.056968264597502483e-01
-4.214754986864408526e-01 -2.736206688146438082e-01 8.645751173868253536e-01
-5.239631773718336216e-01 -3.958630964547915077e-01 7.541584698348462457e-01
1.235359517117691486e-01 -2.501486243278313593e-01 9.602939833100907485e-01
2.862882818823142203e-02 -4.343386748781047357e-01 9.002945660736272337e-01
6.296859231274512525e-02 -2.603678360198419250e-01 9.634539669068242773e-01
-7.043313057797504460e-03 -1.710783347831292822e-01 9.852322543994391779e-01
8.013826442747612466e-02 -1.496592002631689788e-01 9.854846433867655575e-01
9.422010036797646981e-02 -1.880618034685835882e-01 9.776273987377769314e-01
1.126854080791603457e-01 -2.352262841246786640e-01 9.653862408709423804e-01
5.036113362863045562e-02 -9.404116191362216215e-02 9.942937272685445915e-01
-6.372818454724868409e-02 -2.533461821852936446e-01 9.652742773255940101e-01
-4.127875168736799827e-02 9.047001207894517227e-02 9.950433365304086619e-01
-2.927576251303977417e-02 -3.451824356845252170e-03 9.995654128859651211e-01
-7.359066365920947927e-02 -2.826583977490696245e-02 9.968878856340950279e-01
9.922540049913805560e-02 -1.795951670549357226e-01 9.787236054506375238e-01
4.594987132779487088e-03 -1.676297608809866058e-01 9.858393121397790448e-01
-8.045457271647486752e-02 -6.490940494954873519e-02 9.946425643808457506e-01
-5.214774230173997022e-02 -2.570969606309458366e-01 9.649775986038025000e-01
-3.123684579174988360e-02 -1.550929914573344857e-02 9.993916755231607718e-01
-2.722530150180536568e-01 -2.275320627412849850e-01 9.349371402603895431e-01
3.326885300490117769e-02 -4.476025529652721269e-01 8.936135283212249814e-01
-2.985681966095809492e-01 1.297168361633595501e-01 9.455319002493096647e-01
-1.216431238503816042e-01 -5.079277289599126721e-01 8.527674786092315218e-01
-1.092638430232909519e-01 -5.134500075986538903e-01 8.511348320358671504e-01
-1.438302764155937885e-01 -3.711445912004432413e-01 9.173682706573569323e-01
-2.958224900284868730e-01 -3.505673354366937167e-01 8.885896677984513881e-01
-3.899899563069907926e-01 -3.525047605152118457e-01 8.506751599722331969e-01
1.616030354984831314e-03 -4.652473413208875752e-01 8.851792472938672107e-01
3.511308333228180950e-02 -3.629647507443756749e-01 9.311410532760187042e-01
6.759984737617861887e-03 -2.318710288866392688e-01 9.727230482359295882e-01
9.910560260041458014e-02 -1.553410564381087489e-01 9.828770196305848250e-01
1.575326655711777601e-01 -1.477643891061661274e-01 9.763959978359809666e-01
-8.297309203140894318e-02 1.512971079258900453e-01 9.849998229096333935e-01
9.870666945655985625e-02 -1.153558022019230134e-01 9.884078269131342243e-01
5.548981043699620364e-02 8.096503193317355906e-02 9.951711131969850355e-01
-1.594820086831057193e-01 5.660109096407386908e-02 9.855768896479252250e-01
-8.865443612280664298e-02 1.272831004373997932e-01 9.878964537332796114e-01
3.816803896077490543e-02 -2.099099445393307894e-01 9.769754428773447241e-01
3.627911838868824734e-02 -2.384069434033976032e-01 9.704874831269019175e-01
7.785364282361487143e-02 -2.303352936307052345e-01 9.699919911046428478e-01
1.149205527836520829e-01 -1.173666757678418077e-01 9.864169148829039502e-01
9.695747652772539193e-02 1.489902259166394141e-02 9.951770027845240341e-01
2.974649880618298117e-02 -3.398492577320547658e-01 9.400093764573548283e-01
-2.601913270160450750e-02 1.574192761526285733e-01 9.871890276077013304e-01
5.132368637691867713e-02 -4.827702423863421965e-01 8.742418271181698897e-01
-6.296670835934263522e-02 -5.149506063171533921e-01 8.549041271932107389e-01
-4.424057423485618784e-02 -5.837995788862224700e-01 8.106915709958008032e-01
2.230980186232653373e-02 -5.625811962620653750e-01 8.264409660424676396e-01
6.281975374777316358e-03 -6.385073132868992474e-01 7.695901166624584677e-01
6.492194860857271321e-02 -5.835876522825041990e-01 8.094507969557265259e-01
-6.722701830029360892e-02 -3.335919929792218741e-01 9.403174518377305224e-01
5.926811038218782191e-02 -4.345301286691967690e-01 8.987051008926433271e-01
7.025001198873601083e-02 -4.068536151175816684e-01 9.107881596075659836e-01
-2.620518534985868606e-02 -2.740096279317024153e-01 9.613698622598431109e-01
4.326857395763906988e-02 -3.441996337547870155e-01 9.378989511833045745e-01
-1.023297369961523040e-01 -1.482921828749250714e-01 9.836351220978681864e-01
3.482357291066955421e-03 -1.344707173035779857e-01 9.909114488063797133e-01
2.694944251706958907e-02 -2.603217705576181262e-01 9.651457420108975338e-01
1.436039918204004284e-01 -1.187450326513440346e-01 9.824853743205939072e-01
2.215570684731205109e-02 -7.523375626844008845e-02 9.969197593446711414e-01
9.973277350618964254e-02 -3.031395441812639313e-01 9.477129262821830658e-01
-5.840652975941139358e-02 -1.059593057668666710e-01 9.926536670978790555e-01
2.387024831214844822e-01 -6.745004042161270030e-01 6.986203040736211900e-01
-2.713648896857702095e-02 -6.733346043596230013e-01 7.388397130219300779e-01
2.268405576082741515e-01 -5.465571385120326919e-01 8.061133020646080727e-01
5.959047906381940984e-02 -6.069473874067734531e-01 7.925047909792322098e-01
6.495363659794551117e-03 -6.324967475521801052e-01 7.745357800559256045e-01
3.073406748011187420e-02 -5.649350764272627057e-01 8.245627790036672566e-01
2.464003786617417757e-02 -4.553664690456589170e-01 8.899630595720490200e-01
-8.483072069943468907e-02 -4.340507644001768695e-01 8.968855460699747262e-01
-6.213782240205158874e-02 -3.992123489444661111e-01 9.147504531167902631e-01
-3.808752139837076056e-01 -7.407169483867285242e-01 5.534188953636454134e-01
4.162198723523608673e-02 -3.206180888225350634e-01 9.462936390457111768e-01
5.379848308871677115e-02 -4.038807273637097794e-01 9.132283839661979874e-01
-7.224743417407493429e-02 -3.678265979901113591e-01 9.270835464327277231e-01
1.414659739429968872e-02 -3.046214434433917040e-01 9.523684423460430093e-01
-1.279142535878684608e-02 -2.462401731554184903e-01 9.691244278015492819e-01
-4.707217227152991901e-02 -6.360168144518670019e-02 9.968646030003193159e-01
9.625812200370159567e-04 -2.753581232234832976e-01 9.613412387972523065e-01
1.009008837310996498e-01 -1.404383618255463650e-01 9.849345552827557526e-01
1.095592631066790862e-01 -6.907333758422309344e-01 7.147616185590246474e-01
6.937508356653154795e-02 -7.551479200112048984e-01 6.518732366671359246e-01
2.991753441532546409e-01 -6.389473032982656564e-01 7.086892528172383798e-01
3.141139636130155233e-02 -7.004189005098572229e-01 7.130404532613812130e-01
1.510938472007068434e-01 -7.074491217338562121e-01 6.904247891668470194e-01
9.818880372530731926e-02 -7.906099786857880840e-01 6.043962445494269753e-01
1.948880844547915686e-02 -7.610363070937420371e-01 6.484164754465258085e-01
-7.975729552950146586e-03 -6.133222678679803863e-01 7.897924939345623008e-01
-6.195672942134418382e-02 -5.347245501255540878e-01 8.427520508265964327e-01
2.233037855957772759e-03 -5.651682963945741101e-01 8.249726118438046596e-01
-1.340074876402701232e-01 -3.979109111446050284e-01 9.075841008129291732e-01
-1.331521354001780622e-01 -5.205998959682784921e-01 8.433541706520399917e-01
-6.919795911449633241e-02 -3.885742518136620638e-01 9.188153749703152906e-01
-1.099793123319493526e-01 -5.108493230863537793e-01 8.526063100641501080e-01
-4.347170185811956300e-02 -3.028928026985865385e-01 9.520326471350413211e-01
-1.105673589891127406e-01 -3.675809704457750349e-01 9.233954132939555803e-01
-1.120455775971184731e-01 -3.610525721979622737e-01 9.257898404336500908e-01
-7.288207183117399734e-02 -3.305480236364001789e-01 9.409708856684491085e-01
-1.216400927816425059e-01 -7.299545193353127459e-01 6.725846322434271274e-01
-6.260250294125113690e-02 -7.732644953566993884e-01 6.309856946446882331e-01
-1.685965877239319344e-01 -7.790138929284610159e-01 6.039143525635822796e-01
-3.058482171244032988e-01 -7.308740749692989036e-01 6.101474859569574472e-01
-2.412927725005510338e-01 -7.709594887565905941e-01 5.894058573132557877e-01
-4.455498621121135039e-01 -6.002685066817221582e-01 6.642010540927888451e-01
-5.073971477027416910e-01 -5.549155597868479228e-01 6.592547732171313291e-01
-3.938774717398322855e-01 -6.638241590016183968e-01 6.357656983367628856e-01
-2.947282553308530617e-02 -8.039440082145501432e-01 5.939742285747922068e-01
1.763662124133445752e-02 -5.497969235883413130e-01 8.351121436094588457e-01
1.673946136611801361e-01 -7.438231123630641983e-01 6.470751276565562815e-01
2.368560736790178284e-02 -5.278115812310563149e-01 8.490311694643405405e-01
4.557642420283585481e-03 -7.094561531035832314e-01 7.047348400065331919e-01
-7.211434964873882081e-02 -5.697211788581650893e-01 8.186680028773580808e-01
4.733009987075827152e-02 -6.254744124511534276e-01 7.788078203350994322e-01
1.042892803006711944e-01 -7.636433688253365659e-01 6.371597533299313554e-01
6.151047702635970005e-02 -7.018497860147426826e-01 7.096642439119006385e-01
9.367526155809344224e-02 -7.479206757703025232e-01 6.571450434472718705e-01
8.531463407182304781e-02 -7.311104030987031210e-01 6.769039752387651099e-01
1.012696385684332678e-01 -6.395433799401762931e-01 7.620555921183925774e-01
4.609688014723845734e-02 -6.136225025413687417e-01 7.882528160530473116e-01
5.437020393121116957e-02 -5.592737118696800014e-01 8.271981601381791505e-01
-1.080609299134343837e-01 -5.514310585132609077e-01 8.271920110428947481e-01
-7.527448838054602576e-02 -5.033239289656360471e-01 8.608128565081044625e-01
-2.767917790457683491e-01 -3.920677120190451670e-01 8.773079392350382477e-01
-1.632659247454503471e-01 -5.500856240157012689e-01 8.189933113696773459e-01
-6.542543169337040887e-02 -6.432726477742694016e-01 7.628366886255648627e-01
-5.186139045580526880e-02 -6.835158962765601753e-01 7.280909391808423337e-01
2.276447738601931198e-02 -7.153892377192627716e-01 6.983552227375360300e-01
1.089722003164998454e-01 -7.622971496208384989e-01 6.379875510056018939e-01
9.579383995603107937e-02 -7.773112026883701731e-01 6.217803747318163543e-01
-8.147119585284749721e-02 -6.559317045044432692e-01 7.504105831291312256e-01
1.132854142738923681e-01 -6.544406265004132361e-01 7.475786790021095030e-01
