8.317277220267552118e-02 -8.602988392072945523e-01 -5.029594389438410973e-01
8.271170159548464629e-02 -9.031869242565842004e-01 -4.212032220568959762e-01
8.271170159548464629e-02 -9.031869242565842004e-01 -4.212032220568959762e-01
8.274174054652243260e-02 -9.032039992105828086e-01 -4.211607058847507967e-01
8.274174054652243260e-02 -9.032039992105828086e-01 -4.211607058847507967e-01
8.273461641090419649e-02 -9.032095856535631295e-01 -4.211501248140137599e-01
5.434674681817008163e-02 -9.065876809280513093e-01 -4.185035339155206979e-01
5.434674681817008163e-02 -9.065876809280513093e-01 -4.185035339155206979e-01
5.427591511711588046e-02 -9.065717451803080307e-01 -4.185472445004626008e-01
5.427591511711588046e-02 -9.065717451803080307e-01 -4.185472445004626008e-01
5.430223254825621709e-02 -9.065675586167695199e-01 -4.185528989314313275e-01
5.430223254825621709e-02 -9.065675586167695199e-01 -4.185528989314313275e-01
5.462339335392378536e-02 -9.067314237130952304e-01 -4.181559639054854838e-01
5.462339335392378536e-02 -9.067314237130952304e-01 -4.181559639054854838e-01
5.468566930946264920e-02 -9.067256513904321524e-01 -4.181603408774827724e-01
5.468566930946264920e-02 -9.067256513904321524e-01 -4.181603408774827724e-01
5.463034671317443247e-02 -9.067178947798225641e-01 -4.181843905552248830e-01
5.463034671317443247e-02 -9.067178947798225641e-01 -4.181843905552248830e-01
-9.493302090722051112e-01 5.348734043909347119e-02 3.096954286967695813e-01
-9.493235962390983440e-01 5.347123957522494780e-02 3.097184788835729563e-01
-9.493359176554179157e-01 5.348335079360768546e-02 3.096786183081314814e-01
-9.493359176554179157e-01 5.348335079360768546e-02 3.096786183081314814e-01
-9.088645429786502694e-01 -7.127507186457870958e-02 4.109563318004826882e-01
-9.088645429786502694e-01 -7.127507186457870958e-02 4.109563318004826882e-01
-9.088934407104001245e-01 -7.115319352635486594e-02 4.109135389405070282e-01
-9.088619939206287190e-01 -7.111107925193338453e-02 4.109903775202581322e-01
-9.088619939206287190e-01 -7.111107925193338453e-02 4.109903775202581322e-01
-9.373875599352176069e-01 1.801049429178369979e-02 3.478220587801530428e-01
-9.373875599352176069e-01 1.801049429178369979e-02 3.478220587801530428e-01
-9.373953306517075479e-01 1.797005126913899312e-02 3.478032077623210983e-01
-9.563734395745558947e-01 7.351756060935540557e-03 2.920544397182722740e-01
-9.563734395745558947e-01 7.351756060935540557e-03 2.920544397182722740e-01
-9.564030313394229488e-01 7.230200006301156640e-03 2.919605553026499156e-01
-9.682831791077667338e-01 5.089305742740035665e-02 2.446172147716667578e-01
-9.682831791077667338e-01 5.089305742740035665e-02 2.446172147716667578e-01
-9.682978245849298560e-01 5.083063452513713470e-02 2.445722173466650107e-01
-9.683014204460144159e-01 5.089325959913859609e-02 2.445449555595159141e-01
-9.587785620523083807e-01 8.703975570182502508e-02 2.704953786597367738e-01
-9.587785620523083807e-01 8.703975570182502508e-02 2.704953786597367738e-01
-9.587799045511683493e-01 8.708252623556096694e-02 2.704768534519831902e-01
-9.587799045511683493e-01 8.708252623556096694e-02 2.704768534519831902e-01
-9.587852851161171586e-01 8.708830959661667537e-02 2.704559176213562899e-01
-9.587852851161171586e-01 8.708830959661667537e-02 2.704559176213562899e-01
-9.519351261545304643e-01 1.252298453102714633e-03 3.062971552948910436e-01
-9.519351261545304643e-01 1.252298453102714633e-03 3.062971552948910436e-01
-9.519351261545304643e-01 1.252298453102714633e-03 3.062971552948910436e-01
-9.519351207591408848e-01 1.252418003095623084e-03 3.062971715743151302e-01
-9.519283400385608607e-01 1.238734761622461728e-03 3.063183000860713601e-01
-8.722115359002745594e-01 -1.260472958026959966e-01 4.726088402297525248e-01
-8.722115359002745594e-01 -1.260472958026959966e-01 4.726088402297525248e-01
-8.721482020268964686e-01 -1.260936237900446288e-01 4.727133504997995672e-01
-8.721671614708574882e-01 -1.261619375134288568e-01 4.726601400316352009e-01
-9.218747444521714351e-01 -4.446811441420746303e-02 3.849279703291104138e-01
-9.218724273878744491e-01 -4.447112092211862738e-02 3.849331721557894270e-01
-9.218776558884577144e-01 -4.453417220791428682e-02 3.849133604843537615e-01
-9.218776558884577144e-01 -4.453417220791428682e-02 3.849133604843537615e-01
-8.524417801762236291e-01 -1.074381698239550986e-01 5.116640021291997131e-01
-8.524703592631101001e-01 -1.073557404607263371e-01 5.116336888516558323e-01
-8.524865237505734328e-01 -1.074105567653637072e-01 5.115952493124010791e-01
-8.524865237505734328e-01 -1.074105567653637072e-01 5.115952493124010791e-01
-8.526449927228341163e-01 -1.359359461854637574e-01 5.044977055640004204e-01
-8.526449927228341163e-01 -1.359359461854637574e-01 5.044977055640004204e-01
-8.526454336442698123e-01 -1.358363280417541341e-01 5.045237917776603798e-01
-8.526454336442698123e-01 -1.358363280417541341e-01 5.045237917776603798e-01
-8.526454336442698123e-01 -1.358363280417541341e-01 5.045237917776603798e-01
-9.055322227181714645e-01 -3.476530706203826565e-02 4.228507621418817197e-01
-9.055322227181714645e-01 -3.476530706203826565e-02 4.228507621418817197e-01
-9.054927021912788643e-01 -3.477400444796711204e-02 4.229346697694440493e-01
-9.219535730449605060e-01 -4.604912940681038513e-02 3.845531001441875874e-01
-9.219535730449605060e-01 -4.604912940681038513e-02 3.845531001441875874e-01
-9.219550665256180944e-01 -4.601653434383117663e-02 3.845534213535566348e-01
-9.219505387253572604e-01 -4.603726585273534844e-02 3.845617951601900675e-01
-9.219505387253572604e-01 -4.603726585273534844e-02 3.845617951601900675e-01
-9.238172433371710790e-01 -4.705216983204014991e-02 3.799313019836706440e-01
-9.238172433371710790e-01 -4.705216983204014991e-02 3.799313019836706440e-01
-9.238178373110924602e-01 -4.704672155567098113e-02 3.799305324091745706e-01
-9.237958454901658012e-01 -4.707970736170422749e-02 3.799799165875032969e-01
-9.237958454901658012e-01 -4.707970736170422749e-02 3.799799165875032969e-01
-9.203132814553418584e-01 -7.560275268239825819e-02 3.838068365255429271e-01
-9.203374239301722604e-01 -7.556332753915438738e-02 3.837567063189707417e-01
-9.203374239301722604e-01 -7.556332753915438738e-02 3.837567063189707417e-01
-9.203374239301722604e-01 -7.556332753915438738e-02 3.837567063189707417e-01
-8.837636569905071848e-01 -1.279370299213567208e-01 4.501043378569765663e-01
-8.837636569905071848e-01 -1.279370299213567208e-01 4.501043378569765663e-01
-8.837369847011486979e-01 -1.278590180558686062e-01 4.501788681991977237e-01
-8.837369847011486979e-01 -1.278590180558686062e-01 4.501788681991977237e-01
-8.837595528516265508e-01 -1.279418237322083318e-01 4.501110335057000866e-01
-8.722218604770043404e-01 -1.252020910635643358e-01 4.728144059769583407e-01
-8.721940572448072526e-01 -1.252665958298080084e-01 4.728486084108246557e-01
-8.721940572448072526e-01 -1.252665958298080084e-01 4.728486084108246557e-01
-8.722573427941795465e-01 -1.252436777315945327e-01 4.727379285924725449e-01
-8.722573427941795465e-01 -1.252436777315945327e-01 4.727379285924725449e-01
-8.722573427941795465e-01 -1.252436777315945327e-01 4.727379285924725449e-01
6.450025093739972792e-01 -7.523425626958638590e-01 1.339866831348056064e-01
8.345311484929930634e-02 -9.726079535670557608e-01 2.169547102048109133e-01
-7.189991542072208253e-01 -6.658786351260050917e-01 1.991126804902938752e-01
-4.108758087546177107e-01 -8.970553189756264034e-01 1.627047155978459392e-01
-5.455022273784895237e-01 -8.238081343981713545e-01 1.541670445475008810e-01
-4.469840394179531717e-01 -8.445074552448081917e-01 2.949786882836590851e-01
-4.466658295758264008e-01 -8.445687022704010394e-01 2.952851906795013748e-01
-5.159871790935647295e-01 -8.541917339814141252e-01 6.413823047832367674e-02
8.068078511778133954e-01 -5.787129358852639571e-01 1.189639824354305209e-01
8.069435974396077516e-01 -5.784996240724205041e-01 1.190807100217842057e-01
7.641626011512635541e-01 -6.380437477718318151e-01 9.463453350130697495e-02
7.641626011512635541e-01 -6.380437477718318151e-01 9.463453350130697495e-02
7.641557177174020943e-01 -6.380567178564100494e-01 9.460266316604315495e-02
7.641741161017032713e-01 -6.380365196859004717e-01 9.459027342852908971e-02
6.886704422041576290e-01 -7.214596175444670800e-01 -7.231211715142202290e-02
6.886704422041576290e-01 -7.214596175444670800e-01 -7.231211715142202290e-02
4.967794580933934667e-01 -8.561709672345035882e-01 -1.420614123580674071e-01
4.966340788807805939e-01 -8.562568833788078981e-01 -1.420518967161265023e-01
1.502444007041288665e-01 -9.791299195719118664e-01 1.368620497294942284e-01
1.503529033622770794e-01 -9.791312377525813737e-01 1.367334037740303432e-01
1.503552022505688923e-01 -9.791314636619701250e-01 1.367292581101737792e-01
1.503552022505688923e-01 -9.791314636619701250e-01 1.367292581101737792e-01
5.362972342174757712e-01 -8.292464143501572238e-01 -1.572757478382899310e-01
-3.570995645543331709e-01 -8.222455677711895117e-01 -4.431615137573883256e-01
-1.319222846566830976e-01 -7.616808733135483900e-01 -6.343806097598438942e-01
-1.319777340364152451e-01 -7.616703697755233815e-01 -6.343816875703700564e-01
-1.320312048951605699e-01 -7.616167183363683479e-01 -6.344349732513751006e-01
-4.363053965978916371e-01 -8.705461302799284429e-01 2.275676513790970412e-01
-8.315348600962741976e-01 -5.515334724388610832e-01 6.603487884596899449e-02
-8.314948884645021465e-01 -5.516069146934480250e-01 6.592467003922394819e-02
-6.081928160820019302e-01 -7.589203159789438269e-01 -2.326831589536815792e-01
-3.752062225997425116e-01 -8.386624748512423455e-01 -3.947981051104750838e-01
-3.755184139589360370e-01 -8.385414213561669383e-01 -3.947584140303337930e-01
-6.721563897729530002e-01 -7.106038725905753362e-01 -2.079613520504892399e-01
3.439849487157451563e-02 -8.092453229827630823e-01 -5.864629150944615787e-01
2.778810717203065717e-01 -9.264185862195476462e-01 -2.540289611177203311e-01
8.941760142913567078e-02 -9.946349758314978473e-01 -5.201689540270301726e-02
4.953361634307055367e-02 -8.767950419547628771e-01 -4.783062567597494152e-01
2.323388963742750168e-01 -8.936781938160268668e-01 -3.838722744993545155e-01
-2.489088838252031810e-01 -9.025666412969957086e-01 -3.513087325569231312e-01
4.676523618696057927e-01 -8.146454149320516702e-01 -3.430074581812542767e-01
4.674068867721689058e-01 -8.147600463916557789e-01 -3.430697727894656546e-01
2.973560806494328634e-01 -8.464836521589974572e-01 -4.416387527475067465e-01
2.976459205345110548e-01 -8.464723226510157961e-01 -4.414651888597312390e-01
6.099840506988489786e-01 -7.784272429910632507e-01 -1.482244421893914865e-01
-1.640172175188781833e-01 -9.857913070957383672e-01 -3.624708556340558441e-02
-7.740473209969226387e-01 -5.300702617911758896e-01 3.462315156396387206e-01
-7.807199485239987302e-01 -4.273755641858818510e-01 -4.558799064594581396e-01
-6.227282976066345066e-01 -2.658421025790573822e-01 -7.358922773451892496e-01
-6.821445079994069571e-01 -4.868464747453886687e-01 -5.455816897901127893e-01
-6.820464319720455082e-01 -4.870675436661627833e-01 -5.455069867024734398e-01
-7.590361115290372718e-01 -3.771069667441315221e-01 -5.307113311659357180e-01
-7.590456286853998202e-01 -3.772448403428851904e-01 -5.305997210781939755e-01
-7.590349608437476636e-01 -3.772200615499435306e-01 -5.306325973601576651e-01
-3.112952476561856030e-01 -6.513723042589946166e-01 -6.919605408048943307e-01
-4.308974363110640304e-01 -5.021084180648949236e-01 -7.498096664413719248e-01
-3.131770453164247625e-01 -6.456362702727934666e-01 -6.964725011047532277e-01
-3.131770453164247625e-01 -6.456362702727934666e-01 -6.964725011047532277e-01
-3.131841474851621565e-01 -6.455999912645580263e-01 -6.965029368518086406e-01
-3.131841474851621565e-01 -6.455999912645580263e-01 -6.965029368518086406e-01
-7.462672281142234132e-01 -4.240762015406708274e-01 -5.130736784610469003e-01
-8.783296024029323412e-01 -4.777202935808866346e-01 -1.790057663032866564e-02
-6.237239756957541070e-01 -5.620251177299643297e-01 -5.432275482547824774e-01
-3.995173076991699879e-01 -6.910501507872235383e-01 -6.023583733507508198e-01
-6.036333317646250807e-01 -7.591015035697782354e-01 -2.437041404261323374e-01
-6.650275423072362635e-01 -3.705238327796901432e-01 6.484215120699229340e-01
-6.641866241333646004e-01 -4.309928854279810317e-01 6.108201544094529201e-01
-6.306331100034288095e-01 -4.085707069093270638e-01 6.598271425328122719e-01
-7.581427586127514884e-01 -6.520290010752504140e-01 8.816990408203677701e-03
-8.826947429054874394e-01 -2.943983751091455714e-01 -3.663053201635355638e-01
-9.647461361320994744e-01 1.652616267713508114e-01 -2.048255050892616724e-01
-9.647609153359824052e-01 1.651932678620065820e-01 -2.048110360628759563e-01
-9.647609153359824052e-01 1.651932678620065820e-01 -2.048110360628759563e-01
-9.647361615006986302e-01 1.652353404340876353e-01 -2.048936821000811315e-01
-8.150619307911204370e-01 -5.319213063386677431e-01 2.296383522803105981e-01
-9.158810152157348394e-01 -3.949362725287038911e-01 -7.202295889873178147e-02
-9.158123799930418807e-01 -3.951439353973241198e-01 -7.175621903497747534e-02
-8.288932133114856882e-01 -5.088320654461206960e-01 2.324348728138589393e-01
-8.288932133114856882e-01 -5.088320654461206960e-01 2.324348728138589393e-01
-8.289073386050422876e-01 -5.088862499831899866e-01 2.322658144987159723e-01
-8.289073386050422876e-01 -5.088862499831899866e-01 2.322658144987159723e-01
-8.289107305039897788e-01 -5.089113855316297341e-01 2.321986273250101207e-01
-8.396244847274283440e-01 -4.996067768090680650e-01 2.131285837532228278e-01
-8.396244847274283440e-01 -4.996067768090680650e-01 2.131285837532228278e-01
-8.396147566813312313e-01 -4.995524423065374475e-01 2.132942046763643129e-01
-8.396147566813312313e-01 -4.995524423065374475e-01 2.132942046763643129e-01
-8.395936675133780502e-01 -4.996608156599531836e-01 2.131233041351079660e-01
-8.395936675133780502e-01 -4.996608156599531836e-01 2.131233041351079660e-01
-8.316899447615878627e-01 -5.020841794102459676e-01 2.370723783328773926e-01
-8.317177469169143578e-01 -5.020509923147495890e-01 2.370451235086405428e-01
-8.317177469169143578e-01 -5.020509923147495890e-01 2.370451235086405428e-01
-8.317578750415259847e-01 -5.020101084309186446e-01 2.369909034954347793e-01
-8.759135633091635897e-01 -4.702681503499899773e-01 1.078113926143385304e-01
-8.505784343744023923e-01 -5.167236979023255294e-01 9.753433756035224944e-02
-8.505784343744023923e-01 -5.167236979023255294e-01 9.753433756035224944e-02
-8.505718659084493538e-01 -5.167498202429013920e-01 9.745318980899383976e-02
-8.505896612187499040e-01 -5.167078617603805268e-01 9.752032517781952792e-02
-8.505896612187499040e-01 -5.167078617603805268e-01 9.752032517781952792e-02
-8.505896612187499040e-01 -5.167078617603805268e-01 9.752032517781952792e-02
-8.507260599317120198e-01 -5.163603817035264942e-01 9.816887062635307193e-02
-8.507260599317120198e-01 -5.163603817035264942e-01 9.816887062635307193e-02
-8.506822173376469287e-01 -5.164420849531936586e-01 9.811899915257268900e-02
-8.506822173376469287e-01 -5.164420849531936586e-01 9.811899915257268900e-02
-8.506822173376469287e-01 -5.164420849531936586e-01 9.811899915257268900e-02
-8.506925615013705144e-01 -5.164330394282692360e-01 9.807691671905639785e-02
-8.506925615013705144e-01 -5.164330394282692360e-01 9.807691671905639785e-02
-9.011808079922584147e-01 -4.311294111400595930e-01 4.472786778335946511e-02
-9.011684571679446920e-01 -4.311678892344167346e-01 4.460563976319407292e-02
-9.011684571679446920e-01 -4.311678892344167346e-01 4.460563976319407292e-02
-9.011737258763709013e-01 -4.311541075752176599e-01 4.463240203167243014e-02
-9.011737258763709013e-01 -4.311541075752176599e-01 4.463240203167243014e-02
-8.627891108905203499e-01 -4.747121218096016504e-01 1.739061572681410706e-01
-8.628108063269969152e-01 -4.746833012283939723e-01 1.738771866009780620e-01
-8.628108063269969152e-01 -4.746833012283939723e-01 1.738771866009780620e-01
-8.627878078732142964e-01 -4.747411872126655608e-01 1.738332642196037947e-01
-8.609767872840978775e-01 -5.055879624040717779e-01 5.567570412713592626e-02
-8.609301592917752988e-01 -5.056762276650884624e-01 5.559508608001446223e-02
-8.711673931293139050e-01 -4.360153329501100794e-01 2.257387928130213939e-01
-8.711673931293139050e-01 -4.360153329501100794e-01 2.257387928130213939e-01
-8.711683390070141808e-01 -4.360468241077714024e-01 2.256743057977277644e-01
-2.523692424475865170e-01 2.534138865604351754e-01 -9.338582159861132936e-01
-2.523692424475865170e-01 2.534138865604351754e-01 -9.338582159861132936e-01
-2.521787027835781236e-01 2.534405641533629683e-01 -9.339024479591092609e-01
-2.523022641251833065e-01 2.535455364321517191e-01 -9.338405797954160148e-01
-1.228970287238720094e-01 1.753472667333596802e-01 -9.768058437478677192e-01
-1.229456798198153983e-01 1.752613698884464832e-01 -9.768151370850416404e-01
-1.229456798198153983e-01 1.752613698884464832e-01 -9.768151370850416404e-01
-1.227898111779004847e-01 1.753296337175593855e-01 -9.768224924782200613e-01
-1.227898111779004847e-01 1.753296337175593855e-01 -9.768224924782200613e-01
-1.227898111779004847e-01 1.753296337175593855e-01 -9.768224924782200613e-01
-1.202275196469587137e-01 1.570642567957921953e-01 -9.802429100772551696e-01
-1.201945362661296229e-01 1.571087033772264607e-01 -9.802398322731517011e-01
-1.200604959434763558e-01 1.570551531475015694e-01 -9.802648398181083023e-01
-2.076698911296515418e-02 2.721734561501957250e-01 -9.620240859409080469e-01
-2.068502496866068616e-02 2.721835703717785382e-01 -9.620229902459280780e-01
-2.068502496866068616e-02 2.721835703717785382e-01 -9.620229902459280780e-01
-2.068502496866068616e-02 2.721835703717785382e-01 -9.620229902459280780e-01
-2.062494203859234487e-02 2.721372048606887084e-01 -9.620373971403172186e-01
-2.062494203859234487e-02 2.721372048606887084e-01 -9.620373971403172186e-01
-2.062494203859234487e-02 2.721372048606887084e-01 -9.620373971403172186e-01
-4.089933199300992833e-02 4.788871731162729906e-01 -8.769232121840716543e-01
-4.071619873522595162e-02 4.789097795253771106e-01 -8.769193886757825629e-01
-4.614496694093727092e-01 2.010785351621282302e-01 -8.640784832982668640e-01
-3.659610684479817078e-01 2.222880744757217697e-01 -9.036927068015363496e-01
9.646821640614113014e-02 2.683008467328764080e-01 -9.584928475819940452e-01
9.667874004066147331e-02 2.682832739840038117e-01 -9.584765548121529921e-01
-4.198232587480341671e-01 1.037366258692338020e-02 -9.075465930401115378e-01
-4.198591125744238206e-01 1.009009007379751272e-02 -9.075332036187546692e-01
2.020581913317415768e-01 4.313626239449500632e-01 -8.792603561966574333e-01
-6.816889822490918016e-02 4.089376465143304551e-01 -9.100126386914207943e-01
-2.137124457970820124e-01 3.777107800559789119e-01 -9.009226144019991667e-01
-7.125157632008984887e-01 -8.447621611754028981e-02 -6.965522637252024030e-01
-5.770961786030637253e-01 -4.865913741423518596e-02 -8.152252995263600255e-01
-5.770896208060870558e-01 -4.867537277510423921e-02 -8.152289725243400120e-01
-5.765538896887446585e-01 -5.000186288026823439e-02 -8.155276978700856105e-01
-5.078143361637557085e-01 1.878817661548014273e-01 -8.407288754010513454e-01
-5.077230366933355166e-01 1.879219179065416689e-01 -8.407750417211639071e-01
-1.867171121055482275e-01 3.295220164463148471e-01 -9.255009242157019589e-01
-1.721875364612302783e-01 3.615028775430034758e-01 -9.163335210585394908e-01
-1.721156114297498763e-01 3.614720360683839617e-01 -9.163592000098761403e-01
-1.721156114297498763e-01 3.614720360683839617e-01 -9.163592000098761403e-01
-1.245761942512970191e-02 3.086860491113903038e-01 -9.510823995859976066e-01
-1.252547732980988267e-02 3.087096984366115016e-01 -9.510738323121064042e-01
-1.239902033269039104e-02 3.087164833980180489e-01 -9.510732869622355867e-01
-2.942161194552921077e-02 3.354934018277769270e-01 -9.415830001017182482e-01
-2.942161194552921077e-02 3.354934018277769270e-01 -9.415830001017182482e-01
-2.951740375111607320e-02 3.354439229074090978e-01 -9.415976303391390134e-01
-2.951740375111607320e-02 3.354439229074090978e-01 -9.415976303391390134e-01
-2.941278199000541688e-02 3.354436882728852320e-01 -9.416009878146325285e-01
-2.941278199000541688e-02 3.354436882728852320e-01 -9.416009878146325285e-01
-9.179252047677652349e-02 2.304608533560970340e-01 -9.687424468117932230e-01
-9.182768228785617715e-02 2.303070529290351109e-01 -9.687756903106019557e-01
-3.824349606010715164e-01 2.178360733927178772e-01 -8.979370501537952132e-01
-4.806642707300221584e-01 -3.954098839207793870e-02 -8.760127676469980917e-01
-4.225906178633832000e-01 1.833566046900146282e-02 -9.061351848642725804e-01
-4.226827801092038484e-01 1.840082667873020605e-02 -9.060908767759963123e-01
-2.989303522675840763e-01 1.489364207006302863e-02 -9.541586995458705145e-01
-2.988697472191738647e-01 1.484907342615012990e-02 -9.541783791385820557e-01
-4.755190072010746505e-01 2.466096346773388043e-02 -8.793597163114464932e-01
-4.755386229274900511e-01 2.448736878212812162e-02 -8.793539599469343271e-01
-2.933809789244038457e-01 6.181352276763493053e-02 -9.539951203273597802e-01
-2.796490868093168825e-01 3.250498672783330711e-02 -9.595518819139162714e-01
-2.795738186863822583e-01 3.233891822760167484e-02 -9.595794257240941594e-01
-1.085728574477817648e-01 3.560357672391989414e-01 -9.281435595165322683e-01
-1.197225000288072577e-01 3.534316074147433873e-01 -9.277675473237263493e-01
-3.444385430107075874e-01 4.495773350939186730e-01 -8.241615799456507574e-01
-3.734973336975031533e-01 3.816464172876322114e-01 -8.454855137093540973e-01
-2.972609275358676362e-01 2.627368661737752853e-01 -9.179353354750536820e-01
-2.236951194091041650e-01 5.483836831601769379e-01 -8.057517170917015692e-01
-1.698639302421323660e-01 5.617786335949929155e-01 -8.096610476235340803e-01
-2.750797179187562322e-02 6.596753097760019724e-01 -7.510471337804526248e-01
-2.754447937063150831e-02 6.596039894176201068e-01 -7.511084334505644389e-01
-9.715998588765688282e-02 6.541161231419854172e-01 -7.501280121339352069e-01
-9.736564276990156142e-02 6.541758091524655372e-01 -7.500492932652631506e-01
-6.585468463582137832e-02 5.805928653092543579e-01 -8.115263922162401222e-01
-1.696634460293024727e-01 5.098451704154418618e-01 -8.433695615123367739e-01
-1.695660895786208211e-01 5.099167372326864900e-01 -8.433458735032658415e-01
-2.355191620667159147e-01 4.987494275087965834e-01 -8.341341216249577029e-01
-8.926197833927881908e-02 6.359252649586963901e-01 -7.665711686530938263e-01
-8.938029187198372194e-02 6.357606275884525315e-01 -7.666939336092440938e-01
4.514648853821432405e-03 6.794005740971992280e-01 -7.337536901863749295e-01
4.527819432619443508e-03 6.792875543846983444e-01 -7.338582406086623378e-01
4.601715728275108767e-03 6.793739589168837911e-01 -7.337777920855580449e-01
-6.772442305620209740e-03 6.810202182698887885e-01 -7.322332936522689684e-01
2.587541160831740086e-02 6.556056960449724302e-01 -7.546599461926460917e-01
2.579539832291253415e-02 6.555172971505403012e-01 -7.547394719781206351e-01
3.105370262672485417e-03 6.913949100433005590e-01 -7.224703696635234040e-01
3.197769464740192556e-03 6.913362741240631770e-01 -7.225260758967171348e-01
3.238114472762344299e-03 6.913775991992124892e-01 -7.224863527708978994e-01
-3.993309135935008136e-02 6.962984392101767561e-01 -7.166406573506401978e-01
-3.985210475969604149e-02 6.962915524507432563e-01 -7.166518567142319274e-01
-3.989774624213080628e-02 6.963407665086603915e-01 -7.166014978653963974e-01
-3.237415504450235487e-02 6.263309165213331031e-01 -7.788847778039453829e-01
-3.237415504450235487e-02 6.263309165213331031e-01 -7.788847778039453829e-01
-3.233451350892709714e-02 6.263002080370291269e-01 -7.789111172970347718e-01
-3.233451350892709714e-02 6.263002080370291269e-01 -7.789111172970347718e-01
-3.233451350892709714e-02 6.263002080370291269e-01 -7.789111172970347718e-01
-3.233523967417347572e-02 6.262971457383671448e-01 -7.789135494489669576e-01
-3.233523967417347572e-02 6.262971457383671448e-01 -7.789135494489669576e-01
-1.117776382842684477e-02 4.666699687744808589e-01 -8.843608979595497521e-01
-1.117776382842684477e-02 4.666699687744808589e-01 -8.843608979595497521e-01
-1.118123395154469422e-02 4.665134998642411768e-01 -8.844434037583961405e-01
-1.111811462790187471e-02 4.664116954402171000e-01 -8.844978902652640418e-01
-8.301192150402859904e-02 1.026705336302461136e-01 -9.912455711942875780e-01
-8.301612284328283020e-02 1.026723110830952690e-01 -9.912450352384748475e-01
-8.301612284328283020e-02 1.026723110830952690e-01 -9.912450352384748475e-01
1.572387378757099732e-02 2.433777997057754716e-01 -9.698041072317069577e-01
1.584583040786573596e-02 2.434247403663479803e-01 -9.697903409687381737e-01
6.113176296679028246e-03 6.449946103820694554e-02 -9.978990172363867428e-01
6.210619386068092114e-03 6.460406018475285672e-02 -9.978916492357705614e-01
6.128232834446424235e-03 6.463943691677008496e-02 -9.978898676494364350e-01
3.855083160183888497e-02 2.547073325858158488e-01 -9.662494543904412980e-01
3.852575470127126561e-02 2.546529238832225817e-01 -9.662647952721982181e-01
2.576286809320314508e-01 3.375995580616395486e-01 -9.053474477557260647e-01
2.577194240935314351e-01 3.376956077525266608e-01 -9.052857973864111285e-01
3.640656247354202846e-02 2.732307977720667691e-01 -9.612593267988092105e-01
3.634326191647322540e-02 2.732713707865196406e-01 -9.612501886718811672e-01
3.634326191647322540e-02 2.732713707865196406e-01 -9.612501886718811672e-01
5.861387096441836309e-02 3.566181429282083704e-01 -9.324097351835202163e-01
5.861387096441836309e-02 3.566181429282083704e-01 -9.324097351835202163e-01
5.856575004732330475e-02 3.566058971256989563e-01 -9.324174424883792112e-01
1.109518347165149299e-01 4.129106045324233976e-01 -9.039881210711275816e-01
1.109518347165149299e-01 4.129106045324233976e-01 -9.039881210711275816e-01
1.109518347165149299e-01 4.129106045324233976e-01 -9.039881210711275816e-01
1.109925237246355972e-01 4.129075655169425207e-01 -9.039845142568029290e-01
1.109925237246355972e-01 4.129075655169425207e-01 -9.039845142568029290e-01
1.109728876769172090e-01 4.129703816364164726e-01 -9.039582302804255454e-01
1.109728876769172090e-01 4.129703816364164726e-01 -9.039582302804255454e-01
2.504885971595796068e-01 3.977348106588556864e-01 -8.826451626124680594e-01
2.504650783648453838e-01 3.977790336696459539e-01 -8.826319079279507651e-01
2.504325442557437942e-01 3.978023738465213399e-01 -8.826306204407750045e-01
2.504325442557437942e-01 3.978023738465213399e-01 -8.826306204407750045e-01
2.735085605668582387e-01 3.810103354305185430e-01 -8.831897823184827745e-01
2.735085605668582387e-01 3.810103354305185430e-01 -8.831897823184827745e-01
2.735589561568796402e-01 3.809715083677865377e-01 -8.831909234804963260e-01
2.604749871231591962e-01 3.302761994684050850e-01 -9.072322818043327963e-01
2.605224063598045592e-01 3.302665494461447526e-01 -9.072221790175953871e-01
2.604756091573441901e-01 3.302950776824404855e-01 -9.072252304102113030e-01
2.604756091573441901e-01 3.302950776824404855e-01 -9.072252304102113030e-01
1.101439826884759027e-01 2.405732012670592224e-01 -9.643613627212777040e-01
3.250785339430373178e-02 2.355028945386416495e-01 -9.713298235571765638e-01
3.250785339430373178e-02 2.355028945386416495e-01 -9.713298235571765638e-01
3.253994778823016826e-02 2.355680297129582879e-01 -9.713129542918151893e-01
3.246605934313602504e-02 2.354560737960991745e-01 -9.713425720636638117e-01
3.246605934313602504e-02 2.354560737960991745e-01 -9.713425720636638117e-01
3.246605934313602504e-02 2.354560737960991745e-01 -9.713425720636638117e-01
8.663836429814859852e-02 -3.488439710829183572e-03 -9.962337198770805369e-01
4.970872977621275668e-01 -1.027504900135334590e-02 -8.676396958251539893e-01
-5.585524952297627604e-03 2.124099512581948679e-01 -9.771646813702891121e-01
2.442069196230659267e-01 2.076591888548654299e-02 -9.695007772152917092e-01
-5.807819579664243344e-03 -7.416455544039032288e-01 -6.707668304743886756e-01
8.880992516742454435e-02 -6.484092611642727766e-01 -7.560940597757386250e-01
-1.495399472616376346e-01 5.506666884230770886e-02 -9.872210827143017564e-01
-2.017389607897594472e-01 -5.599645671211915809e-01 -8.035801610718400489e-01
-2.018552479724654569e-01 -5.599185390859596767e-01 -8.035830314621006387e-01
2.355402399492539933e-02 -5.479688395016828473e-01 -8.361670639823273188e-01
2.327010676437741427e-02 -5.477860363717446113e-01 -8.362947808561931318e-01
2.197484703217589264e-01 4.025878359810776130e-01 -8.886133265438461715e-01
1.082832683587265851e-02 5.716427683156030115e-01 -8.204311627250694405e-01
1.085445629399512182e-02 5.717005077865101592e-01 -8.203905839142768830e-01
6.876755685732645340e-02 1.838119111767353431e-01 -9.805530094969013843e-01
-8.706558349606872624e-03 6.068537027609851586e-01 -7.947658644449865362e-01
-8.807070639882263671e-03 6.067942701132019723e-01 -7.948101340977798968e-01
-1.033571403099183862e-02 6.024760601369812951e-01 -7.980700282414384672e-01
-1.047902623202713254e-02 6.024594209596227934e-01 -7.980807202947733936e-01
-1.043723884782631756e-02 6.023116157930604730e-01 -7.981928222716526689e-01
-1.043723884782631756e-02 6.023116157930604730e-01 -7.981928222716526689e-01
-5.310577974728544204e-01 4.640041629836184067e-01 -7.089977097827273589e-01
-5.312630479067695921e-01 4.639335968558377377e-01 -7.088901125260630431e-01
-4.751042970807410337e-01 -2.663108560793135682e-02 -8.795264022044807506e-01
-4.426824553785850824e-01 -3.255652820291131122e-01 -8.354875767103250306e-01
-4.430729698263592420e-01 -3.252518183639868665e-01 -8.354026562443827020e-01
-5.510227356152312961e-01 -2.908751384701292464e-01 -7.821544595890826956e-01
-2.499330431475673409e-01 -1.221412415919972960e-01 -9.605284956966980703e-01
-2.499245199408881013e-01 -1.220266056671496235e-01 -9.605452835976400205e-01
-2.499011575454897771e-01 -1.220629077139116642e-01 -9.605467495222965724e-01
-7.298741314791136192e-01 1.072258636895920270e-01 -6.751195200508059990e-01
-5.955627650680552776e-01 3.158206662400632747e-01 -7.386218922020758582e-01
-5.777790891066428847e-01 4.013193633370289448e-01 -7.107137910592842278e-01
-5.829932986534243078e-01 4.020171174937124392e-01 -7.060460685870615372e-01
-5.830387201446131096e-01 4.021080344961353581e-01 -7.059567829589756816e-01
-5.946106018853926090e-01 3.139826684009160984e-01 -7.401710046126716014e-01
-5.671784453190352737e-01 3.077013993148793036e-02 -8.230199327197845749e-01
-6.125930941431335652e-01 -1.188517809325421032e-01 -7.814115146178131077e-01
-6.663133383191104375e-01 -1.447200439110703507e-01 -7.314934340569438920e-01
-6.661904180519386820e-01 -1.447222817210372658e-01 -7.316049398884891808e-01
-9.202782491218468586e-01 1.219249389783066823e-01 -3.717825351578045723e-01
-9.202782491218468586e-01 1.219249389783066823e-01 -3.717825351578045723e-01
-9.202562870411146179e-01 1.218649032799035137e-01 -3.718565738424980394e-01
-8.324140665247763415e-01 2.222738880478200008e-01 -5.076230299580490879e-01
-8.325176350848180196e-01 2.221083818534590748e-01 -5.075256190412656965e-01
-8.237517555612652309e-01 2.047987630424505656e-01 -5.286686219797952502e-01
-8.236123435817074290e-01 2.050756463447144795e-01 -5.287784855458331768e-01
-7.703878408354464247e-01 2.142294786106192783e-01 -6.005067070292564591e-01
-7.704282086437584942e-01 2.139690440142346661e-01 -6.005477695650893732e-01
-8.173694591026554601e-01 2.609050436857672777e-03 -5.761079414328968973e-01
-8.172782579372570577e-01 2.700455957373095774e-03 -5.762368928146346381e-01
-8.798587974764973119e-01 1.044841506537683984e-01 -4.636071168191583380e-01
-8.797591527352806029e-01 1.042969046213611806e-01 -4.638383219020438264e-01
-9.249022457029943967e-01 1.385597761862907562e-01 -3.540579392087724320e-01
-8.524236192086596109e-01 3.679713894583637457e-02 -5.215553124843144150e-01
-8.525049623192503256e-01 3.697075561909250740e-02 -5.214100617076801170e-01
-3.428952469939899328e-01 -7.765376415687976763e-01 -5.285944956350757673e-01
-7.877721075117919414e-01 -3.179180330481531369e-01 -5.275824398984704233e-01
-5.633733663669319158e-01 -7.132816061175726308e-01 -4.169410035517335800e-01
-9.676660107796877242e-01 -1.716845079450315670e-01 -1.847888560314115136e-01
-9.828932674237483846e-01 1.166600892370668607e-01 -1.425175372796895767e-01
-9.667465858303629922e-01 -2.309484320407562130e-01 -1.098356068096894289e-01
-9.814087236413269189e-01 1.375622920494708745e-01 -1.338414471185875032e-01
-9.813907185678942824e-01 1.376877096547906298e-01 -1.338445072418380233e-01
-9.814226606493979821e-01 1.375489589581975203e-01 -1.337529254011761148e-01
-9.661470343098595981e-01 -1.348352401267184364e-01 -2.199530998059201214e-01
-9.726337013795096631e-01 6.325206341696257284e-02 -2.235684669498170796e-01
-9.468426727279264377e-01 -5.898304982146775066e-02 -3.162435025975948721e-01
3.657957492269390820e-01 -8.287852171390377443e-01 -4.234483837485986668e-01
1.240032410657612577e-01 -8.642234787049456468e-01 -4.875868897543380043e-01
1.237660533752093089e-01 -8.643527208012302676e-01 -4.874180321607269883e-01
3.637545291667514946e-01 -6.093297509517285881e-01 -7.045565251388841155e-01
3.638872504851550227e-01 -6.092338334182396675e-01 -7.045709369203860817e-01
3.638872504851550227e-01 -6.092338334182396675e-01 -7.045709369203860817e-01
5.718596307194089290e-01 -5.364743656293882168e-01 -6.206221215651330780e-01
5.718596307194089290e-01 -5.364743656293882168e-01 -6.206221215651330780e-01
5.718369712919412207e-01 -5.364293794041596897e-01 -6.206818824290972758e-01
6.519379998403130871e-01 -4.311429778550109337e-01 -6.237728569042784166e-01
6.518548936730939047e-01 -4.312181805562741443e-01 -6.238077254668910054e-01
7.863191774115162458e-01 -5.022705507230307287e-01 -3.597588707888381698e-01
7.489599977362875194e-01 -3.891830671595297164e-01 -5.362792761492479743e-01
7.491251535354584989e-01 -3.890492974676645899e-01 -5.361456411091974905e-01
7.490551340454740803e-01 -3.890384700201253154e-01 -5.362513170189112666e-01
2.283071446623116674e-01 -9.441597182767506036e-01 -2.375674095487620985e-01
8.757405760538196360e-02 -9.169699863259355155e-01 -3.892259351738303619e-01
8.760289729037136486e-02 -9.170315431024507191e-01 -3.890743904981036061e-01
1.098448639114032177e-01 -9.729649218809666156e-01 -2.031584767157151306e-01
1.098971539599355313e-01 -9.729391694959752535e-01 -2.032535067643078397e-01
6.007222421374902588e-01 -6.945130229208319461e-01 -3.959601606155274678e-01
4.710188664123065583e-01 -6.992986953718575149e-01 -5.377011829398218312e-01
4.941710304131151643e-01 -6.043985424927070804e-01 -6.248979072881677421e-01
1.702028804534223561e-01 -9.066150642893543443e-01 -3.861089285279063477e-01
1.700107883518589824e-01 -9.067167277693541916e-01 -3.859547997204001990e-01
-2.438069220730246789e-01 -9.679458072407952640e-01 6.032494504136051011e-02
-2.437804600465236504e-01 -9.679600510260399915e-01 6.020321351199892784e-02
-1.676545512376904357e-01 -9.855463556240325884e-01 2.429675627478528749e-02
-1.677458129789420882e-01 -9.855253920063934414e-01 2.451619747591921028e-02
-1.690598787962842853e-01 -9.814009044525735526e-01 -9.094515996498334087e-02
-2.378879329411640875e-01 -9.651204214266458914e-01 1.093247616335554784e-01
-2.378879329411640875e-01 -9.651204214266458914e-01 1.093247616335554784e-01
-4.351178139971799697e-01 -8.979658049264863662e-01 6.580198420293240091e-02
-4.025094980713036508e-01 -8.960631605212716622e-01 1.872349228082647588e-01
-4.025572259080992810e-01 -8.960083803645173539e-01 1.873944027598737905e-01
-3.758294305025421389e-01 -9.165003740776834773e-01 1.370375987953709462e-01
-3.757483564775195850e-01 -9.165672386340005806e-01 1.368125347593771857e-01
-3.759298170213107304e-01 -9.164785603196970998e-01 1.369080755421649975e-01
-3.776025085344747456e-01 -9.126811154123407599e-01 1.562994789439731136e-01
-3.775491622786086299e-01 -9.127479475462705327e-01 1.560378617925523015e-01
-2.535843409383080616e-01 -9.672597057856202607e-01 -1.018054980829381263e-02
-2.536428128627308820e-01 -9.672433794013315378e-01 -1.027465266436638873e-02
2.451052161577045585e-02 -9.995958435845732071e-01 -1.440082700986697849e-02
2.430856620978709068e-02 -9.996008136226659513e-01 -1.439816008137124494e-02
2.430856620978709068e-02 -9.996008136226659513e-01 -1.439816008137124494e-02
2.446567302301994040e-02 -9.995983623832587206e-01 -1.430191470531454526e-02
-3.212965876488499961e-01 -9.466043569247681866e-01 2.662131131726807112e-02
-7.702879617918967359e-01 -6.324946600584826495e-01 8.128321423264375789e-02
-6.725251708354800240e-01 -7.367145277129858449e-01 7.043862043893919789e-02
-6.726072896885373353e-01 -7.366415122047325070e-01 7.041815358673383929e-02
-6.726102655809896858e-01 -7.366384305740267813e-01 7.042196558251928584e-02
-4.554504353640890790e-01 -8.902311153520151565e-01 -7.311784034629249113e-03
-5.527381007830038939e-01 -8.270843083848256061e-01 -1.020398881143666225e-01
-1.567272206318941763e-01 -8.947008140546667265e-01 -4.182666991799828815e-01
4.004006100816872027e-01 -7.618451247979969310e-01 -5.091869570872147310e-01
4.032269020446005436e-01 -8.035250081527298693e-01 -4.378991056632449141e-01
4.032687955611121144e-01 -8.034872744957746171e-01 -4.379297640604503106e-01
4.030853270138635702e-01 -8.035799848606705043e-01 -4.379285638976423423e-01
6.144357244083955422e-02 -9.831643144113878519e-01 -1.720831725465709061e-01
6.166005849965106034e-02 -9.830891463961041188e-01 -1.724348207990463178e-01
1.130453844020645471e-01 -8.334516081716624170e-01 -5.409058678748637217e-01
1.128000233330966606e-01 -8.336278362047926382e-01 -5.406854773716123219e-01
4.580217327291424834e-01 -6.553487269426420125e-01 -6.006114704552789618e-01
4.580225889311607679e-01 -6.553447181847243952e-01 -6.006151915962341103e-01
2.797591157730306213e-02 -8.075411468845566931e-01 -5.891473877221162780e-01
2.786266539084093427e-02 -8.075715427018236303e-01 -5.891110890956938739e-01
2.153522812144025370e-02 -6.722378298605655722e-01 -7.400219821425000344e-01
-2.539688890758087236e-01 -7.388061136280829055e-01 -6.242317917627775437e-01
-2.452762945896828917e-01 -8.548771683700578938e-01 -4.571920453288166875e-01
-1.164647165797184783e-03 -6.264214076816885246e-01 -7.794837160551022492e-01
1.433923675698846600e-01 -7.515332930460367766e-01 -6.439226183060219322e-01
-8.046053477574417467e-01 -5.636375161404747480e-01 -1.868769240947699417e-01
-8.814838995766968166e-01 -4.678296766814505347e-01 -6.419913086007719705e-02
-9.646137639400402808e-01 -2.395547335766573249e-01 -1.101536020221080686e-01
-5.360345971589672853e-01 -6.432059819047816207e-01 -5.467659238563878921e-01
-5.380704293623059797e-01 -6.668821568689431434e-01 -5.155079067247078095e-01
-3.359134570730296088e-01 -4.993794613153861861e-01 -7.986127365460686800e-01
-8.429882265107375705e-01 -1.022442513504448064e-01 -5.281258969507822698e-01
-7.834569628110085171e-01 -2.246460706303292643e-01 -5.794215480747185731e-01
-7.483763924442455862e-01 -3.853471563447725123e-01 -5.398521504348519073e-01
-9.651780264559142175e-01 -1.623638363430737752e-01 -2.051081712039435345e-01
-9.651601772830006309e-01 -1.624561250627835074e-01 -2.051190864269635539e-01
-9.805400243272194283e-01 1.241199262226315957e-02 -1.959265248288774297e-01
-9.805235301984044360e-01 1.273178890306560576e-02 -1.959885411920467002e-01
-9.564391152305434796e-01 9.102919269394495194e-02 -2.773768284022721242e-01
-9.564391152305434796e-01 9.102919269394495194e-02 -2.773768284022721242e-01
-9.564471920602440891e-01 9.106187196012169305e-02 -2.773382488500151233e-01
-9.564382360523876470e-01 9.108266995849123582e-02 -2.773623043065329696e-01
-9.689582436106267682e-01 4.443080239631076777e-04 -2.472240375234361909e-01
-9.594790938456918550e-01 1.227437823855941496e-01 -2.536411487884565608e-01
-9.725821889945660548e-01 1.020603977013987695e-01 -2.089678465017305309e-01
-9.726032162702041850e-01 1.020561035301138231e-01 -2.088720551751840626e-01
-9.435685745074658959e-01 5.184036344148087311e-02 -3.270946681317258853e-01
-9.682460938075578838e-01 1.114553314951380464e-01 -2.237793799877792755e-01
-9.682876933834463351e-01 1.113563717089065125e-01 -2.236486112677490701e-01
-9.682716472673371655e-01 1.113319727944868526e-01 -2.237302146154716564e-01
-9.682716472673371655e-01 1.113319727944868526e-01 -2.237302146154716564e-01
-9.707963378581779823e-01 1.391897181037010378e-01 -1.953988044368808463e-01
-9.707963378581779823e-01 1.391897181037010378e-01 -1.953988044368808463e-01
-9.708155151921620263e-01 1.393145665364420027e-01 -1.952144641488956500e-01
-9.708155151921620263e-01 1.393145665364420027e-01 -1.952144641488956500e-01
-9.708388323559498101e-01 1.391347757167516186e-01 -1.952267291535288440e-01
-9.772783494364670753e-01 8.871906287161820948e-02 -1.924992353385240051e-01
-7.046789616912729759e-01 -5.770879096756362792e-01 -4.127918427681369073e-01
-7.830967742195190651e-01 -6.104479077933127051e-01 -1.187972814409093830e-01
-8.571573410823811745e-01 -5.084066713255491754e-01 -8.248605445926786295e-02
-8.572187811026785731e-01 -5.083096115229526202e-01 -8.244574069181888343e-02
-8.571688669128627591e-01 -5.083985457615513015e-01 -8.241633492736082089e-02
-9.625175297177986922e-01 -2.435348664666333596e-01 -1.193766049149734138e-01
-7.726889553615816641e-01 -5.238544891134571113e-01 -3.585083715869220033e-01
-6.225604899547010351e-01 -4.325609858929335139e-01 -6.521575191858911547e-01
-7.183468409063831217e-01 -2.846374652383585890e-01 -6.347907761951979699e-01
-7.183728659847777864e-01 -2.845912955487346352e-01 -6.347820255132539113e-01
-8.719288514498669818e-01 -9.187575533296851726e-02 -4.809354671796543523e-01
-8.719763753771179182e-01 -9.174831689317813899e-02 -4.808736290663613855e-01
-8.165054806815393862e-01 -2.483119004623605408e-01 -5.212101304711748151e-01
-9.016699948771709217e-01 1.556601397318425201e-02 -4.321445586226779767e-01
-9.016204436668209254e-01 1.533561606900453803e-02 -4.322561676157195554e-01
-9.016204436668209254e-01 1.533561606900453803e-02 -4.322561676157195554e-01
-9.015770851055397994e-01 1.540614970364787006e-02 -4.323440876939420030e-01
-9.394858121204845425e-01 9.375540484854005818e-02 -3.295092303502284992e-01
-9.028090227239632393e-01 -3.704048031669636698e-01 -2.184860413826134329e-01
-9.028596348264794624e-01 -3.703208924691431259e-01 -2.184191301188007361e-01
-9.028272195026028069e-01 -3.704073575012789554e-01 -2.184065045600031008e-01
-8.474302800038067129e-01 -2.964212632678742132e-01 -4.404501733628303772e-01
-9.036855759465578508e-01 -7.372560292695130857e-02 -4.218019858881599249e-01
-9.296885760048789749e-01 -3.508082860983247064e-02 -3.666721793510764882e-01
-9.297476536731088537e-01 -3.497592532796757470e-02 -3.665323793838701216e-01
-8.366308870615961624e-01 -3.082373470919084757e-01 -4.528117673738935589e-01
-8.644310009208422407e-01 -2.872334070916083837e-01 -4.126209089437146149e-01
-8.638877218537608371e-01 -3.006500895708416610e-01 -4.041132609447059543e-01
-7.002992043242596276e-01 -4.287396127109331379e-01 -5.707568386934034343e-01
-7.003085048166128868e-01 -4.288915015977644019e-01 -5.706312977209846427e-01
-6.171994503891238271e-01 -6.164793482010703096e-01 -4.888947245378570394e-01
-5.863324959135498560e-01 -6.195625650079785718e-01 -5.218777943891858007e-01
-6.045326835296703782e-01 -7.106908865036021261e-01 -3.598036942349805423e-01
-8.968101565202070136e-01 -4.975809509819895810e-02 -4.396085476129875658e-01
-8.968224416918165742e-01 -4.989234785491973578e-02 -4.395682673981960997e-01
-8.914936135508019222e-01 -1.640279747776412778e-01 -4.222960578651888675e-01
-8.914583532033293345e-01 -1.641529100751825676e-01 -4.223219466448045467e-01
-8.914976833949881385e-01 -1.639421978941384972e-01 -4.223207741172681495e-01
-9.420952147032278789e-01 -1.737788985751050341e-01 -2.868056848169200923e-01
-9.420952147032278789e-01 -1.737788985751050341e-01 -2.868056848169200923e-01
-9.420680209610833300e-01 -1.737733144397955454e-01 -2.868983776027251853e-01
-9.318487323511521758e-01 1.212170160486464587e-01 -3.420005482975327360e-01
-9.318343294691885381e-01 1.212775441284078964e-01 -3.420183324222399457e-01
-8.500339340579068370e-01 2.320257949191175117e-01 -4.728703220145981101e-01
-8.500679661272979581e-01 2.321755617553201978e-01 -4.727356147867434744e-01
-8.061109550725956696e-01 1.713721351001801230e-01 -5.664068497318452966e-01
-8.061802256389132282e-01 1.713449342126510677e-01 -5.663164815793845230e-01
-8.089429335433497847e-01 3.217239148099426682e-02 -5.870061903393126723e-01
-8.090365678724068532e-01 3.246244933175780611e-02 -5.868611600954858343e-01
-9.429230331399235387e-01 1.344605368944786772e-01 -3.046580338547719702e-01
-9.428708864645357624e-01 1.343982219585481974e-01 -3.048468621979915083e-01
-8.587038907304855861e-01 -3.521485284526230108e-01 -3.723157825730444848e-01
-8.588092217917795423e-01 -3.521840163986372230e-01 -3.720391634743881459e-01
-8.353861668363646853e-01 -3.128680982322376569e-01 -4.519330762037543359e-01
-9.609742583197771193e-01 -1.906855479144309584e-01 -2.004183042122838765e-01
-9.756874274706637262e-01 -2.150034599209225128e-01 -4.251536307866324998e-02
-9.756808650605525157e-01 -2.150549114947933604e-01 -4.240559628938434661e-02
-9.756807520841817016e-01 -2.150552564210251871e-01 -4.240644642188918373e-02
-9.720287625641602647e-01 -2.348606852464086292e-01 7.370709428450989125e-04
-9.775467837784160841e-01 5.813064974575175153e-02 -2.025416329661912929e-01
-9.775467837784160841e-01 5.813064974575175153e-02 -2.025416329661912929e-01
-9.775444819579299782e-01 5.819798721772258959e-02 -2.025334048432701761e-01
-9.764207511910869552e-01 -3.491304476387065842e-02 -2.130342600352098659e-01
-9.747897737602745361e-01 -2.182169883158127655e-01 -4.654291549493987101e-02
-9.889289073329076141e-01 1.053437650375456530e-01 1.045098435988478652e-01
-9.905995520857225900e-01 1.343796232486169639e-01 -2.558601694531033310e-02
-9.905426317243496426e-01 1.347729413534793641e-01 -2.572059516285122444e-02
-9.905535771701259318e-01 1.347426874364903160e-01 -2.545621609468973895e-02
-9.817469454815839214e-01 -8.661488190818536492e-02 1.693245323915325562e-01
-9.817113464631537223e-01 -8.657033216732584746e-02 1.695535603104237343e-01
-9.817158789868924984e-01 -8.671390891749961027e-02 1.694539198284903125e-01
-2.161964144922103592e-01 -4.353361840649610515e-01 -8.739230613758116606e-01
-2.160661829270050793e-01 -4.353509450940920011e-01 -8.739479156111277236e-01
-4.145520566615708558e-01 -2.106817604685399525e-01 -8.853020886248593735e-01
-4.143586242799786046e-01 -2.107525672517610305e-01 -8.853757879463359792e-01
-3.307184901793157050e-01 -2.608911595161694796e-01 -9.069515329607324983e-01
-3.309053200280332452e-01 -2.608030931995050650e-01 -9.069087141243683536e-01
-3.308130545600502792e-01 -2.609000196798532678e-01 -9.069144957843056076e-01
-6.179197086204110123e-01 5.373625188068767954e-03 -7.862228423613780715e-01
-6.178888925009685673e-01 5.334528446740806513e-03 -7.862473270734708919e-01
-6.178888925009685673e-01 5.334528446740806513e-03 -7.862473270734708919e-01
-4.780316563134576757e-01 -7.479467484308577330e-01 -4.605012454640264874e-01
-3.090809809278786680e-01 -5.694190542282151490e-01 -7.617288808431154079e-01
-3.092310827298548892e-01 -5.693384724778142170e-01 -7.617281938003548358e-01
-3.182716443177535104e-01 -6.998522660186192734e-01 -6.394606838359003786e-01
-9.983830247551545023e-01 -7.110063772181029855e-03 -5.639842971133234711e-02
-9.718826540604553754e-01 1.245902873320215432e-01 -1.998033208906433711e-01
-9.333140017980541270e-01 -1.362787184520803663e-01 -3.321943481529455733e-01
-9.332926950879293360e-01 -4.504662219671617257e-02 -3.562801525824526583e-01
-8.223906454656768616e-01 -3.693063998213457766e-01 -4.327659983195812909e-01
-9.953541816561195521e-01 -6.170889196802422511e-02 7.390578943327275052e-02
-9.953735553953636517e-01 -6.162675989261384712e-02 7.371314458582881035e-02
