4.789503980338722933e-01 -3.572672334970685148e-01 8.018520063531339170e-01
-4.469266543366405553e-02 7.184561579305157042e-02 9.964139567206752313e-01
-4.469266543366405553e-02 7.184561579305157042e-02 9.964139567206752313e-01
-5.874702838241822184e-02 7.832525738288315109e-02 9.951954284019497443e-01
-2.138192664135394466e-02 6.592718161190208592e-02 9.975953187228852048e-01
-2.138192664135394466e-02 6.592718161190208592e-02 9.975953187228852048e-01
-1.574351463464009407e-02 6.816694784959032027e-02 9.975497025050029665e-01
2.273086867163601546e-02 4.126389023072273704e-02 9.988896830844032904e-01
2.168112663336801693e-01 -2.868278256551665129e-01 9.331252184035727648e-01
2.168112663336801693e-01 -2.868278256551665129e-01 9.331252184035727648e-01
1.600807057715316131e-02 -9.850572911644471796e-01 1.714814124042561283e-01
9.808959562447892855e-03 4.330596337463323009e-02 9.990137025329017817e-01
9.808959562447892855e-03 4.330596337463323009e-02 9.990137025329017817e-01
1.785743822441470119e-01 -2.893249377851139226e-01 9.404266427434737619e-01
1.919459694749085232e-01 -2.862896943809536410e-01 9.387198494191958398e-01
2.185245736160485175e-01 -2.984266420061830738e-01 9.290794099897153879e-01
-4.387541805064868461e-01 -3.641869542709543772e-01 -8.215002321526921891e-01
-4.477356922777047665e-01 2.982948200990658827e-01 8.429430290136282755e-01
-2.488896655253241275e-01 9.010965283634861378e-02 9.643309519352808445e-01
8.905161534762552344e-01 -4.490961420460642950e-01 -7.275737486465645720e-02
1.989065619895602766e-01 -2.922628764689897962e-01 9.354242837534019195e-01
1.973164654616575420e-01 -2.939992304782393373e-01 9.352169079608866342e-01
3.421685418953050450e-01 9.245925889875127035e-02 -9.350785926226385936e-01
3.421685418953050450e-01 9.245925889875127035e-02 -9.350785926226385936e-01
-9.585309708150281383e-01 -2.803947834009965501e-01 -5.096217646360617914e-02
3.213949317197208888e-01 1.646756467186727413e-01 -9.325166107060307574e-01
8.691293893986578034e-01 -4.753292492090598342e-01 -1.366609283221359439e-01
6.262127902590590711e-01 1.416436469994689362e-01 -7.666776497203067198e-01
6.262127902590590711e-01 1.416436469994689362e-01 -7.666776497203067198e-01
9.835099225636304704e-03 4.507138449206495728e-02 9.989353538258570753e-01
3.248807693445888156e-01 1.789399752274684618e-01 9.286726931355637760e-01
-6.204305780122892910e-01 4.873675242246063299e-01 6.144418558321971258e-01
8.709995593664719982e-01 -4.788414905359564822e-01 -1.098662574438359074e-01
-2.686612107684825945e-01 1.050295720822017193e-01 9.574914844616856380e-01
9.122811986835656084e-01 1.754721864453342717e-01 -3.700709746961665103e-01
9.512167714464495605e-01 1.577940749147015986e-01 -2.651182446396445624e-01
7.192065400017981502e-02 5.641395947964354951e-01 -8.225411461508171929e-01
1.435898354933138610e-01 -2.836109450876360683e-01 9.481280456612919405e-01
-1.750856519754416252e-01 7.693832224979969825e-02 9.815424132668545409e-01
3.297890812940672545e-01 1.729388812133374753e-01 -9.280793636451003525e-01
3.297890812940672545e-01 1.729388812133374753e-01 -9.280793636451003525e-01
5.344189597493582689e-01 1.543926446328791613e-01 -8.309989691592156724e-01
-1.179736911082840956e-01 5.910779402081044881e-02 9.912560097635123579e-01
-1.179736911082840956e-01 5.910779402081044881e-02 9.912560097635123579e-01
1.608406025774884174e-01 -2.989030505768762169e-01 9.406313129586679755e-01
8.239438129579944592e-01 1.651265562435075551e-01 -5.420791579754760114e-01
8.239438129579944592e-01 1.651265562435075551e-01 -5.420791579754760114e-01
-9.215201728424114724e-02 1.046423509702927440e-01 9.902312780829813921e-01
-8.018745350547133721e-03 -1.166675996684221756e-01 9.931386463684775956e-01
1.737018613378446541e-02 -5.673713107890631518e-02 9.982380350350373854e-01
2.039229283575895169e-01 -3.133233139351928598e-01 9.274933639842034561e-01
2.185714776462787667e-01 -2.986390993474268840e-01 9.290001062973458623e-01
2.185714776462787667e-01 -2.986390993474268840e-01 9.290001062973458623e-01
2.046338526396832558e-01 -3.110086875064917988e-01 9.281156084504396109e-01
1.463231434418668740e-03 -3.591613001198309257e-02 9.993537364510783894e-01
8.692855045777876377e-01 -4.841662282038420306e-01 -9.962818375242298019e-02
5.976595015071117789e-01 5.486170936961670686e-01 5.846558002471552440e-01
-2.719378114011117842e-01 3.478853100742239357e-02 9.616858035973697705e-01
-4.251437369477303330e-01 1.931543042340287120e-01 8.842760981107582463e-01
-5.038945405871042560e-01 2.899100637594551610e-01 8.136599086212249476e-01
-3.729459931855028110e-01 2.190301038675103174e-01 9.016302455922087233e-01
1.386888158647085478e-01 -2.838722910120495824e-01 9.487791812374548606e-01
-3.524066838250274891e-01 1.495564454827656153e-01 9.238194622381623589e-01
-2.377829075473423814e-01 5.918422300250852225e-02 9.695135463859808622e-01
7.627667268499777053e-01 -2.423779004066969889e-01 -5.995330464661748904e-01
2.059748367472870878e-01 -2.928746520079497095e-01 9.337016680065162166e-01
2.059748367472870878e-01 -2.928746520079497095e-01 9.337016680065162166e-01
-1.630499868267945851e-01 7.971493895385743655e-02 9.833922057365335201e-01
8.467602363406890875e-01 -5.073946203260459864e-01 -1.598367961905140522e-01
8.467602363406890875e-01 -5.073946203260459864e-01 -1.598367961905140522e-01
1.566259543028035994e-01 -2.759273092514569203e-01 9.483313927356760153e-01
1.566259543028035994e-01 -2.759273092514569203e-01 9.483313927356760153e-01
1.373426798134556870e-01 -2.917879584592688591e-01 9.465710620972048739e-01
1.373426798134556870e-01 -2.917879584592688591e-01 9.465710620972048739e-01
-2.155937062168783447e-01 3.106276736979021180e-01 -9.257590410969259720e-01
-2.155937062168783447e-01 3.106276736979021180e-01 -9.257590410969259720e-01
-2.155937062168783447e-01 3.106276736979021180e-01 -9.257590410969259720e-01
9.001594246651185571e-01 1.386890712397773062e-01 -4.128902417171063099e-01
9.122497495157184666e-01 1.755925382586300265e-01 -3.700914144051444810e-01
1.205280178299236171e-01 5.400036446111819988e-01 -8.329880315614562880e-01
-1.273739880764905227e-02 -3.572968783733522502e-02 9.992803150661286882e-01
-2.684823772558575516e-01 1.671754271402359215e-02 9.631395209774378241e-01
-5.171087050288268872e-01 3.368416341221189825e-01 7.868521466612072857e-01
8.410728147431487667e-01 -5.180622865973590896e-01 -1.555891625581694859e-01
-3.535849383536827650e-01 2.207855996999252834e-01 9.089727225470337624e-01
-2.510992469230359236e-01 6.783856722670932038e-02 9.655812223688442497e-01
3.337687450224334218e-01 1.428262727809310462e-01 -9.317720110894386343e-01
3.337687450224334218e-01 1.428262727809310462e-01 -9.317720110894386343e-01
4.032035788382865027e-01 1.593857934683074462e-01 -9.011232118042880046e-01
4.964110020845453608e-01 1.329336225828693097e-01 -8.578489196801570849e-01
8.521438773641673015e-01 -5.180820125936115295e-01 -7.376883147858455392e-02
9.007400374862661874e-01 1.375816519162327833e-01 -4.119935362663356693e-01
-1.529919533837723056e-01 6.966882438689619983e-02 9.857685920683237901e-01
-1.705928810801315421e-01 3.815507834634001335e-03 -9.853342127546084184e-01
-1.121268937189970338e-01 1.887499773337907027e-02 9.935146169863298127e-01
-4.514164268319684203e-02 -1.330293079292465541e-01 9.900835496702934391e-01
2.046960223392491095e-04 5.337700486610859330e-02 9.985744105729236209e-01
2.046960223392491095e-04 5.337700486610859330e-02 9.985744105729236209e-01
5.685985733284867200e-02 9.041113547129354944e-02 9.942800325898530911e-01
1.091310233386670880e-01 7.939245025139357592e-01 -5.981423777438403810e-01
8.275429956526222375e-01 -5.427426524540344133e-01 -1.435374639369229599e-01
-4.364323606743529260e-01 1.871857724471828743e-01 8.800501583146058682e-01
2.895978700302920261e-01 9.364353828343353614e-01 1.980450641895168951e-01
2.053888273272766463e-01 -3.211994040507820669e-01 9.244708607882394791e-01
2.053888273272766463e-01 -3.211994040507820669e-01 9.244708607882394791e-01
-3.862169011918661354e-01 -9.091971729191452578e-01 1.555538684494417179e-01
8.304800833659002901e-01 -5.432222442061186429e-01 -1.233386578986295917e-01
6.433910685242696381e-01 1.157905857320394305e-01 -7.567301191303472674e-01
9.193555947309811627e-01 1.165704699371833686e-01 -3.757613816978377375e-01
1.741484377787151372e-01 -3.106991459944496436e-01 9.344187296376033069e-01
3.159436767238473776e-01 1.477081231556570950e-01 -9.372096368967032243e-01
3.159436767238473776e-01 1.477081231556570950e-01 -9.372096368967032243e-01
7.315419963659521851e-01 6.812967027767060646e-01 -2.609809070613941864e-02
1.862565592679356896e-01 -3.245164510929722801e-01 9.273605378167071311e-01
1.862565592679356896e-01 -3.245164510929722801e-01 9.273605378167071311e-01
1.862565592679356896e-01 -3.245164510929722801e-01 9.273605378167071311e-01
-3.234311663498097844e-01 9.005805770564322132e-02 9.419563826822815455e-01
-9.415603112083710258e-01 -3.368330564326458276e-01 2.769919030905482193e-03
-5.562645850107450496e-01 3.607982094850462618e-01 7.485949261751700945e-01
1.986729837892530492e-01 -3.323523753077167742e-01 9.219929197882127392e-01
-2.415146555535036543e-01 9.317175740143934792e-02 9.659139168557413502e-01
7.242660458215147701e-01 6.893360390789857739e-01 -1.595368599924516448e-02
5.527389925159700290e-01 -4.576240940934795526e-02 -8.320969943687344106e-01
1.956564466965072246e-01 -3.263407249421820810e-01 9.247812098600987074e-01
4.789706217832206958e-01 1.072080893509175514e-01 -8.712597597997515653e-01
-1.255985139289907404e-01 7.505742462665629909e-03 9.920527592466609201e-01
-3.099832331076964320e-01 -9.370792254152001677e-01 1.606017449698106392e-01
-2.336598619970019497e-01 2.647221343170308994e-01 -9.355881895867314002e-01
-6.027098349832317459e-02 -6.402749920962022001e-01 7.657776067791176589e-01
-2.432268546762611158e-02 -9.277510183932262400e-02 9.953899675254649360e-01
-5.697505130671461776e-02 -5.236985673636609939e-02 9.970011241889397136e-01
2.594941206405046441e-02 3.583688270910060508e-02 9.990206934049086218e-01
6.163767117960304576e-02 8.564483968799656288e-02 9.944172961721716719e-01
2.245560292898411414e-01 -3.372393247458378984e-01 9.142451681876975211e-01
7.590388106968052329e-01 7.924161696362899687e-02 -6.462049597433997539e-01
4.856385589053210938e-01 -3.926184548608055436e-01 7.810287696410910252e-01
-2.786347616748917067e-01 -9.489050016137285937e-01 1.481282130413586473e-01
-2.786347616748917067e-01 -9.489050016137285937e-01 1.481282130413586473e-01
-2.786347616748917067e-01 -9.489050016137285937e-01 1.481282130413586473e-01
7.844340987523213959e-01 -6.123253358610296626e-01 -9.859425833845796017e-02
2.426147833716191804e-01 9.383214373456404134e-02 9.655742310623861568e-01
-2.398473375499732552e-01 2.506673989212629405e-01 -9.378907771101268054e-01
-2.398473375499732552e-01 2.506673989212629405e-01 -9.378907771101268054e-01
-2.677380197977655141e-01 -1.090834973434745211e-02 9.634299977999670750e-01
-5.955276264467409542e-01 4.706013190637774457e-01 6.510616289063145823e-01
7.953573191783700480e-01 -5.848009538527521034e-01 -1.594195069692151134e-01
7.913651436953258456e-01 -5.885988261755866757e-01 -1.652048158159980795e-01
-2.901820892265603580e-01 9.635601356174733345e-02 9.521081208258844741e-01
-2.499578902381095480e-01 6.985072433378737566e-02 9.657338812622028312e-01
-2.499578902381095480e-01 6.985072433378737566e-02 9.657338812622028312e-01
8.608278450010367067e-01 6.378641100074572412e-02 -5.048828725977094756e-01
-3.644049580695740698e-01 -7.470225244098639417e-01 -5.560273145796222893e-01
-2.254428063386193226e-01 5.412093435513262024e-02 9.727520061838449417e-01
-2.254428063386193226e-01 5.412093435513262024e-02 9.727520061838449417e-01
-2.254428063386193226e-01 5.412093435513262024e-02 9.727520061838449417e-01
1.938707858157257824e-01 -3.348933830958089053e-01 9.220957327554643035e-01
1.938707858157257824e-01 -3.348933830958089053e-01 9.220957327554643035e-01
-1.690148212225664470e-01 6.647719338381066767e-02 9.833690929487844956e-01
-1.179274035886139493e-01 5.928936882444154621e-01 -7.965991475784931497e-01
-1.512556010404005058e-01 3.384165552151126299e-02 9.879152218209165115e-01
-1.512556010404005058e-01 3.384165552151126299e-02 9.879152218209165115e-01
-2.365167172148942842e-01 2.465601252600717885e-01 -9.398233595254097406e-01
-1.615531338710225751e-02 -5.823203877139208062e-01 8.127988508247742105e-01
-1.615531338710225751e-02 -5.823203877139208062e-01 8.127988508247742105e-01
-1.422848011099091606e-02 -5.726600820711673645e-01 8.196694338304771899e-01
-5.028271676780656646e-02 -5.635130525281240033e-01 8.245754592666970639e-01
-9.676058182947601394e-02 -6.202399319546475498e-01 7.784213618683106795e-01
4.974213790997011886e-01 1.101087352458352681e-01 -8.604929041178166482e-01
5.788942723032004523e-01 9.314670926873547252e-02 -8.100648813810864546e-01
-1.804696760184519022e-01 -9.713899189760265562e-01 1.543772047601061626e-01
-2.749349265886354421e-01 -1.963481450041430765e-02 9.612623264235606868e-01
-4.930844316192777299e-01 1.461417712416636927e-01 8.576189864928616124e-01
-6.249211777993970429e-01 5.336744593513114143e-01 5.697939039458915778e-01
1.590019830645975907e-01 -3.220233359449613531e-01 9.332841692048590154e-01
-4.603398173944868166e-01 2.578454906342959596e-01 8.494721628639575473e-01
8.840386267183546198e-02 4.738873365905242330e-01 -8.761367183743861142e-01
8.840386267183546198e-02 4.738873365905242330e-01 -8.761367183743861142e-01
8.388316937834316978e-01 9.074566937111756826e-02 -5.367742663306492856e-01
7.655176623109708478e-01 -6.220293594355443823e-01 -1.645058804120776708e-01
7.655176623109708478e-01 -6.220293594355443823e-01 -1.645058804120776708e-01
9.353866310383270877e-01 2.567879949003827947e-02 -3.526931381973840707e-01
9.552661624223390824e-01 4.835799461704361896e-02 -2.917671388068150962e-01
7.870807951965425042e-01 6.041107216934069601e-01 -1.247159082388825946e-01
-1.325700796911613577e-01 -2.542524200392488193e-02 9.908474812198500015e-01
6.252380932596009189e-02 -6.715183524275563087e-01 7.383453633770251656e-01
4.267937014640815763e-02 -6.486043886265808744e-01 7.599281666172436056e-01
1.809987326863147228e-01 -3.386377796401575657e-01 9.233438757940251040e-01
6.801013769943378140e-01 7.325804919561701434e-01 2.807026568561883303e-02
4.619984721316223175e-01 8.593483556389737155e-01 2.192665396467017580e-01
4.410139618064760625e-01 8.680732538320077296e-01 2.279375165988848650e-01
1.886467708607752480e-01 -3.342191438918220570e-01 9.234229581833125478e-01
1.687741973490901604e-01 9.855670384795617300e-01 -1.314849694057745183e-02
1.908944318252986938e-01 -3.331386488645430854e-01 9.233514804941848064e-01
1.908944318252986938e-01 -3.331386488645430854e-01 9.233514804941848064e-01
-5.220278891620504930e-02 -9.734991527058228789e-01 2.226527981194380279e-01
3.165187996646215418e-01 1.537475264595628555e-01 -9.360435607205646047e-01
-1.456699703853091277e-01 -5.929975007860104341e-01 7.919180663360879668e-01
6.677570691275040715e-02 5.856448904792549426e-02 9.960477928236464162e-01
4.123033668550388220e-02 7.655561398165627862e-02 9.962124759832570176e-01
-3.483066117179089288e-02 -9.844515185949840319e-01 1.721686167057335237e-01
4.651897112374217547e-02 6.230484345509584854e-01 -7.807987151175316276e-01
7.259657746277016488e-02 8.944429689555706553e-02 9.933425666372862617e-01
7.259657746277016488e-02 8.944429689555706553e-02 9.933425666372862617e-01
-1.897306793850514206e-01 -5.376765785824233479e-02 9.803628452101426083e-01
-3.511334513771457444e-01 5.511910882127189770e-02 9.347016546292846728e-01
2.597822669829056297e-01 9.437646714650157476e-01 2.045028573290680607e-01
2.597822669829056297e-01 9.437646714650157476e-01 2.045028573290680607e-01
-5.871222273457510354e-01 3.024663364226633511e-01 7.508672355933614373e-01
-6.083833364340549554e-01 4.339883217912384183e-01 6.644726123010579188e-01
-3.223640290430117017e-01 1.303020931498407031e-01 9.376048193668410358e-01
-5.916881936005397892e-03 -9.748490335965769304e-01 2.227876841389020701e-01
-5.399290534537834474e-02 4.230739546524553973e-01 -9.044850441367712213e-01
2.107655691862029557e-01 -3.247367731158676829e-01 9.220216391343043494e-01
2.107655691862029557e-01 -3.247367731158676829e-01 9.220216391343043494e-01
-2.322494731635851017e-01 4.846499935792630831e-02 9.714480562811751430e-01
6.704095365792991368e-01 1.117849278963059939e-01 -7.335224489807704584e-01
-1.515395919518399415e-01 1.375636852003708499e-01 -9.788319491031968189e-01
-1.045346235343575653e-01 9.818190074290059632e-01 1.584422580426438354e-01
-1.045346235343575653e-01 9.818190074290059632e-01 1.584422580426438354e-01
1.809775726102387516e-01 -3.456204763566507188e-01 9.207570822617157091e-01
-9.383932659146769772e-01 -3.402715269808970766e-01 -6.027741212158171241e-02
-1.222910062397480346e-01 -2.214484580654632259e-02 9.922472048824698687e-01
-1.165500610036502155e-01 -4.559731489541232752e-02 9.921375752154406591e-01
-1.165500610036502155e-01 -4.559731489541232752e-02 9.921375752154406591e-01
-2.720594842893987453e-01 9.527112780063239361e-01 1.353693383589626986e-01
5.643757815472108530e-02 -6.280650628903501342e-01 7.761115103827350703e-01
1.939582827178544522e-01 -3.242551036476272186e-01 9.258719200427278917e-01
2.398903262229352615e-02 -5.887858185781099651e-01 8.079330332120053804e-01
2.398903262229352615e-02 -5.887858185781099651e-01 8.079330332120053804e-01
8.277925341473321152e-01 5.481003313215812023e-01 -1.197728985000821728e-01
8.115306855185340229e-01 5.765932254995401740e-01 -9.464776156811385843e-02
-9.632898361927465514e-01 -2.571589600456553604e-01 -7.708411480965891849e-02
-7.509258585930221608e-02 -5.050743604550185228e-01 8.598028808743998219e-01
-1.027862763582322175e-01 -4.794095908132834372e-01 8.715511606490173868e-01
-1.058805595994852522e-01 -4.877002675823622346e-01 8.665666483883349702e-01
-1.222118759938808502e-01 -5.173744646280279413e-01 8.469875564120867839e-01
-1.833320076845468827e-01 -6.812894328794460996e-01 7.086847561540716711e-01
2.922337598931643021e-01 7.326493788757202363e-01 -6.146741553146071180e-01
7.023323132337362384e-01 7.093189177558818503e-01 -5.996661322247022474e-02
-6.067720182739022583e-02 -1.385342553062425541e-01 9.884971104080896298e-01
-4.413007470041632740e-01 8.726843611520094246e-01 2.089872161025080333e-01
-4.244840763161570885e-01 6.763043777807860035e-01 6.020179877284089764e-01
-6.251899584883175987e-01 3.606330080203724586e-01 6.921570264987227938e-01
-6.891986370230769321e-01 4.580842879125222034e-01 5.613947130969533239e-01
-5.994282029139406109e-01 4.233057026803463962e-01 6.793365231088798195e-01
1.293930233119144901e-01 -7.572135772347811100e-01 6.402226518716035431e-01
-4.062468340703531688e-01 2.215061342987388604e-01 8.865091890532460495e-01
-3.320945943325071537e-01 1.529131111103075591e-01 9.307689084115855493e-01
1.904658567316598328e-01 -3.341267201404357623e-01 9.230829281855827961e-01
1.904658567316598328e-01 -3.341267201404357623e-01 9.230829281855827961e-01
-2.424726304714358294e-01 4.189471038984126511e-02 9.692532469450972910e-01
1.165044841352906174e-01 9.307999563067228532e-01 -3.464652168916423358e-01
7.876488931228270429e-02 6.941907656755615941e-01 -7.154685688850359604e-01
5.332567556862499725e-02 6.928381191296629771e-01 -7.191187057823074102e-01
7.364461848567616098e-01 -6.543249584502014438e-01 -1.717727148270724868e-01
7.364461848567616098e-01 -6.543249584502014438e-01 -1.717727148270724868e-01
1.366306715164626040e-01 -6.320674522049657407e-01 7.627730956608812507e-01
3.540126471333676084e-01 2.060227664652509172e-01 -9.122662250503580372e-01
5.693165748238150359e-01 8.490537753827512302e-02 -8.177222722269232857e-01
-1.901627581887942453e-01 5.921562318582893752e-02 9.799651194653532515e-01
-1.729622601956998240e-01 3.616197303167558580e-02 9.842643792469842889e-01
-1.729622601956998240e-01 3.616197303167558580e-02 9.842643792469842889e-01
1.887182619271680073e-01 -3.343225392534525109e-01 9.233709207909422956e-01
-1.506407454633163778e-01 2.935065156913909540e-03 9.885842155318792512e-01
-1.506407454633163778e-01 2.935065156913909540e-03 9.885842155318792512e-01
-1.226442842573998993e-01 -1.785095496300437290e-02 9.922901405062426461e-01
-3.423562552249730384e-01 1.882989683551883064e-01 -9.205083883510812859e-01
7.871505641559645161e-01 8.711892739477133940e-02 -6.105770072959932904e-01
-1.081903496803725707e-03 -5.403426593353742868e-01 8.414443772390418630e-01
-9.930694812857743248e-01 -1.124716316151284784e-01 -3.410480055115500120e-02
-9.930694812857743248e-01 -1.124716316151284784e-01 -3.410480055115500120e-02
-3.911627584365279936e-02 -5.317339731539386660e-01 8.460076233451148120e-01
8.944509453973055191e-01 4.337939752175398733e-01 -1.085370597668406101e-01
7.793713112435263213e-01 5.836998432100501955e-01 -2.277605151186421761e-01
-4.181393290488304160e-02 -4.685283403539137193e-01 8.824583782254170616e-01
-1.329572319625338117e-01 -5.746034641724470093e-01 8.075600494265948726e-01
-1.830005215746403624e-01 -6.815754595999085064e-01 7.084953789366470467e-01
5.816797105111022603e-02 6.833760697365133530e-02 9.959650890552901314e-01
6.644853532969420551e-02 7.091399611790287494e-02 9.952666965728977910e-01
7.033097707041628954e-01 -6.833179689080927099e-01 -1.960406075265448134e-01
2.947659360001407269e-01 9.564490003507436500e-02 9.507707905017074301e-01
2.947659360001407269e-01 9.564490003507436500e-02 9.507707905017074301e-01
-6.286904557962677553e-02 -1.394586769520209935e-01 9.882301151709041998e-01
-1.583735624956846000e-01 -5.300917406495598422e-02 9.859552942032293599e-01
5.792041434389354204e-02 4.957993413971240049e-01 -8.665034556609740868e-01
-4.346676617955629873e-01 1.579515544138486993e-01 8.866314511945913024e-01
-5.849443007452745924e-01 2.535923397215826269e-01 7.704096898794531301e-01
-6.796547659715794776e-01 4.177850884361086758e-01 6.029303599691677729e-01
5.652456008653153896e-01 4.915916994261927964e-01 -6.624462331070170018e-01
-3.009428008636529928e-01 1.159039191847799632e-01 9.465726132346887756e-01
6.980533084138380584e-01 7.041202228707231781e-01 -1.301395034452573485e-01
8.210935920033596291e-02 8.301810793038135738e-01 -5.514140265695688381e-01
3.316597288554873901e-01 1.213757438574327718e-01 -9.355585246570946589e-01
-6.147270812195817502e-01 -7.042487898001248414e-01 3.551679288453746253e-01
-1.210871347225133121e-01 -5.114305925761918753e-02 9.913235058720557547e-01
9.812894091909778183e-02 -5.989774399617902034e-01 7.947306067913304517e-01
6.107806595982167436e-02 -5.698640176274410996e-01 8.194659671225638098e-01
1.555188456651632189e-01 -3.357838625438231417e-01 9.290118870596467682e-01
-3.178192352678881338e-01 -3.041132263365540767e-01 -8.980568352063841298e-01
7.335643607127527721e-01 6.953882674109640449e-02 -6.760530158704731729e-01
2.733967339658246454e-01 9.409971895188976587e-01 1.994455193138116034e-01
2.733967339658246454e-01 9.409971895188976587e-01 1.994455193138116034e-01
-9.510927159659475494e-02 -4.313543849913316075e-01 8.971552936950855095e-01
7.553791444967203894e-01 8.575757622966800886e-02 -6.496522040127435949e-01
-1.722355953014965413e-01 -6.464841732095050197e-01 7.432315342480846354e-01
-2.154526355993735820e-01 -6.454368357967393832e-01 7.327970065509112896e-01
-4.577343732552363598e-01 1.382222051241653593e-01 8.782789224108986659e-01
-6.105263102180450430e-01 3.326082293485491115e-01 7.187693582096849054e-01
-4.858244665263072859e-01 2.788331145821373869e-01 8.283880020478650019e-01
-2.375129188303067018e-01 2.808683135527255403e-02 9.709782403808689955e-01
-2.375129188303067018e-01 2.808683135527255403e-02 9.709782403808689955e-01
6.817403639130455995e-01 -7.049253903226365692e-01 -1.957300955146821231e-01
6.038953074754616068e-01 7.490697203675185101e-01 -2.724059684324947050e-01
-1.964783903752413130e-01 4.192567973064123543e-02 9.796113920808997566e-01
-1.855339736384043481e-01 2.759388511995170684e-02 9.822503357749136077e-01
-1.855339736384043481e-01 2.759388511995170684e-02 9.822503357749136077e-01
5.321454960123302991e-01 8.446755371344448760e-01 5.783085716490998784e-02
1.309652320787501323e-01 -6.106430159437853389e-01 7.810014180945108464e-01
1.719903784760520304e-01 -3.616151287536218950e-01 9.163262565092008538e-01
1.719903784760520304e-01 -3.616151287536218950e-01 9.163262565092008538e-01
-9.515289269707718489e-01 -2.951046156568032375e-01 -8.663698376502915188e-02
6.401581701101718980e-02 -5.238295960795421591e-01 8.494142272434312968e-01
6.401581701101718980e-02 -5.238295960795421591e-01 8.494142272434312968e-01
9.136873426142437526e-02 9.424047792051868377e-01 -3.217529899327873921e-01
-6.307410170810126560e-02 -6.583105448576427321e-01 7.500992495816467542e-01
-6.462736500147835128e-02 -5.745302662878564171e-01 8.159278625051177292e-01
-9.462167940761850859e-02 -4.325664087646397538e-01 8.966231314184039958e-01
-1.327326580732518801e-01 -4.496323142971848097e-01 8.832965659508513756e-01
6.536996280549826066e-01 -7.311582239486411616e-01 -1.951523708107237853e-01
-4.284183623824159293e-01 -8.891879207923347739e-01 1.606317163282945937e-01
-8.191579451206452978e-02 -4.417977888424509114e-01 8.933669550545164650e-01
-2.479467862041348503e-01 -6.848806404763074784e-01 6.851721677883624295e-01
1.110204217480643095e-02 -3.082416621470533691e-02 9.994631636217099491e-01
1.009144665874137786e-01 8.937568862102197864e-02 9.908724724791256877e-01
1.177185371289312249e-01 7.724536853222840893e-02 9.900381301023434277e-01
-5.917061931612400683e-01 2.387840543884587330e-01 7.699778934128191921e-01
8.643730627668092525e-01 5.227006838214857953e-02 -5.001270321772769423e-01
8.911695710978373430e-01 2.971495687528536919e-02 -4.526961639855109909e-01
1.725146526330573749e-01 -3.748210521631442083e-01 9.109049750013494817e-01
1.725146526330573749e-01 -3.748210521631442083e-01 9.109049750013494817e-01
1.725146526330573749e-01 -3.748210521631442083e-01 9.109049750013494817e-01
1.725146526330573749e-01 -3.748210521631442083e-01 9.109049750013494817e-01
-1.557333740082708917e-01 1.507307061700483963e-03 9.877979774455005746e-01
3.643463953385782661e-01 1.976078079442718793e-01 -9.100565138733111015e-01
3.643463953385782661e-01 1.976078079442718793e-01 -9.100565138733111015e-01
5.282333365734118852e-02 -5.087134036641766111e-01 8.593138939606025373e-01
9.030634023622322593e-01 4.288948816305672707e-01 -2.292753421217596024e-02
-5.759974736240230236e-02 -7.225371568658350840e-01 6.889283896400431040e-01
6.128699768506754575e-01 -7.686612230599350060e-01 -1.831674524555530204e-01
-9.871793440414311505e-01 -1.305681314324410314e-01 -9.180907227594865827e-02
-8.356237594706590610e-02 -4.172578578029929042e-01 9.049382351452162077e-01
-1.504053226039114288e-01 -5.575019164290587748e-01 8.164372922094751406e-01
-2.602801266426001403e-01 -6.699251310097367185e-01 6.953089777332801535e-01
4.944935771710336908e-02 1.277208539005736387e-02 9.986949658710386757e-01
1.040343441704671829e-01 7.599449591203810694e-02 9.916661191268439923e-01
1.072455291814321671e-01 7.384315152747776556e-02 9.914865533344789927e-01
1.072455291814321671e-01 7.384315152747776556e-02 9.914865533344789927e-01
2.587848402563024952e-01 4.152440627975467757e-02 9.650420354246928012e-01
-8.812400694027469061e-01 4.684708421816224377e-01 6.285706089759035553e-02
-1.922400825363824173e-01 -8.287225473165529821e-02 9.778424924608750679e-01
-5.696048358492610264e-01 3.746699313021817357e-01 7.315550379535052938e-01
-8.535374249276047598e-01 5.152043708897454666e-01 7.770663075989706070e-02
-3.465763464447011999e-01 1.769836898723181617e-01 9.211740387159321752e-01
-2.819360777335404578e-01 6.034495339914891510e-02 9.575335684306224282e-01
6.129212418085931979e-01 -7.499227831118997489e-01 -2.488842516301795760e-01
4.108745928498213074e-01 6.268526532637125337e-01 -6.619953323451285288e-01
6.466695358836562768e-01 6.681246806826748319e-01 -3.680053293400658010e-01
5.318376403945583863e-01 8.463432428138834007e-01 -2.918629135105161101e-02
1.683447051033927500e-01 -3.729325794073331535e-01 9.124589587922543599e-01
-2.132203658302583016e-01 4.440600167915794566e-02 9.759944582886121989e-01
-9.982257322512618769e-01 -2.419303785297141282e-02 -5.440665759699540166e-02
-9.982257322512618769e-01 -2.419303785297141282e-02 -5.440665759699540166e-02
-1.280613959846601257e-01 -5.316415129698638664e-02 9.903402707531040461e-01
6.259753125923042671e-02 4.666054514177169210e-01 -8.822476419846744244e-01
6.259753125923042671e-02 4.666054514177169210e-01 -8.822476419846744244e-01
1.594427895402534823e-01 -6.475448539032921946e-01 7.451601566421720557e-01
1.275828178531582813e-01 -5.531319744348300871e-01 8.232664474193480686e-01
-2.491899819726558218e-01 2.042355144799152256e-01 -9.466742879732139571e-01
-2.491899819726558218e-01 2.042355144799152256e-01 -9.466742879732139571e-01
-3.371978879203887391e-01 -9.275844691102338446e-01 1.608870319432687546e-01
6.321532630218910931e-02 -5.337851332203410459e-01 8.432539677187712579e-01
-7.622288586276251832e-02 -6.913574394840635851e-01 7.184810105638086419e-01
-1.869691270878595102e-01 -6.030661352442259204e-01 7.754700394197037161e-01
-8.003792649559671180e-02 -4.423275538693900444e-01 8.932750222692937836e-01
7.377743178778295441e-02 4.806194894603313950e-01 -8.738202314605044707e-01
4.163167753215293171e-02 7.612655750524288667e-01 -6.471024089477287466e-01
5.512586964339593470e-02 7.254170854242351085e-01 -6.860985283985582273e-01
-1.198686535347942006e-01 4.369047903555075552e-01 -8.914851148864827435e-01
-5.216172211608778309e-01 -3.546992444539202038e-01 -7.759535556798627942e-01
-4.823855370758502459e-01 -2.834850046104872012e-01 -8.288187050139707024e-01
9.225118024554351814e-01 -3.752335510881639746e-01 -9.039776804872076688e-02
2.024237922068073681e-01 3.404304440965855161e-02 9.787061251856642441e-01
2.024237922068073681e-01 3.404304440965855161e-02 9.787061251856642441e-01
-5.093444428411476599e-01 7.916100580371446260e-02 8.569140993746018342e-01
-7.585851757982282617e-01 4.468853466492589410e-01 4.741750921435485266e-01
-7.585851757982282617e-01 4.468853466492589410e-01 4.741750921435485266e-01
-5.686028415198570718e-01 3.190515840692923488e-01 7.582195561434822428e-01
2.443628985042325674e-01 3.923943543695275205e-01 -8.867431671535629389e-01
-2.414581978835112497e-01 2.638303221396695944e-02 9.700525110972312293e-01
-1.464955493117251484e-01 -9.773427798690222934e-01 1.527748168702800780e-01
6.688791496432958672e-01 -6.875022581829670631e-01 -2.827389753213770396e-01
-2.436478803412688854e-01 3.357009199678555322e-02 9.692826003434366067e-01
-2.436478803412688854e-01 3.357009199678555322e-02 9.692826003434366067e-01
7.493341702988832731e-01 4.802907765426774750e-02 -6.604479607979454325e-01
9.199369838934189358e-01 -7.680189761373525451e-03 -3.919910207521450918e-01
-1.611172423742418813e-01 -7.007781988437769387e-03 9.869103937041712182e-01
-1.611172423742418813e-01 -7.007781988437769387e-03 9.869103937041712182e-01
2.223095459406870533e-01 -6.567109920176261717e-01 7.206310697901325835e-01
1.781303473809610072e-01 -6.240342090392171359e-01 7.608225057730197971e-01
3.211904125680409838e-01 1.695110449195134927e-01 -9.317203038061725451e-01
2.472307220172872966e-02 -5.205723148161668368e-01 8.534595683146600775e-01
3.225993835138341037e-01 1.766214813198572209e-01 -9.299110119215029391e-01
-7.462016178178854098e-02 -3.979423364307926869e-01 9.143706733768649508e-01
-2.860385656611825200e-01 -6.302588993249782501e-01 7.217725810642575679e-01
-1.186886046371707013e-02 -6.528971590596462093e-02 9.977957622420587924e-01
-6.092838072282298345e-01 2.234561286732018870e-01 7.608157469505075765e-01
-5.955156365326479406e-01 2.948481971918847089e-01 7.472788417035575170e-01
-5.315025077090838046e-01 3.095292467499879963e-01 7.884774757121095767e-01
-3.617271548761936684e-01 7.533787121628661432e-02 9.292349921229678955e-01
-2.783077512908008200e-01 7.888398663323818727e-02 9.572471531554976876e-01
4.473936838748896472e-01 3.893176078632060721e-01 -8.051525891633996013e-01
1.586513821673674329e-01 -3.611103476973721027e-01 9.189282103201897867e-01
1.586513821673674329e-01 -3.611103476973721027e-01 9.189282103201897867e-01
1.130017949841883307e-01 2.638512233647339333e-01 -9.579212526399466521e-01
1.694425314876012445e-01 -3.597318590454575693e-01 9.175413985814331319e-01
-2.109297938205202949e-01 3.398355340116190199e-02 9.769103030355771322e-01
1.199893656125891328e-01 5.097075354770412847e-01 -8.519394229743151303e-01
1.199893656125891328e-01 5.097075354770412847e-01 -8.519394229743151303e-01
-1.236400097340009802e-01 -6.208323363481983020e-02 9.903831683214433523e-01
8.474413935589117375e-02 -4.575966145434228194e-01 8.851122918608843593e-01
9.267102315340915164e-02 -5.989133385406346655e-01 7.954337774986748322e-01
1.433779687434910965e-01 -6.224216959092960799e-01 7.694374507004362318e-01
-2.894580732177427507e-01 -7.521588098103263453e-01 5.920060377004487950e-01
-1.242450343508774424e-01 -3.996843359313470012e-01 9.081935933765815649e-01
-1.274373537762449049e-01 -4.188581656560729782e-01 8.990648240954252080e-01
4.609275659565433697e-02 1.841093854947749020e-01 -9.818244201292561923e-01
6.811228717480516393e-02 -5.624423897829977648e-02 9.960910108607390345e-01
8.477456399067068160e-02 -4.582671679893922378e-03 9.963896187839703655e-01
1.362047400920656792e-01 5.887924430388126462e-02 9.889294734037693546e-01
1.308267065493789461e-01 5.986105243480355220e-02 9.895963961407905352e-01
1.576899164902038353e-01 6.670783625978406184e-02 9.852329444445361295e-01
-7.539629601644447510e-01 4.814465809669034591e-01 4.469329305112196282e-01
1.655231595480946560e-01 3.487431042045902596e-01 -9.224859516127941195e-01
-2.602254723078364917e-01 1.633535908029366823e-02 9.654096848519188034e-01
-2.602254723078364917e-01 1.633535908029366823e-02 9.654096848519188034e-01
8.265434688607579128e-01 4.006746997692470225e-02 -5.614450034805488210e-01
9.411133165721571325e-01 3.341375300951779370e-01 -5.155420790244739232e-02
-2.410747645685430429e-01 2.568279797679767773e-02 9.701666618557373001e-01
-2.410747645685430429e-01 2.568279797679767773e-02 9.701666618557373001e-01
9.214807617311934207e-01 3.527034186483428146e-01 -1.627068045075907299e-01
1.414321825921877607e-01 -4.035998611490702603e-01 9.039381006505152749e-01
1.414321825921877607e-01 -4.035998611490702603e-01 9.039381006505152749e-01
-5.429714284693551440e-02 4.536853189883673365e-01 -8.895062965561754131e-01
-5.429714284693551440e-02 4.536853189883673365e-01 -8.895062965561754131e-01
-1.832288200093603325e-01 -1.238730253387408881e-03 9.830695118176214775e-01
-1.832288200093603325e-01 -1.238730253387408881e-03 9.830695118176214775e-01
1.694182650255990907e-01 -3.596922937343973725e-01 9.175613904822956801e-01
-1.220697792198315729e-01 -6.170327397013754961e-02 9.906016732181446294e-01
2.439604324737474073e-01 -6.592529178077235485e-01 7.112446117540891510e-01
1.765540635873967812e-01 -5.500030020898885041e-01 8.162875475730886343e-01
1.765540635873967812e-01 -5.500030020898885041e-01 8.162875475730886343e-01
1.109306579732309977e-01 -4.999046315293881881e-01 8.589468833968098016e-01
8.102442295326599264e-02 -4.590173803923820461e-01 8.847248653580419564e-01
1.232853022545078447e-01 -5.086546150515742770e-01 8.520981262945891421e-01
2.645589002830278300e-02 -3.120252918141631082e-01 9.497053770254735294e-01
2.555022679992052098e-02 -2.980812361042278202e-01 9.541984922399784352e-01
1.656789851833987415e-01 1.860799170744337483e-01 -9.684651456455058982e-01
1.783183496336405716e-01 -3.626875604486040072e-01 9.146913685390144488e-01
-1.442257356863807793e-01 -4.156296526036504790e-01 8.980261293761395702e-01
-2.464282623746962553e-01 -5.290537839276781007e-01 8.120192148063944959e-01
-2.981584770833120568e-01 -6.325647303497707874e-01 7.148170286589999867e-01
1.663965386397924517e-01 4.963411121549286820e-02 9.848089393037333661e-01
2.706991564947270890e-01 9.479348335270226800e-02 9.579854707598148833e-01
3.402304207671580372e-01 1.680494768183639631e-01 9.252041040363345736e-01
3.402304207671580372e-01 1.680494768183639631e-01 9.252041040363345736e-01
3.440682346947214754e-01 1.030929745564394540e-01 9.332678546222211713e-01
2.935118855633370161e-01 4.151519484313064695e-02 9.550535386197946952e-01
-4.573286566112063634e-01 1.295615743213509030e-01 8.798092397227722516e-01
-5.010269657950474631e-01 1.218719250061791048e-01 8.568075708357719700e-01
-4.695681131328563462e-01 2.516031711492996426e-01 8.462869675213399168e-01
-3.708189904621069233e-01 7.407362851839763285e-02 9.257463874467900533e-01
2.888833532414060157e-01 2.653373955602627565e-01 -9.198600299704827732e-01
2.888833532414060157e-01 2.653373955602627565e-01 -9.198600299704827732e-01
-2.736721079211079100e-01 8.817775708402407833e-03 9.617826283405069843e-01
-2.736721079211079100e-01 8.817775708402407833e-03 9.617826283405069843e-01
5.550073508707177306e-01 8.241664278360583129e-01 -1.127676359041878823e-01
-2.418681190346032017e-01 2.533038100957706734e-02 9.699784455298852137e-01
8.005115926527406334e-01 -2.889190013528198375e-01 -5.250780900836198306e-01
-2.248648472315911973e-01 4.395655863621250603e-02 9.733979768996720017e-01
-2.076314339724776026e-01 3.992281071142126520e-02 9.773921202933001373e-01
-1.761128453311324726e-01 -3.588557850407958494e-02 9.837156555452394313e-01
3.247422575573643555e-01 1.427164321039567640e-01 -9.349729868632906671e-01
1.596854605027542007e-01 -5.433712421387358882e-01 8.241651818177170297e-01
1.433863934667280182e-01 -3.937764676866563063e-01 9.079539832308818337e-01
1.433863934667280182e-01 -3.937764676866563063e-01 9.079539832308818337e-01
7.333489238215860073e-01 -1.746634673782301167e-02 -6.796280472886295776e-01
-2.279122912573565973e-01 4.387733238339125430e-02 9.726925347697181756e-01
-2.438174244954266490e-01 7.913490612208665120e-02 9.665871560006710217e-01
1.669276773703612660e-01 -4.030052758566880500e-01 8.998454857137482277e-01
-1.555698157587309949e-01 -6.043474665917349942e-01 7.813847784855717515e-01
-2.132637562119252816e-01 -5.622669758043660204e-01 7.989833654126931028e-01
-2.111234440570164128e-01 -5.591476042018654891e-01 8.017361461757963603e-01
-2.655795875088146629e-01 -6.002317597261439680e-02 9.622186347420259578e-01
-2.452227199586928807e-01 -6.088401183266083788e-02 9.675530759184329810e-01
9.438235292659605813e-01 3.241356001170988543e-01 -6.429042184240713054e-02
1.427575837960219363e-01 -3.872272979936560167e-01 9.108651337916355839e-01
1.427575837960219363e-01 -3.872272979936560167e-01 9.108651337916355839e-01
-5.979860520066526686e-01 -6.690256765237387881e-01 4.413811570031626053e-01
-1.047146464747255451e-01 -8.687176028241359871e-02 9.907008327840993722e-01
1.846103039472799245e-01 -5.656137826963673065e-01 8.037413044633201498e-01
2.023939044118424901e-01 -5.627833381608655650e-01 8.014434613529782814e-01
5.393436622427965066e-01 7.922647509527944720e-01 -2.853506236128368623e-01
1.046604253742781099e-01 -4.440576358539165547e-01 8.898646028471441927e-01
4.920731254465191690e-02 -2.966050281644647679e-01 9.537316696323395737e-01
1.141266717444681944e-01 -3.435671697114116019e-01 9.321677438599880183e-01
1.305683058961671361e-01 -3.823542163237544367e-01 9.147443198811634479e-01
1.305683058961671361e-01 -3.823542163237544367e-01 9.147443198811634479e-01
-6.848671093571159774e-02 -2.704635151024903372e-01 9.602911315968784001e-01
-2.628749724793932874e-01 -4.294516095587154192e-01 8.639838331192238874e-01
-2.128371157290074589e-01 4.541356803197928865e-02 9.760317464133848597e-01
-1.038708806375412130e-01 -5.020728719421028163e-01 8.585648906258572799e-01
-7.137337709772240135e-02 -4.397762559628884960e-01 8.952668237642509297e-01
-2.637891356239776552e-01 -5.476693888139346766e-01 7.940236347130518180e-01
-1.761267043049263570e-01 -4.044024151647933052e-01 8.974620162656284927e-01
-1.599003165480859245e-01 -4.429877362220080439e-01 8.821529086982158319e-01
-1.621939662118579151e-01 -4.431977752992787845e-01 8.816285211438186220e-01
1.973888783458118690e-01 9.575791732734112438e-01 2.099517983214069239e-01
1.683675221138060674e-01 9.623174515386123673e-01 2.135357112088928921e-01
-5.819860960943236058e-03 -1.795852683488284585e-01 9.837251956773672701e-01
-3.923633566829384800e-01 3.757109287523751479e-02 9.190426591364828646e-01
-5.736426461660457665e-01 1.940762362328321555e-01 7.957817094086259146e-01
-6.361349898189795349e-01 1.965382903835678208e-01 7.461266481912510740e-01
-4.266400629707020054e-01 1.816029351622566179e-01 8.860014845409732720e-01
-3.298208607968047268e-01 5.530856692355499288e-02 9.424219661107848811e-01
1.092687686341543146e-01 9.836807944226866329e-01 -1.429420542916876591e-01
-2.674936218836170276e-01 8.958063800848641359e-03 9.635179891130857266e-01
-2.674936218836170276e-01 8.958063800848641359e-03 9.635179891130857266e-01
-5.578904512132324411e-01 -7.967743861843528119e-01 2.321827339955406522e-01
-9.903330809833013060e-01 -1.192134132473889607e-01 -7.091227546785620894e-02
1.156202594472022366e-01 -4.208632031620613279e-01 8.997255802907524469e-01
1.156202594472022366e-01 -4.208632031620613279e-01 8.997255802907524469e-01
1.112491167550070381e-01 -4.155465737352908029e-01 9.027428643185674284e-01
1.034209023139662231e-01 -4.143539834580678427e-01 9.042205999406318639e-01
-5.510159165300699824e-01 -8.166731523019963301e-01 1.715413129238762824e-01
9.270569432220164552e-02 -3.985830228608998049e-01 9.124347802047585443e-01
1.466850008312287623e-01 -5.221207557286130507e-01 8.401627383837754204e-01
8.041886926174823813e-01 3.182472878874245126e-01 -5.019952294778139423e-01
-1.605342580295406607e-01 -1.328828969443960617e-01 9.780444201050225717e-01
-7.062891813652746875e-02 -8.807735435679418801e-02 9.936065295540138509e-01
1.065840980374887226e-01 -4.240677392326910322e-01 8.993366347411904105e-01
1.065840980374887226e-01 -4.240677392326910322e-01 8.993366347411904105e-01
1.065840980374887226e-01 -4.240677392326910322e-01 8.993366347411904105e-01
-6.641967718713494284e-02 -1.257741855561554378e-01 9.898329559728967775e-01
2.690140866465160277e-02 5.155885663738621338e-02 -9.983075670924782541e-01
3.177868156652790543e-01 1.786516617365575543e-01 -9.311794260764616471e-01
3.216741232981774612e-01 1.698620083148382198e-01 -9.314894827809913069e-01
3.216741232981774612e-01 1.698620083148382198e-01 -9.314894827809913069e-01
3.216741232981774612e-01 1.698620083148382198e-01 -9.314894827809913069e-01
8.020276964768204842e-01 3.723559739369832200e-01 -4.670145637531292748e-01
-3.692433827836406612e-01 -5.915478464903530798e-01 7.167499351818034103e-01
-6.821884484489167955e-01 3.994778697311524573e-01 6.124021165851076809e-01
8.162827604138508941e-02 4.588344740937423949e-01 -8.847642340949538609e-01
8.162827604138508941e-02 4.588344740937423949e-01 -8.847642340949538609e-01
-2.119508322850756910e-01 -9.543545224976687780e-02 -9.726093353179098289e-01
4.141858854564371417e-01 8.546870794959848805e-01 -3.129857000428157288e-01
4.406478637451935465e-01 8.896616977517673996e-01 -1.197143422077757424e-01
-2.664534541634172027e-01 7.686923763105749617e-03 9.638171340910287599e-01
1.986605740298008349e-01 9.594362110145228106e-01 2.000403292344974937e-01
1.103784062360273210e-01 9.925490977649011892e-01 -5.160325535153115900e-02
9.820843916654112271e-02 -4.160821043764879601e-01 9.040081774486917743e-01
9.820843916654112271e-02 -4.160821043764879601e-01 9.040081774486917743e-01
2.975960625034509976e-01 1.078741251650170013e-01 -9.485777546950614481e-01
2.975960625034509976e-01 1.078741251650170013e-01 -9.485777546950614481e-01
-2.041805813188719843e-01 1.754185285320931931e-02 9.787760589689369350e-01
1.118061844252763448e-01 -4.139993595535457205e-01 9.033846951401796055e-01
2.449263672564193639e-01 -5.679283114370330399e-01 7.857916439431344990e-01
1.337670982783772389e-01 -4.509499025945988837e-01 8.824684406640865841e-01
1.989499217307105772e-01 -3.306901044828147174e-01 9.225307493197660857e-01
-9.866353406265968365e-03 -2.233519743545617775e-01 9.746879247340565211e-01
8.110165545710733559e-01 -3.701619532071716290e-02 -5.838509651406288414e-01
-5.084926193332819366e-01 -3.065036481277395586e-01 8.046681115639943149e-01
-1.894381707090729838e-01 -1.243058585858049653e-01 9.739924193748357162e-01
-3.628721725134968074e-02 -5.909070601665860484e-02 9.975928660162953765e-01
-2.137465531635307503e-02 -1.233936711009451515e-01 9.921275754873154495e-01
-2.554041948788003391e-01 4.490981141100036655e-02 9.657907672355022788e-01
-2.784770433732259784e-02 -2.522460528355391918e-01 9.672623399016584411e-01
1.330726132081167246e-01 -4.339664879964296174e-01 8.910470060047379626e-01
-1.484134690465528927e-01 3.962054044142875320e-01 -9.060875894296747113e-01
-2.168138523482998070e-01 -6.012302706782557404e-01 7.690994181833978871e-01
7.623314756012671278e-01 4.792393815134508017e-01 -4.349486596303060448e-01
-3.335339856702351780e-01 -5.660863561974567304e-01 7.538576243097986351e-01
-7.546875458216974197e-02 -2.393109113486334982e-01 9.680055551448568663e-01
-1.279520989280298338e-01 -9.918779336480550157e-02 9.868080066696521824e-01
-1.669634814905472386e-01 3.951065570184931763e-01 -9.033349348107532206e-01
-6.063979637857545013e-01 3.198236752794703652e-01 7.280070921682170182e-01
-2.747460572857411965e-01 8.001456285278750816e-03 9.614835311659035710e-01
-2.747460572857411965e-01 8.001456285278750816e-03 9.614835311659035710e-01
2.761869024695777775e-01 7.219763662839964180e-01 -6.344059594862081486e-01
2.761869024695777775e-01 7.219763662839964180e-01 -6.344059594862081486e-01
-3.025548187262375177e-01 6.057726996532066671e-02 9.512050126177228337e-01
-3.025548187262375177e-01 6.057726996532066671e-02 9.512050126177228337e-01
-1.880301714547167602e-01 2.673254291980240241e-03 9.821596144895188285e-01
1.280310222052762764e-02 -4.373336293096274918e-01 8.992081946070109577e-01
-1.577212504463014198e-01 -2.006671647751403012e-02 9.872797648323732300e-01
2.182366145021896742e-02 -8.579825857234127939e-01 5.132149748363474817e-01
1.311767511950411302e-01 -4.637371609048671628e-01 8.762080264080029934e-01
8.946788084605612756e-02 -4.046756056025606618e-01 9.100731577884916268e-01
8.979757938078845869e-02 -2.218783514629997511e-01 9.709306833597404207e-01
4.280273389952680141e-01 -3.151473996433631353e-01 8.470387910660621689e-01
1.457387707487411144e-01 -8.468725501358587149e-01 5.114363054448063384e-01
9.130760943626000659e-01 -9.522506537544279948e-02 -3.965151104658975467e-01
-2.754641278926762138e-01 -3.202721828171062879e-01 9.063913300323946931e-01
-9.429021901792607185e-02 -1.184724094078799667e-01 9.884703550469499111e-01
4.052460799452881068e-01 4.285421881807163769e-02 -9.132026777328622336e-01
7.746322969565505069e-03 -1.695279466821169312e-01 9.854949364528448053e-01
1.021157190754845429e-01 -8.551351298549201285e-01 5.082482558806331596e-01
-1.509687443996821365e-01 -3.945472254210304341e-01 9.063889480388371833e-01
-1.858390024178476208e-01 3.703233930510000937e-01 -9.101233156773501642e-01
-1.858390024178476208e-01 3.703233930510000937e-01 -9.101233156773501642e-01
-3.026011639903677386e-01 -6.443098738922233837e-01 7.023512810244327831e-01
-3.270381013264704873e-01 -4.746150862636288603e-01 8.171821095519317124e-01
5.608987039574374334e-03 -1.474045767480750002e-01 9.890603773370514329e-01
8.221066978441701756e-02 -9.438559262680713546e-01 3.199646796479864164e-01
-4.458240403638889515e-01 1.186818744422782901e-01 8.872178637248488986e-01
-4.887286509717469474e-01 1.904671598090319773e-01 8.513909599905421510e-01
3.045387268109655057e-02 1.892303105692138832e-01 -9.814603665969413582e-01
-3.217538861365861758e-01 4.559466455297472853e-02 9.457248877555810562e-01
-2.101520939759423529e-02 -9.535774354642140294e-01 3.004137738977163408e-01
-4.005323126415762935e-01 6.286928009629103031e-02 -9.141232521657923771e-01
