9.383604388172573918e-01 3.277713235531639069e-01 1.097526597349292171e-01
9.387739221816741031e-01 3.269112079394552173e-01 1.087776868443272177e-01
9.392726237300212944e-01 3.249055155537870498e-01 1.104687479518516452e-01
9.386978187108147020e-01 3.261069107569058434e-01 1.118064752335297118e-01
9.390609903211386555e-01 3.250137129168448324e-01 1.119399074195121385e-01
9.385750446009911707e-01 3.262206039335361352e-01 1.125033476012451961e-01
9.386807107248403836e-01 3.260027240826379180e-01 1.122530498641710894e-01
9.384001198330771398e-01 3.264814036702296529e-01 1.132038345409855928e-01
9.384001198330771398e-01 3.264814036702296529e-01 1.132038345409855928e-01
9.384001198330771398e-01 3.264814036702296529e-01 1.132038345409855928e-01
9.387002971866357237e-01 3.258560352749558797e-01 1.125148716241931440e-01
9.393967350320252541e-01 3.235968291385110662e-01 1.132204327083766865e-01
9.394221025136098024e-01 3.235432105362389121e-01 1.131631752153136883e-01
9.397320894807574820e-01 3.226508377520056481e-01 1.131372480576506717e-01
9.397320894807574820e-01 3.226508377520056481e-01 1.131372480576506717e-01
9.396767585154580660e-01 3.227686513297238213e-01 1.132607046802755202e-01
9.397650216616123542e-01 3.217586471861267339e-01 1.153823080992183864e-01
9.401685253952014598e-01 3.213316746536701851e-01 1.132656113764459876e-01
9.401857034541085678e-01 3.212951283788770818e-01 1.132266907601906236e-01
9.407978262780598566e-01 3.191550398721536008e-01 1.141906764787813389e-01
9.400406274419316199e-01 3.207852054336143288e-01 1.158467553861267513e-01
9.401221843794816957e-01 3.206168740022780073e-01 1.156507610980532508e-01
9.401221843794816957e-01 3.206168740022780073e-01 1.156507610980532508e-01
9.400165597531562334e-01 3.211520653556645954e-01 1.150226860564113746e-01
9.400165597531562334e-01 3.211520653556645954e-01 1.150226860564113746e-01
9.396697340493729289e-01 3.218775783637592980e-01 1.158257978960765544e-01
9.410364453898310000e-01 3.185213981997752075e-01 1.139935407684656427e-01
9.407348527234847824e-01 3.191517881004742319e-01 1.147173614741610198e-01
9.407348527234847824e-01 3.191517881004742319e-01 1.147173614741610198e-01
9.417174565413299892e-01 3.162153219198675647e-01 1.147872041145815425e-01
9.417174565413299892e-01 3.162153219198675647e-01 1.147872041145815425e-01
9.405807880030776502e-01 3.181964618805091516e-01 1.185697806620018696e-01
9.405807880030776502e-01 3.181964618805091516e-01 1.185697806620018696e-01
9.422609112521699304e-01 3.123003061047912587e-01 1.208838034357119506e-01
9.435221831359541511e-01 3.085148047944968330e-01 1.207663245817169190e-01
9.435221831359541511e-01 3.085148047944968330e-01 1.207663245817169190e-01
9.435184434984140722e-01 3.081179630130650993e-01 1.218042185107296171e-01
9.435184434984140722e-01 3.081179630130650993e-01 1.218042185107296171e-01
9.441507788486573904e-01 3.064102161229417254e-01 1.212109164018075058e-01
9.452059044054162973e-01 3.041313185483255355e-01 1.187010503542232365e-01
9.454977764178684740e-01 3.029442079844633096e-01 1.194100566850737760e-01
9.450235536894704413e-01 3.047496833691302198e-01 1.185669155310166561e-01
9.449785341301050190e-01 3.048494533732654665e-01 1.186692075112131539e-01
9.439061030677959874e-01 3.079099066639051085e-01 1.193011230860488159e-01
9.439061030677959874e-01 3.079099066639051085e-01 1.193011230860488159e-01
9.442341945364064459e-01 3.072152260343092300e-01 1.184929987841980975e-01
9.405506118802348103e-01 3.169255608206437702e-01 1.221586484463385580e-01
9.401167058726092041e-01 3.158905712265591692e-01 1.280379879152740430e-01
9.401167058726092041e-01 3.158905712265591692e-01 1.280379879152740430e-01
9.420136220820145567e-01 3.118694851875513652e-01 1.238860767833702275e-01
9.395329574152313512e-01 3.159245326641639817e-01 1.321722799664078463e-01
9.412770407372901271e-01 3.123786434971209669e-01 1.281292927778369117e-01
9.390557393261268482e-01 3.162583015001305675e-01 1.347405105041309947e-01
9.404125794496167590e-01 3.132250529050595311e-01 1.323414018572448003e-01
9.359104967131655073e-01 3.284435815790762714e-01 1.272649042808911002e-01
9.359104967131655073e-01 3.284435815790762714e-01 1.272649042808911002e-01
9.359104967131655073e-01 3.284435815790762714e-01 1.272649042808911002e-01
9.350956337079333602e-01 3.301362377521467883e-01 1.288651246195672839e-01
-1.862752422746042913e-01 4.718626391647587903e-01 8.617697974958312690e-01
-1.859175790568115272e-01 4.724001231675896695e-01 8.615525389834913783e-01
-1.855382091524384602e-01 4.719691718413322468e-01 8.618704506919313557e-01
-1.857203287157590255e-01 4.732896171017957343e-01 8.611067865516713882e-01
-1.841391053577437487e-01 4.718315548865259501e-01 8.622457733682508119e-01
-1.877491904234624975e-01 4.744578608414718457e-01 8.600232437446495570e-01
-1.863428259988179903e-01 4.732547157992361697e-01 8.609914779906701066e-01
-1.888235467368646059e-01 4.743948387403461031e-01 8.598227754451682747e-01
-1.895882453584364913e-01 4.750757156212387367e-01 8.592783958932500576e-01
-1.895154270373687055e-01 4.761034642763318225e-01 8.587254475202882320e-01
4.045191383039133393e-01 -6.060238464818320514e-01 6.849082889272287700e-01
3.941410705570184136e-01 -6.090333214044642007e-01 6.882813595610547397e-01
3.956093494407385003e-01 -6.069365796320389528e-01 6.892903821609853710e-01
3.956093494407385003e-01 -6.069365796320389528e-01 6.892903821609853710e-01
3.974476504008768729e-01 -6.095758020130085386e-01 6.858955509339739187e-01
3.915237429546166159e-01 -6.294663051497721984e-01 6.711790591071068457e-01
3.773888452338513555e-01 -6.158942658624999567e-01 6.915575990261059180e-01
9.355335775946397314e-01 3.311321199138038129e-01 1.229977412571649775e-01
9.317211247696661758e-01 3.377224187139424849e-01 1.335638931596134227e-01
-1.825241692195886389e-01 4.701050116351945252e-01 8.635312418703637860e-01
-1.825241692195886389e-01 4.701050116351945252e-01 8.635312418703637860e-01
-1.858746765630630571e-01 4.724632451177204207e-01 8.615271827547924532e-01
-1.834601526890028700e-01 4.700203100301781900e-01 8.633789900932631323e-01
-1.875163648590828791e-01 4.734974871506649752e-01 8.606031272148858546e-01
-1.864000867161061392e-01 4.723983452962426388e-01 8.614492504109572124e-01
-1.872566007528108645e-01 4.745209130952187104e-01 8.600958484435221596e-01
-1.860533090817977631e-01 4.736555172635885103e-01 8.608336756571940418e-01
-1.857340099478463069e-01 4.746600925682959993e-01 8.603491582327199572e-01
-1.857340099478463069e-01 4.746600925682959993e-01 8.603491582327199572e-01
-1.863074226283124302e-01 4.750902848947741730e-01 8.599876542556862402e-01
-1.862776932654092166e-01 4.750936161244852518e-01 8.599922539822544287e-01
-1.854587497863388890e-01 4.761537548819696486e-01 8.595828371015148406e-01
-1.877022089691599560e-01 4.759356767897566232e-01 8.592165689200681467e-01
-1.877068061653360542e-01 4.759274805287700971e-01 8.592201046278804544e-01
-1.894980163560308628e-01 4.757359820928402372e-01 8.589329293601976056e-01
3.757076998459980555e-01 -5.994667058333909004e-01 7.067413903781863960e-01
3.741794819828764274e-01 -5.999362081072249220e-01 7.071536335655432826e-01
3.982047995815740649e-01 -5.918163611767859322e-01 7.008468678917429973e-01
3.879408498202016609e-01 -6.035333131629816439e-01 6.965984761275996195e-01
3.879408498202016609e-01 -6.035333131629816439e-01 6.965984761275996195e-01
4.054360907046949403e-01 -6.032728750131510775e-01 6.867921189322583331e-01
4.054360907046949403e-01 -6.032728750131510775e-01 6.867921189322583331e-01
4.022222015552073815e-01 -6.137276238305542364e-01 6.793789107143257677e-01
3.944639848837323548e-01 -6.078804094471080832e-01 6.891150647316185429e-01
9.320835692187648958e-01 3.366683187200203431e-01 1.336961598649822613e-01
9.320835692187648958e-01 3.366683187200203431e-01 1.336961598649822613e-01
9.320835692187648958e-01 3.366683187200203431e-01 1.336961598649822613e-01
-1.785603960559781211e-01 4.673259836392554822e-01 8.658652377685193136e-01
-1.832945577412350702e-01 4.718108920065135492e-01 8.624370048220699747e-01
-1.807591066510989275e-01 4.697162963371706024e-01 8.641138503218125377e-01
-1.855064687759395980e-01 4.739777112750745980e-01 8.607743486284449297e-01
-1.855064687759395980e-01 4.739777112750745980e-01 8.607743486284449297e-01
-1.855064687759395980e-01 4.739777112750745980e-01 8.607743486284449297e-01
-1.823513474577533600e-01 4.719259064354441868e-01 8.625740112682656058e-01
-1.877214953791066232e-01 4.755571236142812630e-01 8.594219349960431353e-01
-1.856934589178778627e-01 4.739603803745883748e-01 8.607435722387299926e-01
-1.873108530869489197e-01 4.755860030827387952e-01 8.594955485560262787e-01
3.687629887568662501e-01 -5.961596808256123259e-01 7.131672265892532447e-01
3.687629887568662501e-01 -5.961596808256123259e-01 7.131672265892532447e-01
3.725604062343003120e-01 -6.038568959907272271e-01 7.046670085018720275e-01
3.730985007098991946e-01 -6.037455715622105368e-01 7.044776742999347974e-01
3.865795697134062903e-01 -6.110443827338432055e-01 6.907828881852923208e-01
3.935457756641075888e-01 -6.091273267502002042e-01 6.885387587224779393e-01
3.935457756641075888e-01 -6.091273267502002042e-01 6.885387587224779393e-01
9.300933890460801878e-01 3.392074389192761275e-01 1.409418356436529240e-01
9.246088986522584818e-01 3.565879655216469546e-01 1.339530043641819768e-01
9.233965968568254024e-01 3.503728400945031463e-01 1.567724396612659998e-01
-1.771253760999449978e-01 4.635904909643085992e-01 8.681649945885426822e-01
-1.771253760999449978e-01 4.635904909643085992e-01 8.681649945885426822e-01
-1.779847016287865180e-01 4.635274760813622996e-01 8.680228827074513154e-01
-1.814106629158025452e-01 4.681129129707223835e-01 8.648470801769027050e-01
-1.749865626522936757e-01 4.651062184816240341e-01 8.677879397761060210e-01
-1.809814969837135190e-01 4.698446266632177459e-01 8.639975257749500370e-01
-1.788317043511411797e-01 4.683404393688840872e-01 8.652609169323589589e-01
-1.788317043511411797e-01 4.683404393688840872e-01 8.652609169323589589e-01
-1.788317043511411797e-01 4.683404393688840872e-01 8.652609169323589589e-01
-1.802656851199520016e-01 4.699188579974270530e-01 8.641067929756300892e-01
-1.821607069292615622e-01 4.713683206036776152e-01 8.629191058160089467e-01
-1.836218653233809006e-01 4.712226520271324826e-01 8.626889490376460357e-01
-1.836218653233809006e-01 4.712226520271324826e-01 8.626889490376460357e-01
-1.876806329174142696e-01 4.812808137447160406e-01 8.562387274288302264e-01
3.803535474668537364e-01 -5.999032746888590673e-01 7.038801318029674903e-01
3.803535474668537364e-01 -5.999032746888590673e-01 7.038801318029674903e-01
3.795414319262657155e-01 -5.850663652623994127e-01 7.166907629445244954e-01
3.741631011977648580e-01 -6.068161012623527473e-01 7.012675615988730460e-01
3.717700250618124480e-01 -6.073040548807900896e-01 7.021173928844732792e-01
3.802225931173632834e-01 -6.125413497504460514e-01 6.929818717174424103e-01
9.250173062431190640e-01 3.455701234171468239e-01 1.578742314381344214e-01
9.250173062431190640e-01 3.455701234171468239e-01 1.578742314381344214e-01
9.338575741009277342e-01 3.575737404650010109e-01 -7.145027935462748905e-03
9.331579064744285334e-01 3.594270048281679730e-01 -5.343199838480107260e-03
9.339345545322025322e-01 3.573733103097019859e-01 -7.110902124316486467e-03
9.325749584512812440e-01 3.609560472926071073e-01 -3.831291229894588299e-03
9.326912890579038828e-01 3.606753300294966436e-01 5.153868638650601621e-04
9.342143066005541563e-01 3.566940857801338960e-01 -3.599793371858468934e-03
9.342143066005541563e-01 3.566940857801338960e-01 -3.599793371858468934e-03
9.324413315948050229e-01 3.612747035444699439e-01 5.809622411337937199e-03
9.341661211606160364e-01 3.568369274413388803e-01 1.032128845517399579e-03
9.341661211606160364e-01 3.568369274413388803e-01 1.032128845517399579e-03
9.324803812546149651e-01 3.610509539497380183e-01 1.107010511387861336e-02
9.324803812546149651e-01 3.610509539497380183e-01 1.107010511387861336e-02
9.316863137654891602e-01 3.631592607816730434e-01 8.715735802740050275e-03
9.343871239834107278e-01 3.561297008610592174e-01 9.609302712613015593e-03
9.335372427604743395e-01 3.583023908528090717e-01 1.129659631623419584e-02
9.258484619525968462e-01 3.776127007724769946e-01 1.460389384125004679e-02
9.217192924672510390e-01 3.867022660674329648e-01 2.991493459765937057e-02
9.248147810619260500e-01 3.798166334743636741e-01 2.137628746022858170e-02
9.248147810619260500e-01 3.798166334743636741e-01 2.137628746022858170e-02
8.971786940993412562e-01 4.389222668895629287e-01 4.916944663841651270e-02
8.521117021511716016e-01 5.022908693868108898e-01 1.470018013075856389e-01
8.967375455426388475e-01 4.382397854105401502e-01 6.170627923872624987e-02
8.967375455426388475e-01 4.382397854105401502e-01 6.170627923872624987e-02
7.252533062306888434e-01 6.559208627521522228e-01 2.092258674445560407e-01
6.627379149109099421e-01 7.217570448471254396e-01 1.996126858520871072e-01
7.129810685952370219e-01 6.221369176674454993e-01 3.234248776764772626e-01
6.094029892426201522e-01 7.197571697617825004e-01 3.325321236793037372e-01
5.051017149940539852e-01 7.777864724857334044e-01 3.740594347537100628e-01
4.253759781638778437e-01 8.330106864250897969e-01 3.537633015205577380e-01
4.605988030209629547e-01 7.875093059259146155e-01 4.094848418876337326e-01
4.605988030209629547e-01 7.875093059259146155e-01 4.094848418876337326e-01
3.649497660264147680e-01 8.360735350129754329e-01 4.096250875229348609e-01
3.544064620445993019e-01 8.443854209376210340e-01 4.017577884360507001e-01
3.645085283194170467e-01 8.341126893541029874e-01 4.139922151935691574e-01
3.524841738292819882e-01 8.412943087786446394e-01 4.098521601950527171e-01
3.335444809098621621e-01 8.489836619035218135e-01 4.098473143445702793e-01
3.573640045338483118e-01 8.386301415228909484e-01 4.110844852251510639e-01
3.612340121330137599e-01 8.348619759071133073e-01 4.153498160138708317e-01
3.629146975674142905e-01 8.332744289354915290e-01 4.170691170199282150e-01
3.631592703979357739e-01 8.329076429780222224e-01 4.175885565875034899e-01
3.614057651287447825e-01 8.347998045106854725e-01 4.153253656118631731e-01
3.629238349570296229e-01 8.322876995722134907e-01 4.190268191427317102e-01
3.629238349570296229e-01 8.322876995722134907e-01 4.190268191427317102e-01
3.614036480149921404e-01 8.328129753333242125e-01 4.192969727030133043e-01
3.638669398377734066e-01 8.310052716551457053e-01 4.207506251622823989e-01
3.673673544464295948e-01 8.274109461487935135e-01 4.247732961006252528e-01
3.673673544464295948e-01 8.274109461487935135e-01 4.247732961006252528e-01
3.641827633755408411e-01 8.306271616405517255e-01 4.212237329556768328e-01
3.668154991093779960e-01 8.274303765731042537e-01 4.252121371000933681e-01
3.678544282175162383e-01 8.265163203287371196e-01 4.260914125759969751e-01
3.669885856588592787e-01 8.263654448549132558e-01 4.271294060888942146e-01
3.677313117694933076e-01 8.252243703111233897e-01 4.286938546199345890e-01
3.735822287922933582e-01 8.218000820470405809e-01 4.302103479439560174e-01
3.736407664548755947e-01 8.211886685366422967e-01 4.313255711293145778e-01
3.720031426269085895e-01 8.227036314021674013e-01 4.298515985237120751e-01
3.816247328237576952e-01 8.153447860534241975e-01 4.354026218945994398e-01
3.823537136523447177e-01 8.145215791422233398e-01 4.363029162954558116e-01
3.833413487250949547e-01 8.141171076493178838e-01 4.361911798630666581e-01
3.833289826181065507e-01 8.141319947462691831e-01 4.361742612940703867e-01
3.875122078089466293e-01 8.104878730575849621e-01 4.392535673453637490e-01
3.898197378120298873e-01 8.095362625165254400e-01 4.389665268365409712e-01
3.898197378120298873e-01 8.095362625165254400e-01 4.389665268365409712e-01
3.896673087492234511e-01 8.097230335864121775e-01 4.387573331259038145e-01
3.923929883281432329e-01 8.098122480530770551e-01 4.361557813604345357e-01
3.934621622054439993e-01 8.081757502957408468e-01 4.382230979153577399e-01
3.956808848619757790e-01 8.062650401588936644e-01 4.397423363430242316e-01
3.972345704073744765e-01 8.057067774488055889e-01 4.393646376830178113e-01
4.000210140671576209e-01 8.037952816356617181e-01 4.403366138818463615e-01
4.021467652553665784e-01 8.045169047704503473e-01 4.370703937962617247e-01
4.035153830698944843e-01 8.025163511467825472e-01 4.394801949667472840e-01
4.008386930127464387e-01 8.045524446238434546e-01 4.382050958553885822e-01
4.014704019222830600e-01 8.039172111101056117e-01 4.387922447597614184e-01
4.014704019222830600e-01 8.039172111101056117e-01 4.387922447597614184e-01
3.974228863823524027e-01 8.051513707083584048e-01 4.402116759309906979e-01
3.974228863823524027e-01 8.051513707083584048e-01 4.402116759309906979e-01
3.943329095443460774e-01 8.065167659965927216e-01 4.404909336373314943e-01
3.902724668835570454e-01 8.079424470436341599e-01 4.414933791777259087e-01
3.902724668835570454e-01 8.079424470436341599e-01 4.414933791777259087e-01
3.868090939165398923e-01 8.078854623454611028e-01 4.446344617709315217e-01
3.868090939165398923e-01 8.078854623454611028e-01 4.446344617709315217e-01
3.900142495966036349e-01 8.080477077436621913e-01 4.415289199155717492e-01
3.882536739309596086e-01 8.066952861304440558e-01 4.455354082607051458e-01
3.879425138143107743e-01 8.068221158721854414e-01 4.455767939592042981e-01
3.889248186205858104e-01 8.060456683287871016e-01 4.461253927197411095e-01
3.889248186205858104e-01 8.060456683287871016e-01 4.461253927197411095e-01
3.889730768407582140e-01 8.059831334951769177e-01 4.461962953839143098e-01
3.879918720869520166e-01 8.064334783531164064e-01 4.462368790068298452e-01
3.879918720869520166e-01 8.064334783531164064e-01 4.462368790068298452e-01
3.868599696178623981e-01 8.060987238135072230e-01 4.478216289701755781e-01
3.886280720332187522e-01 8.055756490896334165e-01 4.472315901426899831e-01
3.866797406465222187e-01 8.060651001112638658e-01 4.480377579581396041e-01
3.866797406465222187e-01 8.060651001112638658e-01 4.480377579581396041e-01
3.865328421017911742e-01 8.062196067375693165e-01 4.478864897366643394e-01
3.860650234839169692e-01 8.063132162327156793e-01 4.481214065081208231e-01
3.853517127945203513e-01 8.070944033465458078e-01 4.473283822126791209e-01
3.849175057414753742e-01 8.072456602242067403e-01 4.474292768951826371e-01
3.849175057414753742e-01 8.072456602242067403e-01 4.474292768951826371e-01
3.849175057414753742e-01 8.072456602242067403e-01 4.474292768951826371e-01
3.832700530453336252e-01 8.084874607578077521e-01 4.466005958751280147e-01
3.832700530453336252e-01 8.084874607578077521e-01 4.466005958751280147e-01
3.775351752281674300e-01 8.104000557736074084e-01 4.480166749882989463e-01
3.775351752281674300e-01 8.104000557736074084e-01 4.480166749882989463e-01
3.762379299897358198e-01 8.109113883458404226e-01 4.481827086000312321e-01
3.754085705577447363e-01 8.115619894926289213e-01 4.477002818432850306e-01
3.748497107676157514e-01 8.117427709486221277e-01 4.478407843755276008e-01
3.751183707710696869e-01 8.115211444347056879e-01 4.480174550678173162e-01
3.728479371064448711e-01 8.123227477112551220e-01 4.484597745019112125e-01
3.728479371064448711e-01 8.123227477112551220e-01 4.484597745019112125e-01
3.732251789431900724e-01 8.119474336681902216e-01 4.488255014618305339e-01
3.723951144089925336e-01 8.122058677121732906e-01 4.490473329374410905e-01
3.728637230668327973e-01 8.117976340322320405e-01 4.493965347000469790e-01
3.728637230668327973e-01 8.117976340322320405e-01 4.493965347000469790e-01
3.747034374285081459e-01 8.113844904080235176e-01 4.486117951019254479e-01
3.749967746771539212e-01 8.111153315125714247e-01 4.488533590906760296e-01
3.762707452894186178e-01 8.108562523821019052e-01 4.482549098584405201e-01
3.762905930221470685e-01 8.094613156861092396e-01 4.507524464833816413e-01
3.778262187013387008e-01 8.089239280683271360e-01 4.504324889041154689e-01
3.778262187013387008e-01 8.089239280683271360e-01 4.504324889041154689e-01
3.778262187013387008e-01 8.089239280683271360e-01 4.504324889041154689e-01
3.802041322885703623e-01 8.080754857555527693e-01 4.499542500206246687e-01
3.819766075961733565e-01 8.055275204092214869e-01 4.530113520792721782e-01
3.844221416895227672e-01 8.047250717542240306e-01 4.523684072401603085e-01
3.841401966602677742e-01 8.052713211066220289e-01 4.516352607060332702e-01
3.841401966602677742e-01 8.052713211066220289e-01 4.516352607060332702e-01
3.873668981054833038e-01 8.041021212710213195e-01 4.509619327832227187e-01
3.878783737532350284e-01 8.034492998010824838e-01 4.516852774041854035e-01
3.884552085293995760e-01 8.034698010162165671e-01 4.511527788026378216e-01
3.887939369704163095e-01 8.031311626949821925e-01 4.514638524657869634e-01
3.887939369704163095e-01 8.031311626949821925e-01 4.514638524657869634e-01
3.868902820825622091e-01 8.040401662941636385e-01 4.514812516768879069e-01
3.873627334919099718e-01 8.035396803888161799e-01 4.519669177520789782e-01
3.861724769159188830e-01 8.032169684847801916e-01 4.535563025807753945e-01
3.850189040507769334e-01 8.044182847239872425e-01 4.524065281638369185e-01
3.850189040507769334e-01 8.044182847239872425e-01 4.524065281638369185e-01
3.854550592237384055e-01 8.026059086650826346e-01 4.552451566955120765e-01
3.874293364114622107e-01 8.004181143548134703e-01 4.574159502033775526e-01
3.874293364114622107e-01 8.004181143548134703e-01 4.574159502033775526e-01
3.881461813260050908e-01 7.999209763360540792e-01 4.576778053823606363e-01
3.878427839582251346e-01 8.002538548640901750e-01 4.573529738688678070e-01
3.878427839582251346e-01 8.002538548640901750e-01 4.573529738688678070e-01
3.850877601393272176e-01 8.030771092894324337e-01 4.547247228007346154e-01
3.844417266234872455e-01 8.037753305112018687e-01 4.540371976967967349e-01
3.859110939570554732e-01 8.032110151773266260e-01 4.537892601843693252e-01
3.862339200971752762e-01 8.034064517352632606e-01 4.531682163132394470e-01
3.911756680010087250e-01 8.013483532634569917e-01 4.525731029191972787e-01
3.887640327670094931e-01 8.012412150170815650e-01 4.548351813401005916e-01
3.887640327670094931e-01 8.012412150170815650e-01 4.548351813401005916e-01
3.936825860291466306e-01 8.012540212419967389e-01 4.505618879809223931e-01
3.955788768701969937e-01 7.998042264599324325e-01 4.514759700260276842e-01
4.034380969437092457e-01 7.989060448719502716e-01 4.460794025748057723e-01
4.080320666031307386e-01 7.937464164552998636e-01 4.510836496570762577e-01
4.150388831169883885e-01 7.943712361210529815e-01 4.435279751317985908e-01
4.125956437245030251e-01 7.971496238118852551e-01 4.408143736723346695e-01
4.138452357077235799e-01 7.958031321333923769e-01 4.420740840274411942e-01
4.140882035144798357e-01 7.956970384772098503e-01 4.420375353618155034e-01
4.306048787045756443e-01 7.894884275105540361e-01 4.373642203732835410e-01
4.327409166457903411e-01 7.877783739899021365e-01 4.383383767529222541e-01
4.443896129473341450e-01 7.804452155827780180e-01 4.397989738260761339e-01
4.443896129473341450e-01 7.804452155827780180e-01 4.397989738260761339e-01
4.356878268613708638e-01 7.908625753368040412e-01 4.297819266284404471e-01
4.487081466193678092e-01 7.854992252852223134e-01 4.262064830967818851e-01
4.613873893768268286e-01 7.711371315882923350e-01 4.387131194867748829e-01
4.753608558229270309e-01 7.626644898649846960e-01 4.386056687393321551e-01
4.804894804253955209e-01 7.592406042713314429e-01 4.389573601458766627e-01
5.008441628619499930e-01 7.483260943679864718e-01 4.349289378910860537e-01
5.291933644362406541e-01 7.057369185831853242e-01 4.710517856726188501e-01
5.291933644362406541e-01 7.057369185831853242e-01 4.710517856726188501e-01
5.332062948041187411e-01 7.109813738324947119e-01 4.584719546979090787e-01
5.607415232924480852e-01 5.006939935854346491e-01 6.594501261226155542e-01
5.607415232924480852e-01 5.006939935854346491e-01 6.594501261226155542e-01
5.898475204423787588e-01 6.109231810754208736e-01 5.280651185721948471e-01
5.898475204423787588e-01 6.109231810754208736e-01 5.280651185721948471e-01
8.259450791084971266e-01 4.663119202227533622e-01 3.168089635010771787e-01
8.259450791084971266e-01 4.663119202227533622e-01 3.168089635010771787e-01
5.882944840996079394e-01 6.112042912956533458e-01 5.294704092579246568e-01
7.756021305467643012e-01 2.734655224459492939e-01 5.689094331479166433e-01
5.318186726962494948e-01 -1.969672136677252938e-01 8.236339090345735636e-01
5.318186726962494948e-01 -1.969672136677252938e-01 8.236339090345735636e-01
8.405770885003150950e-01 -1.021977275607875574e-01 5.319640803378968830e-01
8.405770885003150950e-01 -1.021977275607875574e-01 5.319640803378968830e-01
8.405770885003150950e-01 -1.021977275607875574e-01 5.319640803378968830e-01
8.405770885003150950e-01 -1.021977275607875574e-01 5.319640803378968830e-01
8.405770885003150950e-01 -1.021977275607875574e-01 5.319640803378968830e-01
7.497476411969621335e-01 2.915620428490221516e-01 5.940286606631841604e-01
7.497476411969621335e-01 2.915620428490221516e-01 5.940286606631841604e-01
6.964601523979947473e-01 -2.750161816585479646e-01 6.628041610820760710e-01
6.964601523979947473e-01 -2.750161816585479646e-01 6.628041610820760710e-01
6.964601523979947473e-01 -2.750161816585479646e-01 6.628041610820760710e-01
5.601773523443581704e-01 -4.237575261389072701e-01 7.117800874997122218e-01
7.473578275532305470e-01 -2.886223192230831236e-01 5.984592170241881393e-01
7.470690559044738110e-01 -2.543956639609651349e-01 6.141422244625897031e-01
7.470690559044738110e-01 -2.543956639609651349e-01 6.141422244625897031e-01
7.470690559044738110e-01 -2.543956639609651349e-01 6.141422244625897031e-01
7.470690559044738110e-01 -2.543956639609651349e-01 6.141422244625897031e-01
5.269148589486830625e-01 -4.827259380776204867e-01 6.995258394985639505e-01
5.269148589486830625e-01 -4.827259380776204867e-01 6.995258394985639505e-01
5.462368747311117101e-01 -4.726689028931081449e-01 6.915268504706185704e-01
4.630560608533978439e-01 -5.351172654184177535e-01 7.065611061741574606e-01
5.038187533167576282e-01 -5.170328712363431167e-01 6.919853133321914873e-01
5.050717789269540958e-01 -5.267419700777519198e-01 6.836997843280124831e-01
4.604364786552527233e-01 -5.776362114923846436e-01 6.740435121683733266e-01
4.493016311526221718e-01 -5.707792663542967659e-01 6.872692873565963145e-01
4.881984471199851128e-01 -5.671592782050343118e-01 6.633194022306144744e-01
4.881984471199851128e-01 -5.671592782050343118e-01 6.633194022306144744e-01
5.018257368011601605e-01 -5.719031753017186359e-01 6.489204018705102550e-01
4.154891385386574321e-01 -5.936875984080287605e-01 6.891326514198202746e-01
4.396480064947184130e-01 -5.930717520756375594e-01 6.745187375271005648e-01
4.244703342818111902e-01 -6.020158225268851249e-01 6.763149301486442999e-01
4.244703342818111902e-01 -6.020158225268851249e-01 6.763149301486442999e-01
4.610020300107207647e-01 -5.875172879972870854e-01 6.650568130846472581e-01
4.092447539037648574e-01 -5.899061794518875024e-01 6.960814829075143706e-01
3.929225729964799241e-01 -5.956206333873000913e-01 7.006053901542131923e-01
3.980677973662890556e-01 -5.951056551682998297e-01 6.981341474864696250e-01
4.354334614797327752e-01 -5.925515536484063928e-01 6.777022627176612080e-01
4.403119129242187846e-01 -5.909431750480362844e-01 6.759523527595424630e-01
4.087953389048960551e-01 -5.922613297914106623e-01 6.943434943335616838e-01
4.074742096445083117e-01 -5.936391280775500379e-01 6.939433363682581124e-01
4.085092525174055522e-01 -5.927125767388161659e-01 6.941267837962338261e-01
4.044156628635951489e-01 -5.942692949300222294e-01 6.951920430600261325e-01
4.080357823059744815e-01 -5.939305425919151338e-01 6.933637652303621390e-01
4.080357823059744815e-01 -5.939305425919151338e-01 6.933637652303621390e-01
4.088918758465308056e-01 -5.943081743837667075e-01 6.925353620771576013e-01
4.100334170483926899e-01 -5.923830546403338060e-01 6.935091300614623089e-01
4.111818925316075291e-01 -5.930969496519772344e-01 6.922177833367511024e-01
4.111818925316075291e-01 -5.930969496519772344e-01 6.922177833367511024e-01
4.078002940096083218e-01 -5.941148705101736427e-01 6.933443883412894193e-01
4.078002940096083218e-01 -5.941148705101736427e-01 6.933443883412894193e-01
4.079712599173674348e-01 -5.934650768431918300e-01 6.938001539701041942e-01
4.096377123356593208e-01 -5.938509066425529115e-01 6.924868556963560406e-01
4.108691311173274241e-01 -5.937666787822882819e-01 6.918292334548629130e-01
4.010789447366477356e-01 -5.962837117418433586e-01 6.954001834917125091e-01
4.010789447366477356e-01 -5.962837117418433586e-01 6.954001834917125091e-01
4.010789447366477356e-01 -5.962837117418433586e-01 6.954001834917125091e-01
4.065385650162872677e-01 -5.946647580254317278e-01 6.936138844609821552e-01
4.065385650162872677e-01 -5.946647580254317278e-01 6.936138844609821552e-01
4.094223282275095688e-01 -5.944537081339000828e-01 6.920969195384568673e-01
4.094223282275095688e-01 -5.944537081339000828e-01 6.920969195384568673e-01
4.030093889517369909e-01 -5.954241935648492134e-01 6.950204760540488191e-01
4.030093889517369909e-01 -5.954241935648492134e-01 6.950204760540488191e-01
4.012752204676729995e-01 -5.958698869369322138e-01 6.956416284843712772e-01
4.012179222760926534e-01 -5.979739190906637747e-01 6.938669691892010993e-01
4.012179222760926534e-01 -5.979739190906637747e-01 6.938669691892010993e-01
4.009005325576756040e-01 -5.976527886302924752e-01 6.943269454928328033e-01
4.023656539466013982e-01 -5.968184009505480558e-01 6.941971454932344132e-01
4.014328780991785472e-01 -5.963666227601385206e-01 6.951248058001360253e-01
4.041431630681062703e-01 -5.970945525093290795e-01 6.929259694289067184e-01
4.015916531463740169e-01 -5.980450607045365574e-01 6.935893954567570185e-01
4.015916531463740169e-01 -5.980450607045365574e-01 6.935893954567570185e-01
4.010379792983833069e-01 -5.983303511488113902e-01 6.936637009779376140e-01
4.094840641078817400e-01 -5.933547596214091557e-01 6.930028358356927765e-01
4.091775661918405360e-01 -5.945043607437534572e-01 6.921981539862578359e-01
4.063862869034123859e-01 -5.958434851273449739e-01 6.926909318362387546e-01
4.063862869034123859e-01 -5.958434851273449739e-01 6.926909318362387546e-01
4.031221436604620068e-01 -5.942043252253597085e-01 6.959983887726096663e-01
4.031221436604620068e-01 -5.942043252253597085e-01 6.959983887726096663e-01
4.096504173276080962e-01 -5.929701154361142201e-01 6.932337107952829536e-01
4.096504173276080962e-01 -5.929701154361142201e-01 6.932337107952829536e-01
4.110485394128340353e-01 -5.937880682929177478e-01 6.917042924541826343e-01
4.092443196278183204e-01 -5.943171538870420934e-01 6.923194403221464288e-01
3.958698601742191570e-01 -5.995057918466814018e-01 6.956147348553851639e-01
4.008173898351273245e-01 -5.983585354266608425e-01 6.937668794975851982e-01
4.008173898351273245e-01 -5.983585354266608425e-01 6.937668794975851982e-01
3.937135435297376418e-01 -6.039146836129404283e-01 6.930199856843519690e-01
3.940455193314228444e-01 -6.038188711107800311e-01 6.929147852263889407e-01
3.935014144035586803e-01 -6.038432121544687892e-01 6.932027207082873677e-01
3.940913544440957095e-01 -6.034514855306506442e-01 6.932087051987078086e-01
3.940913544440957095e-01 -6.034514855306506442e-01 6.932087051987078086e-01
3.941467206735306816e-01 -6.034404105672775964e-01 6.931868676458730061e-01
3.941467206735306816e-01 -6.034404105672775964e-01 6.931868676458730061e-01
3.917880959979710975e-01 -6.019121221573656699e-01 6.958476018743622316e-01
3.944446425699694170e-01 -6.012261859766796501e-01 6.949392039911003183e-01
3.944446425699694170e-01 -6.012261859766796501e-01 6.949392039911003183e-01
3.942451701360998872e-01 -6.028173881188619854e-01 6.936727920323175756e-01
3.858697986935969437e-01 -6.025293162419328441e-01 6.986150023619530636e-01
3.858697986935969437e-01 -6.025293162419328441e-01 6.986150023619530636e-01
3.913672643769520731e-01 -6.006419884303110246e-01 6.971806552885577712e-01
3.957988592488808632e-01 -5.992126423054803253e-01 6.959076607701405459e-01
3.957988592488808632e-01 -5.992126423054803253e-01 6.959076607701405459e-01
3.829388194681875301e-01 -6.077028298450372068e-01 6.957407068316792120e-01
3.832850596191244574e-01 -6.077694652865212044e-01 6.954917973190628544e-01
3.828248274904611503e-01 -6.080232922605476320e-01 6.955234198253451572e-01
3.839556258253156162e-01 -6.074476246931412859e-01 6.954030922074987409e-01
3.850788629499500848e-01 -6.054792382331098954e-01 6.964977827515508313e-01
3.803082949041699523e-01 -6.071633283555043503e-01 6.976519859696158621e-01
3.815220354556040916e-01 -6.080343804467643887e-01 6.962292213463410206e-01
3.822796206823576015e-01 -6.061891809577165668e-01 6.974216576080539687e-01
3.831958018566558599e-01 -6.063428360228684255e-01 6.967850046055665825e-01
3.811937260106328940e-01 -6.069801213510762627e-01 6.973280974797755327e-01
3.869998321236278738e-01 -6.051283156075322189e-01 6.957376312851525357e-01
3.900084038100029016e-01 -6.084444263550353726e-01 6.911503635208952057e-01
3.834384341522730222e-01 -6.064134074008146191e-01 6.965900850136949041e-01
3.834384341522730222e-01 -6.064134074008146191e-01 6.965900850136949041e-01
3.834384341522730222e-01 -6.064134074008146191e-01 6.965900850136949041e-01
3.829505007635413683e-01 -6.069413090207899097e-01 6.963987086210620125e-01
3.825176096852759278e-01 -6.121389724613955918e-01 6.920738086899181907e-01
3.809593673740868103e-01 -6.116140492536158435e-01 6.933961459119393211e-01
3.856607141406712680e-01 -6.091533931250570078e-01 6.929631716135694619e-01
3.790905266905779114e-01 -6.204362436333318298e-01 6.865487893512164375e-01
3.945159175420025477e-01 -6.118051984283311429e-01 6.856030848691262447e-01
3.847604233041086452e-01 -6.147039535573071145e-01 6.885480855683641099e-01
3.847604233041086452e-01 -6.147039535573071145e-01 6.885480855683641099e-01
3.763676938411275597e-01 -6.174435071885784332e-01 6.907321293116307492e-01
4.708795748350138588e-01 -5.712553319912894167e-01 6.722646589511591664e-01
4.173368387329586815e-01 -5.986817030542315177e-01 6.836740315855688310e-01
4.173368387329586815e-01 -5.986817030542315177e-01 6.836740315855688310e-01
5.757342087415076026e-01 -4.995759444411053130e-01 6.472665576256569908e-01
5.757342087415076026e-01 -4.995759444411053130e-01 6.472665576256569908e-01
6.547604737252674667e-01 -3.858021338832757219e-01 6.499580259818121819e-01
8.094892761077747689e-01 -2.465256416843622511e-01 5.328716729744829017e-01
4.890993781440562960e-01 -5.241227066583185046e-01 6.971923598722633564e-01
9.370991691772756482e-01 1.623757826876738933e-02 3.486853713295488544e-01
9.370991691772756482e-01 1.623757826876738933e-02 3.486853713295488544e-01
8.239488671330027492e-01 -1.615119835907791179e-01 5.431594089278150017e-01
8.239488671330027492e-01 -1.615119835907791179e-01 5.431594089278150017e-01
9.657214077800539975e-01 7.447358996779256113e-02 2.486681462363440620e-01
9.143486722034870340e-01 1.701667845254685452e-01 3.674367579379924087e-01
9.143486722034870340e-01 1.701667845254685452e-01 3.674367579379924087e-01
9.143486722034870340e-01 1.701667845254685452e-01 3.674367579379924087e-01
9.511547379337783603e-01 2.941720109418672902e-01 9.363488924830978832e-02
9.353290104149498685e-01 2.808869190949693229e-01 2.150864499626295168e-01
9.500892054148902810e-01 2.976012676937861423e-01 9.361616965649505184e-02
9.289937205603655546e-01 3.340363867709744694e-01 1.593435266096534242e-01
9.473521428763247432e-01 2.975841691119833765e-01 1.181845154052164337e-01
9.467054119894037223e-01 3.032858289350180425e-01 1.084738165511492658e-01
9.467054119894037223e-01 3.032858289350180425e-01 1.084738165511492658e-01
9.432041426550772378e-01 3.109505257251654053e-01 1.169432162613295995e-01
9.428107722486128717e-01 3.153852454834630281e-01 1.078888069417292400e-01
9.430004396200530881e-01 3.149528115567853948e-01 1.074937085082791760e-01
9.430004396200530881e-01 3.149528115567853948e-01 1.074937085082791760e-01
9.425848562449123946e-01 3.170088271509451938e-01 1.050675605795619028e-01
9.414471684814831320e-01 3.195476947845409255e-01 1.075476625319403828e-01
9.419062192175253756e-01 3.195866355179537432e-01 1.033298436932036102e-01
9.419062192175253756e-01 3.195866355179537432e-01 1.033298436932036102e-01
9.421536591868151511e-01 3.192348103943314919e-01 1.021548741538524652e-01
9.421536591868151511e-01 3.192348103943314919e-01 1.021548741538524652e-01
9.424440521632931889e-01 3.186070272261243286e-01 1.014335779915286478e-01
9.414321021270927181e-01 3.210891911891540773e-01 1.029918850495426530e-01
9.418464756991195008e-01 3.201483743391170256e-01 1.021285201164129630e-01
9.394681602355620109e-01 3.264248324683752811e-01 1.041460736254680164e-01
9.409553067388338743e-01 3.227289944561649304e-01 1.022208729044107728e-01
9.405995623182499266e-01 3.234949676087285342e-01 1.030702153803141619e-01
9.406420835072415443e-01 3.237725505963809924e-01 1.018027809810193723e-01
9.404841209278722580e-01 3.241016920122955502e-01 1.022140475536250787e-01
9.383210614624132306e-01 3.304081464217091813e-01 1.019021216374833005e-01
9.395248496268061578e-01 3.270463486391527175e-01 1.016550184473205415e-01
9.395997195938786684e-01 3.267449261535637639e-01 1.019319389200782494e-01
9.399238260639337650e-01 3.259598368590980177e-01 1.014563253431062240e-01
9.398641237354918854e-01 3.260842202724556493e-01 1.016095970084557043e-01
9.401179053634263205e-01 3.254057414546154270e-01 1.014368150301248744e-01
9.401050620538304869e-01 3.254352535998361606e-01 1.014611650592192327e-01
9.394354330088474647e-01 3.274120536750476096e-01 1.013035750394180451e-01
9.394354330088474647e-01 3.274120536750476096e-01 1.013035750394180451e-01
9.392146028531950241e-01 3.278653809192584867e-01 1.018833734324924856e-01
9.396238907638594373e-01 3.269964366336720607e-01 1.008973455283526804e-01
9.396238907638594373e-01 3.269964366336720607e-01 1.008973455283526804e-01
9.389972237598284144e-01 3.281645480955810434e-01 1.029186238955702437e-01
9.396660108065205685e-01 3.265560763885669848e-01 1.019260374421787213e-01
9.395678685283915810e-01 3.266083850662654386e-01 1.026605242214416874e-01
9.397492196461304514e-01 3.259188229858246966e-01 1.031907214725413385e-01
9.397492196461304514e-01 3.259188229858246966e-01 1.031907214725413385e-01
9.399895353030573997e-01 3.258148516858775379e-01 1.013131577913332498e-01
9.393029126113572325e-01 3.273027803301981620e-01 1.028733607302840664e-01
9.393029126113572325e-01 3.273027803301981620e-01 1.028733607302840664e-01
9.402709690521433572e-01 3.257637538226990648e-01 9.883562846002100222e-02
9.393399815514005269e-01 3.277038857485740642e-01 1.012450607402649860e-01
9.393399815514005269e-01 3.277038857485740642e-01 1.012450607402649860e-01
9.388950914684153215e-01 3.294459564840596655e-01 9.970641390010615002e-02
9.388677249679194814e-01 3.295045150627795572e-01 9.977058467707500267e-02
9.391150246367881982e-01 3.286387664940650377e-01 1.002972166049675151e-01
9.391150246367881982e-01 3.286387664940650377e-01 1.002972166049675151e-01
9.393235921779361508e-01 3.281878184359376949e-01 9.981956225208614419e-02
9.396496275548844590e-01 3.270785545456644239e-01 1.003902215969546957e-01
9.396496275548844590e-01 3.270785545456644239e-01 1.003902215969546957e-01
9.395843835941879441e-01 3.272712301387072364e-01 1.003729447083589327e-01
9.412112936715936184e-01 3.229257297671309090e-01 9.919815381049790215e-02
9.412024343852445352e-01 3.229448397459579456e-01 9.921999792756884540e-02
9.412024343852445352e-01 3.229448397459579456e-01 9.921999792756884540e-02
9.405605085758895756e-01 3.245558936964290098e-01 1.000469968283713845e-01
9.408702328429480177e-01 3.239071802331701111e-01 9.923378226921240886e-02
9.386236568210467590e-01 3.299521077361005084e-01 1.005844792022633910e-01
9.385530876159616787e-01 3.296890146125697751e-01 1.020943454376277842e-01
9.387046919738978312e-01 3.293759419452468307e-01 1.017103246178629045e-01
9.383630999877379253e-01 3.301979931672266999e-01 1.021957821523898358e-01
9.377596873108267062e-01 3.316952901217352090e-01 1.028834455379412510e-01
9.378626994790276727e-01 3.314744403236226100e-01 1.026559902687225606e-01
9.382882491058927021e-01 3.299475789349115007e-01 1.036810336792061971e-01
9.386370541783888299e-01 3.292142273174551437e-01 1.028517041914584623e-01
9.386370541783888299e-01 3.292142273174551437e-01 1.028517041914584623e-01
9.386785936288442045e-01 3.283505969056751406e-01 1.052063846668155611e-01
9.389091464276581034e-01 3.273269285675645679e-01 1.063329515672865461e-01
9.393763418272144117e-01 3.263230201972638911e-01 1.052871070200739889e-01
9.398137406324149623e-01 3.255089346194711131e-01 1.038944964923774888e-01
9.390710726144610998e-01 3.268576026948966651e-01 1.063467354424693645e-01
9.397857078938227637e-01 3.255755414947846815e-01 1.039393574103874701e-01
9.391964648477654221e-01 3.270686474981368552e-01 1.045758109755776100e-01
9.390051575520804716e-01 3.274758273388335139e-01 1.050185535957290917e-01
9.387166028279407826e-01 3.277869984577624352e-01 1.066153047982382196e-01
9.394255928145839318e-01 3.262711676888694345e-01 1.050080030279085114e-01
9.394255928145839318e-01 3.262711676888694345e-01 1.050080030279085114e-01
9.380967834217203150e-01 3.289156896478373504e-01 1.085766735413714740e-01
9.391838326573667128e-01 3.264336642715230385e-01 1.066526666581093657e-01
9.381391757446667645e-01 3.284582709453698901e-01 1.095903790516994381e-01
9.376339539817079016e-01 3.301457166720271341e-01 1.088410497181186154e-01
9.374025777232253276e-01 3.301410051942781920e-01 1.108301582023779042e-01
9.374025777232253276e-01 3.301410051942781920e-01 1.108301582023779042e-01
9.379279768674888551e-01 3.290709322016253102e-01 1.095601742843293064e-01
9.366158263750767876e-01 3.320829191231498556e-01 1.116768938069974959e-01
9.371421330111923131e-01 3.308950395756161122e-01 1.107840029944945487e-01
9.359930515231249526e-01 3.336033481454771521e-01 1.123646457145501543e-01
9.365699704724360641e-01 3.306343914065816847e-01 1.162651694552557929e-01
9.382844590346556268e-01 3.270101339430194209e-01 1.126350133511429402e-01
9.381249638709248106e-01 3.256549171055024838e-01 1.177727775302272045e-01
9.385536256072132266e-01 3.247466560218725262e-01 1.168618896910642024e-01
9.407907284610603771e-01 3.182627000870507095e-01 1.167118630431689674e-01
9.427496555471436279e-01 3.110377946851756725e-01 1.203269597518557971e-01
9.427496555471436279e-01 3.110377946851756725e-01 1.203269597518557971e-01
9.437357926993750201e-01 3.090359610941590396e-01 1.177264979887354540e-01
9.438221501662692470e-01 3.077993329615149043e-01 1.202469104965556979e-01
9.416841781670765021e-01 3.130767927610961787e-01 1.233443570830188851e-01
9.404353377581055051e-01 3.164372280808311899e-01 1.242934277438593332e-01
9.405434487723194348e-01 3.162054922227268694e-01 1.240649332392286947e-01
9.405434487723194348e-01 3.162054922227268694e-01 1.240649332392286947e-01
9.399918794272116296e-01 3.178261008689882705e-01 1.241041345697796727e-01
9.399918794272116296e-01 3.178261008689882705e-01 1.241041345697796727e-01
9.403463291922681266e-01 3.158665470846360734e-01 1.264005759775472804e-01
9.409221881093101647e-01 3.140896723483631581e-01 1.265429320337013719e-01
9.409221881093101647e-01 3.140896723483631581e-01 1.265429320337013719e-01
9.382533101359492589e-01 3.189320855632478136e-01 1.340263064372486657e-01
9.382533101359492589e-01 3.189320855632478136e-01 1.340263064372486657e-01
9.404552815756421769e-01 3.121073461853084985e-01 1.346583373343209211e-01
9.389841889372571027e-01 3.150997794160936838e-01 1.379159959459761164e-01
9.394776752649891538e-01 3.127337872202686220e-01 1.399259661733993076e-01
9.403338870488855417e-01 3.109366661770777140e-01 1.381686306446527901e-01
9.403338870488855417e-01 3.109366661770777140e-01 1.381686306446527901e-01
9.287221626299592137e-01 3.382164432377852137e-01 1.519367702813032295e-01
9.143614962924807577e-01 3.637988828474303382e-01 1.777453991999152494e-01
9.464246240480963523e-01 2.897159238239434553e-01 1.426363014041601429e-01
9.454322674092500156e-01 2.917491409853114059e-01 1.450526334670871054e-01
9.454322674092500156e-01 2.917491409853114059e-01 1.450526334670871054e-01
9.454322674092500156e-01 2.917491409853114059e-01 1.450526334670871054e-01
9.455093245530572510e-01 2.928235753675306752e-01 1.423603557602933500e-01
9.445914449191283868e-01 2.957668223770581473e-01 1.423691995010550326e-01
9.447832512639408042e-01 2.965170145829076898e-01 1.395072334826306937e-01
9.436815465323180607e-01 2.986670970609516251e-01 1.423485295588144961e-01
9.436566934436976251e-01 3.006220690035086296e-01 1.383416659830173645e-01
9.425391736339635562e-01 3.033872257378830151e-01 1.399146076164883012e-01
9.431562427252749847e-01 3.024667903366091148e-01 1.377321405911195173e-01
-1.754604476140088909e-01 4.657217802452967015e-01 8.673620090413478589e-01
-1.754604476140088909e-01 4.657217802452967015e-01 8.673620090413478589e-01
-1.781104061461418475e-01 4.671321371320216187e-01 8.660624975606127096e-01
-1.769899578707666843e-01 4.661036695532029261e-01 8.668459632725660224e-01
-1.769899578707666843e-01 4.661036695532029261e-01 8.668459632725660224e-01
-1.814818352769722865e-01 4.692841899594736854e-01 8.641971375320464110e-01
-1.792126065718503969e-01 4.670795785100727571e-01 8.658634470772952341e-01
-1.813606624263964795e-01 4.692910726040548930e-01 8.642188376206541012e-01
-1.813606624263964795e-01 4.692910726040548930e-01 8.642188376206541012e-01
-1.829760908992984214e-01 4.707224424828975740e-01 8.630991439586457314e-01
-1.829760908992984214e-01 4.707224424828975740e-01 8.630991439586457314e-01
3.843788810377857246e-01 -6.068688940994249048e-01 6.956745080759254574e-01
3.843788810377857246e-01 -6.068688940994249048e-01 6.956745080759254574e-01
3.774641252481065190e-01 -6.079475612044070720e-01 6.985131330020184492e-01
3.777639851582638708e-01 -6.082296166924877623e-01 6.981053680465837408e-01
3.738155952676746607e-01 -6.084688526332586722e-01 7.000196826588808152e-01
3.738155952676746607e-01 -6.084688526332586722e-01 7.000196826588808152e-01
3.738155952676746607e-01 -6.084688526332586722e-01 7.000196826588808152e-01
-8.389038937670025842e-01 6.529050676140325804e-02 5.403493376968280248e-01
-8.389865839835888295e-01 6.550195568895640641e-02 5.401953403135486553e-01
-8.389865839835888295e-01 6.550195568895640641e-02 5.401953403135486553e-01
3.484960557947879289e-01 8.482846935247743136e-01 3.987023674710946652e-01
9.036424635145241524e-01 3.916488085182669443e-01 1.733248652664228229e-01
3.461685462386424050e-01 8.494537339534113940e-01 3.982407456145489744e-01
3.461685462386424050e-01 8.494537339534113940e-01 3.982407456145489744e-01
3.462326213774834516e-01 8.493881593685587150e-01 3.983249008266596669e-01
3.458705643135197572e-01 8.472725492243079470e-01 4.031163356555896304e-01
3.451751918022640808e-01 8.481574990015136040e-01 4.018494044437140866e-01
3.498782749918994961e-01 8.431863916348429910e-01 4.081934610579959766e-01
3.506912277068149342e-01 8.424719356740820730e-01 4.089702928221710665e-01
3.530080190469342960e-01 8.404184451159890656e-01 4.111960306196822956e-01
3.557731863418464036e-01 8.392929816853135216e-01 4.111115794695472947e-01
3.537827326580772480e-01 8.373159235392041433e-01 4.168210914297319492e-01
3.613058281663572568e-01 8.340258899063164311e-01 4.169639234981839526e-01
3.627766741536453399e-01 8.332294975928665748e-01 4.172789103599160998e-01
3.650147794463059481e-01 8.312065787552141982e-01 4.193564524599766030e-01
3.650147794463059481e-01 8.312065787552141982e-01 4.193564524599766030e-01
3.663661307921223798e-01 8.303007542930802565e-01 4.199720414846105365e-01
3.720670738351264939e-01 8.255683958031390102e-01 4.242675057305214659e-01
3.720670738351264939e-01 8.255683958031390102e-01 4.242675057305214659e-01
3.734508525746912944e-01 8.250527560804356009e-01 4.240547257080310439e-01
3.740637194852081682e-01 8.244202085991034767e-01 4.247442211711682791e-01
