-8.131339101043930651e-01 5.626159586527624823e-01 1.492532321511791105e-01
-8.124283958769562553e-01 5.569297576122250737e-01 1.725959056837214900e-01
-8.031700696971916242e-01 5.720736780580990555e-01 1.662815263812748023e-01
-8.397139629300740538e-01 5.221628052208895365e-01 1.490854295500444737e-01
-8.375563739870051094e-01 5.256667413801389133e-01 1.489086881297609355e-01
-8.457450316811918611e-01 5.151170835114556867e-01 1.391751833526064797e-01
-8.390299436254087251e-01 5.231172222187572274e-01 1.495898576711502115e-01
-8.381957285975534244e-01 5.183707682316167631e-01 1.694687794367444045e-01
-8.029338501817252505e-01 5.644314565264515471e-01 1.916099243666133378e-01
-8.030626833750157401e-01 5.660331174579137370e-01 1.862708686601184382e-01
-8.025884821846039907e-01 5.668045626954580918e-01 1.859685886708393465e-01
-8.033118286448146517e-01 5.577169628472474772e-01 2.089064271672032014e-01
-7.982576195571733368e-01 5.722157688238679318e-01 1.880262926513863453e-01
-8.068998599025078988e-01 5.505745750349833045e-01 2.139632057489339323e-01
-8.041917610582824949e-01 5.528047539291583989e-01 2.183632649492602551e-01
-8.235245606821213205e-01 5.331684294175496053e-01 1.937491259999445936e-01
-8.014432338304008363e-01 5.580127645907607681e-01 2.151987395438127448e-01
-8.389883418276914417e-01 5.098152225261682879e-01 1.902288126383965272e-01
-8.385553574792430354e-01 5.103462148189918945e-01 1.907135377019322786e-01
-8.389937842520730493e-01 5.165839778239800228e-01 1.709690727644601616e-01
-8.384862083854203174e-01 5.172193005755114648e-01 1.715373821055354298e-01
-8.695513869638911153e-01 4.703915404047789850e-01 1.503734821861638371e-01
-8.677702187920570687e-01 4.745740130458851458e-01 1.474935711111142467e-01
-8.707570801697844809e-01 4.675410754405672220e-01 1.522742595124640386e-01
-8.770902806711675659e-01 4.530661525489002028e-01 1.595108177106156211e-01
-8.703566885834214117e-01 4.627104217172866019e-01 1.684586010636204556e-01
-8.689766119159407776e-01 4.657637261408290041e-01 1.671639894071178800e-01
-8.700943630293688225e-01 4.623482751067964913e-01 1.707918965591963545e-01
-8.893720503155192469e-01 4.244583346698842519e-01 1.698601726327811368e-01
-9.022062926449476716e-01 4.027324878180161272e-01 1.543708157903247724e-01
-8.991875341802871846e-01 4.103710038949124339e-01 1.518466908992641418e-01
-8.991016460119410914e-01 4.100215960542473725e-01 1.532922728246463862e-01
-9.093377714012379487e-01 3.806766735527216672e-01 1.678990402470029175e-01
-8.990603613920055137e-01 4.054437479534275246e-01 1.652447694154154934e-01
-8.992375142690156586e-01 4.052121154505896605e-01 1.648485196273836439e-01
-9.093744549698428159e-01 3.890697344239231192e-01 1.471830234898006962e-01
-8.995116092684328768e-01 4.012012464181144988e-01 1.729636512792948055e-01
-8.995138650335574582e-01 4.027367051795445740e-01 1.693456610413014429e-01
-9.253683550495764853e-01 3.490406259822457780e-01 1.478649684230956829e-01
-9.250703424266852881e-01 3.531786146254096703e-01 1.396772269693646595e-01
-9.341354197971085682e-01 3.373017571515598001e-01 1.166985094289983704e-01
-9.249288179875854166e-01 3.501641221715057206e-01 1.479586739598144352e-01
-9.249372053842584984e-01 3.503304347356303028e-01 1.475118727218335535e-01
-9.253826537600974289e-01 3.492168838566480082e-01 1.473584478385007723e-01
-9.454794898496005073e-01 3.014263451758690260e-01 1.233316370914504662e-01
-9.469392414921982137e-01 2.965140679900564735e-01 1.240382215535538457e-01
-9.466513377321326139e-01 2.970980360214855454e-01 1.248358993324426014e-01
-9.554939608701833453e-01 2.775492053144779092e-01 9.998864620500916289e-02
-9.466535768873555190e-01 2.921708918121657117e-01 1.359528423537349484e-01
-9.467022668117037743e-01 2.920737640804746960e-01 1.358224368410630434e-01
-9.348345229092207553e-01 3.147931116394241946e-01 1.642854577905744351e-01
-9.257608693463231786e-01 3.411261650796126310e-01 1.630943048828399355e-01
-9.230328026263163732e-01 3.472847306532693690e-01 1.655408140939687578e-01
-9.248548878228886050e-01 3.442709599819542277e-01 1.616197468851378882e-01
-9.138951039596246995e-01 3.734611849687160534e-01 1.591303939553630753e-01
-8.993029684772532173e-01 3.955384334607027208e-01 1.865570115097630322e-01
-9.032457507880402581e-01 3.897245266596294777e-01 1.796159987397472624e-01
-9.001968332484157065e-01 3.934517127183920215e-01 1.866585416435257994e-01
-8.992785861964224248e-01 3.948077545329257698e-01 1.882149339697379853e-01
-8.994786211813741161e-01 3.957962628859753029e-01 1.851581170868556725e-01
-8.708002917989986491e-01 4.482014068765203252e-01 2.020454173612626914e-01
-8.745961334598874037e-01 4.400854151081133314e-01 2.034857015766327881e-01
-8.693436072918605539e-01 4.555223019872330914e-01 1.916797455471687672e-01
-8.715604400111723882e-01 4.515820482068780839e-01 1.909346829279907898e-01
-8.668802683669342146e-01 4.605231780965944877e-01 1.908847892103615607e-01
-8.484844989735933485e-01 4.907806867999907063e-01 1.980110412720964552e-01
-8.382315766936466739e-01 5.026758224181344659e-01 2.113878931962168972e-01
-8.391244108917541578e-01 5.008894809759597555e-01 2.120847728932936382e-01
-8.043421982984808594e-01 5.483454006898873523e-01 2.288032988805324686e-01
-7.900210258754886139e-01 5.623965095371233902e-01 2.440838887249640321e-01
-7.796589214760217823e-01 5.778501443060246601e-01 2.412906481576787832e-01
-7.640316574597959542e-01 5.950650540495093788e-01 2.493054508996776220e-01
-7.631592411878738158e-01 5.990339402747786313e-01 2.423763829015141980e-01
-7.664528744152975248e-01 5.923471033385895312e-01 2.483443183705043300e-01
-7.633779752117836326e-01 5.969501581021464665e-01 2.467885242538231660e-01
-7.195307468675614659e-01 6.438897077570215899e-01 2.601567768803774161e-01
-7.384740148753612399e-01 6.268017927198686889e-01 2.485470619360115596e-01
-7.054116312381940590e-01 6.497271971936746660e-01 2.832825440099017711e-01
-7.260583525196977472e-01 6.340209578210513897e-01 2.661892067309621912e-01
-7.261256770494541879e-01 6.338495527713180477e-01 2.664136737877240702e-01
-7.285972865595569115e-01 6.275967860148833344e-01 2.743506300372568485e-01
-7.200490747649779255e-01 6.288923738469356373e-01 2.932979918909527917e-01
-7.537823043968564507e-01 5.880986024066933160e-01 2.931761781343414919e-01
-7.641068409865443556e-01 5.855921490461675205e-01 2.705966934998557116e-01
-7.700906751511024106e-01 5.787715502815387048e-01 2.682980518565566963e-01
-7.627514243457428345e-01 5.844248020476771055e-01 2.768716587339228319e-01
-7.859372801923775187e-01 5.608950065885137670e-01 2.601910513216761922e-01
-7.580072424408820231e-01 5.787372816923800345e-01 3.008125316313880471e-01
-7.672648694466356334e-01 5.655346384244650526e-01 3.024486615198461736e-01
-8.026405711760087325e-01 5.401331688435651035e-01 2.530301828186892199e-01
-8.027113260042991749e-01 5.400045128348329726e-01 2.530803295841745348e-01
-8.386638739382491492e-01 4.927749169127099704e-01 2.319823006450288383e-01
-8.188529666637863746e-01 5.115611661386663123e-01 2.603555113393297149e-01
-8.389350620885580589e-01 4.932795409087356031e-01 2.299201081230917709e-01
-8.386042173594687732e-01 4.926223203109785787e-01 2.325214316108092649e-01
-8.389605822704804261e-01 4.829934662347456498e-01 2.507238580010331397e-01
-8.367121510281995134e-01 4.873579891589081003e-01 2.497898451193502067e-01
-8.386133166127053284e-01 4.833756828113952020e-01 2.511486700471571853e-01
-8.018914218222319423e-01 5.299832698978063084e-01 2.758403183661672364e-01
-8.021827960823619819e-01 5.181162876158152963e-01 2.967461443333163640e-01
-8.017745355378457228e-01 5.212626414452043999e-01 2.923060943542569179e-01
-8.040370341518009445e-01 5.192534221759388391e-01 2.896555389958075377e-01
-8.033090872997188381e-01 5.044728363163183404e-01 3.165464700176927604e-01
-8.040316560454799921e-01 5.015648814698363545e-01 3.193207881628002398e-01
-7.913112036569736052e-01 5.110518556937984069e-01 3.356375720310180166e-01
-8.063472721055993109e-01 5.059355654523995938e-01 3.063221839472605179e-01
-8.007220200715029490e-01 5.112109518813791054e-01 3.122620842323739487e-01
-8.012784977225340111e-01 5.076188626425285344e-01 3.166636375983591378e-01
-8.124123818630019089e-01 5.083058894999854527e-01 2.856768182672733136e-01
-8.214594803852212079e-01 4.893293810061365434e-01 2.928499256776305737e-01
-8.376560840411674258e-01 4.743527764361058496e-01 2.707798521976375050e-01
-8.561876801285683847e-01 4.561284742332315512e-01 2.426715298293650458e-01
-8.692875584189072580e-01 4.409403650195404811e-01 2.234071065891351793e-01
-8.707332916471287598e-01 4.407391285205324305e-01 2.181113371842876014e-01
-8.706671222582843539e-01 4.363217204011360373e-01 2.270729365747285733e-01
-8.748898583030906284e-01 4.287338714642817128e-01 2.252887109858070502e-01
-8.808849993117495725e-01 4.135518723750442605e-01 2.302530495837875613e-01
-9.012859837834020782e-01 3.820953301199431218e-01 2.041732943754316909e-01
-8.999806402424445073e-01 3.860225940803728717e-01 2.025374139468057166e-01
-9.001561305798013723e-01 3.867647241238638123e-01 2.003297001270428201e-01
-8.988428183776362435e-01 3.894310386324151829e-01 2.010598269188199338e-01
-8.993873138233374753e-01 3.879301511315474960e-01 2.015258235976133683e-01
-8.991674541430987322e-01 3.805736108554207409e-01 2.160129999103880538e-01
-8.883663394000571589e-01 4.044591018167820184e-01 2.172972203653427414e-01
-8.632562260588702019e-01 4.459375522551526361e-01 2.364918342338264423e-01
-8.721886147864994498e-01 4.298731134261566389e-01 2.334440545186579341e-01
-8.378265219534581920e-01 4.747282043247100791e-01 2.695920086538320382e-01
-8.397831554382335639e-01 4.704686717021347442e-01 2.709676748046392913e-01
-8.460768049445245298e-01 4.499510050884780177e-01 2.858288529080530993e-01
-8.402960359318271122e-01 4.690887828819105820e-01 2.717688094164323331e-01
-8.272038519578082116e-01 4.687020751351452241e-01 3.099228163110507306e-01
-8.385182437836697922e-01 4.612323286231542752e-01 2.900894584000127119e-01
-8.380001480194182450e-01 4.616382043851653405e-01 2.909397191369261781e-01
-8.402602516531929577e-01 4.564804628626126792e-01 2.925547752412318570e-01
-8.727341984715557555e-01 4.194305502215636694e-01 2.498260041689961686e-01
-8.710150648891111791e-01 4.156480555054535286e-01 2.618576916776604313e-01
-8.727424362060887120e-01 4.107310983299036766e-01 2.638571676300872082e-01
-8.779058734873678160e-01 4.082649490685962834e-01 2.502019357606934391e-01
-9.005289328703107721e-01 3.684042249602718089e-01 2.309241609162641096e-01
-8.986008466635468928e-01 3.742093279788670790e-01 2.290936429261223595e-01
-8.997197448682586751e-01 3.743306856916931435e-01 2.244569411797784908e-01
-9.007730174888850527e-01 3.691613091072271091e-01 2.287529209042079015e-01
-8.993563520208884832e-01 3.694821482313057071e-01 2.337543458805832752e-01
-9.129698590455826990e-01 3.514711688574361781e-01 2.072535981262478566e-01
-8.919499364811940278e-01 3.696497111794230794e-01 2.603543774092589302e-01
-9.140325091558739734e-01 3.326005596609122872e-01 2.322099048694196977e-01
-9.086310316518457775e-01 3.367028664365131485e-01 2.470239422662068585e-01
-8.994169565609256844e-01 3.501425454032295881e-01 2.616282403511308585e-01
-9.011489836036320478e-01 3.457927889553419898e-01 2.614533542653973974e-01
-8.995519581166550038e-01 3.502839065066150614e-01 2.609740590383586301e-01
-8.999290408815816544e-01 3.497472143828482261e-01 2.603931785001181720e-01
-9.001910012108825798e-01 3.488415417349460812e-01 2.607023975703610663e-01
-9.246898180474424356e-01 3.173565761833965770e-01 2.103177214419648389e-01
-9.237114750122209506e-01 3.223055995836817123e-01 2.070657176061518889e-01
-9.349400507152582085e-01 3.038901813821421327e-01 1.831334465030334813e-01
-9.242673971761714569e-01 3.241357184261932090e-01 2.016576667461985883e-01
-9.292830119186288318e-01 3.092581564820220952e-01 2.019714742452077549e-01
-9.242188070915723364e-01 3.307354846761045852e-01 1.908759696616970092e-01
-9.309469595952665211e-01 3.206526101680729490e-01 1.746987750750734480e-01
-9.462191874906303868e-01 2.870360351993330172e-01 1.492634038256482609e-01
-9.466193084186090845e-01 2.857211246382923009e-01 1.492492005489601536e-01
-9.472457472984043836e-01 2.870819446547077658e-01 1.425112321129759496e-01
-9.412331785839228582e-01 3.042910114670048793e-01 1.465847327425069402e-01
-9.465052618029647924e-01 2.862277868121537727e-01 1.490014880325612745e-01
-9.466742496468808499e-01 2.892660096003803472e-01 1.418909466646406103e-01
-9.560645832939625999e-01 2.719444211988025772e-01 1.094839912945719113e-01
-9.465378167885357685e-01 2.895347240251346932e-01 1.422526097225689790e-01
-9.640489125850798535e-01 2.403258359788844334e-01 1.133718955675326739e-01
-9.650447547472742471e-01 2.380083490545846225e-01 1.097298825073835665e-01
-9.643599475842364876e-01 2.378678640764514129e-01 1.158825730428669903e-01
-9.647073622912119006e-01 2.333868269038001653e-01 1.219438156238687593e-01
-9.578829269972723992e-01 2.614063795998023410e-01 1.188570690857821133e-01
-9.655965081751071155e-01 2.317020290921252001e-01 1.180574144839378475e-01
-9.728595236343102748e-01 2.119908646647021555e-01 9.275893796683333525e-02
-9.647913535063464829e-01 2.335148131594005361e-01 1.210308895882459407e-01
-9.645830948329021659e-01 2.303992369006535867e-01 1.284353720677332278e-01
-9.613936654783448166e-01 2.351072994166464036e-01 1.429922296459628928e-01
-9.466473811764687385e-01 2.796436873159270364e-01 1.601815964962437777e-01
-9.493415743372104476e-01 2.755215134608232641e-01 1.511240247452533270e-01
-9.487960252415339468e-01 2.700437598417657070e-01 1.638977432925453614e-01
-9.458442838420694221e-01 2.800477695292553082e-01 1.641701480323759510e-01
-9.469429269079172595e-01 2.756587204592375051e-01 1.652614988853818856e-01
-9.459320823718316840e-01 2.741553920985301263e-01 1.733531555034158178e-01
-9.466000470083866247e-01 2.727171593083911327e-01 1.719700614132644301e-01
-9.652328536382063229e-01 2.218096766662908115e-01 1.382968025466982109e-01
-9.648735257179168467e-01 2.225136736803397242e-01 1.396665471541267689e-01
-9.642261648772287863e-01 2.240785585069650643e-01 1.416216882528668342e-01
-9.544117536904870303e-01 2.456344286835801249e-01 1.695934310719032778e-01
-9.682502915881073813e-01 2.052901985996490042e-01 1.426439876001140139e-01
-9.647246998272156482e-01 2.230283832625063467e-01 1.398734921370070883e-01
-9.648259676814366914e-01 2.164384931201493167e-01 1.492153838699566415e-01
-9.626415954580488377e-01 2.245471027040192302e-01 1.513266578009733465e-01
-9.648036529414485418e-01 2.167326226573307313e-01 1.489324731108433442e-01
-9.653375668321835246e-01 2.137863570902266974e-01 1.497290071582969839e-01
-9.645852120099817073e-01 2.155266265566208872e-01 1.520645981705847360e-01
-9.709588558917315870e-01 1.885295316978913838e-01 1.472939776202452367e-01
-9.687369986021101553e-01 2.089038679668751008e-01 1.338200339555084828e-01
-9.651283129140760808e-01 2.088875058995117162e-01 1.577762640282458773e-01
-9.637104133480514090e-01 2.160480783677630467e-01 1.567975351787299354e-01
-9.463255040759797065e-01 2.589555579389720696e-01 1.934168021342989041e-01
-9.467434691858137574e-01 2.575784420234152883e-01 1.932101181584454930e-01
-9.460468877625555217e-01 2.679489978827017671e-01 1.822048865657517613e-01
-9.517724355408988535e-01 2.579029597588363143e-01 1.661785012935721728e-01
-9.459822381127122037e-01 2.670577128756509433e-01 1.838417340238342745e-01
-9.469803925769405550e-01 2.650287953637604499e-01 1.816256416447231681e-01
-9.469099346172223930e-01 2.653187174234340473e-01 1.815696943545138109e-01
-9.273066551225905840e-01 3.094102579809597797e-01 2.106363207557245820e-01
-9.249018640946536918e-01 3.041959659728746823e-01 2.280819065161998338e-01
-9.246745122757746849e-01 3.046413290232042326e-01 2.284090781876545462e-01
-9.233929198155288454e-01 3.097774755962652837e-01 2.266791372132812843e-01
-9.248872950468458587e-01 2.949462888830464702e-01 2.399795369089779140e-01
-9.249234185873084213e-01 2.950072528168268815e-01 2.397652821703666615e-01
-9.213827516245544080e-01 2.978555289090883962e-01 2.496716021237733452e-01
-9.262293159354243466e-01 2.933034538363940569e-01 2.367959844875716369e-01
-9.465449493553009797e-01 2.503030941412704435e-01 2.034724057784668971e-01
-9.463723336827465360e-01 2.510624305466312434e-01 2.033397698628824357e-01
-9.466607235641339990e-01 2.500528543553042216e-01 2.032413454240926121e-01
-9.466880285269602124e-01 2.457439351505047720e-01 2.083067329216262975e-01
-9.546174522381434269e-01 2.208976851287731413e-01 1.997742040081882109e-01
-9.472512989079040491e-01 2.398863055182443860e-01 2.125312615642610814e-01
-9.471090852298458262e-01 2.440854575110116276e-01 2.083426747133786117e-01
-9.476040336397462127e-01 2.365406438094760921e-01 2.146977392891717962e-01
-9.499216882045433685e-01 2.368125851024399375e-01 2.038837556445579902e-01
-9.463998377666847928e-01 2.372205260759444323e-01 2.192116992394454178e-01
-9.472993772184088446e-01 2.300667598528421121e-01 2.229196625074364724e-01
-9.426723928728343305e-01 2.337558557801874548e-01 2.381742211152933775e-01
-9.407636550395942487e-01 2.522008615479447435e-01 2.266240737234631042e-01
-9.240476222024908148e-01 2.751703183502030581e-01 2.653625591543971596e-01
-9.255843067958234860e-01 2.652333117322224210e-01 2.700832859709253464e-01
-9.240836070879399067e-01 2.638038278976745921e-01 2.765448019722589468e-01
-9.255812019493733223e-01 2.596224936378074277e-01 2.754915595716861398e-01
-9.302119473931562688e-01 2.460510522357190477e-01 2.723318061129241241e-01
-9.292436420517249385e-01 2.608381144016718167e-01 2.616672157184124492e-01
-9.248301718945101113e-01 2.515494676091435400e-01 2.853279139851678248e-01
-9.108732086930555472e-01 2.777689597280628142e-01 3.052120618468525670e-01
-9.207803329290604744e-01 2.522305153508967446e-01 2.975623390432155513e-01
-9.150689773329454546e-01 2.567238371730189983e-01 3.110331785356645895e-01
-8.974819126791084845e-01 2.869699996801993169e-01 3.349245223888446810e-01
-8.988444739457622790e-01 2.906963534513108405e-01 3.279851242774224906e-01
-8.994823077309150872e-01 2.891661104606366162e-01 3.275889782030739772e-01
-8.902128325107052653e-01 2.919657862753680111e-01 3.496814156884424096e-01
-8.997040068880259867e-01 2.764643711163259909e-01 3.377871393242870557e-01
-8.684905694611688709e-01 3.095630538504092755e-01 3.871625581688180606e-01
-8.700211286337504735e-01 3.096404271104584160e-01 3.836483306749919331e-01
-8.709041995710788964e-01 3.091880605895578338e-01 3.820060449238024125e-01
-8.698744107167526440e-01 3.106495997888547023e-01 3.831648936570348774e-01
-8.387084508840685348e-01 3.433403670512907291e-01 4.227121086138071471e-01
-8.385562437048956763e-01 3.436694255085256944e-01 4.227466760533728496e-01
-8.486523871058624380e-01 3.388586259519635879e-01 4.061575525303804390e-01
-8.285265337308929112e-01 3.358266975398156440e-01 4.480671959911513569e-01
-8.372063577217746522e-01 3.545714452078257972e-01 4.163707540563742482e-01
-8.240279728063184539e-01 3.530473255740687044e-01 4.430976031730555764e-01
-8.473986019616998044e-01 3.414315503899205129e-01 4.066203460129507175e-01
-8.391734358693068163e-01 3.605251960612132489e-01 4.071971605209521727e-01
-8.382820585369989974e-01 3.610946471354035126e-01 4.085264326149897762e-01
-8.417334548228073698e-01 3.684863867186523589e-01 3.945916545431399913e-01
-8.377626219598559576e-01 3.715392417237965428e-01 4.001404517244588899e-01
-8.353316486497069926e-01 3.829605144312092091e-01 3.944138450292357656e-01
-8.714725255854864905e-01 3.387279256421101281e-01 3.546815889496476304e-01
-8.684361414477607122e-01 3.329659210404455338e-01 3.673586308405081269e-01
-8.759721816372014747e-01 3.102277444398267026e-01 3.693663270758981154e-01
-8.707448313786012584e-01 3.257383316875091528e-01 3.683720644903594743e-01
-9.060658560587611099e-01 2.998706010335152050e-01 2.985335611289004487e-01
-8.915697400127817751e-01 3.063702889146288633e-01 3.335275772164988384e-01
-8.959895913566716663e-01 3.135490985162225908e-01 3.144671922477269566e-01
-9.041706090434272758e-01 2.917467048968695464e-01 3.120246303160326140e-01
-9.189876761904851588e-01 2.915915718690267333e-01 2.653978263380510350e-01
-9.184781340961122309e-01 2.778457909199505416e-01 2.814242947142114315e-01
-9.248743469957025898e-01 2.739218136412514548e-01 2.637693732804474722e-01
-9.249134292280696279e-01 2.827752418785535737e-01 2.541127919135485191e-01
-9.332081078005793895e-01 2.771778722134363160e-01 2.286811201006636318e-01
-9.333445462848098950e-01 2.587609723785855298e-01 2.488186429793622645e-01
-9.261382000393899583e-01 2.816575192539477746e-01 2.508726295862319100e-01
-9.248792907853502498e-01 2.823190596193335122e-01 2.547434906961172363e-01
-9.249603995612448726e-01 2.862145151604695292e-01 2.500590141445810377e-01
-9.005082952072882563e-01 3.254670742697219343e-01 2.883678099739471201e-01
-9.050698143263647966e-01 3.150837573421895743e-01 2.856061222284416168e-01
-8.982913139876792519e-01 3.260429951971596241e-01 2.945652397978305581e-01
-8.996838747110615930e-01 3.122862303867244838e-01 3.050348109572751376e-01
-9.002168549668632114e-01 3.145925200652406328e-01 3.010667041580170067e-01
-8.726814098914599249e-01 3.486363851588181739e-01 3.418769190414087666e-01
-8.740946547683079437e-01 3.532504431879319728e-01 3.334256422247726115e-01
-8.705416935611316465e-01 3.540763302051674333e-01 3.417412941980496055e-01
-8.678217217140913320e-01 3.572610877540915442e-01 3.453258960720346771e-01
-8.697049950621633663e-01 3.571623565867846350e-01 3.406585865662231094e-01
-8.683354862935727114e-01 3.676580943465717621e-01 3.328978956147846668e-01
-8.719404053922721332e-01 3.668580468452141141e-01 3.242454362196556250e-01
-8.700564611738642595e-01 3.652343354077605131e-01 3.310674170148185103e-01
-8.988913369647816287e-01 3.281092800330005499e-01 2.904111993121024637e-01
-8.994955048828969790e-01 3.388829195309458475e-01 2.758010216544615201e-01
-8.996258070449888455e-01 3.384278438288180757e-01 2.759347781995405424e-01
-9.010381161118595772e-01 3.319294691431801669e-01 2.792008968966925853e-01
-8.986674947359151178e-01 3.398986898431170522e-01 2.772464869894775141e-01
-8.977699083317113304e-01 3.370908130596113605e-01 2.835118612066884758e-01
-9.031567442872027174e-01 3.276091334474081629e-01 2.774529706641808979e-01
-8.989738140961796020e-01 3.396909562202505284e-01 2.765070267308581409e-01
-8.718480556802079562e-01 3.801337684522360094e-01 3.088353702038399429e-01
-8.720902592687912458e-01 3.777190511878779078e-01 3.111059273916547130e-01
-8.696556580159628957e-01 3.810735353471134124e-01 3.138184142762734385e-01
-8.743690842506700589e-01 3.892333294582551728e-01 2.897863346424153219e-01
-8.724806714195525448e-01 3.864704667979134700e-01 2.990285208676415341e-01
-8.804163603831186569e-01 3.855554502067411460e-01 2.760688812336870579e-01
-8.703144778795410819e-01 3.944057880199006161e-01 2.949521723426752340e-01
-8.708404136725597100e-01 3.937395417688223098e-01 2.942892236597915434e-01
-8.860156083754959777e-01 3.876314067248674555e-01 2.543977874029170749e-01
-8.710738891335643164e-01 4.045114505311095399e-01 2.785691405359616568e-01
-8.703429120945399555e-01 4.061930764770620428e-01 2.784068964463625173e-01
-8.697101805565088384e-01 4.069374314700618944e-01 2.792957728017260721e-01
-8.593555115602006245e-01 4.316509129941939471e-01 2.741999162333655371e-01
-8.385883658628002779e-01 4.495197221356678763e-01 3.077362052970530892e-01
-8.352819950834310392e-01 4.570890062533209397e-01 3.055709885636965772e-01
-7.992272219438816272e-01 5.008714739196162835e-01 3.322101959866020637e-01
-8.030229277335546589e-01 4.925982473089633995e-01 3.354119024160704399e-01
-8.005816010962556462e-01 4.923257237634295902e-01 3.415911030852106234e-01
-8.029642006523951547e-01 4.794142980135353005e-01 3.541333411737014880e-01
-7.854500891187392586e-01 4.872055459771097996e-01 3.817052704279976783e-01
-8.042121480684035761e-01 4.748949214211025671e-01 3.573760407576993536e-01
-8.014845243299134614e-01 4.805720806548184343e-01 3.559115515893675474e-01
-8.021946394098777855e-01 4.809076559235980763e-01 3.538524932455982541e-01
-8.025294249577231698e-01 4.783072120599107802e-01 3.566072531069743312e-01
-8.239599671236486067e-01 4.624159990013211319e-01 3.275078876076211731e-01
-8.384654291053922348e-01 4.357517728131085066e-01 3.272554303374409224e-01
-8.423675341916772030e-01 4.345580116481357336e-01 3.187103259266195754e-01
-8.387501449985567126e-01 4.360916491549254870e-01 3.260709551650339821e-01
-8.366750180297283235e-01 4.318279616946717470e-01 3.368969066399674639e-01
-8.408885090983720945e-01 4.280634285489137714e-01 3.311619187123818198e-01
-8.373079431073255918e-01 4.232425584297648813e-01 3.460941275768875114e-01
-8.409337229280797743e-01 4.132045756380604562e-01 3.494173039706104378e-01
-8.399123768181180338e-01 4.221952204938218545e-01 3.410255049991318121e-01
-8.408444955564771117e-01 4.191607643079510725e-01 3.424686671173697849e-01
-8.376745106636962479e-01 4.097933928066597731e-01 3.610689537973927332e-01
-8.369405577162322141e-01 4.125691197617228911e-01 3.596070414614812027e-01
-8.382328064069883844e-01 4.071247149767018292e-01 3.627881319974561869e-01
-8.413010024515784613e-01 4.041085578613640705e-01 3.590388512921377506e-01
-8.384600010347621479e-01 3.928636147836626624e-01 3.776810914566687827e-01
-8.371019976614570979e-01 3.959822174431592012e-01 3.774365231134853560e-01
-8.250887714096701853e-01 3.961980742808545730e-01 4.028096389485030793e-01
-8.375409958269683930e-01 3.907117912386531278e-01 3.819284965752796634e-01
-8.379625324971905487e-01 3.931850786386741348e-01 3.784498488132801430e-01
-8.391888888178727912e-01 3.760322168819785205e-01 3.928890183645356027e-01
-8.151047892199976275e-01 4.044382059578151001e-01 4.147697194254267306e-01
-8.060648872458846537e-01 4.057701838456881926e-01 4.308247386712091287e-01
-8.024113565669031001e-01 4.084021444789198152e-01 4.351364191118479163e-01
-8.001415053149053547e-01 4.189930845830562300e-01 4.292066711317206740e-01
-7.779485776053820523e-01 4.306843598065317469e-01 4.575008118241984389e-01
-8.024376042612143545e-01 4.320010499117525882e-01 4.116661075953010895e-01
-7.998061472002327976e-01 4.479439732257712858e-01 3.995701737510306550e-01
-8.016115463522341944e-01 4.326532494869926859e-01 4.125894987310341211e-01
-7.826157378114425578e-01 4.372599127466664792e-01 4.430760382086003646e-01
-7.662505018715212168e-01 4.615300914010627142e-01 4.470460190103119902e-01
-7.663914189515224074e-01 4.446129374805331547e-01 4.636415951814543135e-01
-7.662227200650812975e-01 4.256388811532036409e-01 4.813878749062102669e-01
-7.691889304550119100e-01 4.328803402712996795e-01 4.700670167881155770e-01
-7.296327901911622282e-01 4.537674509531435807e-01 5.115966105569368372e-01
-6.774404177981402375e-01 4.975219882753251222e-01 5.417991800621780873e-01
-7.288570118778114892e-01 4.749170621158312344e-01 4.931746550136326679e-01
-7.373645963030449613e-01 4.649861242836488273e-01 4.899809754903945436e-01
-7.204214079512816227e-01 5.001775880795499285e-01 4.804324878153194978e-01
-6.957468665494341842e-01 5.203139193998473910e-01 4.951865537001313711e-01
-7.270317148241948191e-01 5.028685937857092503e-01 4.674912437936928344e-01
-6.212877871305770849e-01 5.772369197851232592e-01 5.299047310596255445e-01
-6.548465911838775577e-01 5.563508051596482984e-01 5.115170804705028162e-01
-6.288477680727796448e-01 5.951692610491916557e-01 5.003239303611640709e-01
-6.677935987435773546e-01 5.648630477026316266e-01 4.847488492169901297e-01
-6.289269079406392127e-01 6.054041367573095300e-01 4.877876337765887915e-01
-7.201130760412632892e-01 5.480643578329120746e-01 4.255145325222012276e-01
-7.247899573168052889e-01 5.371883298250321737e-01 4.314026148187980469e-01
-6.795513147127791864e-01 5.591622545383425624e-01 4.749185022419437074e-01
-7.263417027387450986e-01 5.187304278104908350e-01 4.509395459772025383e-01
-7.636890580549141605e-01 4.862068674973059612e-01 4.247139091266673439e-01
-7.626819517578184993e-01 4.881413975135144856e-01 4.243043913235374776e-01
-7.669748582123502301e-01 4.791284357553922679e-01 4.268319445879559804e-01
-7.611278005465763608e-01 4.752586609760251490e-01 4.413770229660882172e-01
-8.112630485894488652e-01 4.476596973073657115e-01 3.761024613054682053e-01
-8.008292123038670551e-01 4.458208491342826041e-01 3.998954153250008914e-01
-8.021360508399691946e-01 4.628711093048656355e-01 3.772639554923600813e-01
-8.035620268270908806e-01 4.627348914885142106e-01 3.743854821446079284e-01
-8.052985914670085510e-01 4.657058713675033546e-01 3.668953801222991085e-01
-7.845854480633044359e-01 4.712991994555345565e-01 4.028681413066513839e-01
-7.641421745186667280e-01 4.994480685543178922e-01 4.082136253718690044e-01
-7.889597922091172721e-01 4.839025399614600431e-01 3.786565437123650679e-01
-7.427725968998195594e-01 5.139730885815549932e-01 4.290926863844635175e-01
-7.626728142199855620e-01 5.104973086030397678e-01 3.971431434115668124e-01
-7.704190621763997715e-01 5.011921008282694823e-01 3.940316569802257973e-01
-7.533760130754078022e-01 5.344723208117849733e-01 3.830977958807222916e-01
-7.642924537442111754e-01 5.161270301976487174e-01 3.866134165403579126e-01
-7.642294528317912228e-01 5.162449370556740913e-01 3.865805328632109794e-01
-7.655499119352225934e-01 5.228623950709584411e-01 3.748976502415479195e-01
-7.737745211043371985e-01 5.146736169513582704e-01 3.693021236114953920e-01
-7.646886251059810125e-01 5.305861980080192053e-01 3.656905701777385387e-01
-7.648065067882870993e-01 5.305145628708475281e-01 3.655479527452608624e-01
-7.634160415777597741e-01 5.459383143304944452e-01 3.451772072540746361e-01
-7.778340630008493406e-01 5.348092541308882009e-01 3.300806448908411017e-01
-7.580867850296327815e-01 5.478329933544602293e-01 3.538127156501409409e-01
-7.660611495141482763e-01 5.431771130409751569e-01 3.436698111174931181e-01
-7.673498178035830231e-01 5.552549298413790302e-01 3.207276414711606738e-01
-7.769262822925100398e-01 5.397498458874026017e-01 3.241229022263997783e-01
-7.649823985914407931e-01 5.568867770663502581e-01 3.235414152375843955e-01
-7.657728051805978708e-01 5.565233722443406750e-01 3.222945035082434573e-01
-7.623225643303924715e-01 5.589930218858528699e-01 3.261765003731220691e-01
-7.649082695675691879e-01 5.584400112371878944e-01 3.210297384924897246e-01
-7.257107017293851214e-01 5.955364581175597305e-01 3.445000790250061229e-01
-7.388657501158077956e-01 5.908566228930249853e-01 3.239843429693088361e-01
-6.913931647274336179e-01 6.120488995494756113e-01 3.838901357530043468e-01
-7.266858057063501075e-01 5.896801431523971404e-01 3.524273947307179911e-01
-7.338799635799658772e-01 5.811121101088975172e-01 3.517512111431214117e-01
-7.223233598708873604e-01 5.879611839204565982e-01 3.640750059914683590e-01
-7.426874833526352360e-01 5.590255041871137198e-01 3.686540217326706448e-01
-7.216272509134731283e-01 5.740535801689098383e-01 3.869322910204319732e-01
-7.290188194407807298e-01 5.650642206192992845e-01 3.863081509327420671e-01
-7.265641322759867071e-01 5.662769076483612496e-01 3.891465348095135002e-01
-7.219756293322021623e-01 5.657534990716960310e-01 3.983392636164590495e-01
-7.404184234833771638e-01 5.364621931965077861e-01 4.049553968490640088e-01
-6.876058313127629829e-01 6.096134843416624038e-01 3.944231489827923487e-01
-5.022247649669268066e-01 6.904820703791334502e-01 5.205812097443208719e-01
-3.647737555853718394e-01 7.321173551888847664e-01 5.752775725398789897e-01
-3.947910510630003866e-01 7.430029910197822884e-01 5.404503504821036586e-01
-3.823144502870445827e-01 8.172499056073458945e-01 4.312055807691954068e-01
-3.641930472353031578e-01 8.332444407769267203e-01 4.160133726934876486e-01
-4.501018745044423341e-01 7.515391575544047020e-01 4.822833163504651188e-01
-3.599295307334780536e-01 7.694571562166026002e-01 5.276233672356041016e-01
-5.297409132353267935e-01 6.937821885470522032e-01 4.878942915217030496e-01
-5.411542740531989359e-01 6.978086433516712539e-01 4.692708694748221054e-01
-6.751340505471212783e-01 6.482084835627961450e-01 3.521644156201153564e-01
-6.226313870310282717e-01 6.733033295636430271e-01 3.987389901706756556e-01
-6.443460281562600755e-01 6.626226987020031878e-01 3.817713388458152668e-01
-5.786704854006419207e-01 6.794632958273286727e-01 4.510765998693009871e-01
-4.346665327594407269e-01 7.924956515527775691e-01 4.278032813909035670e-01
-5.252087422521991567e-01 7.328432399351795246e-01 4.325466018166967408e-01
-5.846409060994526286e-01 7.172277986412021189e-01 3.791824043537704858e-01
-6.047113231817673462e-01 7.042446574495815348e-01 3.719726845743888122e-01
-6.779522521984021610e-01 6.614219998886856633e-01 3.207829200602265174e-01
-6.860147951284764067e-01 6.457733925661156560e-01 3.352020678911218909e-01
-6.192043297853122574e-01 7.203456209093851426e-01 3.125510908824262191e-01
-4.787330468145064577e-01 7.853485726382914978e-01 3.924822153202582875e-01
-4.946551539276277110e-01 8.029374846307173463e-01 3.325773210363737742e-01
-5.254454440579841012e-01 7.742371355116752785e-01 3.527944774417302587e-01
-4.372664976369697309e-01 8.395330734272822282e-01 3.224627554711388400e-01
-3.384493679654138054e-01 8.438854797544612651e-01 4.163043626763893723e-01
-3.483445705186221653e-01 8.571531060486585751e-01 3.794003333964454105e-01
-3.910592538968192811e-01 8.363900393550609547e-01 3.840890027185138167e-01
-3.959461326559091110e-01 8.554362068849172829e-01 3.338496008462107922e-01
-2.366625078811489535e-01 8.811462201271450523e-01 4.093558306889614751e-01
-1.344925958659939635e-01 9.007620552858224272e-01 4.129642374522125570e-01
-1.750994730559104207e-01 8.979319821118784128e-01 4.038048167570266744e-01
-4.113598129636084066e-02 8.845300311369097557e-01 4.646659607284817084e-01
-6.748535195882139626e-02 8.873029743196457764e-01 4.562227077146687182e-01
-1.893236233042646655e-01 8.646748537494565179e-01 4.652891175949643854e-01
-2.171041562084063403e-01 8.755304357599063003e-01 4.316390174846390093e-01
-2.386557860021415178e-01 8.676122275314138710e-01 4.362252152795367266e-01
-3.092478804831768069e-01 8.050954333687438957e-01 5.061492779659544361e-01
-2.681921674588114146e-01 8.125860966254379036e-01 5.174715421013793559e-01
-1.346336277859431496e-01 8.084013335593653871e-01 5.730279837570201318e-01
-1.177297829437481402e-01 8.540015929467810185e-01 5.067750758002790290e-01
-1.177148225497125049e-02 8.489910645676223000e-01 5.282760684432491471e-01
1.369237812717861991e-01 8.429373270184710165e-01 5.202965893038231648e-01
2.253739322921684829e-01 8.514287835977920604e-01 4.735774668460793202e-01
2.788587499086412347e-01 7.836686495646196793e-01 5.550686851993679172e-01
2.644811113912455824e-01 7.962071454807003734e-01 5.441543192907013493e-01
6.165785475967240636e-02 8.268194151352484811e-01 5.590777796531004595e-01
1.338203385389247768e-01 8.268473725731070312e-01 5.462742346681538352e-01
1.902062196526058957e-01 7.952589138745514985e-01 5.756603633293968514e-01
2.162151386989555890e-01 7.736926785923947669e-01 5.955255266484523746e-01
3.702361564025355989e-01 7.517983936250416388e-01 5.456412409588229373e-01
3.121222045940256207e-01 7.207007328812671254e-01 6.190074175838036208e-01
5.712291219842765555e-01 6.138353611152521649e-01 5.448884653225652963e-01
5.611649551603135055e-01 6.411257684007820590e-01 5.234994194766888764e-01
4.578650188544748367e-01 6.830760949589420594e-01 5.690049850440976886e-01
4.712245045121820075e-01 7.130728450374269611e-01 5.191094143024939100e-01
3.897191429369016857e-01 7.321902774979294204e-01 5.585842704248231705e-01
3.164946702828099201e-01 7.721992110644304574e-01 5.509441914695593079e-01
4.723520695652135282e-01 7.517465954518431914e-01 4.601745088594350608e-01
3.923171102777304742e-01 7.925705865500201064e-01 4.668181126724711971e-01
3.423317122267505730e-01 7.914863178389078824e-01 5.063184842346846182e-01
4.754114554083893052e-01 7.711092942997979094e-01 4.235261554035886777e-01
5.906189749819195089e-01 7.008478051261327613e-01 3.999769748887915255e-01
5.889142446005523057e-01 6.575095489226757683e-01 4.699587275304719647e-01
6.221979591286633804e-01 6.104415034251368111e-01 4.901335231874929255e-01
7.046513369014281158e-01 5.669145591159214792e-01 4.267017413433303874e-01
6.507439481360702827e-01 6.200163002086632735e-01 4.383059450199599527e-01
6.593370812757087807e-01 6.350640867000381107e-01 4.024527537968594637e-01
6.593370812757087807e-01 6.350640867000381107e-01 4.024527537968594637e-01
6.866321789858380598e-01 6.154342354690177652e-01 3.870102745326352567e-01
7.957441601628185701e-01 4.761800527358427959e-01 3.742242495393111046e-01
7.660344816613736674e-01 5.448128075491442956e-01 3.411307339367261049e-01
7.979144308543398845e-01 5.131231358601291426e-01 3.162865923169403404e-01
8.754864540009000828e-01 4.041985574307967455e-01 2.648527799208321709e-01
9.357631352276397640e-01 3.023372261453504684e-01 1.814925795609100556e-01
9.320277312643961976e-01 3.023056913510941968e-01 1.998388779263917947e-01
9.285355582070806690e-01 3.221353819582971623e-01 1.845278104667339714e-01
9.212118083528696433e-01 3.104720425629714509e-01 2.344694328436278119e-01
8.120317813226473058e-01 4.874069671257635905e-01 3.209966269592768318e-01
8.014179336319749991e-01 4.727151026731287176e-01 3.664283386390696506e-01
8.463196101236106772e-01 4.599200824297957069e-01 2.687315301522871236e-01
8.752216781904588183e-01 4.263214770714610080e-01 2.285541778508645150e-01
8.570488721812914434e-01 4.520691171673947850e-01 2.471856468249499506e-01
8.673276622199839192e-01 4.346194779575158762e-01 2.425873775115964526e-01
8.547426486779572397e-01 4.593408690783741810e-01 2.417043039031663010e-01
8.761353609624900063e-01 4.370507263157997757e-01 2.034047489562601507e-01
8.761353609624900063e-01 4.370507263157997757e-01 2.034047489562601507e-01
6.921187725976989391e-01 6.317167797256779682e-01 3.491497026074545373e-01
6.718187880869865847e-01 6.447703352860394421e-01 3.645966685372495908e-01
5.195515094410126933e-01 6.577265609968981908e-01 5.454007700734927466e-01
2.905600388816448887e-01 7.587773262293295851e-01 5.829509696409865827e-01
4.214642986672899605e-01 7.741367633946378835e-01 4.723135785786428675e-01
4.199198945057424082e-01 7.863031550116980073e-01 4.532048439910324467e-01
4.139034067892284896e-01 7.829101996388764251e-01 4.644734536544418702e-01
1.239303624457878533e-01 8.539628567159336381e-01 5.053599752786299693e-01
1.413303653878299482e-01 8.675193943340855363e-01 4.769023257162456342e-01
-1.412728119500903101e-01 8.348314809707532147e-01 5.320699117445876203e-01
-3.364046883704352453e-01 7.694432346501024478e-01 5.429447433151716185e-01
-2.050803930396615515e-01 7.704736913436506240e-01 6.035829051074813600e-01
-1.825106806172702156e-02 8.354308635288490992e-01 5.492924273809425273e-01
8.110065552579689974e-02 7.730483827020778742e-01 6.291413844876110328e-01
6.846388141126553972e-02 7.807088939658158866e-01 6.211330934870373799e-01
3.523809326088499505e-01 7.335953232954873782e-01 5.810899930068547103e-01
3.701701120798786548e-01 7.309053875185157478e-01 5.733684701997296962e-01
3.865977604524657996e-01 7.205400915426810604e-01 5.756423786456329461e-01
6.225298289919751760e-01 6.216308782593331639e-01 4.754278738249916869e-01
8.183181226600310110e-01 4.537659688000046376e-01 3.527774024582013279e-01
8.237344430288041641e-01 4.512298782112876827e-01 3.432974867042465350e-01
9.324292119241895938e-01 2.929106506797714560e-01 2.116107640664521561e-01
9.362036898316974387e-01 2.870822786562119977e-01 2.027471736598857877e-01
8.745688131860979153e-01 3.837483497881568062e-01 2.964230001823854876e-01
8.616961263665035009e-01 3.866356256664534308e-01 3.286223954183177254e-01
9.331862636309476988e-01 2.678769309917272134e-01 2.395941301721829508e-01
9.287730665645886896e-01 2.717991399296517119e-01 2.520036078267761659e-01
7.545825510256444213e-01 4.723456550887717986e-01 4.555159226705361997e-01
7.435504392599118217e-01 4.911280645320278415e-01 4.537906659522829567e-01
8.175573952411594458e-01 4.320796314907826008e-01 3.806666488376408419e-01
6.408846981660361042e-01 5.873446900932711712e-01 4.942600719012895105e-01
3.767755783688192528e-01 7.118820828036440673e-01 5.926753442889177714e-01
2.102639301418900430e-01 7.535599311875132988e-01 6.228454943161721991e-01
-1.016811554039486094e-02 7.723351685614776585e-01 6.351338416660468056e-01
-3.316245369480526062e-01 6.686109636328732009e-01 6.655708420625940924e-01
-2.203724454064001081e-01 7.312474478488378837e-01 6.455332333196829309e-01
-4.507561078858815518e-01 6.770865984030173257e-01 5.816980913382842067e-01
-5.153767161063137481e-01 6.543933997730930763e-01 5.533137616478420728e-01
-6.281585022432916166e-01 5.565885631782060416e-01 5.437150608532789198e-01
-8.399237492091774504e-01 3.803671854759011484e-01 3.871032158579160165e-01
-9.087903018168270730e-01 3.430943861657378968e-01 2.374582689763314602e-01
-8.689601213788145095e-01 3.688112537201929664e-01 3.299796457096341729e-01
-9.000334163150243150e-01 2.941526326803085012e-01 3.215805936364158346e-01
-9.448256611229559621e-01 2.705168161625520762e-01 1.847298629265046177e-01
-9.945443933114679336e-01 -7.904558091369170980e-02 -6.806795039327578900e-02
-9.972874621266807349e-01 -6.623669260518388890e-02 -3.210013142731570068e-02
-9.893361002940360693e-01 -1.283351671188620313e-01 -6.887790310079648648e-02
-9.885694774829451026e-01 -1.087335523436949863e-01 -1.044385119762719222e-01
-9.943689822616875729e-01 6.053496072309592219e-02 8.698186964022308620e-02
-9.792439588636727699e-01 1.266288208840973262e-01 1.582605786369576939e-01
-9.954098539370325183e-01 9.263196566654155473e-02 2.405289217138112390e-02
-9.093642914949342515e-01 3.175783235198234022e-01 2.687016817667035595e-01
-8.389950176058571518e-01 4.278378351735797613e-01 3.362174106534825957e-01
-8.534734983328479130e-01 4.574065262057773751e-01 2.497243629040903634e-01
-8.564034227699478530e-01 4.479320847104401038e-01 2.567684267095102224e-01
-9.727405891394060866e-01 1.671224549323283570e-01 1.607663873392478071e-01
-9.991835965681186149e-01 -4.029935295447596016e-02 2.846489179646662787e-03
-9.986137119694985520e-01 5.249557670385157637e-02 3.855994428071659891e-03
-9.935062430373766684e-01 -9.250632109020809346e-02 -6.624141909796583960e-02
-9.949768037499054918e-01 -7.329619057419720085e-02 -6.818231769992026681e-02
-9.884747435017260386e-01 -1.092120072937917408e-01 -1.048351988697389381e-01
-9.742990311582500063e-01 -1.919254688519299035e-01 -1.179237562582802212e-01
-9.941187574173728780e-01 -9.127236316906375824e-02 -5.828594918565802030e-02
-9.857536618972208009e-01 -1.524565816691069997e-01 -7.104019117366450198e-02
-9.929659602619572700e-01 -1.093136425630910347e-01 -4.548768306517887022e-02
-9.984486694497881620e-01 -4.305377044646433587e-02 -3.530761000535663496e-02
-9.922459890292421036e-01 -1.117820377213707833e-01 -5.433850658823046603e-02
-9.742473320244063872e-01 -1.971979226084695225e-01 -1.093394501642944161e-01
-9.749516418367037973e-01 -1.980107009532672824e-01 -1.012968824195066980e-01
-9.752701008543751549e-01 -1.942548311724738574e-01 -1.054195946949649382e-01
-9.409102691256471251e-01 -3.045870139324128312e-01 -1.480358618633965673e-01
-9.402106985265923367e-01 -3.038721177635580473e-01 -1.538362064730781631e-01
-9.407994866260448452e-01 -3.050458307770948507e-01 -1.477950171341455010e-01
-9.208157870406863399e-01 -3.464750215921501564e-01 -1.790344820121546610e-01
-8.961015567704170293e-01 -3.854113704564898768e-01 -2.201364928322546155e-01
-9.318850894421760733e-01 -3.183997991269894023e-01 -1.738152697297923599e-01
-9.333260905110245531e-01 -3.128187355821016591e-01 -1.762011561829887885e-01
-9.445647752530441643e-01 -2.795284723738915011e-01 -1.722243260503132090e-01
-9.453780553452062474e-01 -2.873503210290405119e-01 -1.539159688798514003e-01
-9.413646010067970860e-01 -2.815749308705325360e-01 -1.858715854469655537e-01
-8.951624406529832267e-01 -3.686482742815493374e-01 -2.505646717185602834e-01
-9.186384624202104110e-01 -3.382800424356071645e-01 -2.041322812589800584e-01
-8.989678816523869465e-01 -3.592721157397177900e-01 -2.505599621035389801e-01
-8.691342582413945639e-01 -4.273465430318278413e-01 -2.489589791711218913e-01
-8.414981954804521269e-01 -4.305739752467955817e-01 -3.263232122349171149e-01
-8.288258142348113866e-01 -4.625385924823343098e-01 -3.148107687523779563e-01
-8.454706593243427326e-01 -4.620121174982882994e-01 -2.678136805811254240e-01
-8.215242924223973287e-01 -5.016055755945330041e-01 -2.710898070609754074e-01
-7.653369174474653480e-01 -5.592700220894583074e-01 -3.185536770845201482e-01
-7.695503176880283958e-01 -5.515432607744458204e-01 -3.218576394006301133e-01
-6.874399624945942699e-01 -6.147013315739638939e-01 -3.867409610147682919e-01
-7.043740914620046922e-01 -6.030912387460554136e-01 -3.743502331037392716e-01
-7.097790827590881868e-01 -5.930235392982498022e-01 -3.801798725811832425e-01
-7.363852770407713910e-01 -5.509145167601265936e-01 -3.927211720553687724e-01
-7.698391734456762059e-01 -5.323713413250322768e-01 -3.520346601746257575e-01
-7.612965313591248950e-01 -5.165818449082654196e-01 -3.918810901941274794e-01
-7.433487949515846793e-01 -5.475638857435528584e-01 -3.841957314617751029e-01
-6.964165506732147293e-01 -5.846844783203996032e-01 -4.161106208205023749e-01
-6.234927522891655638e-01 -6.112098285818877708e-01 -4.875236745920966119e-01
-6.339345740054124212e-01 -6.329883077745305231e-01 -4.443565663983286562e-01
-5.968375816128315137e-01 -6.220337544798161256e-01 -5.068124993153687585e-01
-5.872382126673200142e-01 -6.567356761474143489e-01 -4.731273964361923934e-01
-4.438530569870849374e-01 -7.082105411485538626e-01 -5.490284994508866090e-01
-5.080008859414635314e-01 -6.977496365932391864e-01 -5.050549915768488551e-01
-4.532136455310691314e-01 -6.736801725519800943e-01 -5.837400248524790003e-01
-5.797505395109350257e-01 -5.934078646488725184e-01 -5.583515184090082073e-01
-6.445657625624913178e-01 -5.995376243942122096e-01 -4.744361017755483467e-01
-6.162369269147603967e-01 -6.191077562988452909e-01 -4.867829454667264022e-01
-6.919020814556265941e-01 -5.481561495654134752e-01 -4.698897161792235933e-01
-7.074544113332110751e-01 -5.261366604538236791e-01 -4.718987925516209270e-01
-7.683749491366085316e-01 -4.792214825618743013e-01 -4.242012590628573276e-01
-7.654712591657534260e-01 -4.969977955423041660e-01 -4.087137661215805018e-01
-7.887272205206169451e-01 -4.455749519758320232e-01 -4.235237110027689766e-01
-7.696178471333728899e-01 -4.632420453007980998e-01 -4.394259628644231475e-01
-7.050051482618098220e-01 -5.102886455937535315e-01 -4.925172475177250764e-01
-6.033504031830482228e-01 -5.774436185078271055e-01 -5.500246889217247359e-01
-6.176663158350496063e-01 -5.795466966294240407e-01 -5.316144737577027657e-01
-6.470506549333826518e-01 -4.909928574891080366e-01 -5.833107780977143664e-01
-6.485022767721074777e-01 -5.466179650192802830e-01 -5.297674936607321694e-01
-6.923134517986389014e-01 -5.019767246164648089e-01 -5.183834993534994773e-01
-6.091880499186447251e-01 -5.412758572119670264e-01 -5.795777482234536482e-01
-5.985324254410118172e-01 -5.090369811337692729e-01 -6.185792491944086535e-01
-6.547364150892680534e-01 -4.651105773307886992e-01 -5.958123677896205450e-01
-6.886833429920601324e-01 -4.651666730859762011e-01 -5.561791252244236983e-01
-7.402029384160832004e-01 -4.211224545274124265e-01 -5.241712394370791062e-01
-6.741209722199039689e-01 -4.246709553453073549e-01 -6.043306168806901191e-01
-7.169741831218885419e-01 -4.028691020052890259e-01 -5.688976246972321515e-01
-6.863750128597562172e-01 -4.209153091135572344e-01 -5.930595621652244853e-01
-7.747694560752996784e-01 -3.847596537848632647e-01 -5.016894445293186289e-01
-7.592567027183787509e-01 -4.062183177178218529e-01 -5.084446260191154421e-01
