4.637219322477413308e-01 8.737378172034926394e-01 1.467794138866114206e-01
4.686725423126993917e-01 8.703564958819561825e-01 1.510814950886883168e-01
-1.910750024903886887e-02 9.012851555832286365e-01 4.328047732633598099e-01
8.585590772504141377e-01 4.841034636014643899e-01 -1.688790910680862123e-01
9.179075496953504887e-01 3.056212936385436230e-01 -2.530639347812742579e-01
9.951217701360555168e-01 -2.346224478017985837e-02 -9.582372186028997874e-02
9.908801250439482899e-01 -1.033997118983955715e-01 -8.640067923470243216e-02
9.884002680446783984e-01 -1.270708449267235474e-01 -8.317397729348112445e-02
9.220163574589957944e-01 -3.422004586328697417e-01 1.810654099752322943e-01
9.211220560796595791e-01 -3.471603662121993117e-01 1.761074613268615308e-01
9.455480218508990342e-01 -2.634006304725630132e-01 1.912042003736016405e-01
9.877894276328632595e-01 -8.144721937941754031e-02 1.328096273321378584e-01
8.719692775155896136e-01 4.257491913054211041e-01 2.416758266184700632e-01
8.562193311931755035e-01 4.403050087111635147e-01 2.702220497941899557e-01
5.388808208450325266e-01 8.113804975762216598e-01 2.264269177424516888e-01
5.356154192779217782e-01 8.126181732659463197e-01 2.297124879270876496e-01
5.642602597866008818e-01 7.946204762732662630e-01 2.240282524879509407e-01
5.595204060740190943e-01 7.979615399504548234e-01 2.240408354444866079e-01
6.408599289308753999e-01 7.353656563532660062e-01 2.203086538174195697e-01
6.513960266572512703e-01 7.252045131728803717e-01 2.230731506229090833e-01
6.967645707459333426e-01 6.801238585300138917e-01 2.279268962002528320e-01
7.654223505660808780e-01 5.951312572161086001e-01 2.448416058154121167e-01
7.846134216516836846e-01 5.742762298339448845e-01 2.336420133703425439e-01
8.213221556092348274e-01 5.219684576663667919e-01 2.301713403245374545e-01
8.268740213734966371e-01 5.079858732434222590e-01 2.413083201274670853e-01
8.674170973472647983e-01 4.389235462773855012e-01 2.343793927650843489e-01
8.825647834555658822e-01 4.009845486484319710e-01 2.455418391012888502e-01
8.934478141018157293e-01 3.711558017935299714e-01 2.529710937472685606e-01
8.508814842116452226e-01 -2.412923645869403666e-01 -4.666676489942612194e-01
8.557519400173860813e-01 -2.419048907480612909e-01 -4.573517694167680836e-01
8.603489241700401635e-01 -2.484835349334484078e-01 -4.450344498422929007e-01
9.264524506546486515e-01 2.840682399175951667e-01 2.469637458132578622e-01
-3.792841473646151873e-01 2.774180674781060452e-01 8.827132894630111970e-01
9.328533672355089346e-01 2.631656763884664407e-01 2.460252466889803480e-01
-3.671264418666440599e-01 3.370698582650676900e-01 8.669498753281557057e-01
-3.666333668547494540e-01 8.477023422878532388e-01 3.833806374720013510e-01
9.478962188246836673e-01 2.066851336529456074e-01 2.424335246304260005e-01
9.607213741952403963e-01 1.589743870634291179e-01 2.274677678753983523e-01
-7.676068953069306033e-01 4.065289671650343384e-01 4.954935449962846739e-01
9.645358993325884311e-01 1.425211733858743057e-01 2.221670858506912816e-01
9.854223408828086672e-01 4.584207684824539303e-02 1.638331897976869345e-01
9.846239590844395595e-01 5.366838826852041167e-02 1.662388742067970326e-01
7.867441822753790115e-01 4.239343462199534063e-01 -4.486794643739624444e-01
9.904057451961217895e-01 2.610664147248396502e-02 1.357015222963312007e-01
6.147870426187449500e-01 4.909632499123249838e-01 -6.172454774752305084e-01
5.934581585890926769e-01 5.069433985601309312e-01 -6.251526250927429418e-01
9.925822912318141844e-01 1.165485376007562197e-02 1.210147078533558296e-01
7.275507515796209024e-01 4.743153724779771707e-01 -4.956761355028163063e-01
4.649000062660807453e-01 5.876862905032960160e-01 -6.621878948820143496e-01
9.944020139230559385e-01 1.450082852512807503e-02 1.046630817330325008e-01
9.972819762182740799e-01 -7.216026645686725825e-03 7.332522669329229192e-02
4.034306252638737988e-01 6.214409958020599145e-01 -6.716061489710647425e-01
9.981389664162668707e-01 -1.202442789442402862e-02 5.978308168100748138e-02
3.403010202069463030e-01 6.503108732165362449e-01 -6.791840573971518191e-01
9.986753818168169206e-01 -1.496690455691777714e-02 4.922878752334704233e-02
3.278737994642026421e-01 6.548249872613667311e-01 -6.809574198751775498e-01
9.988430478360430520e-01 -2.284862658110455719e-02 4.231437170703855610e-02
4.782407206052882720e-01 8.590162697900907141e-01 1.826933534391790570e-01
4.836239281652434108e-01 8.561755512014386227e-01 1.818552216213003836e-01
9.985113296310713649e-01 -3.874040494823498271e-02 3.839668765449413129e-02
-3.188784496961212245e-01 -5.955001865085721852e-02 9.459230040537554007e-01
9.973798037348450274e-01 -7.037676609785809001e-02 1.675225045924801093e-02
-8.071803062972724430e-01 -2.062788257946998050e-01 5.530904077586242806e-01
-7.565496569573701979e-01 -1.173630571375609277e-01 6.433183732624238038e-01
-5.143541037525322102e-01 -1.331672675212824120e-01 8.471755041393989050e-01
9.951354185199779989e-01 -6.359181243444343712e-02 7.524347279578953718e-02
-3.715280194379711465e-01 6.815051609910434405e-02 9.259170794017811401e-01
1.567883531017558452e-01 -7.992410940323049773e-02 9.843929850764578937e-01
-3.355503789856023600e-02 -3.274382513409029860e-02 9.989003460542067447e-01
-1.886505434743365184e-01 -2.943400141067190404e-02 9.816030827212157694e-01
9.909083309167964204e-01 -6.594959803032734991e-02 1.172660660179517811e-01
9.982875393065147041e-01 -5.214878343433738267e-02 2.650458925662237120e-02
9.890973878677842279e-01 -8.907262975806715111e-02 1.172707292597276185e-01
-7.891372555000386591e-01 -3.504614684781113265e-01 5.044196180701464582e-01
-7.282870243621744066e-01 -3.920048828374912975e-01 5.620766691273124671e-01
-4.762767382433986674e-01 -5.340897154073611652e-01 6.985045772966079758e-01
9.824443954946251445e-01 -5.487049261333076799e-02 1.783037823535189859e-01
9.819443921456098012e-01 -6.009632844410141977e-02 1.793701258329477022e-01
1.171777816501776842e-01 -9.601893669317237978e-02 9.884582597580212626e-01
-4.588152113294829970e-02 -3.918274474461121148e-02 9.981781396788879102e-01
9.761554104312997193e-01 -7.143716941611459592e-02 2.049813296656900208e-01
-2.744168525073403808e-01 -2.853554469752402675e-03 9.616065974642920011e-01
-2.948483353101736815e-01 -8.965722968877829283e-03 9.555020015554466228e-01
-7.119506042702041793e-01 -4.339300125512779993e-01 5.521150978614323135e-01
9.394543409489329866e-01 -5.578506882528882355e-02 3.381028946465317042e-01
-6.494775811457381698e-01 4.439425843249052983e-01 6.173279950010412964e-01
-6.697363568087918440e-01 -3.739978804486437380e-01 6.415440731457261458e-01
8.700525577031028579e-01 1.362515354250808386e-01 4.737552806339964118e-01
-4.508701598629071827e-01 5.177368799165688040e-01 7.270932692024131283e-01
-1.887700056315878283e-01 -5.012881795400428997e-01 8.444383020844565824e-01
-1.887700056315878283e-01 -5.012881795400428997e-01 8.444383020844565824e-01
9.516520054214430147e-01 3.672788180494385157e-02 3.049746272650689649e-01
9.962357887077661900e-01 -7.598245679438814237e-02 4.172432812286153841e-02
9.489243183127317183e-01 1.086395287027131784e-01 2.962095388706615373e-01
9.489243183127317183e-01 1.086395287027131784e-01 2.962095388706615373e-01
9.968402619543939025e-01 -5.238416996158017785e-02 5.971089418298327484e-02
9.968271292816365259e-01 -6.150244651326850637e-02 5.052844150589017730e-02
9.465554801575994937e-01 1.813865157862493416e-01 2.667051834414569389e-01
-8.281519574758745561e-01 4.706905101631701505e-01 3.043267634816431144e-01
9.663385764774838904e-01 1.613490939051147044e-01 2.003901831614226525e-01
-8.381436599941337606e-01 3.269297296170131650e-01 4.366144261292616569e-01
9.757976203046915264e-01 1.524763546440858208e-01 1.567480956252802760e-01
3.359495802697114453e-01 7.428249530778732179e-01 -5.790932296284081460e-01
9.870688744372670964e-01 1.137555547488383612e-01 1.129367561112444435e-01
3.163575480519618677e-01 7.428936315231808862e-01 -5.899380933901885449e-01
4.973725624721270777e-01 8.463603961078995930e-01 1.905114537238880024e-01
9.968133198879010060e-01 5.074554545146955919e-02 6.154750125629685625e-02
9.989043164949968912e-01 1.446837254461136486e-02 4.450654652490530772e-02
9.996534006393074101e-01 -1.996330963534872008e-02 1.716230924646732631e-02
9.993213672976704043e-01 -3.266249904759065820e-02 1.702838859906967775e-02
9.976698697886038358e-01 -6.772423054208384641e-02 -8.261931582443421754e-03
9.964312545687212808e-01 -8.231208199666913139e-02 -1.869427923129394348e-02
5.078284445867999874e-01 8.394178462672576835e-01 1.936180524553172966e-01
9.946529475361708394e-01 -9.904368332784867224e-02 -2.925513203628046788e-02
9.925823344157929107e-01 -1.148006436737660646e-01 -4.001401776608127375e-02
9.882972136437155886e-01 -1.397758201997115757e-01 -6.108467558697372457e-02
9.884255108422526082e-01 -1.388700695963365761e-01 -6.107465338862386878e-02
9.827683060522319769e-01 -1.614670276101535518e-01 -8.997141553831544680e-02
9.824007428795998864e-01 -1.636289520289405941e-01 -9.007966722585487862e-02
9.749603830346076361e-01 -1.902529096497056482e-01 -1.151350593122347360e-01
9.713534449028554674e-01 -2.003707320493636479e-01 -1.277656245371092403e-01
9.642956652382391747e-01 -2.180044384869710139e-01 -1.503593522289931872e-01
9.612120305524624042e-01 -2.267500365245498639e-01 -1.570218241434211404e-01
9.638621561220004352e-01 -2.199896221191775803e-01 -1.502474963375758366e-01
9.581323371585499515e-01 -2.354217175793531514e-01 -1.629694430961894092e-01
9.474540901426793393e-01 -2.623516848483386510e-01 -1.830364459039385550e-01
5.220822805747151740e-01 8.292641966041019996e-01 1.993764894375903984e-01
9.452001030758757638e-01 -2.687899624373016327e-01 -1.853340800778633668e-01
9.432208721410123564e-01 -2.734013757623285912e-01 -1.886427154406289386e-01
6.351679939647755235e-01 -6.238928780366596039e-01 -4.553232875418264380e-01
5.987252654879967606e-01 -6.654423696433828805e-01 -4.457740561649219946e-01
9.361795829228118926e-01 -2.918155827892035536e-01 -1.959884031259691295e-01
6.100285416375117453e-01 -6.576939209248029439e-01 -4.419319911096840081e-01
9.342333206980649729e-01 -2.970502350193712782e-01 -1.974063331618378103e-01
6.083954179082626812e-01 -6.529536273762900356e-01 -4.511170313392917075e-01
9.214862550241130768e-01 -3.302338338354464664e-01 -2.044717505964527282e-01
6.084354238104600077e-01 -6.506628814279845630e-01 -4.543612547130514434e-01
9.107917033181854860e-01 -3.599124663766875565e-01 -2.022906070815158608e-01
6.036380594151794510e-01 -6.505289347893274954e-01 -4.609047604737219750e-01
6.011916365331506640e-01 -6.494016593131326509e-01 -4.656673716763308213e-01
9.063620755509489424e-01 -3.743456474164813530e-01 -1.958905925850224494e-01
6.055560922449658712e-01 -6.479298672416222704e-01 -4.620483808880406773e-01
-4.912783925907705518e-01 9.226096250972801172e-02 8.661024510819763655e-01
8.897165008241543216e-01 -4.145789157836625161e-01 -1.911252750131842149e-01
2.359451242434371376e-01 7.602615068620093286e-01 6.052539463148141063e-01
8.647427852093044764e-01 -4.642945680231716499e-01 -1.914431234926734504e-01
1.723707966986379458e-01 7.727264509482942856e-01 6.108863564120009526e-01
8.543146882575576306e-01 -4.846490952532964136e-01 -1.877809039746937969e-01
8.449859311829659436e-01 -5.032207021406739367e-01 -1.810185102134678481e-01
-4.642943027433832359e-01 2.479684473329593075e-01 8.502602246179206125e-01
-4.724527030992689558e-01 2.035227929573216188e-01 8.575353730785950646e-01
1.697280065391248149e-01 7.898339245581726953e-01 5.893681153687307939e-01
8.393100817167939431e-02 7.889442797291672527e-01 6.087056015430701850e-01
8.111817188490959563e-01 -5.553052684740251710e-01 -1.833583317169326654e-01
7.948251173336964293e-01 -5.806953979351477946e-01 -1.761984326616330143e-01
-4.382481879885578024e-01 4.707441922789629696e-01 7.657273869729176452e-01
7.895722506878350977e-01 -5.923512578161964637e-01 -1.602986222876427447e-01
1.235281843471940227e-01 7.781935950444492933e-01 6.157560525919996142e-01
7.943390525488980280e-01 -5.874597461379875707e-01 -1.546496565247083288e-01
7.622636335702842603e-01 -6.317257283806464452e-01 -1.409849532332058120e-01
7.493897241497831097e-01 -6.489644067641641145e-01 -1.313782329457529596e-01
-3.702967448645462234e-01 6.058142580801334498e-01 7.041799524621095152e-01
7.331224355614224253e-01 -6.709881884189816681e-01 -1.109339690027417308e-01
7.373798771862354329e-01 -6.663918859484416757e-01 -1.104208814622105184e-01
7.252574730187514307e-01 -6.813002338825772108e-01 -9.915437026173191948e-02
7.089204144830572041e-01 -7.005191876789648164e-01 -8.188231569010244459e-02
-3.746259441467609808e-01 5.383934618383154902e-01 7.548429520250568014e-01
6.939915025774922031e-01 -7.167457596394479769e-01 -6.820051604720626937e-02
6.808837429242468042e-01 -7.315097143162359039e-01 -3.592863040037911487e-02
6.475870815229313182e-01 -7.616016957336763094e-01 -2.436860480620601024e-02
6.764557847331618134e-01 -7.355931554557922913e-01 -3.619780307743580838e-02
6.225278067602155740e-01 -7.825941888250508294e-01 2.337825394769609769e-03
2.593643523826937858e-01 6.015446454503970974e-01 7.555621564392051015e-01
3.746255019319076340e-01 3.471295039114926095e-01 8.597423107050318203e-01
5.488200830521049456e-01 2.837935127196367646e-01 7.862936846859003293e-01
5.798826662535460086e-01 -8.131155002253269704e-01 5.078657964457598123e-02
2.548921461361068896e-01 5.133501446122984424e-01 8.194520259689774822e-01
3.565895518855027313e-01 -5.694683582256754306e-01 7.406413980232605665e-01
4.569265818896187659e-01 -8.832266768099602539e-01 1.054928250351816754e-01
5.087911031969514219e-01 -8.573572176872852335e-01 7.791158185498490985e-02
3.479035116374012415e-01 -5.718654560375852069e-01 7.429219654723431265e-01
3.742412363874517145e-01 -9.119547431691426009e-01 1.681726594857044788e-01
3.761441993974730114e-01 -9.148540471048887124e-01 1.468251128228408864e-01
3.283455804203272432e-01 -5.845414071328246530e-01 7.419572246198670173e-01
-6.843644824946494287e-01 -2.142751786138197834e-01 6.969443327338608052e-01
3.539648170295558449e-01 -9.048598935333227455e-01 2.365110597416041627e-01
3.889876795550991639e-01 -8.556132197794212857e-01 3.414888040522431889e-01
-8.514202832798574150e-01 2.479026682778434076e-01 4.621988406307105390e-01
8.273098453992215884e-01 -4.354764808091548534e-01 3.548501858074613602e-01
-8.057531424683443966e-01 3.445949885855818517e-01 4.816805655661131058e-01
8.819690543250577885e-01 -2.903423490032878626e-02 4.704121601497093241e-01
-7.452101468511240778e-01 5.012418066574401143e-01 4.397936883231857719e-01
8.899359555975904224e-01 8.173997071816407889e-02 4.487009829737362288e-01
-6.823361682039915665e-01 5.769585354259794130e-01 4.489278360269086665e-01
8.831197400760781857e-01 1.406523604734305211e-01 4.475672443121951893e-01
8.969240237613015365e-01 1.581879702145086442e-01 4.129211325171551761e-01
2.445346400411775867e-01 -2.346916561342221250e-02 9.693564917435388839e-01
-2.820628084818626591e-01 -3.702973207885639634e-02 9.586810580237267176e-01
8.956920112115082100e-01 1.743961224965906165e-01 4.090498912235981943e-01
-3.193532223336728593e-01 -3.234983908249156742e-02 9.470834215085999208e-01
-3.404140771686856026e-01 -4.590859769521635908e-02 9.391542241416215298e-01
9.141414767050107804e-01 1.569103324386512954e-01 3.737974159107766425e-01
9.216373208589218047e-01 1.378903561722821525e-01 3.627270302509447708e-01
9.323674052375743315e-01 1.028773592958754229e-01 3.465649586944128946e-01
9.386907727252394862e-01 8.540646791845731001e-02 3.340140243136301423e-01
9.404149090676766631e-01 8.921054570671604900e-02 3.281177796736159391e-01
9.431003663668084958e-01 9.486383742195077240e-02 3.186888000987373459e-01
9.434441333586826017e-01 1.111430475129966122e-01 3.123465866959461157e-01
9.091778463054329684e-01 3.085966614304296862e-01 2.795777965815728905e-01
8.875001778795572616e-01 3.924560753072240393e-01 2.414987851278033448e-01
8.167406649223539761e-01 5.414329821551442379e-01 1.994618061102884365e-01
7.168747028153780176e-01 6.860852616950551264e-01 1.240067504138021859e-01
6.432168323983032954e-01 7.580595733622806920e-01 1.077858513594903145e-01
6.349915800400854904e-01 7.650646657799502481e-01 1.070595649776731051e-01
6.296057826390388801e-01 7.686096582185474313e-01 1.132949767670704128e-01
6.249923893905147132e-01 7.708736510536928765e-01 1.230379100728084818e-01
6.102387332902992068e-01 7.808380123808187356e-01 1.337934483202501690e-01
5.932524956801313865e-01 7.926683079500690399e-01 1.404579294339420581e-01
5.930074795588008429e-01 7.922907644915287984e-01 1.435878605201263980e-01
5.758517437857887389e-01 8.027119419868284922e-01 1.550751668404744543e-01
5.573132456436323823e-01 8.137910178119404092e-01 1.647608131770604556e-01
5.358140224458947110e-01 8.265993705229727206e-01 1.721534606139986934e-01
5.134050248291850416e-01 8.397797402392161992e-01 1.765935116698750251e-01
4.977947073259570421e-01 8.462765709651191015e-01 1.897798587674269788e-01
4.745520567057753825e-01 8.589889749807962938e-01 1.921933566431461293e-01
4.572904167825413424e-01 8.665131183331498121e-01 2.001012005846302955e-01
4.519781240930121902e-01 8.667225491226040468e-01 2.109687137558001746e-01
4.539994374391437826e-01 8.635367303556813479e-01 2.195195347379364781e-01
4.612054592153482235e-01 8.584549179413133446e-01 2.243761980521392640e-01
4.761225007925463104e-01 8.474110675773871559e-01 2.349507326790127859e-01
4.809458352930190972e-01 8.428929902407455987e-01 2.412934116740751977e-01
4.851334584813765116e-01 8.388656238555041167e-01 2.468805228757719183e-01
4.849423536914962973e-01 8.340054029588731543e-01 2.631841587777640767e-01
4.919630038100760716e-01 8.289623591006145542e-01 2.660710620802473891e-01
4.954147131346968713e-01 8.242059492148630095e-01 2.743151750969906044e-01
5.011293614234716420e-01 8.181893200619964057e-01 2.818432182185540147e-01
5.131706436808212146e-01 8.047213514420381575e-01 2.984617848192815392e-01
5.223401198606609785e-01 7.949106503800279500e-01 3.086711147748543715e-01
5.471602351274589271e-01 7.747830928199018752e-01 3.167441178233482146e-01
5.561806252364270842e-01 7.658073754010003009e-01 3.228036181535897664e-01
5.742441075000250805e-01 7.453012191870369563e-01 3.387769143253651638e-01
5.778186934473389380e-01 7.400808370309368556e-01 3.441016015109461534e-01
5.938072283213072788e-01 7.256642526734623511e-01 3.475692276154955240e-01
6.212304729018136573e-01 7.027310330781542103e-01 3.467589864547117595e-01
6.299289039465585383e-01 6.933257130933279111e-01 3.499843304153997248e-01
6.437058655332236201e-01 6.854478205567626770e-01 3.402999323715885094e-01
6.726659298048944802e-01 6.609158960303967989e-01 3.327322125284151166e-01
6.962166900332420472e-01 6.391729681223760062e-01 3.267112445888397110e-01
7.218211075358575979e-01 6.111191846165573427e-01 3.248193819791273529e-01
7.629406181344342563e-01 5.691983424019650961e-01 3.064879446364942583e-01
8.408525712589020040e-01 4.519443912100531424e-01 2.978476467274290829e-01
8.940640473561146662e-01 -4.078580668406802112e-01 1.852060380716198107e-01
8.218576105721915326e-01 -5.463935167110577362e-01 1.612581558889073230e-01
8.353994450111417169e-01 -5.307698658222848032e-01 1.427974677999246100e-01
8.373913280023842498e-01 -5.317548302855698017e-01 1.265407612367180079e-01
8.387136217641938396e-01 -5.342356901859798279e-01 1.056015530127219770e-01
8.386413042633030779e-01 -5.366645797365681148e-01 9.312299200368737151e-02
8.473776446561157583e-01 -5.248015769334906100e-01 8.083583478368376596e-02
8.407659791805525140e-01 -5.385645509549802368e-01 5.532443137735303801e-02
8.439944788082784921e-01 -5.334713590757637069e-01 5.551242011478353666e-02
8.600226435155977622e-01 -5.095377161113288089e-01 2.706230774516450027e-02
8.611329342179614432e-01 -5.083762969665412967e-01 1.900075722477852485e-03
8.905050073464351179e-01 -4.544518357939105191e-01 -2.177982631863980070e-02
8.935970207600204551e-01 -4.481677289487585036e-01 -2.510082105684141932e-02
9.027325683330587047e-01 -4.294440191812710639e-01 -2.552928632445210233e-02
9.099053268005491413e-01 -4.141034266147126663e-01 -2.430325751702926140e-02
9.108731980923105986e-01 -4.113224092322702585e-01 -3.352450835503822252e-02
9.179595062136806094e-01 -3.945097338459183089e-01 -4.138133459372853040e-02
9.260630541513333869e-01 -3.744304918116403980e-01 -4.700028231402090390e-02
9.279400911233381954e-01 -3.683999740962847214e-01 -5.664491479265874180e-02
9.296336272218990171e-01 -3.631201932972734636e-01 -6.265017444513530653e-02
9.373973218494000559e-01 -3.409658176819510000e-01 -7.091242600596182888e-02
9.404507138340781891e-01 -3.311780080103743917e-01 -7.663929709524647249e-02
9.418725999309236485e-01 -3.249452935998776715e-01 -8.536135932991814612e-02
9.407274319446577993e-01 -3.233672965932251064e-01 -1.023009788848494306e-01
9.276248222354667172e-01 -3.634900778144888323e-01 -8.594854567144022406e-02
8.957172460764781796e-01 -4.371986807272919551e-01 -8.091927243546762072e-02
8.595416956433111766e-01 -5.070454046538451776e-01 -6.397680103005949637e-02
7.423443418796145110e-01 -6.697749421057640484e-01 -1.806668222287416761e-02
6.158761746476820731e-01 -7.858940040096731305e-01 5.538187395693252441e-02
4.318138188589672466e-01 6.679296227887193682e-01 6.061409447016048446e-01
4.169421697418504436e-01 6.792405107003272047e-01 6.039797643253593806e-01
3.737118624714019788e-01 5.346529992961298605e-01 7.579482925581456643e-01
4.104754472362074913e-01 6.876043517289828211e-01 5.989241710764399151e-01
4.307733548575424787e-01 6.803250028403095007e-01 5.929521121094945002e-01
7.357377137063536576e-01 1.419717243314842225e-01 -6.622190318319857161e-01
6.642763642756985831e-01 3.150935416470043160e-01 -6.778296038659030742e-01
4.777019687422089378e-01 8.653777171423281400e-01 1.514009106093835710e-01
4.814061871674458759e-01 8.641161982764267169e-01 1.468035382175690573e-01
4.952863733296921089e-01 8.566812322416348380e-01 1.441827823246411844e-01
4.984641230449671223e-01 8.550990629455682557e-01 1.426152536954695960e-01
5.015696018424976588e-01 8.538673988768082923e-01 1.390625745587638629e-01
5.116567020250302189e-01 8.494621826871460168e-01 1.289240840853999315e-01
5.232300218388989954e-01 8.446543605311758185e-01 1.130900326383175725e-01
5.315489373964480402e-01 8.410384776212057600e-01 1.005485271563527211e-01
-3.985555151356202086e-01 7.830982663834213930e-01 4.773998392775813948e-01
-3.945120478683579179e-01 7.951933462419109588e-01 4.604647502027780503e-01
8.229434707250889991e-01 1.618571194092879584e-01 5.445790272196239235e-01
9.164395066286948888e-01 -3.636452721353750084e-01 -1.670351661888696826e-01
5.417826135627556994e-01 8.348964414355125596e-01 9.705427203079489140e-02
6.256630691002317279e-01 7.191097712394052266e-01 -3.023687498272417118e-01
6.433617663111422802e-01 6.983086350630731687e-01 -3.137685258998337279e-01
5.768946458172139469e-01 7.248040321389062068e-01 -3.766320254872317919e-01
5.732324440382480235e-01 6.719339077425163786e-01 -4.689449740937715605e-01
6.283076772632245621e-01 6.399332401950968974e-01 -4.423967798091394399e-01
7.455465407338965900e-01 4.915851931526505347e-01 -4.500048371659926549e-01
8.100041863300816436e-01 3.879052435278836364e-01 -4.397985222477623357e-01
8.721335849709664911e-01 3.035168306860080989e-01 -3.837454148990066538e-01
8.840903974768261619e-01 3.040178496327693991e-01 -3.549046578926998152e-01
8.814956777532665377e-01 3.523962046107399493e-01 -3.142964923098167662e-01
9.211236216923115450e-01 3.628467934759877500e-01 -1.409733238050136228e-01
8.286828366151647307e-01 5.566909279327199034e-01 -5.813748409461429872e-02
4.637612032320678757e-02 3.609687836529716920e-01 9.314240670563873614e-01
-9.827999968127894281e-03 3.398144340273567265e-01 9.404411522489293240e-01
-3.771618277437605027e-02 3.289701429655109699e-01 9.435868452846198906e-01
-1.310442559786623717e-01 3.160641143668483921e-01 9.396440169471088621e-01
6.149230181989949751e-01 7.865877513682650868e-01 5.611943590642060747e-02
6.374359458180574034e-01 7.697948467860654675e-01 3.303496391184328890e-02
6.522259105459371487e-01 7.580020016228314894e-01 5.858937472294183622e-03
6.607905246580448866e-01 7.505681724587054404e-01 1.816869325169168537e-03
6.736694054531309206e-01 7.390245362037803911e-01 -3.502434183884747722e-03
7.140084845545204839e-01 7.001061685863370077e-01 -6.575461315870635530e-03
7.615747105115903137e-01 6.477579847253764900e-01 2.033601567924047879e-02
7.718558122247096698e-01 6.351426430549275137e-01 2.885183023890291326e-02
8.009889453781841029e-01 5.974649679878311082e-01 3.810933493573841202e-02
9.023468560865979260e-01 4.143221944169996340e-01 1.187740313541405801e-01
9.160783690563274462e-01 3.831236653693246286e-01 1.183920553967757056e-01
9.335798444414972197e-01 3.352517793012912972e-01 1.266290587815760427e-01
9.559217665035308897e-01 2.707487299432638217e-01 1.136164669353804668e-01
9.638385312115856918e-01 2.455789037848002676e-01 1.034711929367256172e-01
9.807323648988820475e-01 1.658134542773315734e-01 1.032953378447705323e-01
9.916679641751666718e-01 1.126286434361485483e-01 6.252549485140701524e-02
9.955144638661420631e-01 7.923849233723746777e-02 5.169345766564216460e-02
9.990219055104230250e-01 3.363146161480843471e-02 2.870813647687843126e-02
9.998786944612273464e-01 8.014889037389106869e-04 1.555486991422738371e-02
9.991866708382620699e-01 -4.024121791490508498e-02 2.577052555856731552e-03
9.960506649551494895e-01 -8.418755857391344022e-02 -2.820510279662834588e-02
9.959191942962202226e-01 -8.573255894326334281e-02 -2.819373635060824085e-02
9.931150385520027823e-01 -1.062019759340610686e-01 -4.943339467966170048e-02
9.932511185316492686e-01 -1.020270787776785537e-01 -5.516059038590179209e-02
3.839892890028276384e-01 -4.928215164131464210e-01 7.808195559099103678e-01
4.026763736481407396e-01 -5.177525884628831898e-01 7.548403773285893292e-01
9.925290956530010700e-01 -1.037864922853265481e-01 -6.414326388128233081e-02
3.707547425617409020e-01 -5.240454798292198957e-01 7.667576252888131938e-01
9.932712578209687004e-01 -9.160876983061998213e-02 -7.085225244740941952e-02
9.940304809071131009e-01 -7.699876762540917852e-02 -7.729549024193785312e-02
-6.746993407340511339e-01 -2.037123931259646747e-01 7.094237524215897261e-01
9.951170760965162287e-01 -2.628727591615258319e-02 -9.513665952737826448e-02
6.697929059305652855e-01 -6.188351658951981582e-01 -4.103906682863923683e-01
4.216533124593661030e-01 -3.030523695334418344e-01 8.546155541600038985e-01
6.749479854340032503e-01 -6.137862919980254794e-01 -4.095260733016828358e-01
9.958463257446386052e-01 -8.773261794030613042e-03 -9.062629518189739553e-02
9.958570277894244205e-01 7.325138174790708952e-03 -9.063731324975414505e-02
9.957285463702741923e-01 2.550207785223998144e-02 -8.873728623616411459e-02
9.954669418326825836e-01 4.234075640863394635e-02 -8.516353718012950602e-02
9.950802547836432588e-01 5.717556799611487467e-02 -8.090884354655883404e-02
9.945646882990983872e-01 6.859963194067274228e-02 -7.832733422070062290e-02
7.092343969764945966e-01 -5.715508613211025546e-01 -4.126938127334767725e-01
9.937644497893164397e-01 7.952522759771774030e-02 -7.815341649901404175e-02
9.945152271041027836e-01 7.298505588099968300e-02 -7.491758589358120390e-02
9.945225296931082815e-01 7.288592078114765338e-02 -7.491715747880912935e-02
7.094440826562814495e-01 -5.732203631049459513e-01 -4.100091570999618851e-01
9.946792310045212693e-01 6.785191659794022334e-02 -7.751996402372809958e-02
7.479164243340031826e-01 -5.368543799242061487e-01 -3.903951805128176300e-01
9.947484909240833506e-01 5.606874184839853725e-02 -8.562555688459194680e-02
7.616787418967325696e-01 -5.208583065998232398e-01 -3.854245952045290413e-01
9.951292485078294670e-01 4.529077992971556471e-02 -8.755868898973215297e-02
9.954935433740389472e-01 2.652962802086523963e-02 -9.104275884261631147e-02
-4.105919561288691177e-01 7.354772234837027023e-01 5.389689223869708057e-01
7.720502427613360474e-01 -4.984184491299241682e-01 -3.943570364772047698e-01
9.945764937457985955e-01 -2.700480487752371806e-03 -1.039726189602272061e-01
-4.152862299404834756e-01 7.572576364994682008e-01 5.040815600525963003e-01
9.937226737571643875e-01 -2.569610857266004314e-02 -1.088804742143154175e-01
9.913604107285448608e-01 -5.531384938547975055e-02 -1.189323930066624041e-01
9.891125450980607914e-01 -7.392070852468390907e-02 -1.272481904816145371e-01
9.872871653260822944e-01 -8.893537470627953245e-02 -1.317366779156148027e-01
9.854171715401586207e-01 -1.026424551282037051e-01 -1.357111802286333768e-01
9.821972996385195387e-01 -1.250624918761659710e-01 -1.401707448383013310e-01
9.780991230994952046e-01 -1.467382698014235987e-01 -1.476143135596384437e-01
9.763920565336328128e-01 -1.577126105041731507e-01 -1.475983889681113936e-01
9.721776496226037789e-01 -1.787577934823762482e-01 -1.513812037327676441e-01
9.693701430767467375e-01 -1.908708574915489731e-01 -1.545633898172795173e-01
9.654559755419273026e-01 -2.078978305136551519e-01 -1.570772146369445732e-01
9.620488780134502926e-01 -2.208059333034604610e-01 -1.603330787175537564e-01
9.524736001984296374e-01 -2.487170655777536377e-01 -1.758802496456986775e-01
9.516760776788080189e-01 -2.519114244836452299e-01 -1.756510102120120709e-01
9.411265269546394974e-01 -2.766888208001863636e-01 -1.942270751118404803e-01
9.366011178913093982e-01 -2.872625645563945396e-01 -2.006453711632362469e-01
9.324073027242745226e-01 -2.901909308900523232e-01 -2.154201602812696736e-01
9.241427905529829845e-01 -3.064647027717857242e-01 -2.281216531238249023e-01
9.192736664469587371e-01 -3.160234306381784486e-01 -2.346595778246481911e-01
9.079093818614736300e-01 -3.329403867252019311e-01 -2.546590921510362149e-01
9.037369086293495224e-01 -3.385048991666759766e-01 -2.620573090398836680e-01
8.181076735949235346e-01 1.710396767170622168e-01 5.490403112646874417e-01
8.935901515477777668e-01 -3.484321805080588530e-01 -2.830046936770113097e-01
8.909411924582125719e-01 -3.514740787480578055e-01 -2.875582785268786523e-01
-4.545270128316680203e-01 6.759222480180738790e-01 5.801157722735299505e-01
-4.510907518862679599e-01 6.839990337686719934e-01 5.732908994273364645e-01
-5.284724648320704432e-01 5.319367122480959109e-01 6.616344822309386808e-01
8.720245606406743510e-01 -3.777210094641004767e-01 -3.112876557926122500e-01
-5.513432074856312592e-01 5.763540552562465002e-01 6.031887520081384846e-01
8.586686089329779170e-01 -4.420820943684228843e-01 -2.593292152302425491e-01
8.474753255292122311e-01 -4.164816179641517291e-01 -3.291331562105496711e-01
8.147709895106127753e-01 -4.725402013633912546e-01 -3.359374833913931213e-01
8.166917153370297777e-01 -4.787511373317858143e-01 -3.221986818771633287e-01
8.062240435750787082e-01 -5.004500480394417083e-01 -3.155194779704891261e-01
8.124665258693726244e-01 -4.865988091358380840e-01 -3.211226296749206122e-01
8.013036492816641987e-01 -5.089855333631657652e-01 -3.143981368820454314e-01
8.008538210841851246e-01 -5.142547243895342346e-01 -3.068798391844991813e-01
8.001279899584534672e-01 -5.192436845603647377e-01 -3.003018410353507917e-01
8.107421071383017486e-01 -5.098295861054811251e-01 -2.876995461318286873e-01
8.128372826096134096e-01 -5.171655753205397499e-01 -2.680211180172093477e-01
8.088686373638633853e-01 -5.317032914654306053e-01 -2.510440944016688047e-01
8.200084194857841791e-01 -5.342296228773479871e-01 -2.053896346283149710e-01
8.164470537098306169e-01 -5.292833001165679896e-01 -2.308103045928670827e-01
8.292650848528110297e-01 -5.296797691043527712e-01 -1.782098797643380250e-01
8.158228929132060880e-01 -5.564376649039053380e-01 -1.575123248352857386e-01
8.306461792307744396e-01 -5.502309454281335555e-01 -8.528089834528300439e-02
8.381753559613548399e-01 -5.425671229934369011e-01 -5.552467654728706486e-02
8.271127980401025148e-01 -5.619154858046979673e-01 -1.163641401561038395e-02
8.031501700202526850e-01 -5.873543102196543408e-01 9.982343744248287076e-02
8.175764771551131682e-01 -5.748170451618926924e-01 3.397158509674236271e-02
8.013300160926855042e-01 -5.515902410746070794e-01 2.315564969076733259e-01
8.507489249216590999e-01 -4.409950043178076373e-01 2.859189971152287790e-01
8.818429202441224746e-01 -2.822934063603962929e-01 3.777082164062125491e-01
9.284171899763994373e-01 -1.265120980986173815e-01 3.493368151097334673e-01
9.386070095401983782e-01 -3.445760037488759136e-04 3.449880619809672089e-01
9.441306576348975632e-01 2.657657026155669372e-02 3.284980779655010674e-01
9.483068802852538948e-01 7.261628392139532484e-02 3.089351649021143120e-01
9.523059263411071118e-01 7.577618835929389451e-02 2.955865219074486627e-01
9.634232473595326640e-01 6.477017868060913619e-02 2.600393631758367019e-01
9.700232130170617362e-01 4.708275477836861705e-02 2.384075930219838602e-01
9.739812110701433490e-01 4.085233767662476562e-02 2.229163228404147934e-01
9.723185388857233935e-01 4.398126720814425628e-02 2.294826944976409711e-01
9.704683690744922986e-01 4.737810857442552315e-02 2.365300392208253832e-01
9.642189760100696727e-01 3.470940861191993548e-02 2.628250811012968757e-01
9.667765550641733707e-01 4.860395713051354760e-02 2.509596539874574539e-01
9.638297816958691921e-01 9.006107019922582335e-02 2.508408968861798316e-01
9.500926759776053832e-01 1.794443999945958823e-01 2.551932882430340555e-01
9.386417249268788066e-01 2.302812625288699899e-01 2.567532908346126241e-01
8.955450066305526979e-01 3.536229805445779695e-01 2.700924447848408461e-01
7.069482138079367095e-01 6.595976298257475445e-01 2.552551463183922453e-01
6.705222432834687663e-01 7.024099018348196610e-01 2.387891351517146266e-01
6.150559340024973620e-01 7.548569828791955594e-01 2.278094235250889832e-01
5.795532995367409512e-01 7.811885848270654353e-01 2.320826747776822130e-01
5.766768336224673552e-01 7.839552714353175134e-01 2.299085947761473347e-01
5.644851615342554307e-01 7.931575279797237199e-01 2.285992961860104367e-01
5.541039208727992493e-01 8.002579705872817639e-01 2.292510095613885523e-01
5.397051666495478184e-01 8.091630872798348806e-01 2.323218269460498031e-01
5.270054847625825767e-01 8.170289535789134749e-01 2.339421040426473142e-01
5.220548856977709207e-01 8.192796291009667442e-01 2.371488681382853958e-01
5.070606233858445666e-01 8.294431269662604356e-01 2.343365599730237170e-01
4.823659765064388649e-01 8.423735510069018106e-01 2.402704003264078403e-01
4.484325530220822364e-01 8.643294534333956225e-01 2.276902310544416386e-01
4.430697941179208010e-01 8.667911852544947227e-01 2.288278800876576147e-01
4.388558522042590448e-01 8.698172087326284663e-01 2.254408223429215929e-01
4.406875167996394116e-01 8.694768249897896206e-01 2.231693602236697882e-01
4.520273285055812496e-01 8.643836131317781390e-01 2.202549968408433756e-01
4.561924212142325352e-01 8.634430864564226482e-01 2.153009783472972505e-01
4.627264588822325164e-01 8.593238186444027704e-01 2.178228614280672271e-01
4.653922828889361929e-01 8.597309038102598500e-01 2.104110169668355623e-01
4.778075683251252759e-01 8.519111740992389992e-01 2.143531644181795037e-01
4.807064675556894096e-01 8.512828548545000595e-01 2.103302001161582446e-01
4.933551666570337724e-01 8.432241651111337388e-01 2.134799449724537057e-01
5.005959806553039737e-01 8.388546887303125477e-01 2.138374975230608876e-01
5.169370683354909124e-01 8.285944145039154662e-01 2.149589812815956846e-01
5.281178582305638969e-01 8.207694801076695912e-01 2.177819743269575614e-01
5.405385549938676037e-01 8.113185220393538399e-01 2.226664015091188165e-01
5.606847145069681071e-01 7.963888894932728002e-01 2.267099195225281971e-01
5.879037363024814944e-01 7.744966513042292888e-01 2.335040341409911901e-01
5.876278233640815918e-01 7.734093759659453893e-01 2.377634925222094908e-01
6.112320020964235878e-01 7.522444591686303639e-01 2.460156768648951997e-01
6.211670773452668826e-01 7.429477230973673407e-01 2.493594649632869809e-01
6.776067388892317300e-01 6.832363041844866647e-01 2.720978869014319956e-01
7.479218663794667821e-01 6.097133592295035376e-01 2.624166560425029715e-01
8.146025982341594807e-01 5.166404067911662956e-01 2.636385727104718080e-01
9.956620513765890301e-01 -6.852877979263004293e-02 6.293556854987265858e-02
9.701221609401456947e-01 -2.376841537558751494e-01 4.867479744360151545e-02
8.154377428139683026e-01 -5.743111381407514093e-01 -7.230493898714758505e-02
7.817936880739126959e-01 -6.141944991306161894e-01 -1.075348619075734563e-01
7.578633488365874582e-01 -6.364596793837613564e-01 -1.433953311963564459e-01
7.638411074316941995e-01 -6.276219758742352939e-01 -1.504573627219479015e-01
7.661337083809256487e-01 -6.247045929475854020e-01 -1.509414205335391779e-01
7.736685999759475019e-01 -6.138657907166800154e-01 -1.568620043192191227e-01
7.753317903560944524e-01 -6.082191828562308888e-01 -1.700883313720021051e-01
7.890976705695903481e-01 -5.860868868090460815e-01 -1.839212532909849929e-01
7.915492452507160159e-01 -5.806066443158852675e-01 -1.906455268797801750e-01
7.960351261665639111e-01 -5.763524399389018393e-01 -1.847862085910562391e-01
8.104666743382729077e-01 -5.542971381842615175e-01 -1.894688691785475221e-01
8.205354637147390662e-01 -5.342406416911541500e-01 -2.032449004326104258e-01
8.251669290395010625e-01 -5.228933973242366751e-01 -2.137335590267398222e-01
8.408130812384779773e-01 -4.943995927132214807e-01 -2.204595317586817982e-01
8.550554778430645708e-01 -4.633370278627536032e-01 -2.328066331140036249e-01
8.611562739660483246e-01 -4.410442536494888488e-01 -2.527643925312217932e-01
8.631624849726791116e-01 -4.269642064770998724e-01 -2.695405181474017642e-01
8.665980519862528375e-01 -4.144514526398415111e-01 -2.779169115011840829e-01
8.701887079893191324e-01 -4.044295621800469975e-01 -2.814397657097074679e-01
8.652439128241254940e-01 -3.869508439358235741e-01 -3.187820818335796447e-01
8.704356031043684050e-01 -3.810660838968470965e-01 -3.116576656394890454e-01
8.664800088085229390e-01 -3.810494651996109150e-01 -3.225115492602900757e-01
8.682297316993600189e-01 -3.687343122642277038e-01 -3.319821380018573298e-01
8.696309808891297122e-01 -3.651221133132661056e-01 -3.323067851360618774e-01
8.708075391183421887e-01 -3.619769275750813198e-01 -3.326664000435888835e-01
8.646218635308732248e-01 -3.661901014250486530e-01 -3.439968644082563309e-01
8.663193535852501403e-01 -3.618747071786286851e-01 -3.442927154443092830e-01
4.535785574356007155e-01 6.678107628113570948e-01 5.901654660414762388e-01
4.604095764739249419e-01 6.668805174240638456e-01 5.859124485546572947e-01
4.712311082404683216e-01 6.575496045240470933e-01 5.878518182473616571e-01
-6.046421872949380161e-01 8.526677724498187005e-02 7.919200730133362232e-01
5.029169186762980637e-01 -8.547587978629632710e-01 1.283042103167314485e-01
-1.383662204866875634e-01 6.028143094638748201e-01 7.857924009137662313e-01
4.789025263420053635e-01 -8.687045866107688807e-01 1.265097287352169586e-01
-5.796291900119538987e-01 1.205882517667869469e-01 8.059084784402731350e-01
-6.624207687950020018e-01 6.627594764466349098e-02 7.461944946412030211e-01
5.399871065545122084e-01 -8.325895547761388293e-01 1.233229825805263330e-01
-6.188318791263479612e-01 1.261199451834378871e-01 7.753327445709227161e-01
-6.823969304554560189e-01 7.601174120045206539e-02 7.270190124781104046e-01
5.757038057657667407e-01 -8.098941833422732550e-01 1.124123650456854834e-01
5.842495367402938955e-01 -8.032586585686728453e-01 1.158792744765350657e-01
-5.134872074153178367e-01 1.732769178095947826e-01 8.404201315861163923e-01
-5.763313838129696665e-01 1.327444490920836329e-01 8.063628508726494726e-01
-6.288401693261459480e-01 8.792913373382331421e-02 7.725467680876567655e-01
6.130798678549891356e-01 -7.829010261950553051e-01 1.058256056615705376e-01
-5.177484061828999673e-01 1.448809516183582335e-01 8.431761961495507496e-01
6.441031295368142562e-01 -7.591094458194013184e-01 9.425501466045843602e-02
-4.627736426338293629e-01 1.495731676236807528e-01 8.737668013894984709e-01
6.703841137916074500e-01 -7.368617663616262581e-01 8.729190827485362736e-02
-3.857856541026146169e-01 1.026337715817170898e-01 9.168618969177035893e-01
-4.890050880651415910e-01 8.069194831318117489e-02 8.685406342387361756e-01
6.969876710640512396e-01 -7.125968325757374711e-01 8.008708127867117388e-02
-4.605491709194287075e-01 -1.676410295377113099e-02 8.874758734847850716e-01
5.872582825393806161e-01 8.055830755057407089e-01 7.850871319547314542e-02
7.208459072102130216e-01 6.899756674448704885e-01 6.568680531347459439e-02
6.648154248202452488e-01 7.008908407934562046e-01 -2.584037155555606868e-01
6.698633780704346119e-01 6.959799854307850975e-01 -2.586405122942461166e-01
6.966120018272523584e-01 6.685106965965437187e-01 -2.604326543393358784e-01
7.595337399244647125e-01 5.971033138085848346e-01 -2.580235077568747148e-01
7.817275814151746216e-01 5.877800853150455529e-01 -2.083664074696766899e-01
7.899484215869139181e-01 5.679178227462525763e-01 -2.311943724217772611e-01
6.826547130987813405e-01 7.292518086135544308e-01 4.662984363988609965e-02
5.665562389549083644e-01 8.234813634464079879e-01 2.987427250518284380e-02
2.971193275747530671e-01 8.953186925287075493e-01 3.318501830498400973e-01
3.077708342843822331e-01 8.689412499437012549e-01 3.875799500879442139e-01
3.696664752287532885e-01 8.198537097129321438e-01 4.372488899492973369e-01
5.241798666117407635e-01 7.097965879247697396e-01 4.705574047969621754e-01
5.800056459077602700e-01 6.529539353222894027e-01 4.870776211880990525e-01
6.869560452578179488e-01 5.541425890937662357e-01 4.701248587728539818e-01
7.606442766216261475e-01 4.851902576776571108e-01 4.312895759202300394e-01
8.263926817308604456e-01 5.208640518096704364e-01 2.139527403752749246e-01
8.213161277209444222e-01 5.587477304592871619e-01 1.150686406110243004e-01
7.532165215629099686e-01 6.536847747610083914e-01 7.321944338985487966e-02
7.408678323073947247e-01 6.705179695090621728e-01 3.899368689398790416e-02
7.271844717573160422e-01 6.856315870826819037e-01 3.334772600217294353e-02
7.080719328689442094e-01 7.051297669843017424e-01 3.776439587629788069e-02
7.076455019701353155e-01 7.032721064373189668e-01 6.816295070382132060e-02
7.282545296899110010e-01 6.806440189434421750e-01 7.980638735493261748e-02
7.239843361457480864e-01 6.686864920192119310e-01 1.694256663160595422e-01
7.844551187151417304e-01 5.928199086693151099e-01 1.821941892786867745e-01
8.139295680658278354e-01 5.382448753289417187e-01 2.186575231047559464e-01
9.734435530584910623e-01 1.984263804951890975e-01 1.141692626429681584e-01
9.929207428802894198e-01 1.062583515069722567e-01 5.308070358496268931e-02
9.966634487209447002e-01 7.520607155985388481e-02 -3.171776764223456502e-02
9.956470548859034375e-01 6.784122728138693159e-02 -6.391017116220128191e-02
9.946570964257879233e-01 7.800442333651551319e-02 -6.762078430304156729e-02
9.966213447806510084e-01 6.417788694229012436e-02 -5.125518466681386331e-02
9.988377791439586595e-01 3.064215546300415316e-02 -3.720415653318435989e-02
9.997624950025918444e-01 1.063668475808683678e-02 -1.902142275303364549e-02
9.988789700060951571e-01 -4.728594326777191964e-02 -2.200647368210075297e-03
9.970493144652147199e-01 -7.636502168204821472e-02 7.813321185376576744e-03
9.971523164096010028e-01 -6.763866901410564569e-02 3.335068714385595878e-02
9.963426407400330920e-01 -7.044173533537244347e-02 4.836635365746320275e-02
9.897983632305273893e-01 -8.693892369635779216e-02 1.128752572209156396e-01
8.666922759740991467e-01 -4.222172649689188706e-01 -2.656634711980586094e-01
9.035656669416052278e-01 -3.649217467941945903e-01 -2.245021252483950513e-01
9.917044158645180740e-01 -1.046507080422517250e-01 7.463632400560932245e-02
8.697520817159533069e-01 -3.961803130735723211e-01 -2.942320102974723683e-01
8.624992653137907306e-01 -4.259381029287815923e-01 -2.732613214609813657e-01
8.479456073511437708e-01 -4.527666925889606286e-01 -2.756638696963268353e-01
8.260561963437966781e-01 -4.784245442246866653e-01 -2.978944711897478781e-01
9.935983152520075912e-01 -8.634653902472196052e-02 7.284684706165542312e-02
6.752433240529401859e-01 -6.525888238555213050e-01 -3.437648619344378931e-01
6.324559995819118985e-01 -6.872881209893468846e-01 -3.572596357549752133e-01
6.423122502037496018e-01 -6.744407778078299609e-01 -3.640942329509834763e-01
9.899287192341613695e-01 -9.801699322075752008e-02 1.021459733683841020e-01
6.479609946300859402e-01 -6.606582132384879458e-01 -3.790478528082151244e-01
9.913897770410859955e-01 -8.279875402182543254e-02 1.014429707316336915e-01
7.187384353148974503e-01 -5.826003976073774737e-01 -3.794625650954499552e-01
8.615907649916233479e-01 -3.406001093651301326e-01 -3.763680634453601681e-01
8.059144397040535202e-01 -4.273176874216778609e-01 -4.097578673962110063e-01
9.943696228148419802e-01 -6.045876129594200676e-02 8.702753245743140298e-02
9.962602134810618626e-01 -5.426733045776199055e-02 6.723573365151389036e-02
9.989276859056018809e-01 -4.596822191763814958e-02 5.513701570615334689e-03
9.999750992585495490e-01 5.071278863866830744e-03 4.907442667903227224e-03
9.985902944267248671e-01 3.466751595624924243e-02 -4.019436794092177273e-02
9.936755439898147246e-01 4.665249195341894528e-02 -1.021394060638785573e-01
9.055276384639144860e-01 -9.662345181988006614e-04 -4.242861797994625928e-01
9.070017629822550997e-01 4.559985056383385887e-02 -4.186507560910852077e-01
9.929078382383229595e-01 5.090317403679005259e-02 -1.074378501175466127e-01
8.985749621027649958e-01 1.322117380777194651e-01 -4.184293175632928241e-01
9.917170541367374970e-01 3.383523343234493691e-02 -1.239050503931525271e-01
8.987644410475452705e-01 1.566747385491220890e-01 -4.094819969291171868e-01
8.931016547718262366e-01 1.771846270302105952e-01 -4.134912842950755896e-01
9.917408885886760395e-01 3.311200111909332749e-02 -1.239096658184194732e-01
8.894301937814139691e-01 1.908263066953027887e-01 -4.153302915307123810e-01
9.899741124015981608e-01 1.416048680853546939e-02 -1.405373167098812603e-01
8.683408873432230113e-01 2.276156379846095978e-01 -4.406531796241154875e-01
9.863590859003866784e-01 -1.837313169958457518e-02 -1.635792825919687721e-01
9.837718219989572965e-01 -3.465968921964414362e-02 -1.760446198668097206e-01
8.575582309654984359e-01 2.202436898275881849e-01 -4.648511563871323138e-01
9.777660650406259091e-01 -6.492647025321067467e-02 -1.993942715210985372e-01
8.665790407107479831e-01 2.264819405134837205e-01 -4.446871898560679770e-01
9.778018119249003437e-01 -6.237998668823942910e-02 -2.000308822586071567e-01
9.756244661954521780e-01 -8.236535214515082470e-02 -2.034031703952625669e-01
9.696661351151317776e-01 -9.835810556552340711e-02 -2.237705733121408413e-01
9.683784536075548122e-01 -1.158608314269543027e-01 -2.209512125553866058e-01
9.643820464491832389e-01 -1.276776527378529480e-01 -2.316585536470377182e-01
9.620652632483172040e-01 -1.417520308289084430e-01 -2.331025332484105150e-01
9.575222268462568742e-01 -1.575195472354861126e-01 -2.415342156592165390e-01
9.551169900326694773e-01 -1.665901795071141056e-01 -2.449474381223876174e-01
9.426558431092200152e-01 -1.971598979564250509e-01 -2.693101113769357235e-01
9.405287214324760114e-01 -2.042760634886401916e-01 -2.714351009839681694e-01
9.370456582765948061e-01 -2.235691175015802612e-01 -2.682578684858054063e-01
9.204477253757941124e-01 -2.594873578514907964e-01 -2.923051418736575813e-01
9.169909302427803333e-01 -2.671886597107142047e-01 -2.962057628988210567e-01
9.083636156186685184e-01 -2.885008755373630884e-01 -3.027255962655863164e-01
9.002766618168545065e-01 -3.103507003616081672e-01 -3.052611586379117004e-01
8.919102539228846993e-01 -3.286135946292625953e-01 -3.106593059479306196e-01
8.780307905332955798e-01 -3.536291099750068501e-01 -3.225033076632869422e-01
8.523571852346568667e-01 -3.809231744974159173e-01 -3.583081968217640689e-01
8.405967193368107937e-01 -3.957027526804857143e-01 -3.698871273257253178e-01
8.459587805621560097e-01 -3.898318853292628838e-01 -3.638472794599713622e-01
