-4.675934240096887295e-01 -1.757920563854981078e-01 8.662872172291665729e-01
4.345521489642271695e-01 -4.078261552796050293e-02 8.997228507164140021e-01
4.537865368775005348e-01 -1.185385060252830136e-01 8.831910334338879398e-01
-2.362972748985437410e-01 -2.559837882908799767e-01 9.373558011810521062e-01
-2.362972748985437410e-01 -2.559837882908799767e-01 9.373558011810521062e-01
-3.663360903179834205e-01 2.012530905029276396e-02 9.302649304720480572e-01
1.911072615496945126e-01 9.387684192575908304e-02 9.770696767032650554e-01
2.285741561476505312e-01 7.467187988457087144e-02 9.706585215697091096e-01
2.437572734934358998e-01 6.683080425031927285e-02 9.675308962623890841e-01
2.742095712630363002e-01 5.080185884577978483e-02 9.603271745429030615e-01
-4.603440841370354253e-01 -1.574835926368339523e-01 8.736602556201295000e-01
4.552261272656847324e-01 -1.586820779276869320e-02 8.902344483539896824e-01
4.482361428749779275e-01 -1.856256891705367063e-02 8.937224352424872897e-01
-3.880162410217236624e-01 6.836028752590754543e-02 9.191138492008197325e-01
-3.508690501225528724e-01 8.788483617352028932e-02 9.322913521195242970e-01
1.974090129659406556e-01 1.239690139468652419e-01 9.724512148076401852e-01
2.134626814760402225e-01 1.225027201420127165e-01 9.692403041428200305e-01
2.459473760018746902e-01 1.177543057698742096e-01 9.621038466353033503e-01
4.415427661510092361e-01 2.317664852645444709e-02 8.969408166778878311e-01
-3.207919451595998006e-01 1.181649574901046940e-01 9.397497383570170282e-01
-2.950185344495861450e-01 1.256813824991622197e-01 9.471896612739802990e-01
2.131124411524346896e-01 1.409895984973179028e-01 9.668014380117642137e-01
2.284032731247214454e-01 1.420681827772853623e-01 9.631451480790804709e-01
-4.654823334275652313e-01 -1.299430728690097459e-01 8.754661587292726921e-01
4.392336366819669657e-01 4.071432133329943442e-02 8.974498072012175864e-01
-3.152893043697752584e-01 1.455753161542561736e-01 9.377635532886803293e-01
2.244981202033248802e-01 1.607966734302597733e-01 9.611165506008809700e-01
2.660138866801901036e-01 1.529166532898072473e-01 9.517631581648577921e-01
-4.693039682742337626e-01 -1.200264718960996901e-01 8.748413749967658415e-01
-3.326314795479196618e-01 1.737953833332338827e-01 9.269042364483055518e-01
-3.035921909478244696e-01 1.734766517403714126e-01 9.368765302303444509e-01
2.426547252694340184e-01 1.801204948266220962e-01 9.532446127032810912e-01
2.528028541835406484e-01 1.793629268839014579e-01 9.507468944868007199e-01
2.759267802965872929e-01 1.944972290485228184e-01 9.412944490474833836e-01
2.922665659779896674e-01 1.943035037746325411e-01 9.363900911651803494e-01
-4.792606578220980906e-01 -9.701435866984070566e-02 8.722943517390270296e-01
-4.644650394675448046e-01 -9.680339384503602873e-02 8.802848005347445604e-01
4.015154256789039144e-01 6.180527522031212945e-02 9.137644504448779736e-01
4.366440865476195476e-01 7.379175539231530578e-02 8.966028767069149641e-01
-3.648424766297641009e-01 2.119083972629970669e-01 9.066337730396368810e-01
-3.005226322341732481e-01 2.075572702706926786e-01 9.309168207057075817e-01
2.780448659650308629e-01 2.981087433726918867e-01 9.131386694447030106e-01
-4.863041960972503963e-01 -8.070383250587362389e-02 8.700546651085039329e-01
-4.722245265295481609e-01 -7.957569389889185274e-02 8.778790950264472315e-01
3.972510920988297500e-01 1.073705060287674651e-01 9.114072329433278163e-01
-3.986825622162925020e-01 2.396694572880466723e-01 8.852179199654202080e-01
-3.558494291154702949e-01 3.190865040758626425e-01 8.783820277731314574e-01
-3.154752153611593557e-01 3.151518067035361526e-01 8.950724703756266498e-01
2.004652973552724093e-01 7.302421962726306504e-01 6.531156094744535734e-01
3.549637993977638462e-01 1.615275252349854807e-01 9.208200474080510123e-01
4.285230202376671405e-01 2.082659279168486699e-01 8.792003892147238764e-01
5.274006142335009306e-01 4.736912023095969926e-01 7.053121556875469045e-01
-3.535513712425644162e-01 6.367454075915349732e-01 6.852420840867791130e-01
-3.681608519000841850e-01 5.581142886845338325e-01 7.436168555744020470e-01
1.879450093556890022e-01 9.424330345964385680e-01 2.765802754348873349e-01
-4.985081889128847865e-01 -3.824727618318816275e-02 8.660408370575617409e-01
-4.894494250129033386e-01 -3.405815892245628307e-02 8.713663421118301722e-01
3.278317805137176966e-01 4.102816524292782208e-01 8.509966447437418147e-01
3.131455035534945197e-01 6.788522138774023551e-01 6.641532694476312004e-01
2.046333796663072080e-01 7.773559550113672278e-01 5.948469543796204295e-01
1.675540330526641142e-01 9.110076324355325106e-01 3.768165862219874929e-01
-9.838909266775960893e-02 9.633711030100365891e-01 2.494708486561915961e-01
-3.001906460330928672e-01 8.964310725974489191e-01 3.260320660855638986e-01
1.407201150954084379e-01 9.775103875630826167e-01 1.570709757205543400e-01
1.516979348598616884e-01 9.783781665381381387e-01 1.405841377991291496e-01
-5.025331825110743722e-01 -2.312135447967347476e-02 8.642486930521310340e-01
-4.971340559811860960e-01 -1.033413717197975180e-02 8.676122036904539980e-01
6.661896854602857021e-02 9.276826907044589676e-01 3.673781953208416495e-01
-1.004556918863305504e-01 9.765533965871494582e-01 1.903998886074781405e-01
-1.358952670746516600e-01 9.801586371516208818e-01 1.442966472368167330e-01
-1.437468053732868789e-01 9.796396955233531711e-01 1.401532122353474352e-01
-1.734295194235484783e-01 9.805717754195715230e-01 9.165803316145454405e-02
1.469286266744764813e-01 9.788537149994119835e-01 1.423284345990011024e-01
1.854656000495945034e-01 9.697646567790318972e-01 1.586159565128616722e-01
1.829309930507324045e-01 9.687002296071178797e-01 1.677978454587250590e-01
-5.110645038082773928e-01 -1.867280027684689245e-02 8.593395135084971326e-01
3.240249784374700237e-01 8.815173357596373105e-01 3.434166567070212062e-01
3.293850753538618004e-01 8.724409296204775899e-01 3.610433442913577040e-01
3.413093510038752165e-01 8.689783373483226381e-01 3.583079347944420068e-01
-5.352225991589489862e-01 2.369015786472566682e-03 8.447077347306241046e-01
5.218264068585899418e-01 6.339795252738306131e-01 5.707601620984262825e-01
-5.666587097260269434e-01 -1.540046327472750776e-02 8.238086746463392229e-01
6.448256868692495702e-01 2.650664097570212818e-01 7.168958306282185999e-01
-5.813854126181154935e-01 -3.063355894522382106e-02 8.130514049315781255e-01
6.223481795722067833e-01 1.551789789328944791e-01 7.672041631016509600e-01
-5.849997982025475496e-01 -5.870870378961248054e-02 8.089057573057087946e-01
6.383874335415475887e-01 -9.583993210336985702e-02 7.637252071986740942e-01
-5.998640646743588212e-01 -1.103512617253318284e-01 7.924554895689626122e-01
-5.840748643682530661e-01 -7.992827297406043807e-02 8.077549281759850430e-01
5.908112824477556035e-01 -2.849176658233235626e-01 7.548271008874993804e-01
5.524642996664301808e-01 -4.652154019061203738e-01 6.916341716712729459e-01
-5.755320800011344273e-01 -2.528332032817262598e-01 7.777134409330143106e-01
4.630465384826523145e-01 -5.832264469781115457e-01 6.674090310630518275e-01
-5.248704890388830036e-01 -3.975864495958200684e-01 7.526194156636368815e-01
-5.097051496687826644e-01 -4.343353911371262699e-01 7.426664314528316213e-01
3.792788125496103224e-01 -6.558771035745681877e-01 6.526659232391351928e-01
3.976571690611042098e-01 -6.510724747451535066e-01 6.465086298909935580e-01
-4.532501874957481358e-01 -5.057389372269250893e-01 7.340247917527374932e-01
-4.316442101711929213e-01 -5.469448013676946330e-01 7.173107137653389476e-01
1.387101085662364452e-01 6.462241324042171664e-01 7.504357910440837554e-01
1.482327508836433216e-01 6.669996704163667633e-01 7.301633318853567589e-01
-2.002560282424670768e-01 7.302183580452930034e-01 6.532064549024209077e-01
9.642266022666708125e-02 -1.258899190752650610e-01 9.873471521557328767e-01
-3.785680647476614702e-01 1.329902121437230231e-02 9.254779070231499150e-01
1.622584806092821630e-01 6.555540503547935272e-01 7.375100491069881414e-01
9.730871240120507748e-01 -2.219757841581255220e-01 -6.187245210383231220e-02
6.212244300144176279e-01 -3.537067456824578571e-01 -6.992651468591774000e-01
6.825007886099073717e-01 -1.941576777580543145e-01 -7.046243465240568105e-01
7.550103274235799855e-01 -1.004636677312008841e-01 6.479710309494811638e-01
-7.311414077748995544e-01 -1.918176358824592587e-01 6.547046940425907957e-01
-5.415950164674728784e-01 -3.571116796828659457e-01 7.610164823258953604e-01
-6.843133600350906898e-01 -2.122327395158311314e-01 6.976191579616271010e-01
-5.440326564275201060e-02 8.957336130664126372e-01 -4.412500188219760644e-01
-4.840314866921717196e-01 1.439430684093673252e-01 8.631302989395415182e-01
6.132206766208924131e-01 -3.084935760639633262e-01 -7.271809371070466765e-01
6.238372882153063737e-01 -3.118384839415028753e-01 -7.166476105906151028e-01
6.163183198151652720e-01 -3.299320222603431274e-01 -7.150500607282066490e-01
6.026066994344185801e-01 -3.169880652240201213e-01 -7.323822310121187451e-01
-1.105180675818908803e-01 -9.243756549631475528e-01 -3.651238218049006057e-01
-9.828318062637368679e-02 9.884454715571110439e-01 1.153948272852984847e-01
-7.759394190534153746e-02 9.888123882133175169e-01 1.273940386967385430e-01
1.692821449643679144e-01 9.326048561896144173e-01 3.187345880318158131e-01
1.357940282064326598e-01 9.368577107262958670e-01 3.222694707169058148e-01
1.783998067633003337e-01 9.121941772634983847e-01 3.688838460998073443e-01
-2.173101312254487605e-01 9.347066859512888071e-01 2.812467210559744246e-01
-2.406360259040769001e-01 9.300067153422066912e-01 2.778161486585908890e-01
-1.855498275587227075e-01 9.605315013851963846e-01 2.072450152346949626e-01
-1.766511354227854047e-01 9.663602286505846850e-01 1.869285554328983245e-01
-1.776385784656409894e-01 9.687546211217530345e-01 1.730867398039347693e-01
-1.691483638230961706e-01 9.728579928098526342e-01 1.579118641583154570e-01
-1.582980295016880035e-01 9.769611158039851473e-01 1.431387860187280092e-01
4.854483923973048620e-01 8.251695765617224065e-01 2.888512216277090983e-01
6.973422493561400870e-01 1.617286611730459900e-01 -6.982532688201988913e-01
-6.813709501282293468e-01 3.346247654615239209e-01 6.509684283136734084e-01
-4.242267377561319552e-01 -9.682314165875936796e-02 9.003649005887101042e-01
-7.482819184590155936e-01 2.039457136705837004e-01 6.312529733654262953e-01
-2.889974976536548446e-01 3.061366504445722780e-01 9.070616283387272771e-01
9.994484076672859318e-01 -4.925964409947900836e-03 3.284227893978187290e-02
5.097362704081384033e-01 8.046165887355628543e-01 3.045670365649366662e-01
6.767707621036048726e-01 -5.397909673857367308e-01 -5.006066790310295112e-01
7.893108598649757335e-01 4.733622235533966882e-01 3.910454856046757799e-01
9.984135275239168772e-01 3.354743821665746167e-02 4.522164798355274989e-02
7.346308401396658416e-01 5.669471729342950850e-01 3.726773830238420682e-01
-5.755755420092548702e-01 -1.836412599507401266e-01 7.968617716294696951e-01
5.807470365772235965e-01 -7.278259334355271504e-01 3.646947903733706586e-01
-8.677381310752761978e-01 -2.108833298409071855e-01 4.500652809017797740e-01
7.186721206250861194e-01 -5.234600943503109338e-01 -4.577116042433327925e-01
5.664239097982504134e-01 -7.410488419787030212e-01 3.605697827201926886e-01
-6.584904054467968226e-01 -3.066159231745409497e-01 6.872969238912225443e-01
7.160403720790395887e-01 -5.332684616705126723e-01 -4.504563611943728230e-01
7.195439258089507684e-01 -5.340830024790281794e-01 -4.438602091812572370e-01
7.206068394855831283e-01 -5.380032160280686648e-01 -4.373537726258395764e-01
5.679577604878833785e-01 -7.461105268161515314e-01 3.474810269291155884e-01
-8.217809485783136303e-01 -3.395928037856085768e-01 4.575508716752226257e-01
7.166692566328792813e-01 -5.458393551808515820e-01 -4.341020328598201861e-01
7.147694630677328131e-01 -5.530437398757421796e-01 -4.280738679832224447e-01
7.021943944897159895e-01 -5.685639008318600363e-01 -4.285535240994758910e-01
5.850149985143546782e-01 -7.321855006935996668e-01 3.488005792531205795e-01
7.050598525078414225e-01 -5.658379280704768366e-01 -4.274553117444334083e-01
6.922733528017116500e-01 -5.838235240527229752e-01 -4.241552755340153302e-01
6.924541623692666015e-01 -5.840392100786855334e-01 -4.235627865005875403e-01
6.851939212482288655e-01 -5.928209306025510328e-01 -4.231697467021964254e-01
6.764927731326456639e-01 -6.029361343638657278e-01 -4.228776960040116495e-01
6.680236898280923485e-01 -6.122176021262759615e-01 -4.230058598591908692e-01
6.743092663266347930e-01 -6.139479097071246505e-01 -4.103352014052509822e-01
6.751481408995512190e-01 -6.085368178793589822e-01 -4.169627430900077480e-01
6.746580466286306033e-01 -6.130679085771385539e-01 -4.110769509375265529e-01
6.750444617612390008e-01 -6.127603423708835040e-01 -4.109011285735255647e-01
6.774078281479465335e-01 -6.118685731883011236e-01 -4.083325648394881546e-01
6.824466480081096131e-01 -6.065001015453590494e-01 -4.079512218978695315e-01
6.834479630319449939e-01 -6.024512517446445337e-01 -4.122515871392079534e-01
6.973174614929611437e-01 -5.719191100253914195e-01 -4.320380648563005299e-01
8.173373770799652327e-01 -4.100727050380354455e-01 -4.047221128266049184e-01
9.201965868580344043e-01 3.819647366255694010e-01 -8.568069507994996448e-02
9.549980297604888646e-01 2.257573682060280348e-02 -2.957517527599644036e-01
8.866481410598173740e-01 4.483670353301538181e-01 -1.132346041827268085e-01
6.493460052960197126e-01 7.181228993801459515e-01 2.502983555518374370e-01
5.503132460484212451e-01 7.836176637655237753e-01 2.882684309082634289e-01
4.765263563247568168e-01 8.101122985892058592e-01 3.415270053778536874e-01
3.675747071080119888e-01 8.577105518635801396e-01 3.594738431601557371e-01
2.866190666419903832e-01 8.828213727169351710e-01 3.721235473756809853e-01
2.176455866468253730e-01 9.154499719323593299e-01 3.384992577572388250e-01
2.360447032943326917e-01 9.188294367642745319e-01 3.162836767557510309e-01
2.502683926608188503e-01 9.198737899819043884e-01 3.019899702627514282e-01
2.743233153167835003e-01 9.184214586797474489e-01 2.850416511848291035e-01
2.712457971758841513e-01 9.272711384173347726e-01 2.580580426428116247e-01
3.236401171306725888e-01 9.173927472653441439e-01 2.316195627501890231e-01
3.541068670746227998e-01 9.201479119836009080e-01 1.671410983654672278e-01
3.646283048233362467e-01 9.192198740785024746e-01 1.485968452584454647e-01
3.787184537571472442e-01 9.162417637418248662e-01 1.306650801058391320e-01
3.765069266337518483e-01 9.171445592720868234e-01 1.307225749226824385e-01
3.799640025036697399e-01 9.185808668837394109e-01 1.087958997228720970e-01
3.895454512020442017e-01 9.164889179837791833e-01 9.111753212591729156e-02
3.895002436051366312e-01 9.178315104283693016e-01 7.664775728171985270e-02
3.914787710110568253e-01 9.173930320069635380e-01 7.165470447041720481e-02
3.880013900992043130e-01 9.196657600603519445e-01 6.057896543933496969e-02
3.801182110228433775e-01 9.239921270498667738e-01 4.181739827698353895e-02
3.620585900916230560e-01 9.313488556513733752e-01 3.876707904579964475e-02
3.924168743212790855e-01 9.190484980442159557e-01 3.686265034677002617e-02
4.204308924106269219e-01 9.069319932362520653e-01 2.668753175778173364e-02
4.552838052477897191e-01 8.900055643156905560e-01 2.463233984423433484e-02
5.047188621898127669e-01 8.630898476472341763e-01 1.829713196364096683e-02
6.011274324912333489e-01 7.979689272869713301e-01 4.349024018073791020e-02
6.224365102056749199e-01 7.826562747239105278e-01 -4.684698311683097027e-03
6.544712673750131549e-01 7.560758116694437092e-01 4.089888621483164267e-03
6.724340378827236009e-01 7.399237040104715835e-01 -1.858431973896323627e-02
7.699987533764834913e-01 6.362254754922676003e-01 -4.815666239783969460e-02
7.923860176317224502e-01 6.076494645044252518e-01 -5.372641202634589191e-02
8.331695389835540588e-01 5.490440206554663138e-01 -6.617539340579497997e-02
8.580537029019914552e-01 5.034871727626977211e-01 -1.012151658577221114e-01
8.703208556100857640e-01 4.630055874136093097e-01 -1.678315653085153680e-01
8.905228329226154704e-01 4.216544508855811779e-01 -1.708116157989798822e-01
8.969896127628531612e-01 3.936081502482660088e-01 -2.012020344173620634e-01
9.129567787995352957e-01 3.345490674672036424e-01 -2.336382706253421482e-01
8.970623664379626661e-01 3.237515232942415055e-01 -3.007724420311482239e-01
8.951627778111189704e-01 2.308621637666536941e-01 -3.812955055628903800e-01
8.968290011751722801e-01 9.376553480493464432e-02 -4.323259963660379679e-01
8.941491359081575885e-01 3.327420518417238682e-02 -4.465312419350482842e-01
8.799844422244715858e-01 -5.336270948676422043e-02 -4.719955536645621952e-01
8.663640427722455462e-01 -1.689137043517204007e-01 -4.699803249855361575e-01
8.486910112507327630e-01 -2.451086239818200119e-01 -4.686633438535038332e-01
8.427443232503999404e-01 -2.689096081354332979e-01 -4.663363896177019075e-01
8.454291336364618825e-01 -2.847528278173860894e-01 -4.518466632041265307e-01
8.616310568566254435e-01 -2.677360830545973958e-01 -4.311720209970916207e-01
8.534302095758702356e-01 -2.856706252979260841e-01 -4.359462939688534822e-01
8.655708665460782880e-01 -2.736328424716578667e-01 -4.194188151568211675e-01
8.800742028667415395e-01 -2.672154919466299683e-01 -3.925115008661401172e-01
8.720193328073690964e-01 -2.744745338729256967e-01 -4.052727642778764516e-01
8.872657917720458975e-01 -2.657171637920058838e-01 -3.770328946092861289e-01
8.852051533593722210e-01 -2.712653542515671146e-01 -3.779245216293622978e-01
8.834827634544657471e-01 -2.679468423356048401e-01 -3.842690416378072849e-01
8.842745984387664349e-01 -2.760643801942311293e-01 -3.766256663371908564e-01
8.813551722765631258e-01 -2.780976643971215800e-01 -3.819355303689555559e-01
8.810063471301778915e-01 -2.720361438004148535e-01 -3.870712502660723087e-01
8.968216584398854829e-01 -2.579061464777513413e-01 -3.594375224738369790e-01
9.014178559550418690e-01 -2.486622446394024522e-01 -3.544191544715232234e-01
9.026056283169108241e-01 -2.416256774538948493e-01 -3.562584900400006527e-01
9.097386709154338114e-01 -2.282717198284350268e-01 -3.467961541995359664e-01
9.131648782701614619e-01 -2.223266692503599595e-01 -3.416149253675577202e-01
9.274776537506495000e-01 -1.959684882801988048e-01 -3.184047006474055030e-01
9.328469144642230759e-01 -1.857771235252839992e-01 -3.086802464513235811e-01
9.320633055144702528e-01 -1.899630686512713829e-01 -3.084996386740697649e-01
9.356834923962140671e-01 -1.867721922076050201e-01 -2.993535539712023907e-01
9.417406068937095309e-01 -2.029556222423538892e-01 -2.682044830491967513e-01
9.397456819590339627e-01 -2.184247539276786276e-01 -2.629993918452726009e-01
8.020343496054004317e-01 -5.504054634576388549e-01 -2.319369048879977580e-01
1.171273652445177643e-01 -9.634071402394153161e-01 -2.410972053894217260e-01
5.238024388226744099e-01 -8.240559312658117808e-01 -2.157842145038750825e-01
-3.152100406016500322e-02 -9.654261431566258933e-01 -2.587639627397158026e-01
-6.579124174202728714e-02 -9.609301447285172326e-01 -2.688582702132724100e-01
5.283608694747982115e-01 -8.283906843257199393e-01 -1.860206056602346780e-01
2.840749789054622942e-01 -9.380730261686821558e-01 -1.982937314556162678e-01
9.609053927630688552e-01 -2.759421389153959292e-01 -2.273240263695474120e-02
9.920937695965593717e-01 -1.250421149064696313e-01 -1.069681389041252963e-02
9.313843969949303636e-01 3.588071118468565412e-01 6.148627100831077080e-02
7.647558247106972518e-01 6.427639874986275093e-01 4.475471981730518023e-02
5.632289544718209751e-01 8.262883908760483287e-01 -4.543120959198308773e-03
5.364322272775130518e-01 8.438178883196345570e-01 -1.455461747621754863e-02
5.054866505069411931e-01 8.608878108834520093e-01 -5.792601515356573388e-02
8.610399468085977448e-01 4.638878779535027808e-01 -2.083704554096942330e-01
9.963141545314146974e-01 2.561848428414889925e-02 -8.186451455505713848e-02
8.847343506580894745e-01 -2.794109196182634758e-01 -3.730612104785016592e-01
8.588824708735923741e-01 -3.725491941422894304e-01 -3.514655021051189543e-01
8.972130869077941107e-01 -4.024661577171072535e-01 -1.817406629618585345e-01
8.732014468184730038e-01 -4.871705856404718871e-01 -1.356664147256959017e-02
8.247930278530213322e-01 -5.608211708707708798e-01 7.208380891838840621e-02
8.675483213111115921e-01 -4.969278064767314596e-01 2.055882634044029628e-02
8.954719750908168852e-01 -4.450292576661979971e-01 8.882659963344098283e-03
9.075395365898097921e-01 -3.970534108841199950e-01 -1.368231648210178064e-01
9.025140736720027590e-01 -3.885183705394716913e-01 -1.858004913269089009e-01
8.862374768774390343e-01 -4.316764996827937018e-01 -1.680432509787938289e-01
9.178422876587895018e-01 -3.969353428558679009e-01 2.805098425070139036e-03
9.532590060730562476e-01 -3.018389804316806146e-01 1.380207348816307224e-02
9.666015978189889113e-01 -2.542247158998447998e-01 3.242136516898780352e-02
9.786736861224391015e-01 -1.995088829858776003e-01 4.892874105518016381e-02
9.931633015533020137e-01 -5.973652372671468119e-02 1.002905986660401760e-01
9.803802572738236076e-01 -3.321357167441042063e-02 1.942972202692054839e-01
9.810417036793736001e-01 -2.964408917940640140e-02 1.915160662153326532e-01
9.760338785607343137e-01 -6.137010582759346022e-02 2.087859622014846817e-01
9.778188221498320676e-01 -6.912851432854151545e-02 1.977159567567673693e-01
9.782623841943393073e-01 -1.064753711758755494e-01 1.779485965197991904e-01
9.787096690953448475e-01 -1.913244429787319956e-01 7.431245614403217403e-02
9.765944302792431975e-01 -1.915725262252195304e-01 9.779205460183323928e-02
9.765944302792431975e-01 -1.915725262252195304e-01 9.779205460183323928e-02
9.784529343295780279e-01 -1.747375176676190245e-01 1.099847954091700414e-01
9.815294143533066507e-01 -1.218882016691160558e-01 1.474560105696735013e-01
9.765574864199849658e-01 -5.203013766610289914e-02 2.088739823231395565e-01
9.636721776616741231e-01 -4.620305864496113829e-02 2.630612312231833116e-01
9.720646674983786095e-01 3.646893990855045592e-02 2.318626719056197383e-01
9.422745129595578861e-01 6.113988898126752197e-02 3.292121750515712986e-01
9.251945224358048003e-01 1.031720077786587447e-01 3.651994420391456719e-01
9.001823036359463126e-01 1.151908025255266033e-01 4.200034514551112541e-01
8.814349793690818835e-01 1.563284793133317974e-01 4.456835017141732580e-01
8.481219246887153895e-01 1.827508736370755948e-01 4.972839420765511331e-01
8.489127343665858749e-01 1.222078097649970246e-01 5.142104828401390382e-01
8.223395484761336638e-01 1.284140307447965701e-01 5.543171508441201434e-01
8.213059870120160699e-01 3.996213024048667073e-02 5.690865521560499740e-01
8.153587459216372624e-01 3.647032646359421593e-02 5.778062224801094882e-01
8.304474394648725388e-01 4.819132968206386869e-02 5.550086900488236941e-01
8.600829083800614061e-01 1.648250187738543315e-01 4.827940595105675303e-01
8.711592433692310067e-01 2.419660310392746927e-01 4.272399940495386628e-01
8.223440380767831348e-01 5.248191588871244928e-01 2.198070369769390964e-01
7.977688088988823534e-01 5.474857334784699603e-01 2.526347149257211488e-01
8.120977345959965454e-01 5.408371315968121262e-01 2.190718296590941916e-01
7.658495085903551658e-01 6.139691826535845776e-01 1.910925768929837842e-01
8.186214500963375773e-01 5.407325302420756818e-01 1.935645943352561904e-01
8.243850245331078019e-01 5.419765198696598896e-01 1.632506760645092425e-01
7.803844474208603277e-01 6.072967866156289141e-01 1.489655234944307904e-01
2.204007112180967135e-02 8.003623904173461368e-01 5.991112411484008637e-01
-2.526480603755791310e-01 6.579751813620544620e-01 7.093924289841480046e-01
-2.249283814297870776e-01 7.473881956138069826e-01 6.251544675394344885e-01
1.940203884700455739e-01 8.284181415484145328e-01 5.254326518321863482e-01
-3.748588903643949033e-01 6.371214256139210441e-01 6.734664812286202951e-01
4.090337401497777803e-01 7.889522409068612241e-01 4.585256383094911126e-01
5.420378276113086979e-01 7.720805921664092297e-01 3.317929363901227502e-01
-5.430407917001076612e-01 5.281148634742738324e-01 6.528410139745122187e-01
6.133564749486035694e-01 7.559750333346640927e-01 2.286822765613390207e-01
-5.780870431381477381e-01 4.655208541194866267e-01 6.701534935637186718e-01
7.495227041311750549e-01 6.349634808600653768e-01 1.871819808794656925e-01
7.931563137433622623e-01 5.961824987046921986e-01 1.243764053479224502e-01
-5.992646042275403540e-01 4.169161054853116610e-01 6.834199990540005265e-01
-6.055943708440019169e-01 4.225581994620806192e-01 6.743144860296432785e-01
8.289750963911327597e-01 5.513623135255004692e-01 9.380772242795253069e-02
-5.537682060416915242e-01 3.878371292316962760e-01 7.368331800120589969e-01
8.663403463831231832e-01 4.941060887921652212e-01 7.289428816635268316e-02
-2.289762305247873275e-01 4.864748266382408759e-01 8.431560525205004097e-01
-1.736480096990410948e-01 5.481414555965312685e-01 8.181609336701903823e-01
-1.236778488890021288e-01 5.834118334542625073e-01 8.027044426684861733e-01
-9.632346381146376924e-02 6.160408072010338243e-01 7.818027335475747908e-01
-4.662076398971500696e-02 6.723565554101530450e-01 7.387578539426900015e-01
2.820661288714511328e-02 6.978731708392623689e-01 7.156657211381500794e-01
1.202895678235719502e-02 7.148670375864539794e-01 6.991569371543812084e-01
2.413977885842798557e-02 7.236606962801800380e-01 6.897336208536967161e-01
5.612229488676524769e-02 7.349081022379438943e-01 6.758404910048427805e-01
7.496375874923437432e-02 7.350923724527517189e-01 6.738097942564885701e-01
6.961646958125891627e-02 7.344036852974565877e-01 6.751331529295208078e-01
9.380292739004666980e-02 7.264758557110079229e-01 6.807597534240815706e-01
1.291017122950901819e-01 5.859060318855253691e-01 8.000292930153454218e-01
-5.422801867211171634e-02 5.183183346846151895e-01 8.534667104935402815e-01
-5.252804432383701982e-01 3.702930532719247991e-01 7.661354388421521833e-01
8.873217588254748156e-01 4.562763103404851583e-01 6.687320043888456134e-02
-3.227880681594072487e-01 4.148876007845642144e-01 8.506915667673836667e-01
1.035419597296921568e-01 6.677800257569302955e-01 7.371220385902245154e-01
2.085586453641741778e-01 5.910863410252223948e-01 7.791792020435834853e-01
1.876277395273621418e-01 4.832553841533929195e-01 8.551374538906648670e-01
9.142097577086123472e-01 4.022677692660553972e-01 4.900163997329000376e-02
-3.734452042945293759e-01 3.890698486200429573e-01 8.421183600208429487e-01
9.322082018629852529e-01 3.571551452385213765e-01 5.854972765974469223e-02
-4.249524813971855552e-01 2.906418952146820889e-01 8.572879780449463860e-01
-3.920217626251238929e-01 3.109055835979382953e-01 8.658271511773677487e-01
-4.673413801102398457e-01 2.778595914527449140e-01 8.392771186410182827e-01
9.650350883399183566e-01 2.170619487131762448e-01 1.469400853872231683e-01
9.848943322699373892e-01 1.524316970264696647e-01 8.214457988318300818e-02
-5.050802415692459135e-01 2.425273500471180343e-01 8.282961028856012931e-01
9.638368581098293308e-01 4.845216037031468276e-02 2.620513291407279843e-01
-5.452102425051467138e-01 1.836917161643060459e-01 8.179261243413681326e-01
-4.757205132467866582e-01 2.176419369313387642e-01 8.522452584584963020e-01
8.766603428771236883e-01 -2.119946665628648086e-01 4.318852909922537564e-01
-5.687225266193153272e-01 1.696594806811612122e-01 8.048418157195491585e-01
-6.054447097170662095e-01 1.327675455419964345e-01 7.847352944314224255e-01
-5.911735158947043489e-01 1.066519308874903926e-01 7.994618438316263287e-01
6.239819246496549621e-01 -3.790437768216426417e-01 6.833537685293739061e-01
-6.225115557750150463e-01 7.994757306188793322e-02 7.785163765060336694e-01
6.948118204288579181e-01 -1.118270625497096854e-01 7.104443977355580087e-01
-6.318471391203490661e-01 7.781200945015508130e-02 7.711773362662827092e-01
-6.280824207840715045e-01 9.438825834883346477e-02 7.724010159158870570e-01
-6.466928688643263090e-01 7.649852539011306463e-02 7.589046771322242035e-01
7.189594105997748619e-01 2.033426619542269831e-01 6.646421050004230890e-01
7.359882731861441263e-01 1.974506699743023563e-01 6.475604177674674222e-01
-6.601057707736244229e-01 5.707858336127865501e-02 7.490009390600446126e-01
7.349245559061635680e-01 2.600448678025703009e-01 6.263086809678370948e-01
-6.438905681742939091e-01 4.138761416922662889e-02 7.639973832478512694e-01
7.042968923001960979e-01 3.150706096433249503e-01 6.361575264313623634e-01
-6.666557147236679137e-01 6.307728348599194942e-03 7.453390977195251121e-01
7.362171676158706379e-01 3.181193528131585069e-01 5.973142886901353643e-01
6.862303028110188219e-01 3.225431566947415951e-01 6.519615660246306232e-01
-6.723337533648644504e-01 -1.703085632995188919e-02 7.400522103331508283e-01
-6.796056965311567666e-01 -3.299210650334921668e-02 7.328353281269079922e-01
7.072004163661589349e-01 2.800198729418337806e-01 6.491967666656778269e-01
6.658388667975030373e-01 2.891953694489450832e-01 6.877678690889137414e-01
-6.775681299186890882e-01 -5.833574313766356351e-02 7.331428035458487091e-01
7.195290286820357206e-01 2.009089291897696028e-01 6.647658076764373369e-01
6.821395884471573856e-01 3.197654616539776645e-02 7.305224721858150083e-01
6.956899590427091384e-01 7.177275769233601443e-02 7.147476142949977795e-01
-6.766843978579439867e-01 -8.404845506339145289e-02 7.314602401341366855e-01
-6.715831271686331094e-01 -1.002026833970947051e-01 7.341222824178688100e-01
-6.638209594022838056e-01 -1.051658040048171622e-01 7.404605914741526629e-01
6.384104673468298241e-01 -2.486528098802960884e-01 7.284256004017403141e-01
-6.594014634204927727e-01 -1.124686934038423708e-01 7.433306821616776361e-01
6.220675841445757470e-01 -3.635515354498616292e-01 6.934422844250117679e-01
-6.692122594392484469e-01 -1.112369479055272253e-01 7.346980966607161712e-01
-6.343486814051391143e-01 -1.302187720395916459e-01 7.620005392439445080e-01
6.221842910003064775e-01 -3.876382060697788901e-01 6.801641928442349050e-01
-6.426029414469424106e-01 -1.220974656642214579e-01 7.564084006157729689e-01
6.553310567873157355e-01 -2.780512807063953984e-01 7.023024215447027929e-01
-6.249996610930123042e-01 -1.427316360717360844e-01 7.674653762209115992e-01
-6.377652119417664967e-01 -1.348657382092527668e-01 7.583315680453681651e-01
-6.151195633955999220e-01 -1.422207157150270906e-01 7.755006065436131912e-01
7.049043410034280255e-01 -2.080338887203999829e-02 7.089972419170342821e-01
-6.133041131030192439e-01 -1.462680896167240230e-01 7.761853585393073685e-01
6.874256687313412550e-01 5.799630946318341113e-02 7.239353410753743834e-01
-5.905583220586897442e-01 -1.641376204468208699e-01 7.901263884982454577e-01
6.878435273090736102e-01 4.541204272180714846e-02 7.244370423403571069e-01
-5.890800270966263241e-01 -1.762488599390744370e-01 7.886197189051351586e-01
-5.848513135452859668e-01 -1.939721662775115152e-01 7.876063355217269857e-01
5.745219848275306962e-01 -7.936698021717019519e-03 8.184506691147283020e-01
-5.805239605071677023e-01 -2.419944978951613646e-01 7.774513452721918405e-01
4.831609281390270016e-01 -2.531030572496207123e-02 8.751656448604132610e-01
4.795944976060866893e-01 1.792659700088623407e-03 8.774884068961622541e-01
-5.566294821211168475e-01 -2.992378081262972445e-01 7.749970024595881357e-01
-5.483019620447669995e-01 -3.289990294856904307e-01 7.688462765828631973e-01
4.758090871278111145e-01 7.879783557975153507e-02 8.760117657397904489e-01
-4.995682552192894366e-01 -3.771151225692804254e-01 7.798818774062591386e-01
5.247976310929105548e-01 9.519954651681455937e-02 8.458868084692314770e-01
5.484920838426993184e-01 8.654426391044797717e-02 8.316649110946621182e-01
-4.614357203991560352e-01 -4.123714111813011618e-01 7.855105952054713958e-01
5.297807947353023739e-01 1.132295661976547574e-01 8.405423099810753751e-01
-4.300059127154707284e-01 -4.520436126906058338e-01 7.815059099298996559e-01
5.516484796937213275e-01 1.377036136365827057e-01 8.226309437670288327e-01
-4.128653621232236115e-01 -4.802390739545271958e-01 7.738944531434227558e-01
-3.952989046412756502e-01 -4.877527410735100766e-01 7.783547003549764476e-01
5.844541773631596326e-01 8.787858437793208410e-02 8.066539958188289061e-01
-3.903383941848363459e-01 -5.089379077509714744e-01 7.672145358889305156e-01
-3.636175019201827729e-01 -5.118648646162577975e-01 7.783165632753205054e-01
6.117182094963072858e-01 6.620355036554943784e-02 7.883006546297091077e-01
-3.653702686775155417e-01 -5.210240845998264092e-01 7.713873670429356455e-01
-3.438776673030642383e-01 -5.241795432557098122e-01 7.790917509269614794e-01
6.327337960489121116e-01 7.060616590357539357e-02 7.711437691338304257e-01
-3.026224351899999276e-01 -5.291133675709249751e-01 7.927538747791962326e-01
6.574728222742265427e-01 2.180341529587956958e-03 7.534751051505136354e-01
-3.248943812273599741e-01 -5.377350363251951482e-01 7.780004317191809848e-01
-2.893187137459489189e-01 -5.282881066664519842e-01 7.982520643450696785e-01
-2.702421618121366720e-01 -5.119740124606368958e-01 8.153844397240226360e-01
6.587585165619278538e-01 -3.217162280274185604e-02 7.516662846924599961e-01
6.771177564784452985e-01 -5.455907792632325864e-02 7.338493379961762431e-01
-2.696905310036098458e-01 -5.224901787929677743e-01 8.088702186085748869e-01
-2.838884085933831014e-01 -5.164688284488482273e-01 8.078782833490393278e-01
-3.125857765842030012e-01 -5.058496310014618524e-01 8.039939571246388361e-01
6.851876775296559252e-01 -1.174104804413921010e-01 7.188411685790107031e-01
-2.890050420162859068e-01 -5.257598388249966614e-01 8.000329228024796180e-01
-3.395611418119200420e-01 -5.107197213795273694e-01 7.898503637812690492e-01
-4.037112624113993187e-01 -5.053164410811052942e-01 7.626745773757769298e-01
6.542734570571254737e-01 -2.191357862873442586e-01 7.238133395833107331e-01
6.783892804314609615e-01 -2.158668276208121073e-01 7.022745167871401462e-01
-3.599305708007393689e-01 -5.496772597449987030e-01 7.538599964995378322e-01
-3.625612566823371852e-01 -5.489963084584500441e-01 7.530952054368149629e-01
-4.052736438543990127e-01 -5.616510436907747872e-01 7.213191933659057753e-01
5.963429623346739872e-01 -4.136771237634518927e-01 6.879289996421893427e-01
6.106936593983424144e-01 -4.158294467322561361e-01 6.738984534787173519e-01
-3.862625230407730204e-01 -6.128826659326238602e-01 6.893301829265103819e-01
-4.102876769359726228e-01 -6.236586650630547846e-01 6.653674861655409778e-01
4.597013720664491210e-01 -5.764635941482664228e-01 6.755474617981234164e-01
5.134905936226928924e-01 -5.488359236792559326e-01 6.596260600826443499e-01
-3.744040838578481800e-01 -6.971487541934985321e-01 6.113961044339574213e-01
-3.871434468818502617e-01 -7.261204536279263211e-01 5.682156618394238468e-01
-3.381652778596788145e-01 -7.375319646878395474e-01 5.845432797610298215e-01
-3.164012169119268525e-01 -7.653836336174851818e-01 5.604267689244929462e-01
1.714844757513693807e-01 -8.426018542731503747e-01 5.105048381276385827e-01
2.634477667022357417e-01 -8.276907047860787570e-01 4.955031497683223818e-01
2.918097312857648729e-01 -8.261620701009081413e-01 4.819785416940383094e-01
-2.334926606906094770e-01 -8.237767537746778501e-01 5.165975583992570286e-01
8.046860281170882534e-02 -8.982191820385183600e-01 4.321193179893562109e-01
-1.960131186848976248e-01 -8.583495911526946021e-01 4.741464295673039619e-01
-1.662791081240404811e-01 -8.632912002156619691e-01 4.765286579332616568e-01
-1.117890128502701391e-01 -8.887664872630659518e-01 4.445192321194129659e-01
-5.020978115522407859e-02 -8.972184967795662214e-01 4.387230868246620452e-01
-4.142131218299800396e-03 -9.042357026764398231e-01 4.270136259584880190e-01
-3.755768796070624305e-02 -9.075183758951238522e-01 4.183297951230856571e-01
2.839409769607939560e-02 7.295181406387003520e-01 6.833718297494264515e-01
-2.365197656198944967e-02 7.354889416661281043e-01 6.771237705852232169e-01
-6.146566831845559457e-03 7.328556225062927698e-01 6.803564185609597414e-01
-5.018249402727306598e-04 7.327777555258889741e-01 6.804678605034700789e-01
1.291293024813396258e-02 7.311648934140325684e-01 6.820785547656905701e-01
2.083523612785486909e-02 7.313258552536952006e-01 6.817098989841264833e-01
2.420687451107118859e-02 7.311526632012133042e-01 6.817842843012580367e-01
2.661213521944052335e-02 7.298513236704201601e-01 6.830877246705564509e-01
2.934043936524340784e-02 7.281218639564993600e-01 6.848194578473714156e-01
2.736631629899929224e-02 7.268699951757854327e-01 6.862296225356179225e-01
1.679928406103988262e-02 7.277206311652640869e-01 6.856678984985850045e-01
7.622539720041733059e-03 7.315833187287785755e-01 6.817094283094542462e-01
-4.259295672444554648e-03 7.314444036033556085e-01 6.818877787713358840e-01
-2.689296846159753077e-02 7.017960264096222422e-01 7.118701465597419009e-01
-7.755667608237869735e-03 7.016050344540886163e-01 7.125238418808368390e-01
5.526642187139136665e-03 6.948536522723266495e-01 7.191299313406055438e-01
4.073710957080048378e-02 6.920524891253090338e-01 7.206967741007869188e-01
5.617450549300405382e-02 6.893440746016022969e-01 7.222528447464066081e-01
-1.340099861531570125e-01 7.121898166988744894e-01 6.890769105126467453e-01
-8.885406847374163752e-02 7.212411399283638058e-01 6.869615510277832238e-01
-7.110255877322824158e-02 7.239424859265012335e-01 6.861863472894643712e-01
-3.493355472377995818e-02 7.274171115317947800e-01 6.853057657754684229e-01
-1.385403203524947051e-02 7.310247619063970914e-01 6.822102779026874009e-01
2.807320083696259946e-02 7.284755837542741252e-01 6.844963252411491172e-01
2.934824843453990445e-02 7.283406342325559057e-01 6.845864451181770116e-01
-3.665587647595090065e-02 7.413570372261857333e-01 6.701090135753970944e-01
-5.763931165533468792e-02 7.414075587487742869e-01 6.685750081943548917e-01
-6.293137744121231336e-02 7.403392802579605858e-01 6.692812501784856094e-01
-6.040275608095965060e-02 7.335925731448483811e-01 6.768998771491573363e-01
-6.575572881276776915e-02 7.219334002618078561e-01 6.888311474626608311e-01
-5.952657264183066482e-02 7.149509061973401414e-01 6.966360519504564142e-01
-2.884526664750560257e-02 7.096513212218182876e-01 7.039623234805695295e-01
-1.590221251412992157e-02 7.001808043297246265e-01 7.137884566770014150e-01
7.249537833468300274e-02 6.827080796624571679e-01 7.270860321060438336e-01
8.748151809130119694e-02 6.807001733755952966e-01 7.273199144522828341e-01
-3.284540590018683592e-01 5.856813668609488488e-01 7.410096272229449443e-01
-2.571110788590941776e-01 6.327097041921941889e-01 7.304603502921555025e-01
-2.306727025526596753e-01 6.394955477303416735e-01 7.333727215612281247e-01
-1.436638288167346456e-01 6.880241709197706390e-01 7.113251327767621257e-01
1.078618486797882081e-01 6.778546709385832036e-01 7.272405837727453637e-01
1.217879705605754009e-01 6.777264615960746363e-01 7.251582816731811931e-01
1.416806447292013327e-01 6.788831361801598296e-01 7.204472793475650283e-01
1.505470798475447569e-01 6.808822288136017198e-01 7.167530727071905750e-01
-5.700956903136669141e-01 3.040304925968068117e-01 7.632538001589815879e-01
-3.361527885527877957e-01 5.122341441935772677e-01 7.903274538256015447e-01
1.483434065830646353e-01 6.714796980176976904e-01 7.260228983120251556e-01
1.622691697154081680e-01 6.700610467125126535e-01 7.243527526270635564e-01
1.693040673664283347e-01 6.691209211914023181e-01 7.236113083673810786e-01
2.020678282126672498e-01 6.751654339624898471e-01 7.094506533816560268e-01
-6.365752788814023067e-01 1.465858194496059974e-01 7.571555400664730096e-01
1.771783840766834317e-01 6.674136233737394397e-01 7.233027551109642017e-01
1.980242615467911471e-01 6.715734951247726015e-01 7.139855968328389091e-01
2.104182581167614030e-01 6.701447683759291785e-01 7.117795628349271597e-01
2.207226733518413142e-01 6.701393997674516267e-01 7.086569595705215496e-01
2.267221188398899079e-01 6.605186982803735729e-01 7.157598270724278011e-01
2.329738962827441473e-01 6.617441625132669536e-01 7.126133783689808654e-01
2.361695633811025097e-01 6.630587768463995779e-01 7.103358330953999378e-01
2.439906990773112183e-01 6.566175953299232537e-01 7.136679005440232926e-01
2.436336913286859807e-01 6.604418046915012663e-01 7.102529458336596102e-01
2.472026284675954144e-01 6.593118719620265633e-01 7.100695148847330218e-01
2.419917262073901232e-01 6.550209986906563309e-01 7.158124724545267270e-01
2.461391669433969087e-01 6.536160977223028912e-01 7.156825464510642165e-01
2.504177312639551678e-01 6.517113596234270778e-01 7.159352370196607751e-01
-7.339605923163690093e-01 -1.525086434047682737e-01 6.618481416559555131e-01
2.559176810586087369e-01 6.425234988550037052e-01 7.222670516787460526e-01
2.617665631920739755e-01 6.207424052492287458e-01 7.390244466321882477e-01
2.571972245131383672e-01 6.342127570607298814e-01 7.291253434658310217e-01
2.730260632411774524e-01 6.254305284446176616e-01 7.309537761585959137e-01
2.854632323594976651e-01 6.153013899041751555e-01 7.347890462934636435e-01
-7.504564797936144060e-01 -3.483678921111545979e-01 5.616537044138560919e-01
2.858716459275715827e-01 6.060585627438590528e-01 7.422738177919985247e-01
2.961750511125504914e-01 6.044452496988715895e-01 7.395446431520864561e-01
3.022879714165704890e-01 6.027192349900084567e-01 7.384791846151884664e-01
3.066661389524565351e-01 5.889896533453843341e-01 7.476945014322873284e-01
3.238369566306223968e-01 5.843661477567807516e-01 7.440738074116819423e-01
3.244814689267262464e-01 5.886122049067178397e-01 7.404373360102839419e-01
-7.449803243585909618e-01 -3.639260309768659885e-01 5.590725894693764353e-01
3.350855063038068460e-01 5.778122329007521207e-01 7.442114800077787029e-01
3.204715199752736776e-01 5.816215662955134258e-01 7.476726278958536476e-01
-7.475042210789623054e-01 -3.677600730178579025e-01 5.531635998174805335e-01
3.115563843105775832e-01 5.796602093779532616e-01 7.529453240835135563e-01
3.115753665844920861e-01 5.892259625007395529e-01 7.454753893005565679e-01
-7.427109058216685433e-01 -3.665555140622818731e-01 5.603727023009710262e-01
3.118035737684700104e-01 5.767323959964927305e-01 7.550882562941599874e-01
2.892309806843756936e-01 5.902154746409550290e-01 7.536518647934911108e-01
-7.483722639309363656e-01 -3.579480799787268519e-01 5.584014027726182938e-01
2.801463129948874031e-01 5.915721848128825400e-01 7.560161330759305187e-01
2.801463129948874031e-01 5.915721848128825400e-01 7.560161330759305187e-01
2.557544673239018906e-01 6.085653226033689300e-01 7.511577068555740366e-01
-7.427762000821502841e-01 -3.488813044922434714e-01 5.714589678772328263e-01
-7.356235145224137018e-01 -3.609883683560058953e-01 5.731888369406373807e-01
2.513176624998522124e-01 6.041027704188500769e-01 7.562402232676337377e-01
2.480095297315794700e-01 6.080160477865940161e-01 7.541934491868056423e-01
2.540091360271487519e-01 6.103187142167788570e-01 7.503268793609351173e-01
2.593473575226231675e-01 6.130689587302242671e-01 7.462475460512222325e-01
-7.288963641816839090e-01 -3.578718261331643169e-01 5.836418819300379646e-01
2.714028254704687892e-01 5.961248603459686768e-01 7.556293120334502955e-01
2.900829503307137403e-01 5.922248384628405748e-01 7.517457167387727734e-01
-7.308951092345149503e-01 -3.520981992677018613e-01 5.846530572651681412e-01
2.927297189079273720e-01 5.597932949026596106e-01 7.752037013908730234e-01
3.215958106133037786e-01 5.441988027013202611e-01 7.748701812138737433e-01
-7.368650809600578722e-01 -3.490384904075390926e-01 5.789663070298251002e-01
3.486402564409281091e-01 5.187519075735779195e-01 7.806064501255278731e-01
3.645149267771312651e-01 4.614514720866289554e-01 8.088209981607462629e-01
-7.405958175913673891e-01 -3.450106420100193527e-01 5.766155494486845390e-01
4.065600890740758144e-01 4.437140698945157835e-01 7.986405437677981389e-01
3.309796443323386739e-01 3.075287423750573956e-01 8.921202540301694794e-01
-7.334051499017926190e-01 -3.396553932841083201e-01 5.888557547570938411e-01
4.319403666275774545e-01 2.759443103527948749e-01 8.586514177834647654e-01
4.319403666275774545e-01 2.759443103527948749e-01 8.586514177834647654e-01
4.329972466884877136e-01 2.376022766962334054e-01 8.695162692376464664e-01
-7.337543236777913647e-01 -3.389060802717270282e-01 5.888524953152534103e-01
4.719582085323048015e-01 5.673283603773389416e-02 8.797936318899409747e-01
5.380147137242086153e-01 -3.207990651832895446e-02 8.423247873676952269e-01
-7.351539073390803702e-01 -3.312371108856472790e-01 5.914648839079225118e-01
5.619094461997412582e-01 -2.854965246332978879e-01 7.763694408551953252e-01
6.315766753024542046e-01 -4.239603072792459959e-01 6.491290788938559597e-01
-7.296334301701354885e-01 -3.267627633221685257e-01 6.007171997572754440e-01
4.938534840690990135e-01 -4.769690873131971487e-01 7.270551739864231644e-01
5.009342994546254202e-01 -4.624058941745985973e-01 7.316048227441460661e-01
-7.317544305132753779e-01 -3.109100670978090508e-01 6.065231929625016782e-01
4.627390011548737636e-01 -5.532275437728456646e-01 6.926845614139627294e-01
-7.273752310752159556e-01 -3.107905116902012765e-01 6.118288413123550429e-01
4.782187362602628444e-01 -6.028311405611443963e-01 6.386716341433888999e-01
-7.321425997407540187e-01 -3.005514552327268607e-01 6.112577495642407266e-01
-7.227796011039337998e-01 -2.980296189997783118e-01 6.235126257156992091e-01
4.052567036281953250e-01 -6.674802894165229317e-01 6.246895768338415200e-01
-7.317489554228622239e-01 -2.879252442041483340e-01 6.177722233862019685e-01
-7.248677747651890435e-01 -2.877161338362840270e-01 6.259282190772872401e-01
3.607985162014444858e-01 -7.284167195042517973e-01 5.824375618497660279e-01
3.819680364082298496e-01 -7.100325079675692264e-01 5.915693169796122364e-01
-7.309315919668095685e-01 -2.765898669608703453e-01 6.238886546166980684e-01
3.337849898253868464e-01 -8.063250110923523284e-01 4.882904433369388841e-01
3.092531647058082145e-01 -8.071047175180987576e-01 5.029358359467660522e-01
3.298463620096200866e-01 -8.186971536497608115e-01 4.700386665741433934e-01
3.875985322497786933e-01 -7.407916422147915458e-01 5.486302221191698969e-01
-7.456425475166404970e-01 -2.431467660814267129e-01 6.204005492236758235e-01
6.126057345564550616e-01 -9.447931310560279961e-02 7.847215260101125800e-01
3.392675415888762314e-01 -3.444286983169281835e-01 8.753664415545906463e-01
6.317784791098807196e-01 -2.791402143303626238e-01 7.231436192605209534e-01
6.023406801072134220e-01 -4.085415587601002319e-01 6.857692759622926459e-01
-7.348790208467607110e-01 -2.361322277710772577e-01 6.357628455070133411e-01
-7.431879199308185635e-01 -2.231878679066772175e-01 6.307605657364565577e-01
6.192964185612610528e-01 5.257491232172793044e-02 7.833950628843392439e-01
6.070452949427411760e-01 6.881679712401742033e-02 7.916819173894729111e-01
6.151495957908957868e-01 7.657785720542388541e-02 7.846826151917239978e-01
-7.462122389215144480e-01 -1.992338639098915620e-01 6.351953730587741598e-01
6.091906204844296235e-01 9.192581391079765463e-02 7.876778736581553364e-01
6.260875243327190809e-01 9.751862955152434953e-02 7.736307444545618139e-01
-7.405615066357288390e-01 -1.787109842245818148e-01 6.477893477102727449e-01
6.413039861713615286e-01 3.379932303905954227e-01 6.888321809634418980e-01
-7.442667480118161372e-01 -1.697562544244871074e-01 6.459487765199998233e-01
5.250051118439768016e-01 6.996276083651369326e-01 4.846553849396206259e-01
-7.457818317347592041e-01 -1.585412696484973794e-01 6.470503266922829066e-01
3.102734666855945234e-01 9.143117806365130829e-01 2.603158536474340368e-01
2.961957046357664436e-01 9.430788845383081265e-01 1.512293691493239722e-01
-7.585365466829682157e-01 -1.412455827342825876e-01 6.361383439978524068e-01
2.731224214129807093e-01 9.556909982058370279e-01 1.098128356333691324e-01
-7.613072455591326504e-01 -1.413756785887399781e-01 6.327907990503178759e-01
2.899508614211284696e-01 9.512851153689574346e-01 1.048099577264248322e-01
4.038144716301155235e-01 8.779453495763489546e-01 2.571883272221990868e-01
-7.553193882788878932e-01 -1.413031049827296604e-01 6.399422272457461203e-01
6.674562329746560607e-01 6.483530131071727487e-01 3.662520272409859889e-01
8.299289655398469634e-01 2.028528066333308011e-01 5.196812975266089651e-01
