2.458390231728521391e-01 7.830917334655229656e-01 -5.712534565876865589e-01
2.429678918859176917e-01 8.449770432013530286e-01 -4.764246005143016882e-01
4.623120636702957587e-01 8.359048006789230323e-01 -2.958559108533110327e-01
3.493542654179677132e-01 8.889822778336973208e-01 -2.960778730872726805e-01
2.446901523563118075e-01 8.064913809321241356e-01 -5.382363624115715783e-01
1.566064147523550387e-01 8.190851759719612879e-01 -5.518821480727514883e-01
-1.572783175053411864e-01 7.931947816685457342e-01 -5.883073764423468743e-01
-1.572783175053411864e-01 7.931947816685457342e-01 -5.883073764423468743e-01
-8.436300291608279933e-02 7.714629711121054889e-01 -6.306566165052609474e-01
-8.436300291608279933e-02 7.714629711121054889e-01 -6.306566165052609474e-01
3.034834959888637121e-02 7.719211756602438745e-01 -6.349934458275381388e-01
3.034834959888637121e-02 7.719211756602438745e-01 -6.349934458275381388e-01
3.034834959888637121e-02 7.719211756602438745e-01 -6.349934458275381388e-01
-1.146022553909672725e-01 8.125983690313487440e-01 -5.714457224504314592e-01
-1.146022553909672725e-01 8.125983690313487440e-01 -5.714457224504314592e-01
-4.544049386486298525e-01 7.866026650841450030e-01 -4.180578895491097180e-01
-2.370014449537093948e-01 8.023675320706017411e-01 -5.477560210246762429e-01
-3.208873485363449296e-01 8.351438724711430783e-01 -4.467281296529437284e-01
-3.208873485363449296e-01 8.351438724711430783e-01 -4.467281296529437284e-01
-3.208873485363449296e-01 8.351438724711430783e-01 -4.467281296529437284e-01
-3.414673224171396182e-01 7.754621756106963026e-01 -5.310917829513038813e-01
-5.933726886155359370e-01 7.296164181133789617e-01 -3.399540186916065188e-01
-5.933726886155359370e-01 7.296164181133789617e-01 -3.399540186916065188e-01
-6.875456969534241569e-01 6.958758455816731470e-01 -2.074553497425934145e-01
-5.014325451882534201e-01 8.025162133473707771e-01 -3.233158362045190914e-01
-5.921606098861964540e-01 7.831435872548082600e-01 -1.898207940160355212e-01
-5.921606098861964540e-01 7.831435872548082600e-01 -1.898207940160355212e-01
-3.355560947039473718e-01 8.675882990603860367e-01 -3.670049735910151378e-01
-4.455660530097131367e-01 8.650102465429049259e-01 -2.307123008882020210e-01
-5.744709320665509766e-01 7.804845319396254144e-01 -2.466313921899888351e-01
-6.970083365565628020e-01 7.149914908179534345e-01 -5.446601535428857027e-02
-7.045327206314748736e-01 6.975375746243350772e-01 -1.306712575389573083e-01
-6.347473743280455105e-01 7.687060810646124676e-01 -7.865577993979545879e-02
-5.526050625759132418e-01 8.334254743943051436e-01 5.442742516267639295e-03
9.267688019545523570e-01 -1.946406526952501048e-01 3.212702974787602361e-01
9.267688019545523570e-01 -1.946406526952501048e-01 3.212702974787602361e-01
9.267688019545523570e-01 -1.946406526952501048e-01 3.212702974787602361e-01
9.267688019545523570e-01 -1.946406526952501048e-01 3.212702974787602361e-01
9.638856075317790983e-01 -1.600333256190562548e-01 2.128705481845670766e-01
9.638856075317790983e-01 -1.600333256190562548e-01 2.128705481845670766e-01
9.638856075317790983e-01 -1.600333256190562548e-01 2.128705481845670766e-01
9.638856075317790983e-01 -1.600333256190562548e-01 2.128705481845670766e-01
9.691483472668318555e-01 -1.234083417599635968e-01 2.133585296490961569e-01
9.691483472668318555e-01 -1.234083417599635968e-01 2.133585296490961569e-01
9.691483472668318555e-01 -1.234083417599635968e-01 2.133585296490961569e-01
9.889281300596689528e-01 -5.256146566151634336e-02 1.387748028433097025e-01
9.889281300596689528e-01 -5.256146566151634336e-02 1.387748028433097025e-01
9.889281300596689528e-01 -5.256146566151634336e-02 1.387748028433097025e-01
-9.899785603600609329e-01 -3.390266318978283483e-02 1.370877801120925499e-01
-9.866148257219358175e-01 4.037896129760194905e-04 1.630675400551026555e-01
-9.516220758890187037e-01 1.988538061846350027e-02 3.066268030005428469e-01
-9.763798934580144584e-01 2.500759342264699536e-02 2.146087694436650817e-01
-9.763798934580144584e-01 2.500759342264699536e-02 2.146087694436650817e-01
6.590931645750536250e-01 7.444863487171350380e-01 1.064719539797679554e-01
7.207449697413838008e-01 6.739479247763272562e-01 1.622371205432770469e-01
7.207449697413838008e-01 6.739479247763272562e-01 1.622371205432770469e-01
7.207449697413838008e-01 6.739479247763272562e-01 1.622371205432770469e-01
7.207449697413838008e-01 6.739479247763272562e-01 1.622371205432770469e-01
7.207449697413838008e-01 6.739479247763272562e-01 1.622371205432770469e-01
7.207449697413838008e-01 6.739479247763272562e-01 1.622371205432770469e-01
7.207449697413838008e-01 6.739479247763272562e-01 1.622371205432770469e-01
7.299420539298621113e-01 6.830109645442169475e-01 2.608869902913490621e-02
7.300349734557172177e-01 6.827304617224635441e-01 3.046398148210262974e-02
7.300349734557172177e-01 6.827304617224635441e-01 3.046398148210262974e-02
6.826580606397600892e-01 7.233340274086345056e-01 1.037586480076069656e-01
-6.724954879815046027e-01 7.399939440158502801e-01 1.260085173252225611e-02
-7.106445742575888680e-01 6.995047235210133385e-01 7.534872825762245485e-02
-6.653154072822428100e-01 7.309996416780766282e-01 1.516408015653673835e-01
-7.176786012061412423e-01 6.922227045442570503e-01 7.592860254364519612e-02
-7.373101950185357856e-01 6.573798656652933836e-01 1.556450723267845948e-01
-7.373101950185357856e-01 6.573798656652933836e-01 1.556450723267845948e-01
-7.373101950185357856e-01 6.573798656652933836e-01 1.556450723267845948e-01
-7.453745228885151342e-01 6.570924917647755770e-01 1.124556707999946753e-01
-6.770119992674723530e-01 6.963418141993613641e-01 2.382495134211235488e-01
-6.367787726662493819e-01 7.409747367850927358e-01 2.132351615656472021e-01
9.946706108620072539e-01 4.706641094868004027e-02 9.173401140150375110e-02
9.897167542309222021e-01 -2.834385153778195068e-02 1.402047519687269761e-01
9.748567787885715763e-01 2.756068447903111535e-02 2.211213909168838754e-01
9.907406120079580436e-01 7.579501032027828600e-02 1.126417157568451594e-01
-9.452530906027746260e-01 1.028129690289079357e-01 3.097193699227794306e-01
-9.559903765128692221e-01 2.887769492425216744e-01 5.186784746800621876e-02
-9.764997192980994223e-01 1.516420140360163205e-01 1.531437161291110405e-01
-9.258022694967356081e-01 2.376207285148506654e-01 2.939839233270510332e-01
-9.129266592776893452e-01 2.773986251222874122e-01 2.993575079404932060e-01
-8.745133599618073461e-01 4.595286360892043009e-01 1.551122685744290575e-01
-9.418727675307714264e-01 3.314107266536151508e-01 5.515994962695452281e-02
-9.418727675307714264e-01 3.314107266536151508e-01 5.515994962695452281e-02
-8.534008633590987047e-01 3.432467956670136044e-01 3.922863796797850799e-01
-8.231710731993612251e-01 4.088652267049295297e-01 3.939779316653896357e-01
-8.231710731993612251e-01 4.088652267049295297e-01 3.939779316653896357e-01
5.657784540066912449e-01 7.485775461660597596e-01 3.457259006175254501e-01
5.847523868617588994e-01 7.310489279619958314e-01 3.516135819121505302e-01
6.408941241430264890e-01 7.476770667385861380e-01 1.738784791517531958e-01
6.408941241430264890e-01 7.476770667385861380e-01 1.738784791517531958e-01
6.090199604466389749e-01 7.809974848302436712e-01 1.383387742695722789e-01
6.090199604466389749e-01 7.809974848302436712e-01 1.383387742695722789e-01
5.621184913481098722e-01 7.465652183287871946e-01 3.558977050589328672e-01
6.392709506915813522e-01 7.214712717667958186e-01 2.661049710491784626e-01
6.392709506915813522e-01 7.214712717667958186e-01 2.661049710491784626e-01
5.830107744440151674e-01 7.126952161709115829e-01 3.900819987249952159e-01
6.031608512140030909e-01 7.072541514498642545e-01 3.687662577022627342e-01
6.433235728273840603e-01 7.165247964764042132e-01 2.696794331777211950e-01
6.433235728273840603e-01 7.165247964764042132e-01 2.696794331777211950e-01
6.105923875085808028e-01 6.959189044304225913e-01 3.779865272373225671e-01
7.108413006434532999e-01 6.827467261918587216e-01 1.690016366010183013e-01
7.108413006434532999e-01 6.827467261918587216e-01 1.690016366010183013e-01
7.108413006434532999e-01 6.827467261918587216e-01 1.690016366010183013e-01
7.108413006434532999e-01 6.827467261918587216e-01 1.690016366010183013e-01
7.108413006434532999e-01 6.827467261918587216e-01 1.690016366010183013e-01
7.108413006434532999e-01 6.827467261918587216e-01 1.690016366010183013e-01
6.263502205341092699e-01 6.949920744238544668e-01 3.530883993066045168e-01
6.263502205341092699e-01 6.949920744238544668e-01 3.530883993066045168e-01
6.558093870082781773e-01 7.065884379063629428e-01 2.657947089933743179e-01
6.558093870082781773e-01 7.065884379063629428e-01 2.657947089933743179e-01
6.558093870082781773e-01 7.065884379063629428e-01 2.657947089933743179e-01
-6.824442227582562248e-01 6.917100797822062219e-01 2.362351547750110303e-01
-6.824442227582562248e-01 6.917100797822062219e-01 2.362351547750110303e-01
-6.824442227582562248e-01 6.917100797822062219e-01 2.362351547750110303e-01
-6.832276263668634053e-01 6.905273194878203125e-01 2.374279503556130377e-01
-6.832276263668634053e-01 6.905273194878203125e-01 2.374279503556130377e-01
-6.832276263668634053e-01 6.905273194878203125e-01 2.374279503556130377e-01
-6.090716981943115060e-01 7.525356022377475140e-01 2.504432746618844852e-01
-6.090716981943115060e-01 7.525356022377475140e-01 2.504432746618844852e-01
-6.277425591268985805e-01 7.391028397636392189e-01 2.442668043638690778e-01
-6.277425591268985805e-01 7.391028397636392189e-01 2.442668043638690778e-01
-6.430219907046547112e-01 7.195575364279932495e-01 2.622206537248734648e-01
-6.463669878915221378e-01 7.164404919274109940e-01 2.625314047706488463e-01
-6.463669878915221378e-01 7.164404919274109940e-01 2.625314047706488463e-01
-5.361878448287763499e-01 7.514172583326139687e-01 3.845447944489298053e-01
-5.361878448287763499e-01 7.514172583326139687e-01 3.845447944489298053e-01
-5.184640691313652239e-01 7.601824562202572633e-01 3.915579679621951081e-01
-5.184640691313652239e-01 7.601824562202572633e-01 3.915579679621951081e-01
9.334809081931090269e-01 3.175087110284325886e-01 1.667381553815191764e-01
8.552440286142997117e-01 4.179938148896353844e-01 3.063312296087229991e-01
9.128196784559988730e-01 2.689281733817894815e-01 3.073074554660543689e-01
8.346668122870947171e-01 5.487506310547209942e-01 -4.694738952854792674e-02
8.325630589528352221e-01 5.085884116625364326e-01 2.194916408195906887e-01
9.193396955431780704e-01 3.844678713667979419e-01 8.365990727499128532e-02
8.801208721493043452e-01 4.673674239245868556e-01 8.339629165162602831e-02
9.671050804331339235e-01 1.347219823478808531e-01 2.157724516074255583e-01
9.679070412433844472e-01 2.227296499698155074e-01 1.163935674159044947e-01
9.790880861376108912e-01 1.621397672563049397e-01 1.228707266091534772e-01
9.314331376855742306e-01 2.214228458974840386e-01 2.887979108924876304e-01
-7.022043863054551194e-01 5.322341853678701495e-01 4.729014398150831466e-01
-6.876812885194114600e-01 6.207430947370308205e-01 3.765268327179028818e-01
-6.876812885194114600e-01 6.207430947370308205e-01 3.765268327179028818e-01
-5.028502412087838547e-01 8.642915779414942490e-01 1.190391598044717933e-02
-7.191282185293742524e-01 6.852621935663132380e-01 1.151969243662933212e-01
-5.462820998064594757e-01 7.903477309753340618e-01 2.773559654544793251e-01
-5.955728850587029832e-01 7.894246193242849818e-01 1.486664353092547186e-01
3.948895622857397786e-02 9.623916869028705801e-01 2.687803253890152511e-01
1.160168781545078687e-01 9.845371963626758927e-01 1.312501160441538750e-01
-7.848852186492570604e-02 9.930846054125573863e-01 8.730703538687124843e-02
-2.913347100224604191e-01 9.560492894518490825e-01 3.307329549263703788e-02
-7.976147885722983943e-02 9.928958938988987626e-01 8.829411287970767575e-02
-3.294636396764708541e-01 9.423511281638705661e-01 5.854964884107314443e-02
-3.934861205118737049e-01 8.588814760637861756e-01 3.278586327047179338e-01
-1.178105352576214598e-01 9.382585230601571125e-01 3.252562400435778378e-01
1.606958327170986134e-01 9.766197861151839632e-01 1.427958077665109904e-01
1.407871094709803594e-01 9.311185951879106248e-01 3.364478436579700915e-01
1.407871094709803594e-01 9.311185951879106248e-01 3.364478436579700915e-01
3.226733341613746142e-01 8.849148104042577900e-01 3.358685721355575970e-01
2.913504545579629901e-01 9.441817041238426134e-01 1.537394621646142601e-01
2.913504545579629901e-01 9.441817041238426134e-01 1.537394621646142601e-01
5.346220799435345006e-01 7.918526950946067622e-01 2.952093171094994917e-01
5.461059855177732292e-01 8.169546213974836490e-01 1.853466998868769366e-01
5.461059855177732292e-01 8.169546213974836490e-01 1.853466998868769366e-01
5.080742148558038407e-01 8.399204159763816735e-01 1.907728676324817740e-01
4.330028356143831303e-01 8.432148657628604216e-01 3.185863062129708490e-01
4.873648494727053082e-01 8.215038050082654753e-01 2.959848000411320901e-01
4.108943032394126171e-01 8.608022321864496895e-01 3.003088220952274678e-01
4.655789086017517175e-01 8.720871357274123659e-01 1.506662124165852601e-01
3.695439285749193559e-01 9.197650067683033059e-01 1.321726793929748067e-01
4.196621465914187610e-01 8.917824613460393346e-01 1.691381812420906239e-01
6.008584841047265312e-01 7.876223104033459599e-01 1.364557739132558623e-01
5.738714632783654679e-01 8.056604179943588351e-01 1.469109747837192559e-01
-5.595323514493649730e-01 8.063494660779809697e-01 1.916352948631837860e-01
-5.595323514493649730e-01 8.063494660779809697e-01 1.916352948631837860e-01
-4.906565575988632300e-01 7.957370726358017343e-01 3.550473964391770987e-01
-4.975662988889947846e-01 8.272653395258184883e-01 2.608828017120708997e-01
-4.975662988889947846e-01 8.272653395258184883e-01 2.608828017120708997e-01
-5.506579807815409344e-01 8.120124244321907936e-01 1.934208126581828668e-01
-4.958795162867573603e-01 8.597287491796018477e-01 1.223518825408448085e-01
-4.958795162867573603e-01 8.597287491796018477e-01 1.223518825408448085e-01
-4.100402812389195017e-01 9.081334217504667405e-01 8.462065977819355211e-02
-4.100402812389195017e-01 9.081334217504667405e-01 8.462065977819355211e-02
-4.661867932097286671e-01 8.745461071357998328e-01 1.335626457152143953e-01
-1.667253517627627912e-01 9.784207750612025078e-01 1.220468926610533689e-01
-1.180263319932753352e-01 9.788202863804797982e-01 1.672741221057475469e-01
-3.259653346271371155e-01 9.406549317418747558e-01 9.441874819709900057e-02
-2.221606238273426959e-01 9.292941045507919773e-01 2.950544432266488659e-01
-2.221606238273426959e-01 9.292941045507919773e-01 2.950544432266488659e-01
-2.091253725045161826e-01 9.712060844427433670e-01 1.141285245512362739e-01
-3.452035248661111111e-01 9.324558352864348310e-01 1.065863108484808724e-01
-3.922727867667420432e-01 8.763161417558827937e-01 2.796284686156577659e-01
-2.335865059440223046e-01 9.231011516989207077e-01 3.054858556021694538e-01
-3.586982958481447215e-01 8.977429617577441512e-01 2.557207601468258762e-01
2.250550589342794339e-01 9.743340414330952104e-01 4.836956971037581834e-03
9.749731317469682856e-02 9.952157205033799192e-01 -6.320093880107801460e-03
2.398613834739543593e-02 9.904257347220370988e-01 1.359467879999103068e-01
6.603985399436751620e-03 9.275119655362628057e-01 3.737351216622575856e-01
6.603985399436751620e-03 9.275119655362628057e-01 3.737351216622575856e-01
2.677816333595243181e-01 8.425917610747023501e-01 4.672602283571083426e-01
2.823876227559137808e-01 9.424854349025290068e-01 1.788251534624101524e-01
2.084331326703990073e-01 9.008677403071740919e-01 3.807793897771384883e-01
7.486898780127145825e-01 6.206208679441637122e-01 2.330090230732269618e-01
7.486898780127145825e-01 6.206208679441637122e-01 2.330090230732269618e-01
7.553551128268332082e-01 6.531172907947766504e-01 -5.363262058908923463e-02
7.553551128268332082e-01 6.531172907947766504e-01 -5.363262058908923463e-02
5.528429185034500204e-01 8.315989336259060893e-01 5.298982027563003960e-02
4.405094183870524871e-01 7.717334821151483615e-01 4.586707805111732150e-01
6.753267893006512645e-01 6.525300183111896191e-01 3.437125293841823970e-01
6.753267893006512645e-01 6.525300183111896191e-01 3.437125293841823970e-01
4.737657996880317857e-01 8.626398559751337070e-01 1.771960663478742704e-01
4.737657996880317857e-01 8.626398559751337070e-01 1.771960663478742704e-01
5.264167617658024323e-01 7.742890858669628784e-01 3.512289914561572135e-01
1.207803275745156224e-01 9.923732703655321341e-01 2.464558246443397313e-02
-2.115088765324173517e-02 9.990473702505292541e-01 -3.817056388084576896e-02
-3.936821170220627386e-01 -7.078535479071546010e-01 5.864791091354238928e-01
-5.925150978411666269e-01 -5.745131426454832546e-01 5.646773483662004267e-01
4.299683514575042276e-02 -8.609770042639552923e-01 5.068233126999134308e-01
-7.475873833377684463e-02 -7.932921649815393161e-01 6.042339547076481798e-01
-3.145906004397251987e-01 -5.933516218092810268e-01 7.409228077278152691e-01
-2.639091228151256852e-01 -7.170846769735311765e-01 6.450903354916404098e-01
-1.564856615949749563e-01 -6.450060899862710695e-01 7.479835436664402648e-01
3.862054954745844926e-01 -8.352700491612836675e-01 3.913684456357430785e-01
2.985547163092895917e-01 -7.698920265713055100e-01 5.640313367104773379e-01
2.985547163092895917e-01 -7.698920265713055100e-01 5.640313367104773379e-01
2.973387950582013772e-01 -8.330930835689334124e-01 4.664177902513401697e-01
2.209646858930909216e-02 -7.024327314208925754e-01 7.114070592174818186e-01
1.259067311810634082e-01 -8.435466664299199335e-01 5.220886099104909972e-01
1.933640869816553864e-01 -7.386774508150210083e-01 6.457290093554517441e-01
1.414171457055934666e-01 -7.579979273588821620e-01 6.367419673777765521e-01
4.157690203688257924e-01 -8.160495991056503362e-01 4.014961687252499578e-01
3.308922012069487328e-01 -7.513053686006165854e-01 5.710084012449481161e-01
4.207501455740442764e-01 -7.651708853126943932e-01 4.873221021759713278e-01
-4.302699628972485590e-01 -7.862795776606208431e-01 4.434322775602112521e-01
-4.466657263742788153e-01 -7.497099239502256207e-01 4.882875779835943453e-01
-3.062348162883082869e-01 -8.280857407600442643e-01 4.695681454727893001e-01
-1.190560992450569594e-01 -8.666190361253084395e-01 4.845586563645236655e-01
-1.599386228180422753e-01 -7.511810049076613760e-01 6.404269941195358529e-01
-1.775647159497682481e-01 -8.288674230558576994e-01 5.305182057634023618e-01
-1.775647159497682481e-01 -8.288674230558576994e-01 5.305182057634023618e-01
-3.304779559738424966e-01 -7.340950412849367446e-01 5.932021501783503181e-01
-3.315072680145994544e-01 -8.042243748364877876e-01 4.932809404105908957e-01
-3.195456894583665886e-01 -7.440976639074822208e-01 5.866934624793469499e-01
1.328812987319499539e-01 -8.624516619743269885e-01 4.883847778187107580e-01
4.100895673162230914e-01 -7.877902094830581126e-01 4.595792996002241448e-01
3.234771697912229849e-01 -7.831111677599885690e-01 5.311303225701273778e-01
-4.029867279093246255e-03 -7.034119845175833552e-01 7.107709477790634667e-01
5.352508442493545543e-02 -8.358158050059731892e-01 5.463945510704883990e-01
2.596618785252907124e-01 -6.461362428092795041e-01 7.176932942204664601e-01
6.138807788894288381e-02 -7.395818549972956735e-01 6.702612801377237917e-01
6.138807788894288381e-02 -7.395818549972956735e-01 6.702612801377237917e-01
6.138807788894288381e-02 -7.395818549972956735e-01 6.702612801377237917e-01
5.010985533778721246e-01 -5.952165531844259005e-01 6.281858758503374718e-01
-9.452690569388203512e-01 -6.853911807460330574e-02 3.190122243544107894e-01
-8.481835227735375904e-01 -1.640575987017333648e-01 5.036564464033921329e-01
-7.490464556724905076e-01 -1.584030810054301297e-01 6.433023170893035214e-01
-8.381177617106819744e-01 -7.734841277656560876e-02 5.399776296718432622e-01
-8.242597279039209912e-01 -1.249448816743132518e-01 5.522541783446696106e-01
-7.515858782095781176e-01 -3.795488298953636486e-01 5.395010226134864251e-01
-7.243318131283192907e-01 -2.195443698906698049e-01 6.535623108316070962e-01
-8.340215236564677559e-01 -2.276670839015537406e-01 5.025691962163090221e-01
-7.883621386523550489e-01 -2.687589970231182290e-01 5.534019695109627657e-01
-7.883621386523550489e-01 -2.687589970231182290e-01 5.534019695109627657e-01
-6.560991843396448697e-01 -4.422245090015239355e-01 6.115319647796130242e-01
-6.560991843396448697e-01 -4.422245090015239355e-01 6.115319647796130242e-01
-4.545289937342909536e-01 -3.664940165615135914e-01 8.118408277978522714e-01
-4.545289937342909536e-01 -3.664940165615135914e-01 8.118408277978522714e-01
-6.078265278726008303e-01 -3.062128864998744371e-01 7.326531103842754966e-01
-4.472586048280990934e-01 -5.057661722250181846e-01 7.376722303571386918e-01
-1.488256551980659259e-01 -5.741412327396205884e-01 8.051166183995304149e-01
-2.817731460702173618e-01 -5.086400381644992086e-01 8.135657353463878749e-01
-2.325798836493718491e-01 -3.989745361097861709e-01 8.869757140179348465e-01
-2.325798836493718491e-01 -3.989745361097861709e-01 8.869757140179348465e-01
-1.002943733020902894e-01 -5.514864324439910925e-01 8.281326907652785119e-01
1.977832908851649696e-01 -6.676509518888164019e-01 7.177213778957621804e-01
8.369441765519558540e-02 -5.446584470274498102e-01 8.344713419495030093e-01
3.281794050960856052e-02 -6.252380982940138887e-01 7.797437420219496262e-01
2.850620594345670833e-01 -5.833853028528307449e-01 7.605269296259233869e-01
1.315737056640923497e-01 -5.202418541746396397e-01 8.438227142846723705e-01
2.406368035269119410e-01 -6.488186800658988229e-01 7.218921312674735358e-01
2.435355666702878619e-01 -6.033907065005773562e-01 7.593484595857923347e-01
3.746744959559265009e-01 -6.566788406964176872e-01 6.545165561403173404e-01
3.356816716351389007e-01 -6.988983807288919881e-01 6.315527442286759108e-01
3.694401882545198523e-01 -6.826721333848689843e-01 6.304543644088892451e-01
4.823501643910053094e-01 -7.047594509918909678e-01 5.202426694818280684e-01
4.823501643910053094e-01 -7.047594509918909678e-01 5.202426694818280684e-01
4.695890452637990209e-01 -7.215900428322890026e-01 5.087179362412229677e-01
5.315236594140516635e-01 -7.205798914992563864e-01 4.452496147668353887e-01
4.206185416687829859e-01 -6.530626779745155597e-01 6.297532699725985061e-01
5.123118179479244638e-01 -6.474936796819997786e-01 5.641706620897229962e-01
5.701565800920141980e-01 -6.769642269312187155e-01 4.654469998111451234e-01
4.947953038446244456e-01 -6.480807237524462971e-01 5.789378056352955104e-01
5.693930886722294860e-01 -7.078559523114144048e-01 4.180089249640479565e-01
6.070734037224867485e-01 -7.130571911392454831e-01 3.507297031296379153e-01
6.329230818963405003e-01 -6.810896409477901203e-01 3.681375740079360637e-01
5.629128879346295689e-01 -6.624242352364599906e-01 4.942906161040144797e-01
5.978187739600220318e-01 -6.865864789629340104e-01 4.137773802495933184e-01
5.794989310397595794e-01 -7.080734817756313415e-01 4.035008467524084930e-01
6.395653170252210140e-01 -6.946185870759743475e-01 3.293345164828699323e-01
-6.056646869726246551e-01 -6.813116817044412299e-01 4.110774614685398509e-01
-6.194959462469269429e-01 -6.945860808220899463e-01 3.657525788177492521e-01
-5.541813451055050965e-01 -6.768767621672323598e-01 4.844800156611797082e-01
-4.374569018630955486e-01 -6.382276474707607727e-01 6.334800146936604426e-01
-5.043906680644588691e-01 -6.216287074880744168e-01 5.993061020848985399e-01
-4.632079365173984442e-01 -5.993534921772414314e-01 6.528505180837639310e-01
-5.219605669318445607e-01 -6.627322652439856521e-01 5.369758944056640670e-01
-4.741493730192393730e-01 -7.345550922509410663e-01 4.853979692104961052e-01
-3.879888558369571361e-01 -6.609777367641441748e-01 6.423185185314825851e-01
-4.821067838450820431e-01 -6.497974559163971486e-01 5.876532270439167593e-01
-4.821067838450820431e-01 -6.497974559163971486e-01 5.876532270439167593e-01
-2.954645183028375977e-01 -5.993269740615719821e-01 7.439811130574968123e-01
-3.878565869297322943e-01 -6.133449043419290092e-01 6.880227440230511915e-01
-4.533975563573571788e-01 -6.882253170364820427e-01 5.663714054215759353e-01
-4.041199327049753154e-01 -5.755647250255403469e-01 7.109235734569507859e-01
-1.905536795461772459e-01 -6.614874917624317119e-01 7.253437760491636688e-01
-1.905536795461772459e-01 -6.614874917624317119e-01 7.253437760491636688e-01
-2.405523306965229313e-01 -6.004086761128837324e-01 7.626558842917591230e-01
-2.405523306965229313e-01 -6.004086761128837324e-01 7.626558842917591230e-01
-2.405099937865035897e-01 -6.319767962234554837e-01 7.367226560408963731e-01
5.919721868361398076e-02 -4.498493723956016876e-01 8.911404106286548998e-01
-7.426022591667799655e-02 -5.931696213078859747e-01 8.016453200788133948e-01
-7.132927497242459725e-02 -5.479383685076640864e-01 8.334720624286501289e-01
-7.132927497242459725e-02 -5.479383685076640864e-01 8.334720624286501289e-01
-7.132927497242459725e-02 -5.479383685076640864e-01 8.334720624286501289e-01
2.572061148549864562e-01 -5.780544095648143532e-01 7.744017781900279784e-01
1.437755987173968963e-01 -4.955326952455468836e-01 8.566072175484736873e-01
1.352715144647863342e-03 -6.335671779865346132e-01 7.736865005542723495e-01
1.439380257477051728e-01 -5.338599623809568984e-01 8.332318916786948249e-01
3.814680444774383727e-01 -4.569095782084403590e-01 8.035644145828909624e-01
3.775127015714154766e-01 -4.251731547448311388e-01 8.226250352600384952e-01
3.775127015714154766e-01 -4.251731547448311388e-01 8.226250352600384952e-01
7.582052254170779104e-01 -1.286302398686352266e-01 6.392019223544116446e-01
6.341263452292150715e-01 -2.093747197731523901e-01 7.443426663883726535e-01
8.091710454533250774e-01 -2.546853853930668987e-01 5.295069155989917675e-01
6.499423406579578621e-01 -2.448599296391312796e-01 7.194571347044762533e-01
7.853728661432314295e-01 -3.331178085184494653e-01 5.217489691162134902e-01
6.164808118746213372e-01 -3.208318899493783904e-01 7.190398507606637901e-01
5.419104795376971095e-01 -4.886353780932338187e-01 6.837898064777697682e-01
6.204332336426537919e-01 -3.383287904839397120e-01 7.075282553519645079e-01
7.046881233649171516e-01 -4.997098866431015085e-01 5.036910540992068919e-01
9.214987759373223231e-01 -5.946638880752597167e-02 3.838017125394420637e-01
8.482317310589666537e-01 -1.004046136257775029e-01 5.200210034098308176e-01
-9.115413615953678050e-01 2.209217152147186641e-02 4.106145175932389702e-01
-9.103259376429549965e-01 3.924676102157731439e-02 4.120271580900830011e-01
-9.474673028644780004e-01 -1.992129817311091150e-02 3.192316586458954220e-01
-7.431705350275505939e-01 -2.928457799272587286e-02 6.684608959083936375e-01
-7.431705350275505939e-01 -2.928457799272587286e-02 6.684608959083936375e-01
-8.246488290069313720e-01 -4.731239405493687517e-02 5.636628834563147672e-01
-7.228775311828886663e-01 -1.168099583517714646e-01 6.810312096672143101e-01
-7.228775311828886663e-01 -1.168099583517714646e-01 6.810312096672143101e-01
-8.663121639024672360e-01 6.649225182776727361e-02 4.950575876819762744e-01
-8.408344012498869535e-01 5.930992844912887432e-03 5.412599495608535483e-01
5.239372581885495261e-01 -6.860958179677291158e-01 5.047398122290908118e-01
3.294742233834869194e-01 -8.034533265817499492e-01 4.958926175398944980e-01
5.735136730740190147e-01 -7.904434241044582254e-01 2.151307976259252408e-01
4.680469941314057136e-01 -8.081626749864176951e-01 3.574983944626237142e-01
5.562177624718601665e-01 -7.293009921606183887e-01 3.984242255992162529e-01
6.071871691128070125e-01 -7.012007719300965558e-01 3.736859899827825182e-01
6.534060505606428260e-01 -7.034109738960727665e-01 2.797740783084110006e-01
5.354290299095881833e-01 -8.146006822625414534e-01 2.230279856598259836e-01
5.587473916323852929e-01 -8.203319308899184037e-01 1.218887833495095746e-01
-6.202656479053345606e-01 -7.787807793604345497e-01 9.365374379772331559e-02
-6.286529289681112020e-01 -7.776809262753542340e-01 -2.805674129691018096e-03
-5.182711947430448385e-01 -8.340713772528294268e-01 1.889971067164400720e-01
-4.868581822586945385e-01 -7.852828563861331546e-01 3.824917591710906284e-01
-4.870250367969493621e-01 -8.320627709901360358e-01 2.654772281480025087e-01
-5.404795145126167766e-01 -7.703318297576106088e-01 3.383352870371308385e-01
-3.616387291514384095e-01 -8.265505295656543350e-01 4.313138667518923164e-01
-4.727069046746530390e-01 -7.338793867461900211e-01 4.878208974428470124e-01
-5.749312033941369471e-01 -6.848741863417874276e-01 4.476622166840130146e-01
-5.026293388834220943e-01 -6.800380437491579944e-01 5.337714930074781705e-01
-5.010139801394342118e-01 -6.567795025481865112e-01 5.635828925166194159e-01
8.119122435167099860e-01 -1.756588839929532292e-03 5.837768608152522631e-01
7.000563512609037087e-01 -6.060353349149765617e-02 7.115112906958084293e-01
7.811639150764886352e-01 -6.917876486460933227e-02 6.204814552218135271e-01
7.432327610320885736e-01 6.062185569195482730e-03 6.690054654744930218e-01
7.427328056111921484e-01 7.742505463376780743e-03 6.695431525137692796e-01
8.470033444817438584e-01 -8.336707119669692356e-02 5.250097769345110077e-01
8.728408408595134116e-01 -3.056745864365681756e-02 4.870467092586973079e-01
-9.212771733436152521e-01 1.075999392133478033e-01 3.737253309012942837e-01
-9.212771733436152521e-01 1.075999392133478033e-01 3.737253309012942837e-01
-9.142240657007147941e-01 1.203046555272322127e-01 3.869381701927702144e-01
-9.131434414805787991e-01 1.276371719876512600e-01 3.871405527815439118e-01
-8.649272546556174834e-01 7.834344335399152925e-02 4.957450443900942583e-01
-7.816590222001427168e-01 4.930381240091406825e-02 6.217542175939396731e-01
-8.655274558791278272e-01 1.400106106291565677e-01 4.808942212489719648e-01
-7.749515127632679024e-01 5.441817064712402979e-02 6.296735785860344548e-01
-8.030092591037937266e-01 8.962143918165987877e-02 5.891893816359764502e-01
-8.732832695640400100e-01 1.273859927080160381e-01 4.702649678227515673e-01
-8.732832695640400100e-01 1.273859927080160381e-01 4.702649678227515673e-01
-7.861103622932654744e-01 1.030345717510006420e-01 6.094377534410212460e-01
-7.861103622932654744e-01 1.030345717510006420e-01 6.094377534410212460e-01
3.455250645093095874e-01 -8.998117708791557590e-01 2.663666773137265964e-01
5.017577398305369529e-01 -8.643882140408016834e-01 3.274425060227267176e-02
4.016638697189945928e-01 -9.115941459301786232e-01 -8.753427253476503411e-02
3.173315289343009438e-01 -9.212624300554163037e-01 -2.248916088087949683e-01
2.178779543844404087e-01 -9.732492095183541414e-01 -7.290523414097625776e-02
2.872444389045708535e-01 -8.270692482235282306e-01 -4.831636275231882549e-01
1.776928695463743102e-01 -8.689196989183830544e-01 -4.619564924794994920e-01
3.514193026532668185e-01 -8.663993097022755219e-01 -3.547628924649700033e-01
2.012387051378449476e-01 -8.928775577113000628e-01 -4.028307963524482838e-01
1.732143131964957727e-01 -9.211070450870747495e-01 -3.486525680313048436e-01
1.732143131964957727e-01 -9.211070450870747495e-01 -3.486525680313048436e-01
-1.075146608876298010e-01 -8.375603463648413349e-01 -5.356615198905229080e-01
-1.075146608876298010e-01 -8.375603463648413349e-01 -5.356615198905229080e-01
-1.075146608876298010e-01 -8.375603463648413349e-01 -5.356615198905229080e-01
-2.655888825513262261e-02 -8.330861966369755844e-01 -5.525052166519243135e-01
-2.655888825513262261e-02 -8.330861966369755844e-01 -5.525052166519243135e-01
-2.655888825513262261e-02 -8.330861966369755844e-01 -5.525052166519243135e-01
1.096483363624706775e-01 -8.202430528312157909e-01 -5.614076741683087235e-01
-6.154826159944934427e-03 -7.885231644284265151e-01 -6.149742574081631385e-01
9.445050507930201344e-02 -8.298235230571415766e-01 -5.499745654767123071e-01
4.486129884809043032e-03 -8.119078460560722466e-01 -5.837683822812315126e-01
4.486129884809043032e-03 -8.119078460560722466e-01 -5.837683822812315126e-01
4.405576713240491604e-02 -8.613674661520543951e-01 -5.060683527322811237e-01
9.357540340185530048e-02 -8.273221985461838290e-01 -5.538787084469750654e-01
9.357540340185530048e-02 -8.273221985461838290e-01 -5.538787084469750654e-01
-2.009045039870079041e-01 -9.341283290559556640e-01 -2.950282107407060650e-01
-2.493576262385025499e-01 -8.725058702178987158e-01 -4.201836273250141862e-01
-1.890933083830634298e-01 -8.986733696381621339e-01 -3.957649497213451273e-01
-1.012133372884868876e-01 -8.398333092061793792e-01 -5.333252976399347478e-01
-4.586648256238964882e-02 -9.006456300320194730e-01 -4.321269661587677224e-01
-2.372275084777126716e-02 -8.345815097657920401e-01 -5.503734501674895085e-01
-1.123762448413670734e-01 -8.756700788575602079e-01 -4.696525232434586306e-01
-4.761408948875489044e-01 -8.793521296789020836e-01 5.447957861767919845e-03
-4.438997193995131707e-01 -8.876990625641554278e-01 -1.222432551912503162e-01
-3.380409673437064777e-01 -9.385135325995709321e-01 -7.014737004910072404e-02
-1.776648577707468923e-01 -9.751688451506360655e-01 -1.322154369235117033e-01
-2.802902268955165255e-01 -9.323526653419598187e-01 -2.283766540971365611e-01
-2.254875543314624753e-01 -9.410147650562744603e-01 2.522827278822321051e-01
8.386999760829477735e-01 6.494005416663520269e-02 5.407079983533600309e-01
8.417395852399280898e-01 4.667641781777695509e-02 5.378622339036402966e-01
8.799639271347277081e-01 1.688090387407589488e-01 4.440349033364929254e-01
7.958203009196895827e-01 8.152850501879020662e-02 6.000192926177424502e-01
8.758802880937587299e-01 1.132456303392028601e-01 4.690513278287046228e-01
8.899678520424777473e-01 1.476088951645390668e-01 4.314728686710237460e-01
8.899678520424777473e-01 1.476088951645390668e-01 4.314728686710237460e-01
7.953369216304140288e-01 8.199063581451493388e-02 6.005969669671903377e-01
8.064295426035602565e-01 1.193556098075610333e-01 5.791594177976197022e-01
9.115182702953573690e-01 7.308997767037946069e-02 4.047126117158982295e-01
9.123309092817285526e-01 5.018557826979932329e-02 4.063664844729448222e-01
9.123309092817285526e-01 5.018557826979932329e-02 4.063664844729448222e-01
-8.788090500842555830e-01 1.673051107535158399e-01 4.468821471101323550e-01
-8.977092139426200434e-01 1.782629435888734848e-01 4.029149912147144130e-01
-8.982089054930175731e-01 1.415042218921493400e-01 4.161698178385030977e-01
-8.468049702206886797e-01 6.891516333361251412e-02 5.274201765881165738e-01
-8.493866872606540275e-01 1.082128288540454009e-01 5.165580695098829223e-01
8.937141776120163250e-01 1.805791343415680539e-01 4.106898403609804404e-01
8.351955610955886788e-01 1.155539026409045239e-01 5.376761760676042057e-01
9.121415172344392586e-01 1.435532762807854856e-01 3.839144558444076982e-01
9.121415172344392586e-01 1.435532762807854856e-01 3.839144558444076982e-01
8.700491323364084595e-01 4.726938949723515776e-02 4.906935012176353861e-01
9.439885801105739604e-01 1.034591008244328397e-01 3.133397119380537665e-01
-9.300816079775849898e-01 1.680209523793364523e-01 3.266759281969987549e-01
-8.955186456241283066e-01 8.317337618223451245e-02 4.371825074656754961e-01
-9.596923185683370328e-01 1.471253520878702536e-01 2.394677106708748560e-01
-9.756151594581057296e-01 -1.115622964500657677e-01 1.890209370581015513e-01
-9.907793678295777617e-01 3.925806508256807215e-02 1.296728522443888199e-01
9.402257034708155770e-01 1.674267617129347185e-01 2.965533779863754882e-01
9.736682859692449288e-01 6.199708711409630812e-02 2.193773691315483998e-01
9.548759654861208590e-01 -7.868101849819861271e-02 2.863934144931316039e-01
9.935872989837831737e-01 2.396979753158850340e-02 1.104976384562358915e-01
9.799140203053879894e-01 -1.472270893495815358e-01 1.345090962373252375e-01
-9.999259175310672987e-01 -1.014655825062785698e-02 -6.723600621683082333e-03
-9.988921450577247230e-01 -4.608825521780143819e-02 -9.505539067085920502e-03
-9.715681458425161621e-01 -2.367355589402604377e-01 -3.407802426451435069e-03
-9.116875611335960583e-01 -3.502329691433099801e-01 -2.148549701527448230e-01
9.901564890344890513e-01 9.387056395699967803e-02 1.038192874435604762e-01
9.990165034202165284e-01 -3.941910985774962906e-02 -2.030171598824281193e-02
9.229826522227625452e-01 -3.324740500094272022e-01 -1.938144209447897615e-01
-7.381643962834693040e-01 -4.431592273289046702e-01 -5.086484279860793434e-01
-8.072587044020264058e-01 -4.100601081958235583e-01 -4.244809675752157507e-01
-7.855930890448519222e-01 -3.624348131458410838e-01 -5.014823074295909899e-01
-8.544997379041903152e-01 -3.842948235933398848e-01 -3.494963325716508584e-01
-8.544997379041903152e-01 -3.842948235933398848e-01 -3.494963325716508584e-01
-9.204883645129037228e-01 -1.473544878457341556e-01 -3.619224028822766726e-01
-9.117324088600952114e-01 -2.423492640902465411e-01 -3.316788338575195061e-01
5.636522245044230939e-01 2.731344280944597025e-01 7.795471467465759918e-01
5.143942003164171384e-01 2.189212485747776549e-01 8.291393692276914917e-01
1.580276256781955602e-01 4.541563855738208755e-01 8.767948716575816315e-01
2.023525788911663403e-01 5.226320517363554075e-01 8.281963368150946359e-01
-4.989753526959036511e-01 6.791162399596782917e-01 5.383537220313679983e-01
-7.568082834305240869e-01 5.781663442203611725e-01 3.049014603799171663e-01
1.671157296282126115e-01 6.522053998137933295e-01 7.393919456990047934e-01
5.635718962731113280e-01 6.038831756559778219e-01 5.636593189957749273e-01
-1.937327284626390589e-01 5.764839979833052963e-01 7.938096938130736469e-01
-4.050591524315914072e-01 3.959680924097755961e-01 8.240972957271270882e-01
5.738675376806239292e-01 5.948895182771661849e-01 5.628343541756657409e-01
-1.540505809272874616e-01 5.377144678045281401e-01 8.289339959427760585e-01
-3.759792554341814252e-01 2.155219130068224964e-01 9.012157924143574528e-01
8.217687056982331262e-01 -3.482497287556323151e-01 -4.510192022039406501e-01
7.975683210801535195e-01 -3.084464644116138299e-01 -5.184067435917093514e-01
8.676727989822734521e-01 -2.571555065474969148e-01 -4.254585283650659799e-01
8.967496968081574149e-01 -2.641179126290261192e-01 -3.550798635560230010e-01
9.552672008113377577e-01 -2.205927277949261966e-01 -1.969858459333177769e-01
9.849925895797675413e-01 -4.165729018908689157e-02 -1.674940854091440945e-01
9.444467104703864191e-01 -1.040945294436558671e-01 -3.117446711999581344e-01
7.852927892348990913e-01 -3.685839381420020766e-01 -4.974546368458185874e-01
-7.300091139880170443e-01 -3.971504590893872311e-01 -5.561997899491863961e-01
-7.300091139880170443e-01 -3.971504590893872311e-01 -5.561997899491863961e-01
-7.483928706494995531e-01 -3.709225911440930945e-01 -5.498404700819622404e-01
-7.483928706494995531e-01 -3.709225911440930945e-01 -5.498404700819622404e-01
-7.211752510999522858e-01 -4.178120066927410448e-01 -5.525752295066307385e-01
-7.211752510999522858e-01 -4.178120066927410448e-01 -5.525752295066307385e-01
-6.901396370118129120e-01 -4.249513189750067088e-01 -5.857675801259448756e-01
-6.901396370118129120e-01 -4.249513189750067088e-01 -5.857675801259448756e-01
-6.901396370118129120e-01 -4.249513189750067088e-01 -5.857675801259448756e-01
-6.901396370118129120e-01 -4.249513189750067088e-01 -5.857675801259448756e-01
-7.611200001945980231e-01 -2.632236240147685646e-01 -5.927981689110610741e-01
-6.733809081700072863e-01 -3.998207988696107495e-01 -6.218532634821516414e-01
-6.957861144928101371e-01 -3.518077762045971890e-01 -6.261892457404343304e-01
-7.251846413531410906e-01 -3.717217985728291096e-01 -5.795948070948333530e-01
-7.867373861464995732e-01 -3.584937078155631673e-01 -5.025201953116147369e-01
-6.861627122142248680e-01 -4.103698081651676044e-01 -6.006474447738059386e-01
-6.861627122142248680e-01 -4.103698081651676044e-01 -6.006474447738059386e-01
-6.861627122142248680e-01 -4.103698081651676044e-01 -6.006474447738059386e-01
-8.258660396378959545e-01 -2.814478674934812741e-01 -4.886024789705730176e-01
-8.258660396378959545e-01 -2.814478674934812741e-01 -4.886024789705730176e-01
-7.453861838995117228e-01 -3.272164963116009906e-01 -5.808001389404821024e-01
5.890067254370464633e-01 1.676841639987973198e-01 7.905397513939144138e-01
2.752605758680746195e-01 7.510434586556500314e-01 6.001377663364763082e-01
4.603682871624814599e-01 6.322953056385463011e-01 6.231080858426895075e-01
8.261495191126343174e-02 8.035120814313340132e-01 5.895278659356018025e-01
2.349255706205488070e-01 6.712013042637866578e-01 7.030638558646014058e-01
-7.184265882417538718e-01 6.287308508118026884e-01 2.975915901781840400e-01
-4.962493665924342379e-01 8.533694299757236257e-01 1.596783709195346290e-01
-4.962493665924342379e-01 8.533694299757236257e-01 1.596783709195346290e-01
-4.999879748645698063e-01 6.783844841485942023e-01 5.383368059656261639e-01
-3.579312306702708835e-01 8.620763263608636207e-01 3.587612599473682939e-01
-3.249177680656347572e-02 9.163554555139074020e-01 3.990450646103166354e-01
-2.175629656051274452e-01 9.072258355244633421e-01 3.600106100575944934e-01
1.287846364330656190e-01 9.916723706726495724e-01 -6.531946801544414021e-04
1.287846364330656190e-01 9.916723706726495724e-01 -6.531946801544414021e-04
1.074773910843182384e-01 9.942074162758233191e-01 4.731044922585133728e-04
1.074773910843182384e-01 9.942074162758233191e-01 4.731044922585133728e-04
1.222207428581251337e-01 9.924958396397465243e-01 3.754772030728915043e-03
1.222207428581251337e-01 9.924958396397465243e-01 3.754772030728915043e-03
1.222207428581251337e-01 9.924958396397465243e-01 3.754772030728915043e-03
1.210709817020284296e-01 9.925383425017374472e-01 1.447259664368807756e-02
-7.023274435579170138e-02 9.948634966760298015e-01 7.289708225846362744e-02
-7.023274435579170138e-02 9.948634966760298015e-01 7.289708225846362744e-02
-2.982205515258386577e-02 9.995550854184718226e-01 5.255859090382525127e-04
3.828092426544071891e-02 9.992670147087758803e-01 6.443907593873655188e-05
-2.886562857848234270e-02 9.995677233079188762e-01 5.580502467778318890e-03
-2.886562857848234270e-02 9.995677233079188762e-01 5.580502467778318890e-03
3.610719557168526328e-02 9.993460359979754459e-01 1.941845277306490690e-03
3.560068038912600485e-02 9.993546020319966638e-01 4.792802238877499899e-03
-2.734360052610688291e-02 9.996174053875939158e-01 4.167775958885656939e-03
-1.283483370338080187e-01 9.916281041586627598e-01 1.415653288599694366e-02
-4.141487895158814381e-02 9.976323713184422903e-01 5.490409364488909455e-02
-9.952477706694755344e-02 9.950237101490710945e-01 4.757624507237054670e-03
-1.204917942186787133e-01 9.927137438485740262e-01 -1.072520448063902588e-03
-1.204917942186787133e-01 9.927137438485740262e-01 -1.072520448063902588e-03
-1.204917942186787133e-01 9.927137438485740262e-01 -1.072520448063902588e-03
-1.137770988411272721e-01 9.935024636487437277e-01 2.761612422665135624e-03
-1.137770988411272721e-01 9.935024636487437277e-01 2.761612422665135624e-03
-3.137198837842344878e-02 9.993851642651127021e-01 1.565540775508449459e-02
-1.196221867990822502e-01 9.926909895198086087e-01 1.597284419221300586e-02
-1.196221867990822502e-01 9.926909895198086087e-01 1.597284419221300586e-02
4.623044668970544002e-01 7.912311934493381216e-01 4.002846217377908355e-01
1.275467380036078568e-01 8.933716362255925691e-01 4.308351763868018547e-01
3.043521848003701846e-01 7.173819783966941532e-01 6.266840070393421280e-01
4.329282786512993475e-01 8.742614273373818801e-01 2.196362042424392369e-01
4.160763070749289305e-01 8.816323170780543395e-01 2.227217191350464032e-01
5.894075091235956992e-02 9.631241868674619289e-01 2.625219772757650949e-01
4.070459117227352014e-02 9.962449202754180000e-01 7.641462610602836603e-02
-7.614195265159351411e-01 1.953143629697156325e-01 6.181363961602515111e-01
-6.215460260263185877e-01 1.529115077726403704e-01 7.683089276596938300e-01
-2.072156870065565981e-01 5.622201715612987760e-01 8.006061064893176260e-01
-5.355492332493670959e-01 3.937804300630518561e-01 7.470769650212573110e-01
-5.355492332493670959e-01 3.937804300630518561e-01 7.470769650212573110e-01
-7.606195331138119187e-01 3.458442931200060577e-02 6.482760546980660399e-01
7.236579777931851920e-01 -3.860785657050824216e-01 -5.720685905373449343e-01
6.987368258892150408e-01 -3.693722551178705293e-01 -6.126426244519749265e-01
8.438131511186518496e-01 -1.954163506865299882e-01 -4.997917725248888221e-01
7.738360391048236808e-01 -2.770561084441877653e-01 -5.695767703798323423e-01
7.592793074748607207e-01 -3.149426737462270309e-01 -5.694787489398296376e-01
7.592793074748607207e-01 -3.149426737462270309e-01 -5.694787489398296376e-01
7.804598698439425553e-01 -3.106133981220094986e-01 -5.425879730239830945e-01
7.159228971541337083e-01 -4.214700824779635813e-01 -5.566124099464997421e-01
7.159228971541337083e-01 -4.214700824779635813e-01 -5.566124099464997421e-01
7.159228971541337083e-01 -4.214700824779635813e-01 -5.566124099464997421e-01
7.159228971541337083e-01 -4.214700824779635813e-01 -5.566124099464997421e-01
7.159228971541337083e-01 -4.214700824779635813e-01 -5.566124099464997421e-01
7.159228971541337083e-01 -4.214700824779635813e-01 -5.566124099464997421e-01
7.017179376854022488e-01 -3.954033142272378454e-01 -5.926619230460671295e-01
7.017179376854022488e-01 -3.954033142272378454e-01 -5.926619230460671295e-01
7.017179376854022488e-01 -3.954033142272378454e-01 -5.926619230460671295e-01
-7.203369441773623816e-01 -5.811496809565699362e-01 -3.786551665794310462e-01
-7.925829231021750410e-01 -4.765390128726405550e-01 -3.804246038536164831e-01
-7.482566983889239465e-01 -5.918888988486451508e-01 -2.996321824101096376e-01
-7.620528103048206381e-01 -5.112343603519702295e-01 -3.973851319589559172e-01
-7.151402562613115022e-01 -5.873397444020164171e-01 -3.789544016372941027e-01
-6.887146040659812840e-01 -5.046807029493356467e-01 -5.205473871001595754e-01
-6.997148028385729024e-01 -5.180263056125187227e-01 -4.919836799956096018e-01
-6.997148028385729024e-01 -5.180263056125187227e-01 -4.919836799956096018e-01
-6.519162017030851741e-01 -5.664695941002020341e-01 -5.041006495899154061e-01
-6.513918438007316736e-01 -6.581855888589248638e-01 -3.774657553319417658e-01
-5.780028016769818144e-01 -6.596573674631726059e-01 -4.803799733597525212e-01
-5.992717475139430761e-01 -5.557391937800976178e-01 -5.762181194029148967e-01
-5.992717475139430761e-01 -5.557391937800976178e-01 -5.762181194029148967e-01
-5.402117754608659617e-01 -6.465143165811607640e-01 -5.386933043105452956e-01
-5.903885034295205392e-01 -6.531826055138566511e-01 -4.741243495881437009e-01
-6.484593351153453700e-01 -4.784718549858975045e-01 -5.920854454283761559e-01
-6.433114487994082697e-01 -5.223952899705232022e-01 -5.596905759973267447e-01
-5.870812686382542722e-01 -6.038125555879776396e-01 -5.392086625124018484e-01
9.494669129764743420e-01 3.002149959304440952e-01 9.156165890484821435e-02
9.702170400125691430e-01 2.310731368858822132e-01 7.269181989032041935e-02
8.842470095786828521e-01 4.631379286793150252e-01 6.008731205329834180e-02
8.697298086543410189e-01 4.889579330955915459e-01 6.700895164804751558e-02
8.914042257812694325e-01 2.930580827649749143e-01 3.457100900833136037e-01
9.452549017066038672e-01 4.390489336669667342e-02 3.233659399783744837e-01
9.558341873435673985e-01 2.275241652829976813e-01 1.860477372007976193e-01
9.445862375443518921e-01 5.185954169327469665e-02 3.241410615413743423e-01
-9.326711979896447069e-01 -6.573405008410557193e-02 3.546878502290447543e-01
-9.603641714957411590e-01 9.112415339259630209e-02 2.634331922438428730e-01
-8.848381627033968799e-01 4.150483431088711206e-01 2.116513612199502625e-01
-8.843708805814348706e-01 2.851724414527584961e-01 3.695467821744501946e-01
-9.386149233968381633e-01 3.096674946707975162e-01 1.520133820459867724e-01
-8.578803226933511272e-01 5.084865397748519200e-01 7.404586959007014579e-02
-9.138994610055557466e-01 3.997306477649126277e-01 7.073319172211994799e-02
-9.233052843077032001e-01 3.771690825120544988e-01 7.246264669805015102e-02
6.994820484890711398e-01 -3.944537227459811168e-01 -5.959287914284470133e-01
6.174852481059504017e-01 -5.138914273379862063e-01 -5.955061454595244053e-01
6.174852481059504017e-01 -5.138914273379862063e-01 -5.955061454595244053e-01
6.174852481059504017e-01 -5.138914273379862063e-01 -5.955061454595244053e-01
