-8.171921379967891363e-01 5.663987660253742007e-01 -1.067213541947915900e-01
-8.370814572672524712e-01 5.133334869333626704e-01 -1.891649150666368795e-01
-7.950738303707016730e-01 5.389108159144900823e-01 -2.782673835540908081e-01
-7.301047508139992814e-01 5.336452203918652382e-01 -4.268135794369077862e-01
-7.332898877123367187e-01 5.148763666027663666e-01 -4.440588561134236611e-01
-7.303730679751209154e-01 4.954361768446425285e-01 -4.702107785346627544e-01
-7.008896060628599933e-01 5.002219609488175456e-01 -5.084601753309382355e-01
-7.870738519091227126e-01 3.730586776611906630e-01 -4.912656864290644299e-01
-7.870738519091227126e-01 3.730586776611906630e-01 -4.912656864290644299e-01
2.469350083438150989e-01 8.127164290594893759e-01 -5.277453056077636706e-01
6.602815184437746399e-02 9.977099304482398567e-01 1.466894164499662860e-02
-1.188849949925229604e-01 9.831465759806483629e-01 -1.388854495732177730e-01
8.718335859276214739e-02 9.891119014729585768e-01 1.185609899968551179e-01
-9.323649119188027745e-01 2.550378351732771609e-01 -2.562252400774975847e-01
-7.850265754120858697e-01 5.372160724478742821e-01 3.084350294639904289e-01
3.970875086524399689e-01 9.048925667413024732e-01 -1.532675866859521674e-01
9.854977010066844345e-01 1.607878850413419214e-01 5.423594135323687310e-02
-8.787482946993309119e-01 3.505028609502558457e-01 -3.239586069680867597e-01
-8.787482946993309119e-01 3.505028609502558457e-01 -3.239586069680867597e-01
-2.343815730959580013e-01 8.200716574770178235e-01 -5.220610642405359991e-01
1.908095848479952339e-01 9.674609616138696300e-01 -1.661655502301917497e-01
8.743783019151329938e-02 9.936244909940530334e-01 -7.116879054901227575e-02
3.164121128719610959e-02 9.994991821146840261e-01 4.676540993772191463e-04
-5.672597339768759017e-02 9.982188682017698600e-01 -1.847309145926617768e-02
-5.731227248784961370e-01 7.070067073517425360e-01 -4.143330278743115880e-01
-7.289328229825499383e-02 9.971002624780846979e-01 -2.185488416628306868e-02
-1.954210447407527529e-01 8.966648585057844789e-01 -3.972439386488284541e-01
-7.184729911738829689e-01 3.594923901396624433e-01 5.954509067801695421e-01
5.533257781959344257e-01 7.915749202747829338e-01 2.593062451539394075e-01
1.398345122102981515e-02 9.979195675694279011e-01 6.293647395584743565e-02
-7.580570686016675774e-02 9.970513631969526447e-01 1.191947794699778004e-02
-2.122141051510115922e-02 9.887241806987518977e-01 -1.482367911057553556e-01
2.175533255334702321e-01 9.331526511815259051e-01 -2.861759601053476265e-01
-1.895368540286713477e-01 7.763516727787129756e-01 -6.011271588762300278e-01
-8.786083396080044405e-01 -7.494464678772064237e-02 4.716255776451584447e-01
9.407255301933101777e-01 8.201844071599737052e-02 3.291024950148991324e-01
-2.122693443379522135e-02 -2.848685768320314837e-01 9.583315246762137418e-01
9.442677070334986045e-01 -8.231221661217388852e-02 3.187211892078864461e-01
-7.492643224764422571e-01 5.852567922999862837e-01 -3.099636464662408608e-01
-8.396326878480899758e-01 5.401997761747188154e-01 5.657871788734296359e-02
-8.167409769692063337e-01 5.758271673588767348e-01 3.684087228661348662e-02
-8.041557092845418309e-01 5.944088744142511649e-01 3.418368420510299079e-03
-8.116831478623988128e-01 5.838322140637269841e-01 1.761854981642709678e-02
-7.805882532886959657e-01 6.239875114302326775e-01 -3.635332731412627832e-02
-8.135058929723500976e-01 5.805406858007872151e-01 -3.436094045876614267e-02
-8.185103977209821080e-01 5.744656596913150226e-01 -5.471257447959834361e-03
-8.133398030528311562e-01 5.775332454411727934e-01 -7.024040988040911038e-02
-8.122501207122517775e-01 5.783001720580073224e-01 -7.628009177112640704e-02
-8.126714864636761515e-01 5.732975010917064074e-01 -1.043792619772908742e-01
-8.017205634147709370e-01 5.912345428991234719e-01 -8.766899954240871262e-02
-8.017205634147709370e-01 5.912345428991234719e-01 -8.766899954240871262e-02
-8.112277566751675550e-01 5.604510079633157060e-01 -1.667458979185956758e-01
-7.394097256505465232e-01 6.033587910486547523e-01 -2.987162983127791827e-01
-7.168594087998988451e-01 5.533732899553878148e-01 -4.241351081660299505e-01
-7.493142253506460682e-01 5.515090561934409275e-01 -3.665596167389164051e-01
-8.776598842314731197e-01 4.767915660676649847e-01 -4.881526541504078998e-02
-7.016787710689684765e-01 5.215822074449063539e-01 -4.853853140630036700e-01
-7.789563292334592548e-01 3.948659113988247094e-01 -4.871426373889997108e-01
6.245153135793325011e-02 9.503932546651002733e-01 -3.047170289270472177e-01
-2.195140510684812640e-01 9.728365677857966354e-01 -7.350233848154109906e-02
-2.887448278182109807e-01 -9.211016060599626076e-01 2.611479575298056299e-01
-9.166074991447817899e-01 1.640086899316798574e-01 -3.645981927251463195e-01
-1.649241764484183359e-01 9.532003840707015119e-01 -2.533950351334418594e-01
-9.123329129516826175e-01 1.641805057578989702e-01 -3.750912122060153786e-01
-2.195149805096057172e-01 8.679525292852822149e-01 -4.455014929707293847e-01
-1.553879073872150296e-01 8.613028991799479561e-01 -4.837477794285351962e-01
-8.977633345883482274e-01 4.404584200643366088e-01 4.168364575947320141e-03
-8.626580772957754828e-01 3.090228021688284366e-01 -4.004072294752942240e-01
-2.711073705705135395e-01 9.095591046841088323e-01 -3.149651230034596350e-01
2.672848397325606751e-01 9.326308951548176740e-01 -2.424013775783107616e-01
-4.412386725532503329e-01 7.669278892617609200e-01 -4.659721520820163665e-01
-6.348339269956555786e-02 9.972584611214045935e-01 3.801868715671969517e-02
-7.922693956930276782e-02 9.966404031114937112e-01 2.076051377595130795e-02
-4.548184776863148371e-01 8.103355595313217474e-01 -3.694542371040869799e-01
-5.478718517518308406e-01 7.281087321236632270e-01 -4.119394473260497569e-01
-1.074120744576430864e-01 9.843780283333192216e-01 -1.395082205295180566e-01
-2.747085414797887370e-01 9.158190926937591625e-01 -2.929344750889301130e-01
-3.588267212824046148e-01 8.653071730229615621e-01 -3.499812572249118570e-01
-2.387825733333442252e-02 9.947985757270211282e-01 -9.902334350148533915e-02
2.836860539187443728e-02 9.936875882915551239e-01 1.085366256313179123e-01
4.795065304386580407e-01 8.611744314737386219e-01 1.686774609797153657e-01
9.089337170126108312e-01 8.882569083511407393e-02 -4.073689908735124154e-01
4.982546840887536743e-01 8.660441044714557446e-01 4.135068190309339892e-02
8.118832950251889113e-02 9.329383605955344771e-01 -3.507626982475574584e-01
-5.790554592647505494e-01 8.127687163107433221e-01 -6.404520967469029546e-02
-8.814346770091932015e-01 3.730038374888976493e-01 -2.897258141489208461e-01
-8.814346770091932015e-01 3.730038374888976493e-01 -2.897258141489208461e-01
-4.446130479244838618e-01 8.332985603423136434e-01 -3.285311963067254482e-01
1.427296566699048086e-01 7.621341239551722158e-01 -6.314901600262455839e-01
-6.474435799184716789e-01 6.183582687202020534e-01 -4.454771176252578790e-01
-7.977243313713960893e-01 6.016295251394836452e-01 4.096102560359426992e-02
-8.215802863810369727e-01 5.689459614217683425e-01 3.614313229249620230e-02
-8.069685070035592656e-01 5.898721036925744787e-01 -2.920154087960808234e-02
-8.052522145058815806e-01 5.928989270337515771e-01 -6.303439981473451213e-03
-8.057734099857006838e-01 5.887600640080290493e-01 -6.395935263335275622e-02
-7.782421408350632674e-01 6.097581390089560349e-01 -1.501138972273795003e-01
-6.928546887462310178e-01 5.816820041481893799e-01 -4.261436686523794592e-01
-6.523997500768599078e-01 5.884141480719319306e-01 -4.776435453855032431e-01
-2.477643175529647135e-01 6.039922225122101862e-01 -7.574999921401152081e-01
8.695064705621468049e-01 4.384625258964338079e-01 -2.273963742786540287e-01
-2.694122544626130766e-01 9.055269970140827906e-01 -3.277772030267354642e-01
-3.470815330112306252e-01 9.191570800191242174e-01 1.862382122264156503e-01
-7.498322254127919029e-02 9.587752515760759042e-01 -2.740940227413893315e-01
-5.942816445385235707e-02 9.560804812810377307e-01 -2.870163873075283201e-01
1.417009008225380284e-01 6.296222378924850593e-01 -7.638695518590463696e-01
-8.504655840214360163e-01 5.210358390882187107e-01 -7.231835714888579236e-02
-2.958795035314514266e-01 9.089048529572303359e-01 -2.938490899437621873e-01
-9.382988186869429814e-01 7.139559389810800141e-03 -3.457518670121777493e-01
-4.743534286165436153e-01 8.103657441464492406e-01 -3.439421251805329649e-01
-4.980564474687260157e-01 7.337267114691793379e-01 -4.621524510499276928e-01
2.252225247419804566e-01 9.711558388757587368e-01 7.830166643417817152e-02
1.387545853360921400e-01 9.861943793300859129e-01 -9.037594384544997417e-02
-1.061695455793603970e-01 9.719698175157691633e-01 -2.097682088159080749e-01
-7.883024888400233521e-02 9.736491559711030197e-01 -2.139932544208932585e-01
3.289517529912948657e-01 9.443463043716789906e-01 8.953342986747790449e-04
-9.897020760058068689e-02 9.188934057511090048e-01 -3.818897836740669516e-01
5.098903743419628265e-01 8.601529378042939156e-01 1.219548031261145221e-02
1.306188560939429422e-01 9.872557863131015132e-01 9.091054297500238135e-02
-1.447559081762222200e-01 9.128097705752880042e-01 -3.818691527085781301e-01
-2.291658595932186127e-01 6.210948768483244287e-01 -7.494825966956577545e-01
-1.915525832653023064e-01 6.355771381721831981e-01 -7.478965899623069014e-01
-8.201974193855932072e-01 4.002520333476942138e-01 -4.087474807680768762e-01
1.749580450611693538e-01 9.803909941786727034e-01 -9.068175671946196448e-02
-1.858575870480252135e-01 8.486805264599903698e-01 -4.951750411160476539e-01
-3.020419696836521561e-01 6.170122903918022761e-01 -7.266818300020180255e-01
-7.899790313854792023e-01 6.114463831578826891e-01 4.545822801654115369e-02
-8.043537002924168178e-01 5.939870822020529850e-01 1.394528604899518583e-02
-8.047964024296435648e-01 5.932747422123808567e-01 1.810610088163870993e-02
-8.168404849621077046e-01 5.764500748306712330e-01 2.183880387251587937e-02
-8.014715118746604805e-01 5.971223911114725835e-01 3.298887216416176993e-02
-8.145227547154649805e-01 5.786894828302012739e-01 4.087987906592398940e-02
-8.114436904662852834e-01 5.842259643552983883e-01 -1.546479148184653346e-02
-8.067070032121417267e-01 5.900630056516558142e-01 -3.239537513009197595e-02
-8.074170144320770293e-01 5.893364404457189787e-01 -2.757398716835719396e-02
-8.003364453603819539e-01 5.974896232707855859e-01 -4.967619461717017598e-02
-7.901652155728455806e-01 6.098033634888970766e-01 -6.147186329001681770e-02
-7.754922529960038835e-01 6.213337379584635833e-01 -1.120542351620204130e-01
-7.838474224479344832e-01 6.166457067145468818e-01 -7.301568812417123799e-02
-7.755359107078954040e-01 6.164157631970539342e-01 -1.362925459615040857e-01
-7.380354725176893060e-01 6.233543531685762362e-01 -2.583272956761963335e-01
-7.332771778443528676e-01 5.762890837833569702e-01 -3.608260971226447955e-01
-7.305520736284205618e-01 5.863015595017376791e-01 -3.500630643798987585e-01
-6.374029120891273603e-01 5.765929560546451116e-01 -5.111341220154123066e-01
-3.502746392121107166e-01 8.908274163109113353e-01 2.893686083072105064e-01
-8.794297089804473666e-01 -4.540293393206298322e-01 1.430410640293128810e-01
-7.853061021627338878e-01 5.562532138086445643e-01 2.718026637719506700e-01
-5.047133470091673679e-01 8.291616487029053184e-01 -2.403235270860591133e-01
-7.128223302261703642e-01 3.045403172372104228e-01 -6.317748971809434844e-01
4.213185670307112440e-01 8.723066869002908952e-01 2.481364726601589799e-01
2.549632047286674030e-01 9.033002726884792333e-01 -3.450251897983778737e-01
2.950173613929895078e-01 9.028493336686890247e-01 -3.127744189839096745e-01
1.379417536057932769e-01 9.499453025461238598e-01 -2.803141002210051136e-01
4.553159361120563409e-01 8.688416636390799974e-01 -1.944262375485303063e-01
-8.704498853477701248e-01 -5.749062316437318285e-03 -4.922234709768882333e-01
4.931665359396248394e-01 8.482503974189272711e-01 -1.930233952347295556e-01
-1.148552228328962935e-02 9.943446325412897968e-01 1.055785703360648392e-01
-3.102502102466399014e-01 9.437638187119119504e-01 1.142569977385412411e-01
-5.287742348565429573e-01 6.622047843946720080e-01 -5.309262021003327003e-01
-6.781189175373031341e-01 7.040130997293035930e-01 -2.109983153666731281e-01
1.325122556426981679e-01 9.893681349206127074e-01 5.992658598812591192e-02
-7.742774966283957339e-01 4.529470975762237561e-01 -4.419652531728476830e-01
-5.223869814662682881e-02 9.576150083004764113e-01 -2.832748034923401881e-01
-8.958012093317956337e-01 3.846821385008105665e-01 -2.226204071466399148e-01
1.234101445166906064e-01 9.861464910474869727e-01 1.108378745064075716e-01
-1.798827095891272418e-02 8.859128846687419623e-01 -4.635027323391058274e-01
2.745382445946904504e-01 9.438068807891560885e-01 -1.840035978721874521e-01
6.295999769976572402e-01 7.498094065191960311e-01 2.034446432322081777e-01
6.950083535546611735e-01 7.157868837839664877e-01 -6.791557621103873343e-02
5.980561655615874717e-01 7.808897425220762134e-01 -1.803885607725076723e-01
4.879716206414193569e-01 8.683999010652051487e-01 8.812099226931556506e-02
-1.113027613852267533e-01 9.198799419079893847e-01 -3.760752421834989145e-01
-2.055004762255729367e-01 8.223301085863529147e-01 -5.306060184199005159e-01
-3.307192259998705253e-01 7.960841620594755197e-01 -5.068281764780933063e-01
-9.429567039788828708e-01 3.023431173456270216e-01 -1.393603021488187543e-01
9.167304627337099499e-01 -3.875911631433973659e-01 9.684187601025885661e-02
1.112726233680041976e-01 9.937590752449370068e-01 7.829665199083457594e-03
2.458906511649759097e-01 9.182118524996062403e-01 -3.105233994386021878e-01
-7.608334522780868525e-01 6.267384431989048155e-01 1.683192850246856276e-01
-7.843808800477378718e-01 5.938029325537588221e-01 1.792894651285801833e-01
-8.140762663141364319e-01 5.515325412330300825e-01 -1.819112107185022476e-01
-7.958781043540232858e-01 5.987571752010560910e-01 8.982142369779218261e-02
-8.142206321636700217e-01 5.798626753947887513e-01 2.835559632579485664e-02
-8.049500518874139754e-01 5.933186325997913402e-01 5.330494945446127494e-03
-8.191141576618035103e-01 5.734403946265147489e-01 1.476856555597205918e-02
-8.139657034509701905e-01 5.800842661505605236e-01 -3.101737851806404475e-02
-7.995499437755920757e-01 6.005406465747126221e-01 -8.415415620973273544e-03
-7.692981037130343092e-01 6.373539239886325536e-01 -4.427644068601210153e-02
-7.484464459607945708e-01 6.577325215943874426e-01 -8.494614509054630724e-02
-7.102281519982907021e-01 6.704646376765833748e-01 -2.145999574424483081e-01
-7.144855955010467330e-01 6.060728646470627812e-01 -3.495511644380804306e-01
-7.007559076720677460e-01 6.265517972294004645e-01 -3.411363411472086438e-01
-6.379746311535072767e-01 6.388833379942168156e-01 -4.299028383692222732e-01
-6.068587753254036654e-01 6.333221207080484971e-01 -4.802348573691953004e-01
-5.511011504070829625e-01 6.133480473961189228e-01 -5.657664666409261134e-01
2.280469712143787520e-01 3.345198335191027494e-01 9.143801506497721832e-01
-5.414565444788477233e-01 7.675692884933221771e-01 -3.430192382401908713e-01
8.036486715735725594e-01 -4.677447690539076053e-01 -3.679179850194043699e-01
4.241597008154446291e-01 7.576921582789564180e-01 -4.959749403817990676e-01
-5.699936581158878690e-01 7.557217791656836159e-01 -3.224776305456271142e-01
1.288332889957589655e-01 9.593936665912242701e-01 -2.509298231601457263e-01
-3.484057892817724600e-01 8.511677353556478254e-01 -3.925899798574628563e-01
1.680991064673705848e-01 9.614447594020226751e-01 2.176388407965325622e-01
-3.667434770106287600e-01 8.244273962958709179e-01 -4.310669209147989789e-01
1.506186360764619758e-01 9.338203146651893327e-01 -3.244898247789488321e-01
9.193073365038056943e-01 -3.934498267993812859e-01 8.441258307589117466e-03
-9.765069018512201326e-01 -2.140231120760307526e-01 -2.506747163601380154e-02
3.340587326027975590e-01 8.158109352763162070e-01 -4.720776218540705393e-01
-5.677093230331821117e-01 6.857003613833675404e-01 -4.555448813672756669e-01
-2.441836991136001750e-02 9.366689207841057963e-01 -3.493638161687762089e-01
3.161193527673723525e-01 8.570946267428685150e-01 -4.067644965018955006e-01
1.759120141257332071e-01 9.734134000547419729e-01 1.467014515268837971e-01
2.211998633850318363e-01 9.031991204912914739e-01 -3.678341598902971077e-01
-4.359848378474369679e-01 7.787771527990354770e-01 -4.510247969295833048e-01
-6.633085753804243700e-02 7.629925544432376583e-01 -6.429950071364870512e-01
1.941874232729909333e-02 9.192209213379236576e-01 -3.932630293087371887e-01
-3.681981067941750285e-02 9.971416253590091872e-01 6.597636332752275512e-02
8.868864248495168523e-01 -4.283253607139972940e-01 -1.731180371505705584e-01
1.011365051296037737e-01 6.345598709136531790e-01 -7.662278887878054556e-01
6.520746554167782261e-01 -7.351588362833691992e-01 -1.853108987555031617e-01
-7.872082299264832050e-01 5.449201188420337294e-01 2.887304397135796452e-01
-7.862207268768183210e-01 5.702401800347564054e-01 2.380821406641330240e-01
-7.912454130013690801e-01 5.623852615824563861e-01 2.401114615321910672e-01
-8.209720749324930233e-01 5.642006255863585285e-01 8.764990741009758002e-02
-8.031569302383072539e-01 5.951271668306512552e-01 2.761522605920258347e-02
-8.163118431935488806e-01 5.754716506391667208e-01 4.967246694682784375e-02
-8.231976922655946938e-01 5.674542424019656250e-01 1.847274285563542395e-02
-8.052379095004273957e-01 5.928996533991528484e-01 -7.868297309191113476e-03
-7.811045214852483376e-01 6.244002646439719140e-01 -1.898100074562008590e-04
-7.702891148795154574e-01 6.367496327564282632e-01 -3.470712726064206083e-02
-7.631419841168669560e-01 6.455478040657623984e-01 -2.970428831067503314e-02
-7.481410503408811863e-01 6.612835442409167319e-01 -5.467214017225425354e-02
-7.439328474073609865e-01 6.606309407020042324e-01 -1.006512728958801617e-01
-7.446249037763529310e-01 6.628200396129599881e-01 -7.876133419090489141e-02
-7.336538925565032621e-01 6.680864266363643056e-01 -1.241470598964972277e-01
-7.011220202274210944e-01 6.575976346432778064e-01 -2.756687571412218540e-01
-6.253302222073712224e-01 6.631126310667034840e-01 -4.113924546146581207e-01
-5.846718202233143202e-01 6.369550736453664097e-01 -5.024411376411990204e-01
-5.851647992464682480e-01 6.371244904235447981e-01 -5.016518129393923164e-01
6.747302539295861878e-01 4.296385287384516527e-01 6.001248362262426861e-01
5.886670164631148117e-01 7.972710012303058091e-01 -1.335293762647027926e-01
-1.773845594334096110e-01 9.840290171838045330e-01 1.488661865202634341e-02
-4.228616696084476767e-01 8.731459858498362703e-01 -2.424955582485452676e-01
-2.860326615665703121e-01 9.328065368628746246e-01 -2.192197101152960903e-01
2.711379156546746549e-01 9.164349592037961401e-01 -2.943317791941178485e-01
1.864750050142837540e-02 9.982927870583622187e-01 5.535144110406402251e-02
-6.392384576140440755e-01 6.419697084922703079e-01 -4.233781851791226236e-01
-2.227597216529771107e-01 9.748571412889115440e-01 -5.626765242938892679e-03
-2.266940751002435583e-01 9.675365070425090419e-01 -1.117269164276279564e-01
8.862804538976729596e-01 2.198631869512750192e-01 4.076360338127182348e-01
4.961148568549533788e-01 7.860669518011799140e-01 -3.687394691293444660e-01
-2.844335690158370303e-02 9.964655743285668610e-01 7.904008240259227658e-02
-6.272646765141638436e-01 5.695658081175747345e-01 -5.311627018352809149e-01
1.519014817023710273e-01 9.695732443412145019e-01 1.919730807021539642e-01
1.135407635125413178e-01 8.268376964351815683e-01 -5.508610703024415800e-01
8.419304420165102387e-02 8.297472636618764552e-01 -5.517526708169953054e-01
8.068583986124071294e-02 8.350705205325681391e-01 -5.441939185468283036e-01
-8.018467610929671530e-01 5.792743197636183172e-01 -1.465709186268388808e-01
-7.973079633688983092e-01 5.751166529759006441e-01 -1.831416037342060987e-01
7.620344791955757646e-02 8.414342097244534857e-01 -5.349593491383765054e-01
1.623652862311829315e-01 9.801187448311764472e-01 1.140384139561115701e-01
-9.321924356904537357e-02 8.933060779931550899e-01 -4.396753616577827595e-01
9.953849749949668091e-01 9.412323920241034980e-02 1.869672153921990432e-02
-4.462215842990607806e-01 7.716660771014963865e-03 -8.948892394325576038e-01
-8.236681850931534266e-01 4.881562500580129971e-01 2.885726882340902133e-01
-7.994217436179507086e-01 5.312011988390806794e-01 2.806245929756677748e-01
-8.443241038244966301e-01 4.931372783003375448e-01 2.096006499309957527e-01
-8.481149981463900200e-01 5.050471151468280961e-01 1.600886048443654897e-01
-8.200939334334886865e-01 5.663427735543073993e-01 8.186454170398416164e-02
-8.249906992176497811e-01 5.587234498153187401e-01 8.496147851139550233e-02
-8.290366075930823975e-01 5.576803218701659182e-01 4.112130675625123161e-02
-7.808509039335459478e-01 6.238396011934520535e-01 3.310615968303833728e-02
-8.020692955363891707e-01 5.967524945277664639e-01 2.390199641554508272e-02
-7.942177274173765067e-01 6.066405123103284502e-01 -3.472017108022600052e-02
-7.845819327619976136e-01 6.199960996402689162e-01 -6.002267430075616979e-03
-7.679042858649657299e-01 6.397576997544466293e-01 -3.214176963261799330e-02
-7.568965624780626955e-01 6.511297910634993302e-01 -5.601418479720823851e-02
-7.568965624780626955e-01 6.511297910634993302e-01 -5.601418479720823851e-02
-7.081182125557948792e-01 7.030915268161845866e-01 -6.504538389518692287e-02
-7.247878958541336125e-01 6.793990719453639748e-01 -1.144526411364788360e-01
-7.006628409268824687e-01 6.857094272257553413e-01 -1.971653234166614310e-01
-6.829290394341371861e-01 6.856879451938313608e-01 -2.518729221520803474e-01
-6.094650343821811367e-01 7.112240694290936638e-01 -3.503037181222126706e-01
-6.001187537150164397e-01 6.902108286503031431e-01 -4.043098977930140725e-01
-1.582899876423295993e-01 9.870927335620375276e-01 2.433547125526006050e-02
-4.539154777718722444e-01 8.663332250620415786e-01 -2.083926154947313703e-01
-5.656444467078545202e-01 7.760358924638623979e-01 -2.789527800836223981e-01
-1.288566516285158670e-01 -7.350688822374602527e-01 6.656348110617849034e-01
7.410459590495416249e-02 9.949739829063110053e-01 -6.734450389835378026e-02
-3.312937998535733786e-01 9.356636056441038907e-01 -1.215649425272570389e-01
7.325974073612920301e-02 8.823905386542013618e-01 -4.647794613371202255e-01
-6.832905948975771526e-01 6.796956115723276071e-01 -2.666980287400615435e-01
-6.256657387466165732e-01 7.424824940031495846e-01 -2.392950677667917136e-01
8.273978787272640023e-02 9.920261527671426771e-01 9.506965724561011744e-02
-1.375544318015658463e-01 9.612505816504709477e-01 -2.389060433902409353e-01
-1.410853909214791757e-01 9.849941332408816974e-01 9.940558309057757891e-02
-2.031114402011331421e-01 9.678107989298182501e-01 1.486203227497786272e-01
-8.308624639816469815e-01 4.870632778131718243e-01 -2.691410956213026728e-01
9.647231835849345849e-01 -1.526322173278275574e-01 2.145054434911601582e-01
-6.022923806345252817e-01 7.406513792943567598e-01 -2.977909041239560350e-01
-5.383848244484772394e-01 7.889356026161220559e-01 -2.961796679860360659e-01
-5.156448815423291254e-01 7.750913008107170876e-01 -3.651627466579087655e-01
-4.496896333441420812e-01 8.210665195296951158e-01 -3.516091639451447981e-01
-8.559740183894005705e-01 4.823085511929014468e-01 -1.862443053854437036e-01
5.151511882229237171e-01 6.469574944249849580e-01 5.621968104497350183e-01
5.151511882229237171e-01 6.469574944249849580e-01 5.621968104497350183e-01
-1.374562308795085341e-01 9.295230497682845927e-01 -3.421880835766586415e-01
1.167753266300942117e-01 -5.516290789224022051e-01 8.258746166202572958e-01
-8.474844988657482814e-01 4.812707135836798988e-01 -2.239386622022359330e-01
-8.271548782813670231e-01 5.057797989004787498e-01 2.449522450591710421e-01
-8.196730892950434555e-01 4.972721683764602107e-01 2.843526283396958787e-01
-8.021478417579473996e-01 5.569704278096123673e-01 2.152737385484919386e-01
-8.044673522453008596e-01 5.711273466357010831e-01 1.632355142004909831e-01
-7.770384850187946890e-01 6.294089123345250059e-01 7.457470990002175622e-03
-7.937346884044322870e-01 6.081459016028120113e-01 1.199194676529697669e-02
-7.955507357273694513e-01 6.052398991413664442e-01 2.799448822518415744e-02
-7.299308250898977057e-01 6.831991069519185444e-01 -2.097548196543283852e-02
-7.556201597913143608e-01 6.541899456760623677e-01 -3.276719538347733218e-02
-7.249226116962648181e-01 6.878531018597608959e-01 -3.667856749345418943e-02
-7.241870053164348731e-01 6.858180816325627482e-01 -7.215774550694697975e-02
-6.988470679846477962e-01 7.107106934916559426e-01 -8.064171207179611500e-02
-6.999746565676259191e-01 7.101001732939712374e-01 -7.611323177284137764e-02
-6.386004712975045239e-01 7.296179588667929261e-01 -2.446366124635883099e-01
-5.563369849010756374e-01 7.239686456654649271e-01 -4.078707630175186782e-01
-4.992939893424762077e-01 7.107596934456577031e-01 -4.955059741108172044e-01
-4.862158196374983254e-01 7.381429802696728437e-01 -4.676955392270072953e-01
-4.971288842863901269e-01 6.653665599501400463e-01 -5.569113154787624920e-01
-4.944448859966008025e-01 6.572620804834115038e-01 -5.687976901064435431e-01
2.925033927291941782e-01 -9.213520793172758072e-01 2.560314652140308067e-01
1.575295976913835272e-01 9.833101147889208304e-01 -9.102551293450582282e-02
2.030270950441390720e-01 9.075358050738657756e-01 -3.676394445470567707e-01
4.850852339726695051e-01 8.024840625987987863e-01 -3.474358142975589869e-01
-1.977313129083702881e-01 9.409657449350261604e-01 -2.747467829737106904e-01
-2.692859272780945626e-02 9.932516954763043193e-01 1.128092209313884264e-01
3.674598622722438090e-01 8.532450571765666236e-01 -3.700623218089368893e-01
3.582333152513303975e-01 8.768330814437225174e-01 -3.206752861228119311e-01
-2.088782509105105087e-02 7.242283836952583265e-01 -6.892437500718591181e-01
1.826295121564033841e-01 9.765091933409577596e-01 -1.143514609006196919e-01
2.203208389983204729e-01 -7.544593454490290396e-01 6.182635554257577271e-01
3.857099608051186568e-01 8.450610766921540229e-01 -3.702696352600509666e-01
4.822620839125322800e-01 8.411372578497077201e-01 -2.447680450496262650e-01
-3.383573911752913443e-01 9.300631190503904078e-01 -1.431672812457860100e-01
-6.997733036395484274e-02 9.933166658408315586e-01 9.178874984434463868e-02
3.431466212427367740e-02 8.651322434793615734e-01 -5.003685694122521621e-01
-4.422622533876184869e-01 8.185195348697978934e-01 -3.666467922470284524e-01
-3.745734414508379295e-01 8.627265463535623846e-01 -3.397022860925879018e-01
-2.287083302402558305e-01 8.724620924316481840e-01 -4.318592327929368646e-01
-5.091794077181613365e-02 9.576300740606650264e-01 -2.834642915115113126e-01
-1.669743213502174473e-01 9.850560911868586622e-01 4.223829098461896747e-02
-1.759754091797448849e-01 9.506943419379084714e-01 -2.553682117477987790e-01
-2.288909310526278384e-01 7.624861533928282142e-01 -6.051642814691475802e-01
-2.288909310526278384e-01 7.624861533928282142e-01 -6.051642814691475802e-01
-1.714419224914021378e-01 9.818956237961016242e-01 -8.055216435649935336e-02
-1.074121749201506493e-01 9.871175385018758908e-01 -1.185815747109155993e-01
-1.348914335932237946e-02 9.975989690259455811e-01 -6.792893352469267509e-02
-8.142551243788787030e-01 5.648637722815056383e-01 -1.338563079822689406e-01
-1.886276463330528730e-01 9.568616707948992550e-01 -2.209872258806983847e-01
1.135449910866725975e-01 9.846754265245062365e-01 1.323700849811213498e-01
-3.572771478273896739e-01 6.800524042928345336e-01 -6.402200926680298165e-01
-8.065286475518576026e-01 5.139436028852105709e-01 2.921874633373932051e-01
-7.432228873729991303e-01 6.529233055132374064e-01 1.459825222504732012e-01
-7.395543832393899342e-01 6.649845642855448657e-01 1.041865801980739886e-01
-7.437978626153431971e-01 6.647333895340212795e-01 6.995899089794078984e-02
-7.443441590943864483e-01 6.636533286932208009e-01 7.426999485982752058e-02
-7.148049666620782672e-01 6.990872769456909497e-01 1.818897599877579083e-02
-7.494659318193787056e-01 6.610459795468699440e-01 3.631845215630308960e-02
-7.446627033809897211e-01 6.671292606408643078e-01 2.039626902376935613e-02
-7.182814155369305897e-01 6.957302078003451129e-01 5.593393277069262821e-03
-7.399946947057549629e-01 6.720985861644805937e-01 -2.629338858045765157e-02
-6.869817582461990035e-01 7.259426658024047407e-01 -3.260843149645683420e-02
-6.817668685122665329e-01 7.294805011372662573e-01 -5.524613524492854449e-02
-6.660121851927590653e-01 7.420516415100124608e-01 -7.607319177648608211e-02
-6.680027658576546123e-01 7.391405206833329133e-01 -8.627627420383361667e-02
-6.502909882397578389e-01 7.504942920975525844e-01 -1.178131917195711920e-01
-5.745002269781951387e-01 7.344112944589243908e-01 -3.613717473366854782e-01
-5.579401021930037174e-01 7.084207312350899732e-01 -4.322532937077530613e-01
-5.396251371152852583e-01 6.485769314932194884e-01 -5.367985425913051056e-01
-5.725209032907564444e-01 6.605007631214925290e-01 -4.857556558714087314e-01
3.652203265591396075e-01 8.663597644410810927e-01 -3.406389167808486773e-01
-1.907795938446702200e-01 9.743243932678958830e-01 1.195622149995943240e-01
1.756093417964632031e-01 9.093670117264250896e-01 -3.771113854785675401e-01
3.907142060924201910e-01 7.829821611715060969e-01 -4.840261815695174885e-01
-5.119784772693248831e-01 7.825474975619060025e-01 -3.542561966608094304e-01
-4.859178422559300992e-01 8.439568619570756436e-01 -2.272018171866296843e-01
1.050359018385635251e-01 9.943847125792401043e-01 -1.290359305240490473e-02
1.527600182076481461e-01 9.698614859255906273e-01 1.898237997602093274e-01
1.942942623789631080e-03 9.221273309202309143e-01 -3.868816492726058209e-01
4.849488834239413550e-03 8.878101709836606625e-01 -4.601842921656601471e-01
9.661813606725265513e-02 9.311091392037588177e-01 -3.517111125257845750e-01
-5.737009417315605542e-02 9.615819808466322671e-01 -2.684562653499265039e-01
-5.627344507334675061e-01 6.573214621117865475e-01 -5.012568537236430366e-01
-2.063080228552557557e-02 9.372661791405233478e-01 -3.480035623903585118e-01
-5.789036259048043753e-01 6.512494078635786554e-01 -4.906575187150488127e-01
-5.769532219318322941e-01 6.622170821729700396e-01 -4.781145425322220754e-01
7.893582849433031234e-02 8.766479141339362791e-01 -4.746130735920918720e-01
-8.113235815379623572e-01 5.702067772529643142e-01 -1.289118971049662277e-01
-4.748077634873169167e-02 9.984539564149116364e-01 2.890108642822111079e-02
-9.806978771213950008e-01 -1.621060784251906750e-01 -1.093311170124733195e-01
4.299239034450121899e-01 7.888598465561555972e-01 -4.391646385332073077e-01
-3.761589176737219903e-02 -7.151162908584078881e-01 6.979926469780740605e-01
5.433246293456226450e-01 7.249702296160567272e-01 -4.233397138432485329e-01
-5.731353292456223270e-02 9.982898833587852128e-01 -1.150946250734492977e-02
-8.373383636477287340e-01 5.356426653544970051e-01 -1.093224579657556261e-01
1.723695078712952355e-01 9.814088719555356111e-01 8.441195888717932527e-02
-2.636542472472707677e-01 9.460721997558900753e-01 -1.882387599765945885e-01
-8.167433049220896857e-01 4.552229274512259449e-01 -3.545454275374009256e-01
-4.390232334480211052e-02 8.424993625733627756e-01 -5.369054014148173515e-01
-5.171645414726682155e-01 -7.008887621961195080e-01 -4.912186682838472485e-01
9.484703842772835847e-01 2.211661140391121549e-01 2.269129351750145684e-01
-8.050960218380466271e-01 5.037044031560418134e-01 3.132128188017969106e-01
-7.293525253254724561e-01 6.426252364947372397e-01 2.346863848233191330e-01
-7.541504977013179234e-01 6.464141294416082539e-01 1.157834188262820002e-01
-7.559544171664160928e-01 6.449717224512058200e-01 1.120017696507914495e-01
-7.099939822460183958e-01 7.017293881531239119e-01 5.902889950425010274e-02
-7.292568960158637426e-01 6.832941159313368207e-01 3.596568846721335394e-02
-7.320377513132002578e-01 6.809475821018249331e-01 2.076345544439568702e-02
-7.304437400723650109e-01 6.828908389822515579e-01 1.058511328291117902e-02
-7.106463062995385105e-01 7.021389595381937188e-01 -4.452761886116628903e-02
-6.695313220405300081e-01 7.403078375069981343e-01 -6.059797465569506658e-02
-6.792212343110286543e-01 7.318115546237643487e-01 -5.577063187872027816e-02
-6.673038426583245419e-01 7.410575775446006652e-01 -7.442612671073486896e-02
-6.429857847974943530e-01 7.587150490541445524e-01 -1.045024156999121295e-01
-6.085123455952959892e-01 7.836842944609652140e-01 -1.247062623661304714e-01
-6.415466436179104726e-01 7.592226958142053173e-01 -1.095390442865206287e-01
-5.722814083315236333e-01 7.871350337410113474e-01 -2.300270165341993522e-01
-5.508678430130276027e-01 7.380670938722263541e-01 -3.896172281575607244e-01
-5.921957049838504350e-01 6.690752011816629707e-01 -4.490463474546894096e-01
-5.899660425271565645e-01 6.683946247925829365e-01 -4.529775868773502356e-01
-1.323935030139314628e-01 7.242090717414005896e-01 -6.767519344391703662e-01
-7.993521532926017859e-01 5.127410444673449197e-01 -3.132614823833549944e-01
3.960365765718750208e-01 8.362306407524983110e-01 -3.793064005311480580e-01
9.388784385270473321e-01 3.432522647082628109e-01 -2.617556955754292078e-02
-7.634756078288534864e-01 5.670234255909727406e-01 -3.091754050396654518e-01
3.639636753187314080e-03 9.948942996525133031e-01 -1.008567576478633099e-01
8.580611187683441499e-02 -5.985427843865994690e-01 7.964821695576851379e-01
-3.453914671682840609e-01 -8.632414732448209227e-01 3.681289085055004517e-01
2.252382194627113032e-01 9.508430900961347687e-01 2.125209695764194717e-01
-2.812037743798558864e-01 9.233266816056799886e-01 -2.615191700613291315e-01
-3.632404291671871843e-01 4.858555372602963995e-01 -7.949847718868244817e-01
1.765285209038626180e-01 9.562643345643495607e-01 2.332299375030919830e-01
-2.572311633719962520e-01 9.658776368314174743e-01 -3.020793371361167254e-02
-1.485695823030536988e-01 9.821947129144562583e-01 -1.149809772840047623e-01
7.155799039760513125e-02 9.952403294557227165e-01 -6.615240460573440506e-02
-6.040385883331618189e-01 5.692829269417429838e-01 -5.577224514909931985e-01
-2.602076582449529552e-01 1.738684214830410468e-01 9.497693123078221333e-01
-4.479921290106089055e-02 9.555710499528323743e-01 -2.913365734258009931e-01
-6.045282846439332669e-01 5.718309053028766131e-01 -5.545763868088473547e-01
1.558424167888864675e-01 8.150279294256224105e-01 -5.580704394479083508e-01
2.582018857393455491e-01 -1.733290967550297004e-02 9.659354825467522110e-01
8.193698753429889958e-01 -1.859055558266086983e-01 -5.422841798293717153e-01
-7.501254743034254657e-01 6.520401409695959494e-01 -1.102516547059966823e-01
6.903351963613371112e-01 5.760764687885882029e-01 -4.376907798581378128e-01
-2.136404320746539964e-01 9.611929058484992572e-01 -1.745450186326525932e-01
-9.975796585996707933e-01 6.208122040587419482e-02 -3.131687757554005996e-02
9.781394227601316604e-01 1.292136098048744406e-03 -2.079461469390103401e-01
9.225014390471667491e-01 1.508420282298643667e-01 3.552995601959100247e-01
8.693876001235095741e-01 2.471857654732040055e-01 4.278602553391828711e-01
-7.016386342250983121e-01 6.859580708159305207e-01 1.927816174982086295e-01
-6.516145639074605311e-01 7.491628552032958410e-01 1.189683844024779086e-01
-7.087625078089894171e-01 6.920381807866488044e-01 1.368899698948672639e-01
-6.982974783245143868e-01 7.139760043150911173e-01 5.117516026239125188e-02
-6.942389808446584043e-01 7.188683578609027514e-01 3.550382433117564573e-02
-7.168547398968041495e-01 6.971331166942871249e-01 -1.116689283528406011e-02
-6.938235073038270251e-01 7.199012258022834398e-01 -1.873941837373869698e-02
-6.486992441891789030e-01 7.592857769488629005e-01 -5.171459669715797874e-02
-6.631906543092512818e-01 7.447276326898714105e-01 -7.455809241797235754e-02
-6.517253799360775979e-01 7.542951836433489099e-01 -7.932720264588827286e-02
-6.463370113727503474e-01 7.597455903297041235e-01 -7.095847873447215515e-02
-6.252212980267801701e-01 7.693311430615676905e-01 -1.312551744095815931e-01
-5.404104859189829968e-01 8.141795440322162625e-01 -2.122926677685815500e-01
-5.351317983957974977e-01 8.091253980798346346e-01 -2.427963107788680408e-01
-5.772785982476278388e-01 7.032107811165029254e-01 -4.150229118094225789e-01
-5.880876968159425289e-01 6.768912415260115445e-01 -4.426862410320597241e-01
-6.134815433348018709e-01 6.427994879905775116e-01 -4.587474405668121591e-01
-6.382254419266318868e-01 5.861699955487004177e-01 -4.990721607102444057e-01
-1.729095809712793419e-01 9.840904172906562719e-01 4.084516379008105991e-02
8.803713579801196731e-01 4.520827156822888049e-01 -1.434137030745904762e-01
-7.640927232575039918e-01 5.156563636581521504e-01 -3.876349118484854195e-01
-7.640927232575039918e-01 5.156563636581521504e-01 -3.876349118484854195e-01
1.828336152820850824e-01 9.503526476911408061e-01 2.517969700955929868e-01
-3.323677147775948582e-01 9.062964129622654852e-01 -2.610718560573894176e-01
-7.976514481201278650e-02 9.734827942102241005e-01 -2.144032906691804852e-01
9.278827486671816782e-01 3.154396058976601802e-01 1.988251989989315016e-01
-1.728996803955798467e-01 8.502755600505630396e-01 -4.971289294537260539e-01
-5.697282216318488857e-02 9.940667425838992655e-01 9.265748120577162183e-02
-1.301707518390766982e-01 9.902927698960328762e-01 4.874223278936225950e-02
-3.214652105513611247e-01 8.551425541748791659e-01 -4.066833294400360455e-01
4.564684352027812975e-01 7.262469335765484590e-01 5.140057967904492209e-01
-2.632046764235374536e-01 2.657968667625855708e-01 -9.274024606005599747e-01
-3.457270792498759460e-01 1.939170295542091138e-01 -9.180789575642293032e-01
3.993129949064627149e-01 8.194143084092753160e-01 4.112290399193377910e-01
-3.292111557974009700e-02 9.970560873186825601e-01 6.924852987425082762e-02
1.065771672010387000e-01 7.434674765267095253e-01 -6.602252788089900681e-01
4.551041931575404154e-01 8.795453789871398032e-01 1.388527985774607454e-01
-2.301318321773025005e-02 9.988969906737400484e-01 4.092915123885959572e-02
-4.648456450137912754e-01 8.477553135065554191e-01 -2.554005770023125566e-01
-6.487174621259856888e-01 -6.623387753547210766e-01 -3.747972798653010917e-01
5.895391456375507211e-01 -7.845689140905945935e-01 -1.920812713505718750e-01
-6.919437818618123792e-01 6.738157835427730502e-01 2.592028020516203846e-01
-6.353440506284566691e-01 7.502127387006942705e-01 1.830813590244210753e-01
-6.778673745449164123e-01 7.089578492672686805e-01 1.946139524543673283e-01
-6.531851697700764570e-01 7.483199375051121649e-01 1.156131702047017568e-01
-6.783949927205813468e-01 7.339890249069700445e-01 3.225438214812860471e-02
-6.904739847476609738e-01 7.215858072525613842e-01 5.059248124332559743e-02
-6.817582690444335958e-01 7.315637050149963461e-01 4.495341396270335042e-03
-6.768744740654037972e-01 7.333142478952692223e-01 -6.396217782782886996e-02
-6.711975981431453908e-01 7.408643007902682154e-01 -2.477644166178042187e-02
-6.557505015221694045e-01 7.516293146655815827e-01 -7.102572131820608647e-02
-6.553108331735698622e-01 7.519925067300879951e-01 -7.123890613394077975e-02
-6.531364184779476778e-01 7.536217440500242448e-01 -7.393974406771258723e-02
-5.953121780246070083e-01 7.927411210763588567e-01 -1.310149825409159252e-01
-6.204632577620252665e-01 7.692495822609367595e-01 -1.525792448490582709e-01
-6.019913530405588409e-01 7.631776657254797369e-01 -2.348749910105488725e-01
-5.976421003758374262e-01 7.630556686540713729e-01 -2.461096633479590845e-01
-5.872390880228249843e-01 7.440866500153798802e-01 -3.185675921480565775e-01
-5.704247143214271620e-01 7.205896668482935086e-01 -3.941651650295641685e-01
-6.042121247528436934e-01 6.789438696566011400e-01 -4.170886358525898729e-01
-5.500829542730107935e-01 7.197475183383129638e-01 -4.235236159461673311e-01
1.447199872088039962e-01 6.479546119973906837e-01 -7.478040826938526786e-01
-2.413894531628626994e-01 9.559242553584330615e-01 1.671524750614219734e-01
-7.698101902429647092e-01 5.852224954584722694e-01 -2.547683296790416718e-01
-7.734577826218373975e-01 5.883353882696650272e-01 -2.358485306532412673e-01
-3.263444585147054489e-01 9.359227767930248243e-01 -1.324682991389922737e-01
-3.500119075895181120e-01 9.345411672939863967e-01 -6.422204589033135569e-02
-3.147922093540335142e-01 9.440229959283115146e-01 -9.862275644363995009e-02
-4.779198368164273569e-01 8.558482812325275413e-01 -1.977785354599631285e-01
-1.438733951327176575e-01 7.844561288307747571e-01 -6.032653049138662071e-01
-2.212424266191317934e-01 8.756752744872871030e-01 -4.292372331418749520e-01
-8.370658520513474254e-01 5.390276091867371999e-01 9.364825606481899656e-02
-3.788513147737878062e-01 7.978913299299731365e-01 4.688721647920157110e-01
-8.091170440654141260e-02 9.965165919989349419e-01 2.019846431926183503e-02
-6.555648219828329459e-01 7.360136479435034351e-01 -1.688747293691775786e-01
-5.171939148637423600e-02 9.977132577631184773e-01 4.351275477356485871e-02
-8.744146246534112432e-01 4.386313152344660238e-01 -2.073683521849857547e-01
9.652195861526534637e-01 2.281983346566633097e-01 1.275800555228983058e-01
-9.057128447141129524e-01 3.868585909803418099e-01 -1.732762923904302421e-01
-9.057128447141129524e-01 3.868585909803418099e-01 -1.732762923904302421e-01
2.576147316145856181e-02 9.963135080367130358e-01 8.182750273673232433e-02
9.822579478004178632e-01 -1.300592613353266092e-01 1.351070409853641907e-01
1.252432932035832391e-01 3.946090115730125358e-01 9.102735003793592794e-01
8.375026390748474547e-01 3.581211856518096703e-01 4.127209056129916842e-01
-6.602599218470157627e-01 6.952960088930044691e-01 2.839371332179567164e-01
-6.172008263939148254e-01 7.640074884459140403e-01 1.880311077913307816e-01
-5.858401372754721281e-01 7.970166616000186055e-01 1.468188499104161604e-01
-6.733386747925346194e-01 7.260581687155414077e-01 1.394796209848149504e-01
-6.690459203611741623e-01 7.359925865193168715e-01 1.034043956351728549e-01
-6.410112529410858517e-01 7.659965971000127771e-01 4.851584106351283787e-02
-6.465710883642881157e-01 7.625934130692164636e-01 1.992772026256865031e-02
-6.604914385329105908e-01 7.485414644430276043e-01 -5.862367810206078889e-02
-5.697406195934066053e-01 8.007223244089344272e-01 -1.850388758571412384e-01
-5.841944122044855359e-01 7.427795117453599438e-01 -3.271016442642564193e-01
-5.413065792091209527e-01 7.421886551287887324e-01 -3.951495761139563467e-01
-5.363679055927336181e-01 7.448370489912494730e-01 -3.968970147280923011e-01
-5.158225394051051405e-01 7.381519448939660721e-01 -4.348089397550653490e-01
-4.748386334892609750e-01 7.118860151244789103e-01 -5.174423384457841335e-01
-4.362581166627589324e-01 6.916556553005707153e-01 -5.755791084956096704e-01
4.244976499430631045e-01 8.258151109875397911e-01 3.712561752448759744e-01
1.130332616061107964e-01 9.884288965686082173e-01 1.011523514252056360e-01
7.311048887945398311e-01 3.861605380171679869e-01 5.624639370297573882e-01
8.076580620115136888e-01 1.756163306314313388e-01 5.628919605780114965e-01
-8.964472532030721974e-02 -9.899194455396861381e-01 1.096508758042868820e-01
-3.932902228222906471e-01 8.373204444329521712e-01 -3.797594949003861853e-01
-7.448470830473783444e-01 5.631759670574689736e-01 3.578206995196009932e-01
8.513333093448196554e-01 -3.558712725929308873e-01 -3.854701463707475018e-01
-3.173938916424147716e-01 8.223352917383850436e-01 -4.722560592619519104e-01
-4.394571702629498922e-01 -2.496079843735608816e-02 -8.979166743333426570e-01
-3.520788532060034060e-01 7.469519019056234388e-01 -5.640065047184450453e-01
-1.443506594875068050e-01 6.575182353030621929e-01 -7.394813434762695925e-01
-1.443506594875068050e-01 6.575182353030621929e-01 -7.394813434762695925e-01
-2.183427717894811937e-01 8.012557792680475854e-01 -5.570597905044306630e-01
4.769835625292743186e-01 8.105255338102743679e-01 3.399044573383112056e-01
-8.500207677385636096e-01 5.265856124705428076e-01 -1.312582005690300820e-02
-3.895443407382058743e-01 5.413248679526780904e-01 -7.451326015783044099e-01
-6.087746578192053670e-01 7.492459307391813317e-01 -2.608140166246581404e-01
2.250801345170823919e-01 9.724743740776327083e-01 -6.027043062803547069e-02
-4.327062271189651144e-01 7.805620035822088409e-01 -4.510967519016274019e-01
-1.719358444024551569e-01 6.968524763080389262e-01 -6.963007192822429081e-01
-1.719358444024551569e-01 6.968524763080389262e-01 -6.963007192822429081e-01
5.927573796768524916e-01 7.877144784001657296e-01 -1.677634923259122279e-01
5.927573796768524916e-01 7.877144784001657296e-01 -1.677634923259122279e-01
-4.678645281932600208e-01 8.482198826400322300e-01 -2.482454711623721666e-01
-6.635408567736991942e-04 -5.152871279479332989e-01 8.570173484152474597e-01
8.543550733990759039e-01 -5.196427097423961250e-01 -6.990190901496879175e-03
-5.379058688887571049e-02 2.467003921171397052e-02 9.982474452396273845e-01
-5.807871896003805601e-01 7.691557361485320543e-01 2.666190052226238283e-01
-6.348598904452746883e-01 6.950148900494400594e-01 3.375014401648954721e-01
-6.075148542277047925e-01 7.667120430742604409e-01 2.075532338885235362e-01
-6.576586910092088178e-01 7.258048515201833695e-01 2.017234831392184513e-01
-6.516012773891011189e-01 7.436957645982239518e-01 1.494402389704819756e-01
-6.340655345931142106e-01 7.664044679334977017e-01 1.028838635196048373e-01
-6.423397673492937665e-01 7.650593031250326748e-01 4.564960003652191595e-02
-6.289790187303577751e-01 7.772807572216026140e-01 1.483301891080398074e-02
-6.276931587669158930e-01 7.784069865374436681e-01 9.157605959376497601e-03
-6.117571465532326558e-01 7.895114074390121583e-01 -4.924359008761348272e-02
-6.189955620573185380e-01 7.839334029954372340e-01 -4.788437972176060042e-02
-6.065057771524785535e-01 7.897381838093323614e-01 -9.200186581915255346e-02
-6.419767707230831233e-01 7.580487339098626043e-01 -1.150127943735664987e-01
-6.979436394937045263e-01 7.042858046833837538e-01 -1.298313575826758881e-01
-6.258237624134804777e-01 7.521454604765519525e-01 -2.064505381033220066e-01
-6.024886852555324523e-01 7.517654544363557845e-01 -2.680598546130308346e-01
-4.752759534317978485e-01 7.965360591869603546e-01 -3.736884725334762569e-01
-4.221229286305716033e-01 8.354477739116618062e-01 -3.519080138195178620e-01
-3.838811166179047496e-01 7.044791779283655631e-01 -5.969458737352697497e-01
-2.980743121176349097e-01 7.093944725767553638e-01 -6.386792518417564457e-01
-7.791026425712851977e-02 9.876939067783270243e-01 1.356124523646338453e-01
-9.896928382987264794e-02 9.002133035475857747e-01 -4.240531676265890670e-01
-9.934974075439001462e-01 3.571705224414892937e-02 -1.081073234454464210e-01
-1.880325891957230489e-01 9.748888942034739102e-01 1.193121509280613141e-01
-7.804574699819428751e-01 5.808995504980507540e-01 -2.311749332876458785e-01
-8.615776241118887624e-01 4.989084339552172787e-01 -9.367161874370259766e-02
-8.583607334581653259e-01 4.695846936777927638e-01 -2.066568816194949698e-01
-3.418098470049606846e-02 -9.974333349891089107e-01 -6.291583693640834252e-02
-8.880633527614155698e-01 -4.290228530155319464e-01 1.651752798470969286e-01
-8.774074265606829348e-02 -9.619682031318587123e-01 -2.586865637048523237e-01
5.499819506087867405e-01 7.443474414208619550e-01 3.787700363740122977e-01
-9.019439814841564984e-02 7.570815693406462987e-01 -6.470645005772989178e-01
6.660956032119720316e-01 -6.796540043154886135e-01 3.072248066149623758e-01
-9.722656022904173634e-01 8.483149238102911938e-02 2.179523262166735975e-01
-3.061576154993990093e-02 5.601837645020021350e-01 8.278024070592465700e-01
-8.340261828534197841e-01 5.138064028650306536e-01 -2.010057379525565791e-01
-1.581114530255595951e-01 9.321039926470384707e-01 -3.258572008005898857e-01
-1.849503804362015169e-01 8.913277807230565175e-01 -4.139180403024431687e-01
-1.200631783596432939e-01 7.953642481061149461e-01 -5.941216592893873161e-01
-5.154037467422157848e-01 7.678085193097405892e-01 -3.805641279987773129e-01
-8.254775206627015249e-01 4.709058176888150649e-01 -3.111825408781597191e-01
-8.203715396681012795e-01 5.439849108787454535e-01 -1.762695482459525342e-01
7.188255970006656170e-01 5.847786540752197837e-01 3.759304281840074591e-01
-2.954527819688112511e-01 -8.864309484306391873e-01 3.562973860292096284e-01
