-4.128155204126505162e-01 9.105250500090111831e-01 2.296691996155118473e-02
-4.642726187216426048e-01 8.856564607823197433e-01 7.973015733315498565e-03
-4.660470619588119590e-01 8.847461262606552967e-01 -4.942479774753283719e-03
-4.255891831070882092e-01 9.048364807763065176e-01 1.203288322017032758e-02
-3.803989924977124182e-01 9.248052887854901760e-01 -5.637760292135331891e-03
-3.701044072864012047e-01 9.288354719084410682e-01 1.695269393947156783e-02
-4.112448518659521657e-01 9.114773150365653720e-01 -9.315362981914059384e-03
-4.098084685991053022e-01 9.118978558897485875e-01 2.234545788600808894e-02
-3.652814240152619796e-01 9.308839028668745019e-01 4.963935204829541398e-03
-3.950424760351648468e-01 9.185377323316542553e-01 1.516167573285752759e-02
-4.007634038453174452e-01 9.161270224002168172e-01 -9.998648230013548743e-03
-3.478922656524239820e-01 9.375205848086830551e-01 -5.111218955197969170e-03
-3.521034419471851806e-01 9.359609720285525514e-01 4.743504107578196409e-04
-3.564916668058389360e-01 9.342010630575929842e-01 -1.349315678624365272e-02
-4.042928422893571350e-01 9.142611928046473491e-01 2.595706079309716141e-02
-3.944107183232022362e-01 9.188143262874264305e-01 1.484651746230136043e-02
-3.532079719508733895e-01 9.355375354958113121e-01 3.694350927388633660e-03
-3.517421927670604243e-01 9.360955596176862015e-01 1.591568870980686681e-03
-3.566281077908253216e-01 9.341838646365278054e-01 1.081202045397447638e-02
-2.823527930217406001e-01 9.592854163486670416e-01 -6.956310342894938409e-03
-3.186595120925018731e-01 9.476505370556170815e-01 2.036111419272850984e-02
-2.720805211221991593e-01 9.622452271050430106e-01 7.504194789364767616e-03
-3.166403631304586797e-01 9.483432504195292712e-01 1.959489271043430778e-02
-3.176728530738977541e-01 9.481728642406287433e-01 -7.223429767915255650e-03
-3.211269778011487386e-01 9.468059236535149026e-01 -2.088078214327485430e-02
-3.211269778011487386e-01 9.468059236535149026e-01 -2.088078214327485430e-02
-2.487112485097463521e-01 9.683885779816128192e-01 -1.913836198510674921e-02
-2.356787352243421563e-01 9.718064279719484944e-01 -6.913777220630076999e-03
-3.050514199119619962e-01 9.521601473356386958e-01 1.829439901911848049e-02
-3.050514199119619962e-01 9.521601473356386958e-01 1.829439901911848049e-02
-3.021749397186096475e-01 9.530093987366013986e-01 -2.152653538673205899e-02
-2.658503225331606545e-01 9.640125466616407124e-01 1.848212096130399766e-03
-2.658503225331606545e-01 9.640125466616407124e-01 1.848212096130399766e-03
-2.671598832763175113e-01 9.636522083877054889e-01 1.343029517441086430e-04
-1.992376979613350585e-01 9.799301579718058264e-01 6.420685977315712493e-03
-2.230884705207874796e-01 9.746412922303553383e-01 1.748959119702044734e-02
-2.237456691725918101e-01 9.746290076546354486e-01 -6.014396449312352060e-03
-1.876105886703105241e-01 9.821313852296368330e-01 1.483944627317364089e-02
-1.789642609604177037e-01 9.838427239932245882e-01 -5.028692124504395913e-03
-1.784577908498791443e-01 9.839142632561501678e-01 8.095643648777363019e-03
-2.170262086785890165e-01 9.759604305044053962e-01 2.002155928625741141e-02
-1.706598741962504218e-01 9.852276522672765990e-01 1.420142764761077835e-02
-2.002367129993420924e-01 9.797140443820299138e-01 -8.102469242465045601e-03
-1.551485400975225748e-01 9.878702112455343132e-01 -6.432436498779088054e-03
-2.003391168602121630e-01 9.797165992303130677e-01 4.429836143737600311e-03
-1.700781914928659322e-01 9.853480323404747443e-01 1.275397746865102391e-02
-1.748693165045977216e-01 9.844225082277577865e-01 -1.824958738670605374e-02
-1.678395531160445653e-01 9.858051454569219940e-01 -4.254362521378209083e-03
-1.726397334218653101e-01 9.849520910367001170e-01 8.056103677291781909e-03
-1.634655242560853206e-01 9.865446513247929650e-01 2.945050445415558875e-03
-1.822584359993518477e-01 9.832311230159193061e-01 6.198486906027284894e-03
-9.964882219843337885e-02 9.950044349998737880e-01 -6.023833085934782866e-03
-9.964882219843337885e-02 9.950044349998737880e-01 -6.023833085934782866e-03
-7.654525499144243517e-02 9.970653477681447052e-01 -1.231348157073636164e-03
-8.332171972924938552e-02 9.965128753508620818e-01 -4.424961165667280934e-03
-1.311376921696872366e-01 9.913442289857676837e-01 -6.286918881452387489e-03
-1.160087154701250622e-01 9.931564473608001098e-01 -1.349996298683418285e-02
-1.167659606545057988e-01 9.930876504696409812e-01 1.194273490949449013e-02
-1.205380298065877459e-01 9.926343186454454903e-01 1.215289338545750934e-02
-1.050550518517875537e-01 9.944142101903287179e-01 -1.018894753951241766e-02
-1.050550518517875537e-01 9.944142101903287179e-01 -1.018894753951241766e-02
-1.050613366466261606e-01 9.943252370021814501e-01 1.671641715738818312e-02
-7.093485142639946450e-02 9.974164450306826080e-01 -1.134381044755551973e-02
-7.093485142639946450e-02 9.974164450306826080e-01 -1.134381044755551973e-02
-6.032656551415230273e-02 9.980401094450918054e-01 1.663266160589274567e-02
-5.463549112374074118e-02 9.983074666837510325e-01 -1.992900080633627086e-02
-8.613338577708512522e-02 9.962787184378402161e-01 -3.123306329907048467e-03
-2.168445527295828970e-02 9.997152541528405711e-01 -9.959669353765873354e-03
-4.526430780113043298e-03 9.999729877012534240e-01 -5.790966432444261645e-03
-4.526430780113043298e-03 9.999729877012534240e-01 -5.790966432444261645e-03
-1.626147922004024526e-02 9.998297962873718969e-01 8.714513728754829172e-03
1.332115816738695460e-02 9.998538861135504163e-01 1.071229054455450670e-02
-3.972667596303227494e-02 9.990410988382741886e-01 1.840309889507350805e-02
-3.878627594963394293e-02 9.992209284671397240e-01 -7.291152942174301647e-03
1.558356053514783099e-04 9.998956476507252500e-01 1.444539803538856353e-02
1.488627723180763543e-02 9.998786610336037883e-01 -4.589331086928861124e-03
8.093009512399575861e-03 9.999634557372250043e-01 -2.755065715887692994e-03
2.429467489852370557e-02 9.996824003759311461e-01 -6.698294573350528115e-03
5.790489243616169998e-03 9.999689644394048615e-01 5.342320872430397251e-03
1.734600494680941032e-02 9.997881894720375140e-01 1.107665584058382252e-02
1.734600494680941032e-02 9.997881894720375140e-01 1.107665584058382252e-02
1.431390803361779103e-02 9.998957336809412011e-01 1.906253775727552620e-03
-1.170208776230559355e-02 9.998176552037529863e-01 1.509031096010229195e-02
7.090221962535664391e-02 9.974066151661822310e-01 -1.236605332904922201e-02
1.040950838186934235e-01 9.945583606507419905e-01 -4.228567663878927442e-03
1.040950838186934235e-01 9.945583606507419905e-01 -4.228567663878927442e-03
8.739246100280202711e-02 9.961498099419155983e-01 6.936419289465175879e-03
8.739246100280202711e-02 9.961498099419155983e-01 6.936419289465175879e-03
5.286497139406978046e-02 9.984154052306423166e-01 1.928661187551395859e-02
1.174003246998147482e-01 9.930655316849034131e-01 -6.165512124567041306e-03
1.138564865689408317e-01 9.934000739336467101e-01 1.389221273958086977e-02
9.563746566934698545e-02 9.952833829889875528e-01 1.626230937907009733e-02
5.450692218309616255e-02 9.984806747644626723e-01 -8.083164976002549934e-03
5.662491744030325597e-02 9.981320636729081874e-01 -2.293473769068268830e-02
9.300920403231367761e-02 9.956293634660823288e-01 -8.453317064879171602e-03
9.300920403231367761e-02 9.956293634660823288e-01 -8.453317064879171602e-03
6.371252487491267658e-02 9.978786653720633781e-01 1.337472875737142318e-02
8.844642603875049747e-02 9.960718206804529684e-01 4.261193177898865703e-03
8.844642603875049747e-02 9.960718206804529684e-01 4.261193177898865703e-03
1.334930515394505413e-01 9.909355240256814135e-01 -1.504634223436853400e-02
1.012044637976924760e-01 9.948489599003702555e-01 5.762247180841796254e-03
1.037650296683379908e-01 9.945900911439075065e-01 4.834171726633737509e-03
1.661666904942472878e-01 9.860083143184664722e-01 -1.327535555249851305e-02
1.602106989413401572e-01 9.870054501811219572e-01 1.236014795575778209e-02
1.849971534270916651e-01 9.827263606172988997e-01 -4.995334998937636314e-03
1.660384902023581688e-01 9.859366958025483907e-01 -1.897502677928312662e-02
1.492273851911343485e-01 9.887685470911583563e-01 -8.243045083971849499e-03
2.320219831959724199e-01 9.726483421895696369e-01 -1.100007953106675769e-02
1.464039894811453024e-01 9.890478680250334165e-01 1.871327387553754079e-02
1.887276572705896827e-01 9.819978519679791740e-01 7.879727877904477845e-03
1.680616130851611545e-01 9.857010129879882898e-01 -1.219865573197074018e-02
1.680616130851611545e-01 9.857010129879882898e-01 -1.219865573197074018e-02
1.913770932180671458e-01 9.814895799376620600e-01 -7.280979686482120204e-03
1.821896663261828586e-01 9.832600320429301100e-01 2.575824312737705086e-03
2.042565545109328029e-01 9.788978190757250397e-01 -6.190294670801353531e-03
2.422028956992020032e-01 9.699831409527519543e-01 -2.169017248329745823e-02
2.159063404666798081e-01 9.761758583436511705e-01 2.156723749862547029e-02
2.287736761704737554e-01 9.733338703237618406e-01 -1.684582951396634831e-02
2.238728969490884901e-01 9.743915708538786191e-01 2.102362148949913148e-02
2.776522319294562613e-01 9.606434524785296691e-01 -8.567106554855836303e-03
2.815197263558745777e-01 9.594784086581629179e-01 1.215841236810134667e-02
2.844138038588463480e-01 9.586862517207814793e-01 5.427608690750022717e-03
2.681317574401124171e-01 9.633241283688123158e-01 -1.058226604016879353e-02
2.642534384963879934e-01 9.644438739977930775e-01 4.258421182164504916e-03
2.620974765150447250e-01 9.650111365568576627e-01 -7.643240522654443959e-03
2.887209027708521614e-01 9.573946345091663979e-01 -5.979474579228427622e-03
2.556834466253069538e-01 9.667513335266504360e-01 4.223061241181649481e-03
3.062858775150850699e-01 9.519356843259378920e-01 -2.722892161437712785e-03
2.737059005427634473e-01 9.618023854443105147e-01 4.609919924331183291e-03
3.097638161767131137e-01 9.507082298018447730e-01 -1.415061746646284827e-02
3.717089649593759981e-01 9.283177861969825750e-01 -7.650699259724825368e-03
3.717089649593759981e-01 9.283177861969825750e-01 -7.650699259724825368e-03
3.482860111292327976e-01 9.372781349092854652e-01 -1.437192654653292150e-02
3.586616190082331235e-01 9.334382401467142820e-01 -7.409108056847361207e-03
3.766825383550473361e-01 9.262976853118962683e-01 9.102938219144002946e-03
3.784353912661366781e-01 9.256118253743954583e-01 -5.422486913364993680e-03
3.730011317405907412e-01 9.276806318269489315e-01 1.669733671551927243e-02
3.730011317405907412e-01 9.276806318269489315e-01 1.669733671551927243e-02
3.412043318609660481e-01 9.398305251767804513e-01 1.726811701515192782e-02
3.351002183999945983e-01 9.419766277512502395e-01 1.969457789997957134e-02
3.531612665667722695e-01 9.353425273063532552e-01 2.028488129413306279e-02
3.527565892685557980e-01 9.356282454722322228e-01 -1.275049027166537396e-02
3.527565892685557980e-01 9.356282454722322228e-01 -1.275049027166537396e-02
3.870763435887090709e-01 9.219161729861876653e-01 -1.557158375045158451e-02
3.896807156515269543e-01 9.208957755321799388e-01 -9.995521812236989739e-03
3.691794291906922432e-01 9.293323505671700069e-01 6.923239973669243624e-03
4.046308521348448428e-01 9.141746997273763053e-01 2.363243277766343894e-02
4.328623589490531720e-01 9.012904298758719346e-01 -1.748540017349007117e-02
4.524785791256491496e-01 8.916895224978613754e-01 1.236652335822896812e-02
4.527345079855964460e-01 8.915887879532379268e-01 -1.004482329939366571e-02
4.357827348199143636e-01 8.999594982755924066e-01 -1.289610392406937041e-02
4.212826364520145250e-01 9.068770008613239453e-01 -9.749129848864730719e-03
4.209385313271623574e-01 9.067954614577962147e-01 2.308124614646760858e-02
4.681390430656146018e-01 8.836119191301884390e-01 -8.707050515300953850e-03
4.858418072068022009e-01 8.737996807873533722e-01 2.078115073684967326e-02
4.454767359667947679e-01 8.951620587616906377e-01 1.534165134209037121e-02
4.423744811692501555e-01 8.967400032534295073e-01 1.273518650339095816e-02
4.774820345257038690e-01 8.785680692576729456e-01 -1.136021065118646839e-02
4.629564496955912989e-01 8.863358043385324292e-01 8.953637965666585291e-03
5.055883934825465831e-01 8.627389990444556123e-01 -7.861037050441261817e-03
5.172393836733506500e-01 8.557212814753335506e-01 1.430064360178596311e-02
5.044990799574021745e-01 8.630163200805114343e-01 2.614401646317841485e-02
5.050550766237644762e-01 8.626728148789695183e-01 -2.673918557769964371e-02
5.183839843898914168e-01 8.549994692129545548e-01 1.593588320823953117e-02
5.558282523267611408e-01 8.312039233827418494e-01 -1.244956499301943034e-02
5.558282523267611408e-01 8.312039233827418494e-01 -1.244956499301943034e-02
5.557484728898772763e-01 8.312592541921852707e-01 1.231613577471840637e-02
5.146442777225600507e-01 8.573872159650277602e-01 -5.331914024365764712e-03
5.449555045446626833e-01 8.382275179019278433e-01 1.995310247668924050e-02
5.184860393095273023e-01 8.549481875943791831e-01 -1.535654812142033671e-02
5.510796880764190497e-01 8.343435031326426055e-01 -1.349430138787574215e-02
5.622224385248312251e-01 8.268788609013589808e-01 -1.331461654210780964e-02
5.540960734489077666e-01 8.323477277960034115e-01 1.322124885677232464e-02
5.737908554045836329e-01 8.189175552950969106e-01 -1.175125029850307250e-02
5.351475462368159297e-01 8.446790273328116383e-01 1.159502224276434852e-02
5.999925367969011214e-01 7.997313355740763852e-01 2.094628102845975601e-02
5.970507471101647035e-01 8.019736685099815299e-01 -1.920001020407251929e-02
5.970507471101647035e-01 8.019736685099815299e-01 -1.920001020407251929e-02
6.020605258366122925e-01 7.983372942498490055e-01 -1.344201767487818167e-02
6.009657943626470766e-01 7.991483550031812655e-01 1.421339867104620854e-02
6.205589496145603734e-01 7.839344827543789362e-01 1.879672316916006572e-02
6.010829949141812678e-01 7.991861968546060124e-01 -8.099272000263915000e-04
5.981913451541610582e-01 8.012498618449475085e-01 1.287530489377993088e-02
6.002222133462880027e-01 7.996801119863382601e-01 -1.565289427551491350e-02
6.434130855393577209e-01 7.653487689199508504e-01 -1.615126216239810841e-02
6.349300750554514039e-01 7.724327594179246637e-01 1.454070039885556331e-02
6.350602704275347676e-01 7.723306582321075586e-01 -1.427610868778934027e-02
6.436682412299734590e-01 7.648070940051129307e-01 -2.759174136162551721e-02
6.436682412299734590e-01 7.648070940051129307e-01 -2.759174136162551721e-02
6.136691378121654772e-01 7.895340283881604471e-01 6.797596195490103639e-03
6.154046275232942786e-01 7.881603850607000750e-01 -8.963919002548488210e-03
6.170332170232356583e-01 7.868519181942535967e-01 1.157877040018068064e-02
6.814925470297655830e-01 7.317437711891396912e-01 1.090695506448058696e-02
6.815469495819546086e-01 7.317695613663447451e-01 2.657926492605730204e-03
6.906817055660481319e-01 7.230180248453317304e-01 1.427295852757409431e-02
6.799199225471258545e-01 7.332050302499248939e-01 1.092165462358677709e-02
6.799199225471258545e-01 7.332050302499248939e-01 1.092165462358677709e-02
6.824820091648936549e-01 7.308738774996133003e-01 6.456187336975288335e-03
6.825934395077765116e-01 7.307294011932523592e-01 -1.003686069916118022e-02
6.916122238132127453e-01 7.222492216181217728e-01 -5.347311862974207276e-03
7.079718037300753997e-01 7.060793310618995733e-01 1.509646880445694207e-02
7.087098227743064971e-01 7.053374850616439540e-01 -1.514659269032292595e-02
7.172963484163178416e-01 6.964252465641254108e-01 2.185919707384925345e-02
7.061612356133540880e-01 7.080446665286509456e-01 -3.009903213137730526e-03
7.019421273221247981e-01 7.121898816867893167e-01 7.926052828933882743e-03
6.910079136071171080e-01 7.227336763891077931e-01 1.281000957935276435e-02
7.046474395127647616e-01 7.095574783874732949e-01 -4.133430960465220706e-04
7.527551018129292615e-01 6.582699159340369421e-01 6.361954951302995973e-03
7.536945014103600959e-01 6.571753186894203624e-01 -8.074592822396333552e-03
7.519142890842526183e-01 6.592141676802397710e-01 -7.847483709555826137e-03
7.559825322425750560e-01 6.545329041356507949e-01 8.779997030470108529e-03
7.559327342523968207e-01 6.546239280230731206e-01 5.763171465249401597e-03
7.579054357461588731e-01 6.523516217208071843e-01 -4.088044111511828296e-03
7.263039401904581860e-01 6.871047434646093688e-01 1.922649141805615747e-02
7.595202736888528872e-01 6.502772792204106755e-01 1.638334475344184818e-02
7.586897366673476251e-01 6.513903305483869088e-01 -8.973335148878051198e-03
7.738844200931769279e-01 6.331382510197116620e-01 -1.545507789524170825e-02
7.705837207717283199e-01 6.371145899021063430e-01 1.690350896914031426e-02
7.749844561910134155e-01 6.318548328790357660e-01 -1.259217335192765706e-02
7.942156667682811477e-01 6.074212103150221642e-01 -1.615388248218645531e-02
7.993229887126521716e-01 6.005424138246753252e-01 -2.077423676349729117e-02
8.177411163834000796e-01 5.755361262913107900e-01 -7.591700048266181687e-03
8.164257895016788780e-01 5.773710351746198510e-01 -9.571728054458609330e-03
7.901507333552528767e-01 6.123765755678139966e-01 2.562710038208484281e-02
7.874940538347994234e-01 6.158618133283227936e-01 -2.381894327597575828e-02
8.197594362780602495e-01 5.726513446518858297e-01 8.056308178313454152e-03
8.197593199397955610e-01 5.727012974643348464e-01 2.807357211194488455e-03
8.088432739017887840e-01 5.877592802968574226e-01 1.765181828470178960e-02
7.913503643395837228e-01 6.110276006165211715e-01 2.024529931675879066e-02
8.063367923093829326e-01 5.914466071726224294e-01 3.447931584086407278e-03
8.063367923093829326e-01 5.914466071726224294e-01 3.447931584086407278e-03
8.219756377376681300e-01 5.692059042623651699e-01 1.899182767974105096e-02
8.165877808681821781e-01 5.771327867792510613e-01 1.010656030473181671e-02
8.222134899992006307e-01 5.691749780848601725e-01 2.195719798487233854e-03
8.182024449491693829e-01 5.748943773248130773e-01 -6.419813043771488079e-03
8.338173883603002823e-01 5.516438071643304797e-01 2.092063300311525209e-02
8.388321636914470858e-01 5.440189176107177449e-01 -2.010020990906573324e-02
8.503530781610491029e-01 5.260386279046097568e-01 -1.352791241338275642e-02
8.561916380975411744e-01 5.166004966486973382e-01 7.733415427108845247e-03
8.730403290161889984e-01 4.876457755212366685e-01 1.476999524703233226e-03
8.598190010231721025e-01 5.101989778868935010e-01 2.020614863559758514e-02
8.498039244477643139e-01 5.268168589087695031e-01 -1.724201736097088697e-02
8.667687584901097031e-01 4.986970123422564405e-01 3.634444444637502727e-03
8.723250144087915103e-01 4.888970874514210196e-01 -5.357902408517601148e-03
8.912126293801098109e-01 4.530596556003240183e-01 -2.184027702907722149e-02
8.750385905063490233e-01 4.839989418045725911e-01 -7.244960780841639553e-03
8.750385905063490233e-01 4.839989418045725911e-01 -7.244960780841639553e-03
8.471496700801929292e-01 5.311283703706357606e-01 1.549485948477712267e-02
8.707244371282114592e-01 4.916733206304476078e-01 9.813275089818881275e-03
8.619643964505686595e-01 5.069062863648212680e-01 -7.962166503709766294e-03
9.095166076039367109e-01 4.156597881481378098e-01 2.545782644253370176e-03
9.053559511768816126e-01 4.246288145889063337e-01 4.579463879543545397e-03
8.967978374625789062e-01 4.422047496050116044e-01 -1.444292730754065737e-02
9.038822509624283574e-01 4.272007556731975964e-01 2.227982826106942107e-02
9.185993386812182360e-01 3.951824851190141041e-01 -2.461387736360482782e-03
9.171125993974035273e-01 3.985794359323514002e-01 -6.238050848322716085e-03
9.159289471279228323e-01 4.011740091719846468e-01 1.155760260656608397e-02
9.159289471279228323e-01 4.011740091719846468e-01 1.155760260656608397e-02
9.076067032551422553e-01 4.197457119974672413e-01 -7.975554279890459050e-03
9.235825388250913370e-01 3.831543502834651727e-01 -1.371268887761127597e-02
8.934241174256118967e-01 4.489587393289298789e-01 1.514585033745566300e-02
9.035047725852837219e-01 4.285754350669071511e-01 1.490762498155224179e-03
9.170865653533277762e-01 3.980758259471864347e-01 2.208774422392875345e-02
9.535859932146122375e-01 3.007009153692540848e-01 1.589695068225209160e-02
9.539723836763981391e-01 2.998734236726238733e-01 -3.552598715031706714e-03
9.465180719961688860e-01 3.226203532973799248e-01 -4.432496241285190791e-03
9.466097599770917359e-01 3.223605643881764515e-01 -3.691726350782032536e-03
9.303069602283964290e-01 3.662866578415119867e-01 1.905371454325199831e-02
9.363426313628262498e-01 3.506327823462536686e-01 -1.786417187174154514e-02
9.441423622292076656e-01 3.295341054847262252e-01 -1.572630482008477611e-03
9.445262110834554692e-01 3.283708355385763222e-01 6.544535432637834174e-03
9.450413025649021526e-01 3.269418012191072087e-01 2.448481578259141707e-03
9.525969630273767308e-01 3.037226735776755171e-01 1.765116386665718448e-02
9.453896741142367999e-01 3.258532807357624739e-01 -7.616003671053643738e-03
9.442085473274460794e-01 3.292608736086030108e-01 7.582629114853067613e-03
9.469285284218521559e-01 3.208093991767437814e-01 2.019137094607781346e-02
9.480015946893010081e-01 3.182172262515159389e-01 -5.547376256740454981e-03
9.592027424726845553e-01 2.818544173965916722e-01 -2.209493668035309930e-02
9.574549478086556986e-01 2.875262633516011967e-01 2.467125452403555463e-02
9.708248561070214055e-01 2.396586740713781138e-01 -7.925825328003555797e-03
9.694072205352444183e-01 2.444620847035000322e-01 2.208913571307943857e-02
9.806327130999642483e-01 1.955578873092843895e-01 -1.079790300625699251e-02
9.716186005115572399e-01 2.365411325625156047e-01 -2.363841366344260689e-03
9.632255875341456663e-01 2.681301431212493314e-01 1.739809958812774116e-02
9.648502201394698607e-01 2.615328842032636492e-01 -2.577989870304058309e-02
9.648502201394698607e-01 2.615328842032636492e-01 -2.577989870304058309e-02
9.796536336782341037e-01 1.993859943770496801e-01 2.289068079607305128e-02
9.729665364630165625e-01 2.307820141731184438e-01 8.705220121288105919e-03
9.749172742972213035e-01 2.224216745493461656e-01 -8.056486054172517022e-03
9.745599377571595445e-01 2.233721383109437963e-01 1.837975911588375991e-02
9.682053585587097055e-01 2.498692074876405211e-01 -1.199011291434887334e-02
9.896181856721919523e-01 1.434876168891953685e-01 -8.194533930513066278e-03
9.893071051927522230e-01 1.457846449397740274e-01 -4.276554094215107189e-03
9.888488095217965457e-01 1.488409995614407011e-01 4.938497431087185072e-03
9.888488095217965457e-01 1.488409995614407011e-01 4.938497431087185072e-03
9.841041309658380420e-01 1.766129436975495959e-01 -1.862599083159848651e-02
9.841041309658380420e-01 1.766129436975495959e-01 -1.862599083159848651e-02
9.841041309658380420e-01 1.766129436975495959e-01 -1.862599083159848651e-02
9.960921125967011625e-01 8.576123967047040442e-02 -2.110717870358317164e-02
9.912926049197307021e-01 1.313140542131761013e-01 9.777044418109880411e-03
9.912926049197307021e-01 1.313140542131761013e-01 9.777044418109880411e-03
9.917224742184210795e-01 1.282616839870774073e-01 -5.956051619332023567e-03
9.920059611393868826e-01 1.250369969482531540e-01 1.702710950466091236e-02
9.922672743874294543e-01 1.235633724006045542e-01 -1.173665969223198699e-02
9.855797488037164600e-01 1.691129019438277759e-01 -5.777987897207886164e-03
9.956391081552656841e-01 9.106251209800522717e-02 2.025796638825509352e-02
9.956391081552656841e-01 9.106251209800522717e-02 2.025796638825509352e-02
9.984268739292631034e-01 5.564705432133380814e-02 -6.868970898032558323e-03
9.989367064532137519e-01 4.558302754693953351e-02 6.902470576597824134e-03
9.978109123335269226e-01 6.556771403993440217e-02 8.617314182054637908e-03
9.978109123335269226e-01 6.556771403993440217e-02 8.617314182054637908e-03
9.987494523459873319e-01 4.755527387457074429e-02 1.542813550967384213e-02
9.989648312546328679e-01 4.525591175171452679e-02 -4.600909467066937458e-03
9.953042301404848580e-01 9.432765734723447260e-02 2.172055532990364163e-02
9.994748130290911359e-01 2.833358790050359219e-02 1.572596315485938478e-02
9.996025655516718178e-01 2.452364514131837037e-02 1.390330074113378840e-02
9.996025655516718178e-01 2.452364514131837037e-02 1.390330074113378840e-02
9.972774486791617932e-01 7.226240882598439219e-02 1.469131126374294792e-02
9.983438756785807389e-01 5.752589061342197607e-02 5.270713454938073328e-04
9.996367395069235551e-01 2.532084807164015905e-02 -9.232750451518556556e-03
9.997616662686185096e-01 -1.548053686497190620e-02 -1.539362329563633697e-02
9.999092551081731894e-01 -5.065100486623126674e-03 1.248304073848249991e-02
9.975821215047436796e-01 -6.840686384282199106e-02 -1.226425021290176130e-02
9.999473120434837492e-01 -6.412349038242121622e-03 -8.015916468099635109e-03
9.986608242728697293e-01 -4.854123963779694712e-02 1.789709800661713410e-02
9.984694960102468153e-01 -5.465890044255717478e-02 8.430310756683411996e-03
9.984694960102468153e-01 -5.465890044255717478e-02 8.430310756683411996e-03
9.984694960102468153e-01 -5.465890044255717478e-02 8.430310756683411996e-03
9.996032035479091027e-01 -2.503528494232434842e-02 -1.291007221568210225e-02
9.995107966067590111e-01 -3.127152661252501770e-02 -5.090086878176767592e-04
9.978347792885929879e-01 -6.566682779167277995e-02 -3.690659814141804100e-03
9.965557295677225369e-01 -8.177887608223666227e-02 1.374384562159924016e-02
9.993481886841373285e-01 -3.573792853199389552e-02 -5.098846729983663555e-03
9.965721247463622534e-01 -8.010268681951089598e-02 -2.067751781081232990e-02
9.965097340406148252e-01 -8.255585428059182551e-02 1.236450105361829380e-02
9.964001765399637112e-01 -8.406221484733310267e-02 1.096504564924411472e-02
9.992117886255853509e-01 -3.817420731868800127e-02 1.088721117864961153e-02
9.942781964047364696e-01 -1.035618315909397624e-01 2.618807346244334325e-02
9.925727835172356572e-01 -1.211552018768786154e-01 1.098573980301432995e-02
9.874559146225145856e-01 -1.573581576602314791e-01 1.300872379561856390e-02
9.891743592245978434e-01 -1.454892260029568563e-01 1.915651768111016617e-02
9.939370840584125233e-01 -1.082096599585249952e-01 1.948698091343768410e-02
9.873235889737910220e-01 -1.582563493583749870e-01 -1.212676971301923298e-02
9.865981135491544984e-01 -1.628470748796025103e-01 -1.024658696380389457e-02
9.874285231086231684e-01 -1.578376165907393880e-01 -8.496972430101428636e-03
9.877838694584131218e-01 -1.547045842157863116e-01 1.869542351446167386e-02
9.877838694584131218e-01 -1.547045842157863116e-01 1.869542351446167386e-02
9.898467419896340713e-01 -1.418815823400784992e-01 -8.546576225736913709e-03
9.895384655518475459e-01 -1.439411875400440077e-01 9.724182374716063351e-03
9.829393236397834244e-01 -1.830015269473070638e-01 1.845879675166772413e-02
9.835166632231701067e-01 -1.798504602422052179e-01 -1.867578948875714406e-02
9.758746438709764437e-01 -2.177948304461776730e-01 1.530004185012000077e-02
9.652414707718018905e-01 -2.608207611894461930e-01 1.677598387119816695e-02
9.762586880087832375e-01 -2.161489017108058630e-01 -1.409348702704785704e-02
9.772211409117805836e-01 -2.122050873515626268e-01 -2.800474458654728192e-03
9.654855354706038950e-01 -2.599233865665157572e-01 -1.665874883762641367e-02
9.804423168854926596e-01 -1.945972016864598586e-01 2.940735207404281473e-02
9.809362238736936135e-01 -1.925796971975292926e-01 -2.602277694111314668e-02
9.605857154155682531e-01 -2.768048114503368073e-01 2.557693682801555693e-02
9.624024590816498970e-01 -2.707485874615135901e-01 -2.183366989739199404e-02
9.685412472369643311e-01 -2.486703765276771783e-01 -9.533951869434042700e-03
9.675933101020007809e-01 -2.524496194968471330e-01 5.689979064139950686e-03
9.681107431168431976e-01 -2.502472415833195685e-01 -1.174338714739306053e-02
9.574817315998179756e-01 -2.877554649138931997e-01 2.062828312786688448e-02
9.488179018623484895e-01 -3.156630405042421539e-01 1.007144305192450053e-02
9.462101650227235927e-01 -3.233286867671056886e-01 1.203677370099765463e-02
9.491662256327931813e-01 -3.147533623945412140e-01 3.714428533193832056e-03
9.490503238704555145e-01 -3.149224544394033098e-01 1.128407954798944096e-02
9.471082435610760353e-01 -3.207198897032461082e-01 1.116813894035455397e-02
9.483348473505041065e-01 -3.171233423978929711e-01 -9.685195252787524162e-03
9.366642366445603329e-01 -3.500658083347642502e-01 1.067884010513618642e-02
9.383653094023927110e-01 -3.453693136018980980e-01 -1.380519222269217111e-02
9.383683035582560672e-01 -3.455209010186360286e-01 8.957334227906536481e-03
9.338135409963209677e-01 -3.572554106536885432e-01 -1.899584719291796606e-02
9.327576213718660192e-01 -3.600562232669211049e-01 1.796485066622284868e-02
9.532550570356456143e-01 -3.011724176099411787e-01 2.449430764384656276e-02
9.387467665964509544e-01 -3.445977416957233253e-01 -2.627664917011622060e-03
9.387467665964509544e-01 -3.445977416957233253e-01 -2.627664917011622060e-03
9.323661475604166915e-01 -3.600523914600030073e-01 3.249064922835653846e-02
9.515809354796005426e-01 -3.066464381251894356e-01 -2.148686149494168432e-02
9.490185985297984184e-01 -3.149844902104141919e-01 1.218485007797654764e-02
9.490185985297984184e-01 -3.149844902104141919e-01 1.218485007797654764e-02
9.254254729393969203e-01 -3.784268256464905500e-01 -1.951490881388103296e-02
9.139847287158067157e-01 -4.056901353421262235e-01 -6.886926773284791914e-03
9.134445960597269432e-01 -4.068581456193095525e-01 9.242254730249400974e-03
9.112486802801156305e-01 -4.118054461817706180e-01 6.489775248833978306e-03
9.145613406471971851e-01 -4.042175178430427174e-01 1.362910350722676932e-02
9.203288330050338750e-01 -3.908514470913133643e-01 1.516527105655287103e-02
9.038844477086954710e-01 -4.277757336805113608e-01 9.093208712670230748e-04
9.135303963199868926e-01 -4.067343525306357233e-01 -5.420467777995507420e-03
9.007568982924049061e-01 -4.342195910025230532e-01 -9.505628240553152392e-03
9.082296979591815145e-01 -4.184124170171408807e-01 7.061517602356904601e-03
8.919016950355681539e-01 -4.517315074171810996e-01 -2.121347683152500357e-02
8.909408636261637593e-01 -4.536605129425355654e-01 2.040873631023876200e-02
8.981235252974131278e-01 -4.395395352415772949e-01 1.338395557992154601e-02
8.991886790149856701e-01 -4.372882493303629770e-01 -1.545013038363418287e-02
8.991886790149856701e-01 -4.372882493303629770e-01 -1.545013038363418287e-02
9.165775990484358315e-01 -3.998544931066573271e-01 1.374505373955540186e-03
8.989134168099857103e-01 -4.379790918356901153e-01 1.135712084029872997e-02
8.989134168099857103e-01 -4.379790918356901153e-01 1.135712084029872997e-02
8.840594811410269482e-01 -4.673408586691266686e-01 5.599609188284426428e-03
8.834293978010523407e-01 -4.682399903952629283e-01 1.743016051314816642e-02
8.768671848807984004e-01 -4.804552606817919513e-01 1.633041831721023310e-02
8.787584361502763786e-01 -4.770806063665359309e-01 -1.333063853155902652e-02
8.690359103514483374e-01 -4.947277564861576327e-01 -4.586227404165607244e-03
8.655756784897103984e-01 -5.007610830040295502e-01 4.133104850919328346e-03
8.655472166413626933e-01 -5.007921677507375380e-01 5.934684819537154252e-03
8.762482716039317054e-01 -4.814263153497478354e-01 2.043696161094725114e-02
8.494184992422287861e-01 -5.274780945480150862e-01 1.597100238166073230e-02
8.498812191768556623e-01 -5.266968113685086550e-01 -1.709918666800508760e-02
8.581873382648501636e-01 -5.133354350858206905e-01 1.106131611888087072e-03
8.612427830804776363e-01 -5.080755910712411172e-01 -1.095729662839562552e-02
8.663127237528653879e-01 -4.992343633913903789e-01 1.634977287563292234e-02
8.781838205694266764e-01 -4.782037638913332889e-01 -1.069287100113659218e-02
8.381480120931825706e-01 -5.450630102076077232e-01 2.035251158131545432e-02
8.362308035126150285e-01 -5.481745115545639813e-01 -1.492474919593724143e-02
8.236836809397544146e-01 -5.669498052279695610e-01 1.063541750494118206e-02
8.236836809397544146e-01 -5.669498052279695610e-01 1.063541750494118206e-02
8.154608583356841578e-01 -5.787951224723134613e-01 -4.449126283780508069e-03
8.154335715382331484e-01 -5.788192840387840210e-01 6.027174564458101513e-03
8.317886418483371180e-01 -5.544857589411127385e-01 2.594606759408775096e-02
8.121703036507610385e-01 -5.833553152204560277e-01 8.716310680146945392e-03
8.137081059307827990e-01 -5.811661578152658159e-01 1.118102646359623274e-02
8.109706453916698532e-01 -5.848845236285133975e-01 1.538526349679225115e-02
8.103787169198983786e-01 -5.859060136554702369e-01 -6.916108842033795142e-04
8.035425340871449329e-01 -5.951469793545892673e-01 1.093018197092005331e-02
8.009227604710392745e-01 -5.986030888475315503e-01 -1.403829696382485025e-02
7.903029199437393570e-01 -6.123705044507181672e-01 -2.058300287062911349e-02
8.213968560288410492e-01 -5.701739738595233975e-01 -1.445145110965765679e-02
8.213968560288410492e-01 -5.701739738595233975e-01 -1.445145110965765679e-02
7.775801609399877190e-01 -6.285277501718925519e-01 -1.794325991569182405e-02
7.775801609399877190e-01 -6.285277501718925519e-01 -1.794325991569182405e-02
7.805954404459907181e-01 -6.247108136877712603e-01 -2.017814700344488371e-02
7.533216143069844106e-01 -6.576304349487192002e-01 5.362503806765213030e-03
7.808377230568706029e-01 -6.244175805539893265e-01 1.987801163256302725e-02
7.505951293092392174e-01 -6.607219346527176684e-01 7.312791944018928042e-03
7.334960961197951601e-01 -6.792396088356986716e-01 2.484010398020095739e-02
7.505950352464701991e-01 -6.606944342069828169e-01 9.484601797912023402e-03
7.850068815774191577e-01 -6.187962515265423846e-01 2.924713614691004659e-02
7.850068815774191577e-01 -6.187962515265423846e-01 2.924713614691004659e-02
7.625216041886414553e-01 -6.468730150754541386e-01 1.077522680839294346e-02
7.617682730911500277e-01 -6.478136453328577904e-01 -6.824883316326972767e-03
7.353572191871595720e-01 -6.773889228263394457e-01 1.984962018526894786e-02
7.560529826634061479e-01 -6.544987473965854230e-01 -3.908588244881292494e-03
7.560529826634061479e-01 -6.544987473965854230e-01 -3.908588244881292494e-03
7.553338328014709280e-01 -6.553345510540693475e-01 -2.725292681680046864e-03
7.486553169743416225e-01 -6.629219884519421679e-01 -7.046530562718774857e-03
7.489966484602017527e-01 -6.623964033879935487e-01 1.533053730419487934e-02
7.489966484602017527e-01 -6.623964033879935487e-01 1.533053730419487934e-02
7.489966484602017527e-01 -6.623964033879935487e-01 1.533053730419487934e-02
7.118232115866364174e-01 -7.022011427318590737e-01 -1.487516697579981638e-02
7.218467265854491277e-01 -6.916826117860017664e-01 -2.263775321817327810e-02
7.218467265854491277e-01 -6.916826117860017664e-01 -2.263775321817327810e-02
7.227347203840382983e-01 -6.907233814840396668e-01 2.357401583650219415e-02
6.907079014447677912e-01 -7.231017383376068253e-01 -6.816956424700373711e-03
7.116838237171959625e-01 -7.022879961893419010e-01 -1.725414349163559638e-02
6.798829967490727100e-01 -7.332780734194518368e-01 7.897960101022121968e-03
6.734718828779331368e-01 -7.390655876876249808e-01 1.475398484468743235e-02
7.121065137890909558e-01 -7.018648990687019751e-01 1.702869561733288961e-02
6.907577879435939927e-01 -7.230442887355965631e-01 7.786842884511321373e-03
7.123316224768341254e-01 -7.016702528271244743e-01 1.557292255937164742e-02
6.843535915205705145e-01 -7.291007355769877352e-01 8.501714767714680515e-03
6.851361459970685130e-01 -7.283688918478389285e-01 -8.198709449339723621e-03
6.603419411024658014e-01 -7.507223800947311343e-01 1.909001953716648117e-02
6.944079873476837195e-01 -7.195662362154001679e-01 -4.688155985272180956e-03
6.620259939146350137e-01 -7.492230050145569642e-01 -1.965889463567519618e-02
6.451254654944402755e-01 -7.638021697942217747e-01 2.047874967424677742e-02
6.359429500737175944e-01 -7.716037001080552349e-01 1.429315329433955215e-02
5.997031285264315947e-01 -8.000942600931809645e-01 1.432943130607184333e-02
6.358678311410681516e-01 -7.716650601148761224e-01 -1.432258069828070378e-02
5.997986498752404527e-01 -8.001483657816157447e-01 2.042631843611982401e-03
6.034329941928626706e-01 -7.973273650263540402e-01 1.173432995818717885e-02
6.128138399514795331e-01 -7.901767813787305972e-01 -8.935979737678845236e-03
6.392272655284813032e-01 -7.688702918388413687e-01 1.506576691162196321e-02
6.401095862817851589e-01 -7.681297299006930590e-01 -1.537646229957030999e-02
6.401095862817851589e-01 -7.681297299006930590e-01 -1.537646229957030999e-02
6.251900278338248240e-01 -7.804610490331719275e-01 -4.240287629646253241e-03
5.842681795145654444e-01 -8.113211403973074054e-01 -1.971551549282903396e-02
5.831537985310280003e-01 -8.121104882852197004e-01 2.020401138327712620e-02
6.069964780819195882e-01 -7.946351960080889620e-01 -1.049670716615389542e-02
6.076325988411761525e-01 -7.941663947524787437e-01 -9.075366183714675059e-03
5.611692514812326449e-01 -8.275769500438167059e-01 -1.433397879749072693e-02
5.534168064634861217e-01 -8.328278599138676519e-01 1.129575473545775706e-02
5.534168064634861217e-01 -8.328278599138676519e-01 1.129575473545775706e-02
5.537866675154708984e-01 -8.325864594888520154e-01 -1.095966960850840513e-02
5.342669891308213792e-01 -8.452026704258160938e-01 1.382860188725330668e-02
5.123676199627565930e-01 -8.585833170143311044e-01 1.772314188762020432e-02
5.126182243865570198e-01 -8.586012558136945083e-01 -5.141939509569292029e-03
5.025670770586001534e-01 -8.643085866216591029e-01 1.992486258032746121e-02
5.485475892590070401e-01 -8.361140402381519454e-01 -2.975573014669739402e-03
5.274757953580394565e-01 -8.495601723142395256e-01 4.098649631703595031e-03
5.279776956392557841e-01 -8.491676687841130944e-01 -1.240254809367094882e-02
5.279776956392557841e-01 -8.491676687841130944e-01 -1.240254809367094882e-02
5.181673325928135565e-01 -8.551334338692133663e-01 -1.579321730035530488e-02
5.481049832329492055e-01 -8.363716815324920839e-01 7.958497704979911394e-03
5.236700355081244096e-01 -8.518393620198080329e-01 1.180657548175331403e-02
5.603133102416442135e-01 -8.281736488613092861e-01 -1.331922286755699014e-02
5.606046200763860066e-01 -8.280736512029570617e-01 -4.060558140715627221e-03
4.710059003668393696e-01 -8.820385683226408258e-01 1.270455866880037914e-02
4.659183603083620895e-01 -8.847895391374591689e-01 8.219060803399253629e-03
4.662124663554768622e-01 -8.846423534747323014e-01 -7.337755340031656970e-03
4.204730981775013920e-01 -9.072593499677277240e-01 -9.101956116646907000e-03
4.540036558426758795e-01 -8.908840634619564769e-01 1.436196194807543187e-02
4.540036558426758795e-01 -8.908840634619564769e-01 1.436196194807543187e-02
4.722801560398849907e-01 -8.813872016114215890e-01 -1.039495293540354873e-02
4.743402042936908924e-01 -8.802568445697508404e-01 1.221712645122625951e-02
4.750889740428895780e-01 -8.798591569783028588e-01 -1.176140401077531775e-02
4.202294894614806986e-01 -9.071881758108302218e-01 2.041543180933063847e-02
4.202294894614806986e-01 -9.071881758108302218e-01 2.041543180933063847e-02
4.320313416770912296e-01 -9.018502212729622158e-01 3.885640050450574375e-03
4.320313416770912296e-01 -9.018502212729622158e-01 3.885640050450574375e-03
4.233986366948964131e-01 -9.057844037091485889e-01 1.697670292387265523e-02
4.263619644976286982e-01 -9.045497951295278227e-01 -2.267897892761515377e-03
4.660762302671909163e-01 -8.847091346106804588e-01 7.917999516639139673e-03
4.669855550871430117e-01 -8.842618734141397541e-01 -2.330357498070401243e-03
4.356242304776714591e-01 -9.000149225460325475e-01 1.430625790330295605e-02
4.356242304776714591e-01 -9.000149225460325475e-01 1.430625790330295605e-02
3.778728592829568855e-01 -9.258197420566618430e-01 8.361066645996777236e-03
3.746013072164483537e-01 -9.271733993695258080e-01 -4.831990613180359335e-03
3.781016799046411636e-01 -9.257409794839019934e-01 -6.539002788952469683e-03
3.804225201524542577e-01 -9.247758696650462129e-01 8.264202690699435153e-03
3.805850777430362930e-01 -9.247278258761194580e-01 -5.783307855558375565e-03
3.502130907786367708e-01 -9.365798750348296453e-01 1.299725844234162798e-02
3.288068442150299808e-01 -9.441100955156719321e-01 -2.328490375204263566e-02
3.294690564556024270e-01 -9.439230748847109442e-01 2.143290783928702634e-02
3.293586792735018198e-01 -9.439643969132334167e-01 -2.130910010887630476e-02
3.293586792735018198e-01 -9.439643969132334167e-01 -2.130910010887630476e-02
3.307613870211935647e-01 -9.435850729378654211e-01 1.562417948755322715e-02
3.437436326570290634e-01 -9.389182362367322066e-01 1.651849478170796387e-02
3.841875067090511631e-01 -9.231930322269412681e-01 1.070443535683139082e-02
3.419367234433892677e-01 -9.395479244353601711e-01 -1.813766385193829600e-02
2.892022120508823679e-01 -9.572435619587078559e-01 -6.844240898875167574e-03
2.802278831332452591e-01 -9.598998218260517135e-01 8.041490718421234057e-03
2.802278831332452591e-01 -9.598998218260517135e-01 8.041490718421234057e-03
3.251750734708499513e-01 -9.455986102784725844e-01 -1.021958084505075227e-02
2.792794856697041750e-01 -9.601962842364374362e-01 -5.105352348674579294e-03
2.776245683583654089e-01 -9.605792942014013125e-01 1.456085833215583700e-02
2.895953341159195338e-01 -9.571192469178729789e-01 7.568991851811391128e-03
2.497451057675764141e-01 -9.681555699243921120e-01 1.738316914482673087e-02
2.479936457961479934e-01 -9.686072819107541809e-01 -1.729407627471217859e-02
2.901908274645086383e-01 -9.569478535078606019e-01 6.331612919473083093e-03
2.599720482242656727e-01 -9.655311195640754462e-01 1.281371512962150086e-02
2.592238122544994749e-01 -9.657895321559777368e-01 -7.320842723472309119e-03
2.407951255250853073e-01 -9.703455355932252280e-01 -2.114826417593326791e-02
1.972865032280087805e-01 -9.803167850157421537e-01 -7.552261943545363586e-03
2.242688590076503397e-01 -9.743017215006998244e-01 -2.096745955473028680e-02
2.242688590076503397e-01 -9.743017215006998244e-01 -2.096745955473028680e-02
2.267778431870085820e-01 -9.739110544252553847e-01 -8.310710423037695818e-03
2.284863704271534457e-01 -9.733301560810599939e-01 -2.055202647539134536e-02
1.807604166024854020e-01 -9.834970830873029923e-01 -7.691511454996555891e-03
2.268862606428310169e-01 -9.737286632992364632e-01 1.936788581635669193e-02
2.295136371870386549e-01 -9.730795533333855829e-01 2.096838643470065947e-02
1.779988965313951677e-01 -9.839892895939325035e-01 -9.026117550396848058e-03
1.773579011549976381e-01 -9.841258716532839124e-01 6.359531473168996037e-03
1.773579011549976381e-01 -9.841258716532839124e-01 6.359531473168996037e-03
1.515265214081675804e-01 -9.882775972377696450e-01 -1.863073020257214468e-02
1.644503299245660133e-01 -9.863108576475233535e-01 -1.212357514549466247e-02
1.526091110256007632e-01 -9.881098703156969698e-01 1.869073076881471590e-02
1.931363678907472015e-01 -9.811562530982543828e-01 -5.545304695339349499e-03
1.407506861122932162e-01 -9.898051966154830517e-01 -2.179259305139327405e-02
1.254155609723567599e-01 -9.920894962174506837e-01 -5.419276796184939807e-03
9.240883434846362821e-02 -9.955863661823132205e-01 1.638275942126977275e-02
1.248716443558617328e-01 -9.920252415400373502e-01 -1.711702612294414491e-02
8.008462170099343858e-02 -9.967283417649768218e-01 1.091174089907482464e-02
1.255316985394916152e-01 -9.919490387960827604e-01 1.670021237343039325e-02
1.190461445137198093e-01 -9.927627130311068582e-01 -1.581806219277859943e-02
1.411907401899646641e-01 -9.895599421846824617e-01 2.891877777600233498e-02
8.520052208368318614e-02 -9.963483749968145009e-01 5.548574400240077753e-03
9.646659837892655742e-02 -9.953316632702839950e-01 3.012555196046713679e-03
7.465013819174361187e-02 -9.971264453869922439e-01 -1.289219833291288704e-02
7.465013819174361187e-02 -9.971264453869922439e-01 -1.289219833291288704e-02
6.628831936868223584e-02 -9.976829162311147137e-01 -1.531853047306294506e-02
4.197768521570831302e-02 -9.989098965614091608e-01 -2.041794543057133884e-02
1.589395276544198002e-02 -9.998241705424255610e-01 9.950390175307159343e-03
1.575130950128374868e-02 -9.998091574726831743e-01 -1.155616211196492521e-02
2.318953094483466523e-02 -9.996356072488715716e-01 1.381659779896846074e-02
-2.381928718547224322e-02 -9.996124660010777818e-01 -1.440692101803853035e-02
2.271836786915570894e-02 -9.997398633910068444e-01 -2.020224812399721431e-03
2.271836786915570894e-02 -9.997398633910068444e-01 -2.020224812399721431e-03
2.086887852558741430e-02 -9.996917893798883403e-01 -1.344678978497190411e-02
2.086887852558741430e-02 -9.996917893798883403e-01 -1.344678978497190411e-02
-7.550345419635476297e-04 -9.999948613225309035e-01 -3.115646220726711341e-03
-4.552826054455080124e-02 -9.987207911844290242e-01 -2.199906242856583885e-02
-7.628198573201029056e-04 -9.999913977673879906e-01 4.077069669616287771e-03
-2.976553171970114722e-02 -9.994006634380854237e-01 1.767277683212910289e-02
-3.021372577736366333e-02 -9.994022326897019637e-01 -1.680202575551223432e-02
-3.350918641948852361e-02 -9.992898897356293775e-01 1.722935569478837095e-02
-8.276093110672101683e-02 -9.965474426161324839e-01 -6.619886524314219818e-03
-7.880372149932439452e-02 -9.968608926802249304e-01 7.637677830483868141e-03
-8.204277547783257740e-02 -9.965788874398320285e-01 -9.975174238115655512e-03
-1.314071142277365711e-01 -9.910854684629922806e-01 -2.194913510436276652e-02
-8.971204941485280693e-02 -9.959108377203856888e-01 1.064666618555033806e-02
-8.158979468771644650e-02 -9.965930330805460313e-01 1.205951152135398274e-02
-8.164161286838528264e-02 -9.966569654630372810e-01 3.088728259152981413e-03
-9.811988016178441185e-02 -9.951693417882847559e-01 -3.235781468097956737e-03
-9.815537253632729275e-02 -9.951573076488239300e-01 5.239835436215689417e-03
-1.045821168256334394e-01 -9.945086054837039002e-01 3.900571641178186746e-03
-5.734097478728050062e-02 -9.979810071937789129e-01 2.731157064204278381e-02
-5.734097478728050062e-02 -9.979810071937789129e-01 2.731157064204278381e-02
-1.302063920346355486e-01 -9.914868395474100149e-01 3.774620656337656873e-04
-1.375037893776268061e-01 -9.903428265685129128e-01 -1.771422510530818936e-02
-1.306953933046911265e-01 -9.911796860632103856e-01 2.194411320987351907e-02
-1.455005590891989553e-01 -9.891181275945999385e-01 -2.179258976081464849e-02
-1.455749747540925620e-01 -9.891186738101462872e-01 2.126442675933112869e-02
-1.880042976900158647e-01 -9.821603460503984806e-01 3.929210639014685605e-03
-1.880042976900158647e-01 -9.821603460503984806e-01 3.929210639014685605e-03
-1.880497397837861129e-01 -9.821184229949981859e-01 8.983238896298699483e-03
-1.838499050899836396e-01 -9.828518164958630621e-01 1.419574616517687259e-02
-2.299741273410068620e-01 -9.731967149319551424e-01 -2.340927017333965506e-04
-1.551127500812059523e-01 -9.877398507564962848e-01 -1.760744131836918316e-02
-1.555262636938873622e-01 -9.874775670147784012e-01 2.645063220403806939e-02
-1.948208300484131350e-01 -9.808196091710709164e-01 6.143162439255437333e-03
-1.948208300484131350e-01 -9.808196091710709164e-01 6.143162439255437333e-03
-2.443215789223623924e-01 -9.695030438665555028e-01 1.925653152484997979e-02
-2.219300892893344979e-01 -9.748492674282316361e-01 2.039463808622326776e-02
-2.854426082362352401e-01 -9.583898272410681374e-01 -3.384736936702273206e-03
-2.875087766365911346e-01 -9.577706250683998279e-01 3.759403279413946544e-03
-2.221840278806168634e-01 -9.748046628477330389e-01 -1.975163398463095424e-02
-2.858301250408925021e-01 -9.582581743821136921e-01 -6.512361243531637929e-03
-2.654935775356926375e-01 -9.638978488022624802e-01 2.034938234124274853e-02
-2.909667664307039603e-01 -9.566882979979314250e-01 9.265058374419809020e-03
-2.387759804137479791e-01 -9.707828822065204255e-01 -2.380392388356068756e-02
-2.377889010140509518e-01 -9.710387917229609256e-01 2.324012744677053308e-02
-2.514155637083715367e-01 -9.677390745378968706e-01 -1.647112436164076960e-02
-2.892529275495000496e-01 -9.572266776653507447e-01 7.059140868293827670e-03
-2.892745012621872891e-01 -9.572267311695160652e-01 -6.103118386188878877e-03
-2.512424477163497372e-01 -9.676089983197729838e-01 2.469936914382704282e-02
-2.936520694362431128e-01 -9.559121185402530418e-01 6.955168562476804787e-04
-3.435030667326825493e-01 -9.390015819910497719e-01 1.678309159684448007e-02
-3.435030667326825493e-01 -9.390015819910497719e-01 1.678309159684448007e-02
