5.836709310827044028e-01 -5.272983144645079223e-01 6.174825760877288294e-01
1.918751336292316423e-01 -9.623036464313738936e-01 1.927579444786796103e-01
-9.999930732044824966e-01 2.542435546442851912e-03 2.718375350624281650e-03
1.961266458069276519e-01 -9.546181127762599639e-01 2.241396831531977663e-01
2.854550001075303878e-01 -8.824459766436343333e-01 3.739044546659911483e-01
7.958177173606553745e-02 -9.605063639148576637e-01 2.666350811247605312e-01
5.445551097004648622e-02 -9.611165990563872441e-01 2.707202990971951939e-01
-1.767246732749418459e-01 -9.078199940465224715e-01 3.803041523113271927e-01
6.974247607384037595e-01 -4.387566419329810841e-01 5.666491968305207294e-01
3.517024589439634030e-01 -8.257429315155412342e-01 4.409693769695238186e-01
1.807228344190154323e-01 -8.761052121242434154e-01 4.469663459459689014e-01
2.049791074222806486e-01 -8.475011798839759969e-01 4.896175197188450401e-01
-5.936981217253751719e-01 -7.231595258166051421e-01 3.529346121882418474e-01
1.237677339230084522e-01 -8.831117529368978092e-01 4.525430143801613680e-01
-9.994705697433066138e-01 1.584211973145073157e-02 2.841843520330443809e-02
-9.998311708321977465e-01 1.749208590744771863e-02 5.626434299192373603e-03
8.969128935801928826e-01 -3.416906659296137794e-01 2.807040258816796974e-01
8.901207942267204132e-01 -1.772202273376670689e-01 4.198546923729419844e-01
-9.993497270470825811e-01 3.202951674023624129e-02 1.655998515423954057e-02
8.303086845244487257e-01 -1.330819546473765713e-01 5.411808216765567892e-01
8.303086845244487257e-01 -1.330819546473765713e-01 5.411808216765567892e-01
8.727942060438080851e-01 -2.247872118590235613e-02 4.875704882272974827e-01
-9.995844910161372221e-01 -2.870614738350934711e-02 2.608145395885382283e-03
-9.999422263452473203e-01 8.850806991915448341e-03 6.099769446616837808e-03
-9.998389832019874968e-01 1.718498224170127847e-02 -5.165661135645520201e-03
-9.999074636917326675e-01 -7.821069565876423782e-03 1.113080969256527095e-02
-9.998089392872931969e-01 1.574180277367767319e-02 -1.158794919958225193e-02
9.549714107063116408e-01 1.653548089651842301e-01 2.463481111875719942e-01
9.197596319791515596e-01 9.887680423037571720e-02 3.798231127337611812e-01
9.357081994830472871e-01 2.213319732563122089e-01 2.747040644669477283e-01
9.504666644392992803e-01 2.109901663065102129e-01 2.282460722807370390e-01
9.946885487813589277e-01 -9.182870487553383698e-02 -4.649924605965307517e-02
7.720072946541245429e-02 9.631391762659112787e-01 2.576877461421674953e-01
-6.402160435560279306e-02 9.525414225140068636e-01 2.976005251519680539e-01
-9.997374111374248695e-01 -1.620844840423022598e-02 1.619861020479272315e-02
3.325688385703295946e-01 9.408545296852510731e-01 6.473578286177596175e-02
2.911329885585638988e-01 9.553033581932015572e-01 5.135247606251152480e-02
-9.273630967859139429e-02 8.544099476001865145e-01 5.112569005001723621e-01
4.340398295320688216e-01 9.002471877089598395e-01 3.412370732908832222e-02
5.585187980353506498e-01 8.254488048133002964e-01 -8.179867280977805299e-02
-2.739350078330732297e-01 7.785985831775654731e-01 5.645740498441118582e-01
-3.541325549651975213e-01 6.321900462395187992e-01 6.891486624448288634e-01
9.335519841415244047e-01 3.561349214531738250e-01 -4.060308642165833676e-02
4.310824623028867292e-02 8.602715532535498699e-01 5.080103677777387805e-01
-2.298239985289338150e-01 8.638614549009071553e-01 4.482458214380370953e-01
-5.199029768672057683e-01 5.005301029638162813e-01 6.922214318205188732e-01
1.442236100841838564e-01 9.037747055580569455e-01 4.029774582873500988e-01
-4.541812224891519367e-01 7.845863672529004296e-01 4.220706687974850047e-01
2.310779363367828076e-01 8.817054047584228504e-01 4.113375336121415371e-01
2.310779363367828076e-01 8.817054047584228504e-01 4.113375336121415371e-01
6.474672497672231408e-01 6.915781477500232421e-01 3.201653104780641246e-01
-1.152625744386307077e-01 8.998574679959701061e-01 4.206793033008167648e-01
-5.063831341106654893e-01 4.136832600552309280e-01 7.565991553248891943e-01
7.947182822434570859e-01 4.908235850983389548e-01 -3.570925092734688056e-01
7.676891990937608767e-01 6.405039715262085265e-01 -2.019792202019000255e-02
-7.878377188280237808e-01 5.505733656269050647e-01 2.760085104740758744e-01
-5.796327997478467609e-01 7.122884179203242683e-01 3.958169111508930138e-01
8.126459327817197043e-01 4.690294820730203651e-01 -3.458582554741796433e-01
5.945553263792220378e-01 7.281313484198870256e-01 3.410699390481864435e-01
-5.390459669911434881e-01 3.293711995387294533e-01 7.752058167899681385e-01
6.835589906555192830e-01 7.221500567416088145e-01 1.060490539424972095e-01
6.376321394878543547e-01 7.012800142470713149e-01 3.187971083773641912e-01
-4.919405073681908380e-01 7.599398444860793189e-01 4.248364037753836198e-01
-4.739950780909129580e-01 7.748783021196586906e-01 4.182012468294949992e-01
-6.095339712125962262e-01 2.177578696379454670e-01 7.622662580414704125e-01
6.478013602090711975e-01 6.812453597104985992e-01 3.409665050766579331e-01
6.698424324275201736e-01 6.740026338885558577e-01 3.114989008501836132e-01
9.025507315959345744e-01 3.917835423844324705e-01 1.786276373139077944e-01
-5.630867911858535857e-01 7.140736448295221805e-01 4.159712674595450466e-01
-5.605832475343794918e-01 7.166567582755786203e-01 4.149090423234321201e-01
-6.953738268583025128e-01 3.247923972859338981e-01 6.410656281424669256e-01
6.676148822235006275e-01 6.927867580325786090e-01 2.726478991820965869e-01
6.793198612748204690e-01 6.559624361365726797e-01 3.289951495924089975e-01
4.884245126313319085e-01 7.994570043064919140e-01 3.497284571294357325e-01
-1.953516062267378339e-01 8.969625209855949244e-01 3.966055797537391681e-01
-9.997255371865725326e-01 1.860742917849803838e-03 -2.335354218983930544e-02
-6.197952481564978910e-01 6.760317404251368067e-01 3.985410095590987689e-01
-8.830411856062492237e-01 4.043182882586904836e-01 2.382540373271195000e-01
5.538761338283253455e-01 7.285388254625154714e-01 4.030538526910338315e-01
6.306438819731315926e-01 6.643319529603076701e-01 4.011874255330074024e-01
-6.718044647122950463e-01 6.177105998477810944e-01 4.087938062499490988e-01
8.189672054580433569e-01 4.400898866651528629e-01 -3.682575295079459909e-01
-6.584082012844056919e-01 6.563425815412730069e-01 3.683925299692853428e-01
-6.584082012844056919e-01 6.563425815412730069e-01 3.683925299692853428e-01
-7.193942521564795634e-01 6.931563875480567516e-01 4.478986900569926349e-02
-5.974806009476482105e-01 7.432551526221017335e-01 3.009795833473318805e-01
-2.381250066200285842e-01 9.681701232038851801e-01 -7.709146358440172042e-02
-7.371887085785178151e-02 9.882674037657144250e-01 -1.337649682600721979e-01
3.144501385123679160e-01 9.291290236751009735e-01 -1.945260079118119878e-01
3.144501385123679160e-01 9.291290236751009735e-01 -1.945260079118119878e-01
6.367249518799537045e-01 6.833699303205122977e-01 3.571930486266617355e-01
7.423609513796354253e-01 6.173813302238907452e-01 2.602700731119538258e-01
6.183895096928927471e-01 7.367897093349435877e-01 2.733776481717428153e-01
6.183895096928927471e-01 7.367897093349435877e-01 2.733776481717428153e-01
-7.656620306929721176e-01 5.415722996132360523e-01 3.470750625538306378e-01
-8.016925788780741025e-01 4.502035581832383171e-01 3.931993961986391395e-01
-8.099181726896096389e-01 4.763611883235315814e-01 3.422171413096026238e-01
6.680690592866235233e-01 4.630273617484858550e-01 5.824855314049635080e-01
8.904621316362887340e-01 4.267536088230762248e-01 1.579827505718192360e-01
-8.390446943787156497e-01 3.671519949329896670e-01 4.015014488786481928e-01
9.139812489988888844e-01 2.501245698460518585e-01 -3.194933114131792706e-01
-9.750089481381163381e-01 2.212235783221563057e-01 2.043720736658403633e-02
9.333795636945333429e-01 -4.795240295143741310e-02 3.556728231515384753e-01
9.113657364613562128e-01 2.803524546730264411e-01 -3.013552647010807606e-01
-4.324137675423989635e-01 8.374429022050799976e-01 3.342270473587095614e-01
-7.567726663779436036e-01 6.320255861727125390e-01 -1.668496024755736218e-01
8.410418530996686959e-02 8.630985581309438270e-01 4.979832978781844055e-01
5.344854463050374704e-01 7.346774697431852630e-01 4.178209223337865375e-01
4.328581467044564368e-01 8.424452542967870716e-01 3.208111879975588665e-01
4.224291358242897032e-01 8.487248291892931507e-01 3.181505768097063203e-01
-8.457440795246526921e-01 3.535283806241108495e-01 3.996681574034786633e-01
9.358432570796715311e-01 1.751545167754966770e-01 -3.058076085247947162e-01
-4.456780994777023719e-01 8.870151050764023548e-01 -1.207279379938297620e-01
2.268243580970151774e-01 9.145316917365202691e-01 3.349365542657524175e-01
-6.363305334944218128e-01 6.161523022002796113e-01 -4.641549230978809781e-01
9.295880783661604196e-01 2.676008926788214781e-01 -2.534872122948355067e-01
6.573312270529577672e-01 5.613678733350656591e-01 5.027740732459448081e-01
5.248453474935389496e-01 8.232553793263539532e-01 2.163052048023984542e-01
3.729956939353086809e-01 5.873538881244797505e-01 7.182545665784337841e-01
2.984027337474288166e-01 6.766777771958122356e-01 6.730995426691328554e-01
-2.252956111918609228e-01 9.439772212216909208e-01 2.411408165206804510e-01
-6.134989001568689343e-02 8.962378979148452052e-01 4.393106205593515501e-01
6.174281913853876249e-04 9.934369936611907592e-01 -1.143790120950689687e-01
4.053866974038428106e-02 9.328607022793069525e-01 -3.579490555912090421e-01
3.565899294289462951e-01 9.140276983485668971e-01 -1.933830108398363334e-01
-1.570651609936516147e-01 9.867039283339371636e-01 4.178388460178097952e-02
8.813877467988328052e-01 4.547126066893498741e-01 -1.280315785681531704e-01
8.373384578468930917e-01 5.342408467902469704e-01 -1.159785524630602555e-01
-9.468826983255229646e-01 1.921969527051827498e-01 2.578245275039177109e-01
-9.451155558946738866e-01 1.665426337779498112e-01 2.811052065334352368e-01
7.425498050222938407e-01 6.603932792627762449e-01 -1.118056517619318707e-01
6.956476871779943005e-01 7.087030860636274188e-01 -1.175339573391368381e-01
-9.525295673112036399e-01 2.082538218864749269e-01 2.220760434346931711e-01
5.700820401883255339e-01 8.162443588008474471e-01 -9.355006242921404258e-02
4.696223500795643213e-01 8.714332311707655432e-01 -1.416296999821234637e-01
4.626623805102976217e-01 8.754149843476557447e-01 -1.399718787476195991e-01
4.581162594153624923e-01 8.744733065308931685e-01 -1.594551003392582489e-01
4.106781496968111567e-01 9.024127637590544371e-01 -1.303635730039209573e-01
-9.429601554927784512e-01 3.013704567737251483e-01 1.414284021582342121e-01
3.150144347438180170e-01 9.332084648449471276e-01 -1.728810777522214459e-01
3.114847695391686488e-01 9.373358917057548201e-01 -1.561366852002068206e-01
3.240447907512629677e-01 9.300157706228946441e-01 -1.733944635208218565e-01
3.240447907512629677e-01 9.300157706228946441e-01 -1.733944635208218565e-01
1.723623962014027566e-01 9.756075107570957305e-01 -1.359455381027787624e-01
2.574688667880687398e-01 9.431482305359119023e-01 -2.101932393580870362e-01
2.724969737358795552e-01 9.469681456279407383e-01 -1.702842637203058895e-01
1.483951235470545305e-01 9.706194520412312343e-01 -1.894116327648186215e-01
2.501875501852726114e-01 9.515424613280494270e-01 -1.788103297408998038e-01
2.391179436724031604e-01 9.541624946933064955e-01 -1.799903962285972769e-01
2.132465390749193890e-01 9.555863951260755718e-01 -2.034221104563623261e-01
7.268546351422335017e-02 -8.581331501369520165e-01 5.082561559191920431e-01
4.844413650739769206e-02 -8.902368756992098398e-01 4.529144188291673312e-01
2.865484204634269894e-01 -8.532199493444636573e-01 4.357817352420196300e-01
-3.226362407092015633e-02 -9.470297460627993269e-01 3.195210769793446204e-01
2.227361107845586830e-01 -8.955338780413338862e-01 3.852371973639335256e-01
-9.382080199986103652e-01 -2.430490426642738927e-02 3.452172980006748548e-01
1.579034855216387978e-01 -8.822328073003327109e-01 4.435445445308637824e-01
2.885923827937785791e-01 -8.356192449075147133e-01 4.673916068283686664e-01
2.719632097547505234e-01 -9.000674787405681387e-01 3.404622537866579535e-01
2.338940741568755199e-01 -9.219513154819981571e-01 3.087059020415890975e-01
3.630021796392045030e-01 -8.533596458311151212e-01 3.741747351762016449e-01
3.913170313170841186e-01 -8.385307133902353272e-01 3.791269229459275358e-01
6.332774481212571915e-01 -6.847218981148558425e-01 3.607153946576404091e-01
-9.625059366838356611e-01 -2.662062895699116721e-02 2.699512251542974806e-01
6.393732745983048416e-01 -6.812656264862873012e-01 3.564813626231910781e-01
6.393732745983048416e-01 -6.812656264862873012e-01 3.564813626231910781e-01
6.942383437960273351e-01 -6.396531131905743850e-01 3.299651751154282775e-01
-9.509945870298360804e-01 -1.545743958227374371e-01 2.677985279944368746e-01
7.561909611124890684e-01 -5.165649873120196078e-01 4.016663344308344930e-01
-9.048390447660644709e-01 -2.907570201972994317e-01 3.110090967686042762e-01
7.791122505220702266e-01 -4.847924933436782990e-01 3.974422467278163618e-01
-8.867988261561248198e-01 -3.184669197800971685e-01 3.349129184338759946e-01
8.075892587313605597e-01 -4.481268583205155198e-01 3.833821957701170069e-01
8.425169554505383962e-01 -4.671124724681949281e-01 2.682743331796865194e-01
8.482816531998935705e-01 -4.596945259500187508e-01 2.628672281895230722e-01
-2.310007423527539738e-01 -8.260206624146383403e-01 5.141288965780455023e-01
2.611542444678915942e-01 -9.185305884518060182e-01 2.968164730515874261e-01
-5.366754082085712918e-01 -5.633012522930497257e-01 6.282286250953909024e-01
7.215249402903848308e-01 -6.776339510659550314e-01 -1.421759083027062942e-01
-8.557533096753751067e-01 -4.111158207707852896e-01 3.141178996676327051e-01
1.456830628820458273e-01 -9.784371294642556505e-01 -1.464145787654129172e-01
-1.913367990670937213e-01 -7.885739340672426323e-01 5.844154171755486793e-01
-6.058349287360296209e-01 -6.367022622189382197e-01 4.770474488022090620e-01
-5.999064140492885722e-01 -6.356407828791870163e-01 4.858735324374623410e-01
4.100614546963244483e-03 -9.621710731157588903e-01 2.724151446223323503e-01
3.889497042510473568e-01 -9.042152827779122992e-01 1.763883498247058590e-01
-8.594549261783365202e-01 -4.012142963936468076e-01 3.168032800290126461e-01
8.226768280867640115e-01 -5.292805429460413214e-01 2.075209468652373379e-01
-3.977776897692962832e-01 -7.619850369680865043e-01 5.110300509349183784e-01
-6.043641059390378878e-01 -6.659777112600792082e-01 4.372844789805531707e-01
-4.582902520067113628e-01 -7.813376287334561354e-01 4.236526346440027124e-01
-3.396854092162953503e-02 -9.227354885665857154e-01 3.839340521071815115e-01
-5.140774872086365521e-01 -4.539965558433115556e-01 7.277440926779583652e-01
8.751071821623436220e-01 -3.768406530865688331e-01 -3.036091927283673941e-01
-1.778342723535087655e-01 -9.484036845504431046e-01 2.624984242003020052e-01
-6.957821732213093080e-01 -6.370627134209402298e-01 3.317201630835559523e-01
2.118890624568527115e-01 -9.611079732873109016e-01 -1.771284530918558475e-01
4.705454528002463999e-01 -8.556957418304211860e-01 2.153410649697271306e-01
4.481644607231220490e-01 -8.656709795788839479e-01 2.230748109036265470e-01
-5.698027622983111717e-01 -7.788967981944110441e-01 2.620011256458819049e-01
-6.885859441429549310e-01 -6.399775874932328579e-01 3.409957258311265837e-01
2.316412450171397575e-01 -9.106640087159211250e-01 3.421014423184419173e-01
8.879947238107559482e-01 -4.452014969584072168e-01 1.151564049032988979e-01
-6.550850820629930960e-01 -7.520710827426795309e-01 7.247497334097705024e-02
6.614899677771814979e-01 -7.098351473549827650e-01 2.420022440178465351e-01
7.407984339399533713e-01 -6.594136814382524081e-01 1.280284226418630378e-01
-6.258916869308502884e-01 -7.795410804663367443e-01 -2.398541423929851160e-02
-9.994677750287850326e-01 -1.810646295057605562e-02 2.713526632317428758e-02
7.264633572008636353e-01 -6.551458198492035034e-01 2.074486572108038551e-01
7.505478482988612310e-01 -6.367292169683567149e-01 1.767875325717652712e-01
7.709069118236169249e-01 -6.047320766846693285e-01 -2.000041217855806075e-01
-9.998398660223889456e-01 7.772957767956316204e-03 1.611903966956334394e-02
7.564432670796579217e-01 -6.263147063513821999e-01 1.884767155322783494e-01
-5.923873969286057584e-01 -7.367043310436501846e-01 3.261041253674634155e-01
-7.067956305860003674e-01 -6.589061224294835428e-01 2.574541870109722796e-01
-4.738676204488420640e-01 -8.791098059348613214e-01 5.114124948925870273e-02
5.562998992456879011e-01 -7.584589254189357810e-01 3.395150667519644672e-01
-9.999934556135773311e-01 -2.329053546074191273e-03 -2.768436308823089484e-03
-2.132738132619242319e-02 -9.079766067439695165e-01 4.184777466144096736e-01
6.810362802461943366e-01 -7.306582981791567288e-01 -4.824972839680798792e-02
3.386562174318810126e-01 -8.324493890247662842e-01 4.385658230038266270e-01
-5.532051817108973868e-01 -7.594075777515693071e-01 3.424385459928644404e-01
-6.019684814451529142e-01 -7.404392179184624556e-01 2.989710887609575152e-01
-6.940573239437182185e-01 -7.193167319809511406e-01 2.945963632377609706e-02
-9.985214604676527772e-01 8.736707020234740773e-03 5.365224073594841714e-02
6.173553363210244616e-01 -7.313211295591471872e-01 2.898996277615547013e-01
5.445734164926243626e-01 -8.352926940764985320e-01 -7.566973815189152741e-02
-9.986611090646396738e-01 1.819745265561815983e-02 4.842356821456114679e-02
-8.203249457362006281e-01 -5.005119872360057620e-01 2.766852616890961292e-01
5.263747735753441237e-01 -8.479420845681964192e-01 -6.264039400935368651e-02
7.960671035063187073e-01 -5.997189886554055160e-01 8.132835521020745362e-02
5.496053836740836251e-01 -7.634228980908498441e-01 3.392925005169302177e-01
3.312538508502474999e-01 -9.433540569457735669e-01 1.881514126527607245e-02
5.684931614047787907e-01 -7.419707696854515033e-01 3.553799408638292912e-01
-4.546448364947680565e-01 -8.012611577326084200e-01 3.889455357214500197e-01
-2.710657549073165473e-01 -8.911827381108248236e-01 3.637536031571641515e-01
-4.370865917445357907e-01 -8.230214976957808126e-01 3.627546355978641945e-01
4.375521510466425235e-01 -8.077488460743297294e-01 3.950821645937016013e-01
-7.901403910832518473e-01 -5.472558803655241944e-01 2.760238464049091789e-01
-8.885000618498978264e-01 -4.447505095479402648e-01 1.129806370559812145e-01
1.667935129111494386e-01 -9.309330097179501218e-01 3.248748304628060746e-01
1.093187847191246509e-01 -9.824891589350851495e-01 1.508789444639724864e-01
2.294490137540751706e-01 -9.408995211953063986e-01 2.491209366988761942e-01
6.283714212171565006e-01 -5.033832795338494259e-01 5.930890581382168847e-01
1.632091044328362883e-01 -9.652306885794648128e-01 2.041874287380197606e-01
2.920120388606183837e-01 -7.989574761778175382e-01 5.257336972460836533e-01
6.523962685592527011e-01 -4.428529514073542006e-01 6.150287572136434733e-01
1.795807161574661248e-01 -7.952751094218364347e-01 5.790408161075156768e-01
-9.998933800997141796e-01 5.755612871297327918e-03 1.342018454583469855e-02
2.975398516811358918e-02 -8.484791913136936481e-01 5.283916750614793267e-01
-3.177354242895563674e-02 -8.483951269306969634e-01 5.284090750562124850e-01
-2.092741738742818769e-01 -8.351860477119434911e-01 5.085947167013634695e-01
7.208796228165507136e-01 -3.781526311772951399e-01 5.808038885385979899e-01
7.841712178570660052e-01 -3.530229202565785540e-01 5.103433342937706563e-01
-9.999853555603740451e-01 5.100329168732677804e-03 1.809780970963447647e-03
7.933445226999998878e-01 -4.516112246708186562e-01 4.082300455052673693e-01
8.398532041015889238e-01 -3.727306674914418472e-01 3.946117649939987482e-01
-9.991375635268890942e-01 -8.245258308614097920e-03 4.069575979111127173e-02
9.061932594563427701e-01 -3.241086776126042568e-01 2.716014388991679906e-01
9.061932594563427701e-01 -3.241086776126042568e-01 2.716014388991679906e-01
-9.996026653535660111e-01 -1.928807415251422228e-02 2.055435753152587072e-02
-9.993954629044974336e-01 3.451002044574259797e-02 -4.215117405204276378e-03
9.407805315491933884e-01 -1.774417811759101404e-01 2.888709153776781169e-01
-9.998742999656312636e-01 6.161457716515482755e-03 -1.460892559520413948e-02
-9.997605835786731454e-01 2.179090345637675966e-02 1.982939481152622054e-03
9.068031348755828391e-01 -1.166997007206315717e-01 4.050793186914515842e-01
-9.998927073267823706e-01 1.018697253201543765e-02 1.052613059721060028e-02
8.864371378472541974e-01 -7.400204753967563887e-02 4.568948430493648960e-01
-9.993971453886471012e-01 3.367984523066145514e-02 8.426969458939585420e-03
9.133155142060082055e-01 -3.762390497778745485e-02 4.055110519885216092e-01
-9.996832158583379702e-01 2.484128123556417558e-02 4.047057907607177520e-03
9.761052438354409500e-01 3.980286748340828434e-02 2.136218263592288280e-01
9.392037744563971335e-01 1.155804443709797097e-01 3.233224875041388890e-01
9.465634507590742208e-01 5.950787122497588205e-02 3.169801996171768277e-01
9.227689158166932915e-01 2.168544994397723358e-01 3.185461568991374004e-01
-9.996495804826202036e-01 1.683064241898726485e-02 -2.043148836197436827e-02
-9.979351755713306016e-01 -5.359518181002914661e-02 3.539691856881586191e-02
9.757778884922564400e-01 3.949261192410184057e-02 2.151693424561352264e-01
-9.996874262164631153e-01 -1.819538075074025180e-02 1.714578618901367590e-02
1.877175356631726744e-01 9.680213346391026707e-01 1.664236235877466497e-01
-1.642183225423518578e-02 9.566737663571922567e-01 2.906985176937753046e-01
-6.417629975067637438e-02 9.389131972346859145e-01 3.381174509084837188e-01
-9.891562625827063360e-02 9.063917202234582637e-01 4.106942273666558396e-01
-1.952540652871579130e-01 8.544446707896620197e-01 4.814562851889924167e-01
-2.416463568156614894e-01 8.163291721093457465e-01 5.246081594876202958e-01
-2.295223004068714101e-01 8.179166316307641127e-01 5.275716987459836416e-01
9.094862537111856327e-01 3.996936404302308676e-01 1.143667264112336601e-01
-2.835061448791055261e-01 7.813844074810779583e-01 5.559340550472083864e-01
-2.719146535575407975e-01 7.612270129579001843e-01 5.887239216507811346e-01
-9.998840751840089025e-01 7.689863164377676308e-03 -1.314162082592658203e-02
6.645886464957477813e-01 7.177999402382705396e-01 -2.075696912915879488e-01
-4.271790645817316046e-01 6.395626942441523521e-01 6.391225288739535992e-01
-9.998743062558465011e-01 -1.572941497776760705e-02 1.989269676801455264e-03
5.565697369983419601e-02 8.458902260519182148e-01 5.304451213352899819e-01
-2.121829518486396948e-02 8.514411944879403116e-01 5.240206830635575352e-01
5.495457925516297748e-02 8.499866665971501645e-01 5.239300151985503140e-01
2.890684973010354195e-02 8.277691032438926344e-01 5.603237508382836740e-01
-2.400719688902099858e-01 7.858366429380509999e-01 5.699352773508865599e-01
1.660007497824185774e-01 8.569817737621350240e-01 4.878790736557366281e-01
8.934064967937088708e-02 8.600399667878897425e-01 5.023440094619954221e-01
1.121289321636822350e-01 8.610606668526409324e-01 4.959855144771039837e-01
-5.247637465266113965e-01 5.316798793964484515e-01 6.647853158549251740e-01
8.538833334523062701e-01 5.193764524366529800e-01 3.363559880089443677e-02
1.701699146675386687e-01 8.509967075736966091e-01 4.968367979938393408e-01
-8.445728964096537172e-01 4.608246439448944742e-01 2.726486203582726975e-01
-5.389076810161680386e-01 4.491581607242090546e-01 7.126257489009373280e-01
-2.451073309669501432e-01 8.935792203787976673e-01 3.760831998554018951e-01
-9.996684433707865303e-01 1.324844519679139326e-02 2.207899518765023966e-02
4.926239033110147436e-01 7.747426977103549772e-01 3.963526740556969075e-01
-9.995892055899865403e-01 -1.577090556365656412e-02 2.393112211497567393e-02
-6.479477131769145748e-01 3.128040860367592435e-01 6.944907232983853484e-01
8.812885169440392019e-01 4.255835766381275698e-01 2.054487021094919541e-01
-9.997868680626302851e-01 8.378008924731100010e-03 1.886868877198123740e-02
-7.270651664730505281e-01 6.293228759353205470e-01 2.744612204410895595e-01
-5.200609787693216690e-01 7.705300791231929347e-01 3.685376175207917826e-01
-5.981245570431382719e-01 6.956010943491923726e-01 3.979775518822081803e-01
-8.527360040225079318e-01 2.912746501365119367e-01 4.335901124698049447e-01
-2.571317854870213138e-01 8.034082292630464472e-01 5.370460520706510366e-01
7.512769002850977484e-01 5.968178288721804892e-01 2.817649698566379590e-01
6.878028064827158561e-01 7.129029088743051856e-01 1.367360300471460455e-01
-4.487812670856890507e-01 8.416293238092863449e-01 3.004254576717605985e-01
3.919496197164438756e-01 7.028043795217364664e-01 5.936678361922617109e-01
2.415985407550960695e-01 7.258717359530014734e-01 6.440033913339152649e-01
8.423299909397122809e-01 4.035440454869758664e-01 -3.572567560110090357e-01
-4.976249393976021618e-01 8.201704403689762390e-01 2.822939397764189784e-01
-9.955458594278486784e-01 -5.028821168334034197e-02 7.974670865783674290e-02
-7.336775904813608307e-01 5.750969817649472793e-01 3.619124960405654123e-01
-7.759628476627784543e-01 5.240268815225724852e-01 3.511089382069321196e-01
3.270153993051931329e-01 7.718041065457836858e-01 5.453249946007697746e-01
8.852744188177215090e-01 3.057132390434407210e-01 -3.504691410959223652e-01
-9.959162410779198726e-01 7.289768085986739199e-02 5.326132633045577852e-02
8.950927075514747422e-01 -2.875262991972994397e-01 3.407897770738953502e-01
9.245022993048228610e-01 2.682852313711041048e-01 -2.707739522336831683e-01
-4.874262661632639548e-01 8.252791441130591377e-01 2.851840972883230574e-01
-6.535882593999190471e-01 7.028335959807320288e-01 -2.807976558580527748e-01
1.157539304444516609e-01 9.354765198484515931e-01 3.338932589898914727e-01
-4.148324630424445880e-01 8.559824083183537047e-01 3.085581699706721470e-01
-2.302477178566171220e-03 9.256147014758135949e-01 3.784602000351991458e-01
6.587927681619285547e-01 4.562401426934335480e-01 5.981948017265101836e-01
-6.801052378761310857e-01 6.282579257733386102e-01 -3.778211800791920760e-01
6.469484090527818365e-01 5.145941362598948077e-01 5.627171855834931513e-01
-8.781904753099741834e-01 2.725877809382797889e-01 3.930361188974699771e-01
-8.781904753099741834e-01 2.725877809382797889e-01 3.930361188974699771e-01
4.033470183481692728e-01 8.884097337315111087e-01 2.191787576403041171e-01
-1.989218408204479205e-01 9.647004709029866065e-01 -1.725778163153077749e-01
2.411602957338372932e-01 9.402475042861386800e-01 2.403670993402709233e-01
9.302653786903998245e-01 2.949991181200717905e-01 -2.181326328598881814e-01
5.907713377438446045e-01 6.563839453171190774e-01 -4.692007489660281472e-01
-7.024445131944826448e-01 6.379354520924281902e-01 -3.156106222017814322e-01
3.364874453563997947e-01 8.923447932730369514e-01 3.008271414550635070e-01
-3.147248084121082728e-02 9.433247381162389589e-01 3.303754249450596148e-01
9.246470882855281070e-01 3.503481837983560276e-01 -1.492779696883910212e-01
-8.056985188161076561e-01 5.701071325354071240e-01 1.607101559011929748e-01
-1.141977028456581944e-01 9.688675776682267315e-01 2.196690729440020640e-01
1.568309668523026612e-01 8.540229236415705083e-01 -4.960331578945869069e-01
2.256199397305239107e-01 6.740871127050970246e-01 -7.033507000642714724e-01
-8.939602034546296760e-01 2.138474185260632043e-01 3.938330055100714988e-01
9.236865209280813449e-01 3.529863479173143137e-01 -1.490095609005468447e-01
-6.686999493760095170e-01 7.202755379903916788e-01 1.845088807542173415e-01
-1.266845585672009555e-01 3.798732459908111814e-01 -9.163227267731812731e-01
-1.074154452823277428e-01 8.647721637575751519e-01 -4.905415649104985509e-01
-8.933482467023591278e-01 2.181191025463630473e-01 3.928778018903460456e-01
-9.146678360223672311e-01 2.432048003569607930e-01 3.228531784410533789e-01
8.535318798204722945e-01 5.137585576565185663e-01 -8.680711125722728738e-02
7.553330128967418178e-01 6.480721129206579167e-01 -9.733743412934325878e-02
6.438516755385409462e-01 7.608416353279587874e-01 -8.108653314632921494e-02
-9.511648201512084011e-01 1.849910071467676664e-01 2.471109309228224082e-01
6.244994243683968937e-01 7.806481012298684963e-01 -2.426954902222069541e-02
-9.199027533379691146e-01 2.922685232676242029e-01 2.614536951511404750e-01
5.286336047063128207e-01 8.481287877788463714e-01 -3.498673057023553995e-02
-9.392911945202422341e-01 2.871834802546607834e-01 1.877703399516481297e-01
4.076826054661056298e-01 9.055227723156635822e-01 -1.175729646565180780e-01
3.519154657366412864e-01 9.281310365440138543e-01 -1.213601416408919970e-01
3.073897884514528167e-01 9.380172563319435497e-01 -1.601097897670963888e-01
3.034269108680871518e-01 9.496640706903289875e-01 -7.791188998428832946e-02
2.545625467416781085e-01 9.648838290757947300e-01 -6.478507686515025399e-02
-7.996030792239428031e-01 -4.535774744629149646e-01 3.935764098055580251e-01
2.403441219278651120e-01 -8.755624203989237353e-01 4.190765455616691226e-01
2.433262621558070216e-01 -8.872172167909295748e-01 3.919667592730797234e-01
-9.206982761785070801e-01 -1.029678155417589752e-01 3.764469593508277256e-01
-9.411766386534156092e-01 -3.325969115501477280e-02 3.362741854459408986e-01
3.220810836577596148e-01 -8.501420664501874169e-01 4.165600105646825035e-01
3.607264941677860159e-01 -8.362402872263455800e-01 4.130115959934022030e-01
3.745573519410361207e-01 -8.537099541411764525e-01 3.617818462930241230e-01
4.651889411982930156e-01 -8.290636310969745626e-01 3.102462644079870824e-01
-9.725292035109245337e-01 -5.366070945715063073e-02 2.265115374080581834e-01
-9.725098104709852809e-01 -4.085690909196430104e-02 2.292496052715022048e-01
-9.503411414939146873e-01 -1.429791786434121414e-01 2.764211809151004839e-01
-9.475704323699412068e-01 -1.590375141380963031e-01 2.771594212633178289e-01
7.783602645766788397e-01 -4.751194345999895652e-01 4.103861856757712312e-01
-8.897425963796969928e-01 -3.648502280096481698e-01 2.743035240546928821e-01
3.590196105643013724e-01 -9.198304648808408590e-01 -1.581671113327722811e-01
-1.942261810828975824e-02 -8.716945374172757610e-01 4.896645743186871513e-01
8.436649592578231160e-02 -8.114376369376657960e-01 5.783176080029225341e-01
8.166585653184535998e-01 -5.213222422991337091e-01 2.475720246235598165e-01
4.350882361687670175e-01 -8.796295696974504308e-01 1.922239497602458991e-01
4.515466230446726348e-01 -8.900722595440929696e-01 6.226572096286395186e-02
3.535628317134726917e-01 -9.000452719706739657e-01 2.547780061818252229e-01
-7.820532729899138946e-01 -5.018720272094530088e-01 3.694822681948857213e-01
-4.455084201253069476e-01 -6.828377953965395486e-01 5.790119107371166640e-01
8.311444679608180897e-01 -5.309355993417408381e-01 1.652460672141850273e-01
8.631531565344426893e-01 -4.974430905670395031e-01 -8.670063443677968051e-02
-8.099034245666448806e-01 -5.094745103874082082e-01 2.906753621150777178e-01
5.445378400100986394e-02 -9.197257746204969830e-01 3.887663628796840243e-01
-3.782989038262885018e-01 -6.301969427707915239e-01 6.780425891388949244e-01
8.383538738443958582e-01 -5.212484678156079632e-01 1.595707272966316315e-01
-5.382871189194134987e-01 -5.115037395639949747e-01 6.697842204900665841e-01
8.483970904454021245e-01 -4.788265712920115047e-01 -2.257155102081208897e-01
-7.273883719924384428e-01 -5.915554061277517039e-01 3.478050571386518408e-01
-7.273883719924384428e-01 -5.915554061277517039e-01 3.478050571386518408e-01
3.253026786015695837e-01 -9.007944184424129253e-01 2.876587961416073869e-01
-3.645556457826764629e-01 -8.671159851356552428e-01 3.394245858069181443e-01
-3.933620051898940040e-01 -7.565043429559353827e-01 5.224629287918851617e-01
-4.598828848988927298e-01 -8.593534046371352764e-01 2.236503031869971903e-01
-6.889004364836678329e-01 -6.327436179500033342e-01 3.536265014901347481e-01
4.072570532226213458e-01 -9.099680431156439431e-01 7.810155637829829800e-02
-5.525136318352626974e-01 -7.952716319542834089e-01 2.495430184256384187e-01
8.427188877557795221e-01 -5.368230983497910280e-01 4.056892034294512506e-02
-5.635312149375151236e-01 -8.218544388457426075e-01 8.359336780269961686e-02
-5.666119256363769674e-01 -7.961112186173918692e-01 2.125037724798506111e-01
2.745024874444558782e-01 -8.659276155558440768e-01 4.181121249193532896e-01
8.599465267333050722e-01 -5.077669050784684446e-01 5.162113197478885446e-02
8.485233379072202320e-01 -5.291535151070378973e-01 -2.168519461535820241e-03
9.044122190892165403e-01 -4.066494537510704776e-01 1.291307853537459471e-01
-6.964960128341427525e-01 -7.170755745854199281e-01 2.638037981400920967e-02
-9.922223931081479709e-01 -9.255945330482213962e-02 8.323142566754734850e-02
7.934328470784078879e-01 -6.085569395821148753e-01 -1.108009311792668844e-02
-6.361790291081553805e-01 -6.878304319489446650e-01 3.495218731466361861e-01
-6.027310119076170203e-01 -7.106742083665488208e-01 3.628463818855012790e-01
-7.004106461121462068e-01 -5.505464753772633113e-01 4.542284725360556941e-01
7.588009061993897797e-01 -5.991838850689822360e-01 2.553426259452690750e-01
7.588009061993897797e-01 -5.991838850689822360e-01 2.553426259452690750e-01
7.741327557307934315e-01 -6.221701449793393124e-01 -1.167166963250568235e-01
7.149421319761395388e-01 -6.942638738517162844e-01 -8.279747212216304053e-02
-5.706508617780974291e-01 -7.235919147055382972e-01 3.882941345483956752e-01
-6.184737971467634265e-01 -6.872944271704130026e-01 3.809416393929105360e-01
-1.285860574484727348e-01 -9.139608120754425524e-01 3.848912311553167598e-01
7.004562511576617467e-01 -6.537995674242490507e-01 2.861942799044375207e-01
6.107756923970241170e-01 -7.055029154966399041e-01 3.594700123830593674e-01
5.593179785657350633e-01 -7.826068949059786783e-01 2.732944326157453752e-01
-8.148126234790663558e-01 -5.065124015906115051e-01 2.820027936990562312e-01
-4.838537423892029232e-01 -7.866966960772187045e-01 3.833977886701369631e-01
4.209986165376486955e-01 -9.055656328233141483e-01 5.206773975021708467e-02
3.210765080200976285e-01 -9.410363891160543615e-01 1.065851319698876282e-01
7.851128879148276951e-01 -5.451711313906663081e-01 2.939152781470533715e-01
-4.316156812239798080e-01 -7.943073592595948362e-01 4.275321306610869176e-01
2.655605575524120909e-01 -9.504158343754549598e-01 1.618250043746635725e-01
-7.848839972624154226e-01 -5.408917331084344138e-01 3.023131553477735323e-01
2.537377038161950926e-01 -9.531917478351266126e-01 1.644465552120242813e-01
-9.989760796734071802e-01 -2.680120785745243421e-03 4.516203264827842179e-02
1.095002162106611075e-02 -8.846446882606845419e-01 4.661371821241620528e-01
4.376876558563200237e-01 -7.818935806629264684e-01 4.439278594874478956e-01
1.518055275707874963e-01 -9.600674682077950939e-01 2.350011452908880583e-01
-2.599341970989195727e-01 -8.971860929666146678e-01 3.570592776638650268e-01
3.969687876138993654e-01 -7.846370165721369139e-01 4.761937986630306319e-01
1.723641625177221859e-02 -9.609850517301936623e-01 2.760627398000546906e-01
1.607356678739310651e-01 -8.511528230119731475e-01 4.997028286410535314e-01
1.452844907495167426e-01 -8.462978919979919912e-01 5.125156531730602483e-01
1.144765247398066704e-01 -8.486484896033680281e-01 5.164212102319371001e-01
-3.326471682311722411e-01 -7.671791321317766865e-01 5.484359950708159737e-01
6.579788956086510820e-01 -3.945884715441773105e-01 6.413764191627641109e-01
-9.999995027392879487e-01 8.152906267884785230e-04 5.743016373841871398e-04
7.003809099159474805e-01 -3.735819250929756086e-01 6.081966181007059102e-01
6.776491573924894318e-01 -4.006516672726642692e-01 6.166602476217218909e-01
-9.984530206137783859e-01 5.555120813124071050e-02 2.372530796712610246e-03
-9.994618146986824492e-01 3.180477053683429534e-02 8.033525397729961506e-03
9.574350727177379783e-01 -1.744077912612669035e-01 2.300000084290132474e-01
9.741289284808282156e-01 -1.253640950773947382e-01 1.880337053887397025e-01
-9.997575231629443060e-01 2.036060802270160588e-03 -2.192599679613676383e-02
9.170133626853788078e-01 -2.944160263790391793e-02 3.977683807073731925e-01
-9.986370494531038311e-01 4.703532303325135000e-02 2.262126978656764376e-02
9.175954016443894634e-01 3.582588691817805131e-03 3.974994892315420469e-01
9.223401142764561245e-01 1.572724827647584145e-01 3.529222007206438971e-01
-9.975139193441550090e-01 6.182439167792797702e-02 -3.381900809185570123e-02
-9.998488152631521686e-01 1.598176186439676308e-02 -6.850540459027273238e-03
9.405949838948000075e-01 3.882048320346791204e-02 3.373040858865928859e-01
-9.998930039094606759e-01 -7.870719753755339373e-03 1.233014612537487904e-02
9.752862448542546359e-01 5.091654645514279848e-02 2.149982462606804257e-01
9.622479019711352999e-01 1.486905064743057614e-01 2.279695340096189460e-01
-9.995849775071548038e-01 2.258532473351829509e-02 -1.788227750322609125e-02
9.138115468289398358e-01 2.406488593434034928e-01 3.271644592232154092e-01
2.757257965679029699e-01 9.528949251810302501e-01 1.263588013208185035e-01
1.088569616853669736e-01 9.586613105958887715e-01 2.629042667192825200e-01
-8.593483228717198330e-02 8.663159836527899449e-01 4.920485962458126528e-01
-1.993900037030525985e-01 8.448705187368182878e-01 4.964246498640818017e-01
6.326994270552396271e-01 7.742897494331717478e-01 1.291584014641536382e-02
-3.338498729327865622e-01 7.236510786084952018e-01 6.040474971155198602e-01
8.843341248308137503e-01 3.883699539148353641e-01 2.590790121872234009e-01
9.156995031847269262e-01 3.584136478386555358e-01 1.817527906532175330e-01
6.529075333527838421e-01 7.493520596934206690e-01 -1.103777311073744216e-01
7.127040219812886823e-01 6.859690459701274223e-01 -1.466268905164667125e-01
1.454791226354311684e-01 8.410431737469915570e-01 5.210395424253452257e-01
1.030930829829767442e-01 8.416717324585234472e-01 5.300570827951768260e-01
5.496774873866441119e-02 8.455880366603034659e-01 5.309985111613555464e-01
7.873749764008394214e-01 5.980427618198966844e-01 -1.496178517844978240e-01
8.640483352917528448e-01 4.503398587346800763e-01 2.249766341520353929e-01
3.044976665147994255e-01 8.460676467576659920e-01 4.375508064179372547e-01
7.901946667377219846e-01 5.528096305980276792e-01 -2.645636047859430406e-01
4.203925661981366968e-01 8.074184330869164095e-01 4.139390827124371786e-01
1.887992375651985077e-01 8.626950347646435979e-01 4.691610862883132116e-01
-5.696262630407032956e-01 4.873297971496504122e-01 6.618425713599603855e-01
7.247944210628785022e-01 5.906519856800437340e-01 3.546875794390720871e-01
-2.808314890870372005e-01 8.503551039295501601e-01 4.450054740765795325e-01
-2.924697225836108139e-01 8.400699206252879581e-01 4.568850947803924645e-01
8.243318557011587444e-01 5.123351189748809320e-01 -2.408105428366426604e-01
7.887946767527813652e-01 5.878880026752704158e-01 1.794175416088302777e-01
-4.542098664333354407e-01 7.725425721761191022e-01 4.437018947560593674e-01
-4.684229124657951493e-01 7.659019054770845880e-01 4.404250745173722281e-01
6.680091827979728336e-01 6.866831640902343326e-01 2.867576744441355796e-01
8.979975824190935541e-01 3.827955115930218311e-01 2.169514652490276974e-01
6.741262422811817867e-01 6.520106156318926649e-01 3.470388545554716209e-01
-4.122797115775325705e-01 8.078501693300049746e-01 4.211930001021252368e-01
8.252158221615859546e-01 4.824442675724935903e-01 -2.937113813603723367e-01
-7.913664819767177727e-01 2.060101081002667714e-02 6.109948359498615922e-01
8.308390607581174203e-01 4.505071707228193167e-01 -3.267257936647940952e-01
4.960352375674505487e-01 7.519965241572861281e-01 4.341085932652831159e-01
8.291377204690533187e-01 4.517066827676833318e-01 -3.293808027775717573e-01
8.444213273050829582e-02 8.913413502148046508e-01 4.453988365691722850e-01
6.045281480197393087e-01 6.270096717442131817e-01 4.913294106717386867e-01
7.339112927951270127e-01 6.068776415200485275e-01 3.050798953239117206e-01
-2.282551125523188396e-01 9.094672699157609896e-01 3.475181844820505739e-01
-9.999642829293231561e-01 -5.612366534035355577e-03 6.319351828498261277e-03
-9.998902085220097158e-01 -1.207393394218385894e-02 8.590170019940779333e-03
8.547401293215813878e-01 4.306902808436743890e-01 -2.896984523847567772e-01
7.591977788535460014e-01 5.762603287920661232e-01 3.025603510777676863e-01
-7.944115350930254227e-01 6.029357535751262986e-01 7.334023433244026002e-02
-9.999072344345381058e-01 9.426436652767589824e-03 9.831826763367020744e-03
-6.806347159170209604e-01 6.195377816289451278e-01 3.910362139531854409e-01
-6.810760078258865091e-01 7.320412473642006201e-01 1.584562152199533308e-02
6.579394928486999028e-01 7.204282373429847786e-01 -2.193143373992582912e-01
3.435899479402909074e-01 6.967388541899725007e-01 6.296831875923261101e-01
6.231200568590453681e-01 7.088171335617550195e-01 3.306049998249830368e-01
-9.743439234252326830e-01 2.056988448460519148e-01 9.133402494866933730e-02
8.219542549490768124e-01 5.230547573225686753e-01 2.253994756279099620e-01
-8.734515789545110875e-01 3.788938992852928789e-01 3.058132637840578205e-01
-6.547883812398757053e-01 6.842929684622152120e-01 3.209288224925160860e-01
6.036170915475485010e-01 6.441113994567727596e-01 4.698583955635104448e-01
5.474693560121215441e-01 7.379133752124124035e-01 3.946658775601183944e-01
6.048370322340553829e-01 6.919990788571845908e-01 3.940931860602364112e-01
-8.760409744672328358e-01 3.215709555711757650e-01 3.593665699359667176e-01
-5.884357979791418058e-01 7.654439969510015151e-01 2.604588243625580168e-01
-2.796144167077253551e-01 8.097696302567791715e-01 5.158380791323936565e-01
-3.058426644933581739e-02 8.180132581368566580e-01 5.743856824104169867e-01
-8.759669220104038256e-01 3.106873021703601689e-01 3.689923465516896650e-01
-7.398420438795252352e-01 4.541175974886699773e-01 -4.963979832345061793e-01
4.177921523103727552e-01 8.964459665153641232e-01 1.477644970424257520e-01
-1.634568834408944016e-01 9.674892268596345657e-01 1.929933759649186398e-01
-8.956183842789109395e-01 2.748702121811574806e-01 3.497342937104084282e-01
5.300298071639245601e-01 7.933535045740228719e-01 2.994304932666157493e-01
-3.740814496278563883e-01 9.167735612297119863e-01 1.399618036269646704e-01
3.604731725367135708e-01 9.253919514429814752e-01 1.170847047477478753e-01
3.975278799020567910e-01 5.551707676246473433e-01 -7.305867528744522943e-01
2.264936330756380511e-01 7.454677465391249536e-01 -6.268799510640592487e-01
-1.725242946450884218e-01 4.743541188065120151e-01 -8.632633072988287193e-01
-3.383935340206697950e-02 7.768593126370412216e-01 -6.287642694447846958e-01
-2.111212613654739889e-01 9.762801083189188711e-01 4.801003124609861533e-02
1.708571721087510653e-01 9.766639675774366758e-01 -1.301357797644462078e-01
-9.232180876232106703e-01 1.783947249418514625e-01 3.403581713405198217e-01
-9.374447936072944909e-01 1.362613432305410932e-01 3.203593377437054524e-01
7.513977060054560786e-01 6.583272567080431514e-01 -4.479632222627492194e-02
6.787207492012269361e-01 7.342742761993229506e-01 -1.339521988194603691e-02
-9.616809979493233795e-01 1.285627091006356637e-01 2.421596333245878141e-01
-9.305703659713148168e-01 2.303644314220015532e-01 2.845540769548578486e-01
5.529240391529627319e-01 8.330028406386272843e-01 -1.952624937745617642e-02
5.250946348773158912e-01 8.508704270069453734e-01 -1.717966437614375230e-02
-9.294681893217053847e-01 3.131847451510616498e-01 1.949466605092153582e-01
-9.391801297573117990e-01 2.889382404726190123e-01 1.856215964310885813e-01
4.445383038353101779e-01 8.924880749218124798e-01 -7.649008135427112776e-02
4.704340040540703205e-01 8.818064502104767666e-01 -3.330513769454920142e-02
4.320797651074562151e-01 9.016300114924323816e-01 -1.924575176088620665e-02
3.355833552757034877e-01 9.364297903461629158e-01 -1.023868126964711384e-01
-9.960578374501907195e-01 1.361995010104273887e-02 8.765432911895788826e-02
2.032398743593865353e-01 9.722795419653624815e-01 -1.156116159648573199e-01
2.247788624368413646e-01 9.665886344970268107e-01 -1.232106921609174427e-01
2.000990205065804883e-01 9.712058814359252334e-01 -1.293039746356417219e-01
2.103654370825201458e-01 9.629493096696419840e-01 -1.687453996049670946e-01
1.326888931782385650e-01 -8.707973688420901359e-01 4.733979299118521444e-01
-4.717213688991955256e-01 -5.529104234759476544e-01 6.868544341674712728e-01
1.043116817937957547e-01 -8.533057846458316220e-01 5.108701507538989661e-01
1.573391383718510117e-01 -8.799990590503575794e-01 4.481585116974675098e-01
1.952116894007131509e-01 -8.725611878368402241e-01 4.478050578120819081e-01
-9.415760373730699406e-01 -9.823317988148547175e-02 3.221564964659239250e-01
2.416733174461212219e-01 -8.445870586035153504e-01 4.777726531249442687e-01
2.168795303136366870e-01 -8.349346433603512807e-01 5.058136125566996544e-01
2.811018500995738911e-01 -8.564434631764156203e-01 4.329969333066739923e-01
-9.521942727888434987e-01 -2.106202997903142138e-02 3.047662346148077850e-01
3.920918558274669730e-01 -7.969727229155930681e-01 4.594545195362412793e-01
3.277117346646524765e-01 -8.487884999525957541e-01 4.149254165646000247e-01
5.486935577102236561e-01 -7.213701420261440234e-01 4.225641938457140312e-01
-9.615561256063532847e-01 -6.401500385969374762e-02 2.670428740665857781e-01
-9.694941351059617185e-01 -7.474455908950032590e-02 2.334402983241311846e-01
7.594175564102751963e-01 -5.262125886002145814e-01 3.826033018865724888e-01
7.681143616709110722e-01 -5.102142971760831314e-01 3.868871907313608527e-01
-8.895799497019722946e-01 -3.662868177741759323e-01 2.729129535458222344e-01
-8.662065050215417283e-01 -3.985949337744741916e-01 3.013442706070389443e-01
8.059392525734018209e-01 -4.853174793405821141e-01 3.390116006981618302e-01
3.784897965196216095e-03 -7.260116147528454800e-01 6.876720219634931963e-01
2.026262817810352626e-02 -9.458102857733429181e-01 3.240869161577850099e-01
-3.555091645746001339e-01 -8.038285701632515989e-01 4.769411532807504295e-01
7.734534941952926346e-01 -6.334527333374889713e-01 -2.252391938266173552e-02
4.199701126608505475e-01 -9.074349058324325812e-01 -1.367465350628082298e-02
1.138252853627213235e-01 -8.023903011812958397e-01 5.858443555947984160e-01
-5.776311026254140613e-01 -4.750357594029243069e-01 6.638398425586065077e-01
-5.776311026254140613e-01 -4.750357594029243069e-01 6.638398425586065077e-01
-8.524338196566690895e-01 -4.027715603727419769e-01 3.333641451332881034e-01
-8.673769975325398285e-01 -3.803656094377142471e-01 3.209036417813185271e-01
-5.090995127060909953e-01 -5.570866912892297185e-01 6.561037300235681435e-01
-5.090995127060909953e-01 -5.570866912892297185e-01 6.561037300235681435e-01
-5.107431668198210151e-01 -5.597722313384250192e-01 6.525308165667436100e-01
1.952239335594746217e-01 -9.312783542975802131e-01 3.075845291661404302e-01
8.507445124457513330e-01 -5.200116028288573888e-01 -7.630011446127533958e-02
3.902430028872046486e-01 -9.046255843391138862e-01 1.713562104409817599e-01
-3.492021819502303531e-02 -8.556905501811281622e-01 5.163083000416808233e-01
-3.022853630845285244e-01 -6.114152237540056989e-01 7.312967820431688359e-01
7.710530584988427583e-01 -6.342584921335051584e-01 -5.650969948701376616e-02
-4.677401056587616734e-01 -6.440120843033908526e-01 6.053656984249542461e-01
-7.804518214391577002e-01 -5.129039862442688058e-01 3.575254610612229045e-01
5.215785144541007501e-02 -9.492831763634913544e-01 3.100661374704415385e-01
-5.055041711750482003e-01 -5.527772589181676466e-01 6.624974225969070263e-01
-8.906171161912332986e-04 -8.802185009758771717e-01 4.745678005732500981e-01
8.601183969855570322e-01 -4.406400500188411007e-01 -2.569682655239534097e-01
-1.365227414145690765e-01 -9.315191631244823522e-01 3.370958169549345684e-01
-2.821212795527225925e-01 -9.464537296552036905e-01 1.569487854215162737e-01
-1.031470214445754097e-01 -9.853084996144352292e-01 -1.361170546061838960e-01
2.842253815271947870e-01 -9.366483892504904318e-01 -2.047088845413952418e-01
6.482060122402889535e-01 -7.611110054058640717e-01 2.321644127804856766e-02
8.428093888766786668e-01 -5.261846028332884950e-01 1.131463554980622760e-01
4.563497327539774995e-01 -8.858805108760446911e-01 8.343046125589420603e-02
5.227137462012305669e-01 -8.138675052582122760e-01 2.537518934255456604e-01
-3.816684090219432668e-01 -9.222476714526970376e-01 6.155045129596486975e-02
