-6.678908706696885522e-01 6.836846341877873545e-01 -2.941039031560049866e-01
7.323716682259078237e-01 -6.678531487635389619e-01 1.326797319360679961e-01
-2.868157205639309537e-01 2.216019302202832941e-01 -9.320028578067975911e-01
-2.868157205639309537e-01 2.216019302202832941e-01 -9.320028578067975911e-01
9.619830584726394296e-01 -7.067543311473273304e-02 -2.638059483136635519e-01
8.606030421332111491e-01 -4.477750926471014692e-01 2.426105320795906573e-01
-6.530858308963322090e-02 9.932540215355297741e-01 -9.581877518692245854e-02
-2.272010942186048973e-02 5.072586211485352603e-01 8.614943342230090284e-01
9.521471161165317998e-01 2.994088897493972778e-01 -6.140184044476795083e-02
-4.154944394886962433e-01 -8.067170654649513661e-01 -4.202046490004499590e-01
9.470342630306876064e-01 -8.575078945351791160e-02 -3.094719805637024534e-01
-8.458829758664196952e-01 4.832799682997296342e-01 -2.256600615518446484e-01
-8.458829758664196952e-01 4.832799682997296342e-01 -2.256600615518446484e-01
6.434010970585520850e-01 -2.646386925265656678e-02 -7.650716907114195608e-01
6.854608855993796768e-01 -5.868569804454799588e-01 4.309782579385271206e-01
4.017632755167343528e-01 -4.931859613915649115e-02 -9.144145375708587764e-01
6.741192883573348116e-01 -5.131917838542227051e-01 5.312225315713944296e-01
4.977353782727414466e-01 -1.931663369947723974e-01 -8.455449482243464487e-01
2.118956374893916639e-01 1.531055135725518934e-01 -9.652248134640185606e-01
-6.900531453086627964e-01 6.733779551456881007e-01 -2.653088505373182304e-01
-6.900531453086627964e-01 6.733779551456881007e-01 -2.653088505373182304e-01
-6.579120312389539205e-01 7.265878885302374801e-01 -1.980449428594550088e-01
6.474617241671268841e-01 -2.951243088661030245e-01 7.026342989456438870e-01
-5.384712961685438337e-01 7.357355143329166181e-01 -4.107820786644020838e-01
-4.720449929706532211e-01 8.805750171747434019e-01 4.196622140527198064e-02
5.449154183928840434e-01 -8.788813340839887744e-02 8.338722101159717903e-01
-2.719703638140318347e-01 -4.266650780261816434e-01 -8.625479884619612347e-01
-7.724795765784334689e-01 6.137660121296298898e-01 1.629925953032683172e-01
9.395524769108881680e-01 -3.422608489009045796e-01 -9.932494160429692145e-03
6.512235780634596516e-01 -2.914930278078592396e-01 -7.006708686063889413e-01
-8.387011433538962279e-01 4.775980808120582344e-01 -2.616877248582863968e-01
-5.834499124515407642e-01 -7.413954144672021407e-01 3.315404033708333476e-01
7.231303078527048234e-01 -2.225600032606315504e-01 6.538727726503682502e-01
-7.922109350467686495e-01 3.738041933554230867e-01 4.823611296759160449e-01
-8.366404676405244656e-01 5.434021513663118697e-01 -6.889724084974940821e-02
-7.485632412420669679e-01 6.128320884383501310e-01 -2.531598412889789484e-01
8.942877772394308700e-01 -3.361337135622327055e-01 2.954039574667559620e-01
-6.280246668783789898e-01 6.896332242985159233e-01 3.605426933609027773e-01
7.294287491133779611e-01 -3.109647460664337615e-01 6.092902647102864666e-01
-5.827655669737473731e-01 7.848726462480261068e-01 2.106162935800260094e-01
-5.779231241729307911e-01 8.090952220792557714e-01 1.066291899749728933e-01
8.738194832755959984e-01 3.554183610596052256e-01 3.318392672208559380e-01
5.987403702011816486e-01 -1.349627835274664900e-01 -7.894903521600944440e-01
-8.522760474739888847e-01 4.492903121158516311e-01 -2.678875778026214571e-01
-8.694956248832904633e-01 4.317254817186538807e-01 -2.399801382273384354e-01
1.844201080327095288e-01 2.322693371184482436e-01 9.550079469762334794e-01
-8.611946947485650261e-01 4.668936567619855205e-01 -2.008830779641408715e-01
-8.521164355661531298e-01 4.916080903406307989e-01 -1.794967012222567770e-01
-8.521164355661531298e-01 4.916080903406307989e-01 -1.794967012222567770e-01
5.926161813947165014e-01 3.727469137779877983e-01 7.140488777514671925e-01
-8.535585779644134785e-01 4.902683820844789819e-01 -1.762800825721268783e-01
-8.535585779644134785e-01 4.902683820844789819e-01 -1.762800825721268783e-01
-8.535585779644134785e-01 4.902683820844789819e-01 -1.762800825721268783e-01
-8.342267350165929463e-01 5.116073777053375959e-01 -2.057271145498888454e-01
-1.083505072469910166e-02 5.166079678850358237e-01 -8.561534962805950055e-01
-6.953119643247913650e-01 6.581100929155384582e-01 -2.888466338206169270e-01
8.927492665563945273e-01 3.840558093693764996e-01 -2.355841300950740347e-01
-4.888556551962037200e-01 8.309497592944666833e-01 -2.655986557028449657e-01
7.167572787234615106e-01 6.713280528373398726e-01 1.886203829668576526e-01
-2.422604086882232735e-02 9.433222494000358116e-02 9.952459647151002953e-01
9.970718294935321246e-01 -4.692746070244921408e-02 6.037864078000389906e-02
2.507414676838108474e-03 5.145302041058205100e-01 -8.574685894739590974e-01
9.318298954647850074e-01 -3.098693049660453669e-01 1.888757786428628682e-01
1.043910068944866321e-01 7.779350217930213196e-01 -6.196124753000432639e-01
2.543901739262144704e-02 -9.809888079816950768e-01 1.923897476705830611e-01
1.706822309718037112e-01 -9.847665591197691803e-01 3.320241060371443426e-02
-4.286243835157161342e-01 -4.699040105898202313e-01 -7.716679069958620740e-01
7.093611886849777726e-01 5.902182922154717293e-01 3.852908920824466010e-01
6.359942615174228875e-01 5.410448027551255645e-01 5.502561410185031754e-01
-7.141103160567963126e-01 6.996980920276277827e-01 2.165725084492360619e-02
-8.279889656324976310e-02 -1.260466609761071444e-01 9.885628872179466065e-01
-6.743003440605399579e-02 9.874607773482859674e-01 -1.427389353285124507e-01
-3.406099458779386913e-01 9.134722748381641777e-01 -2.226056330621867252e-01
-7.955450326387307758e-01 6.017616523161033459e-01 7.064711491373061591e-02
-9.132006977325208830e-01 2.989868188260668136e-01 -2.768959512688939362e-01
-8.468480987774260615e-01 4.953963710403448406e-01 -1.934702384272990738e-01
-7.923347067506733010e-01 5.526804666622155970e-01 -2.583602412298771633e-01
-9.461103195794536846e-01 -3.212201669718458552e-01 -4.114447126702820007e-02
-6.509544064035978073e-01 7.360706079200278751e-01 -1.856297953992846472e-01
-2.109568799061901923e-01 8.274423491022740995e-01 -5.204194017639576231e-01
-5.824467997159856747e-01 -8.558293124635091287e-02 8.083509679464044861e-01
-7.635933554088982778e-01 5.779434284327139570e-01 2.879350293153306595e-01
1.439238753558987893e-01 -2.120350235228680713e-01 9.666059522381375002e-01
-7.995925207780725241e-01 5.896670809515470735e-01 1.137740495800748236e-01
-8.318265460997700256e-01 5.541213995791037794e-01 3.184449296538311575e-02
6.502638992798395190e-01 6.782408763911251803e-01 -3.422662339255470587e-01
7.330509095274498899e-01 5.098785786048692925e-01 4.501779638330341005e-01
-8.373180226901889567e-01 5.426955056978307601e-01 6.618245215741207221e-02
7.739457284656178215e-01 4.318634810939470103e-01 4.631435447971203323e-01
-3.780927173914383488e-01 -2.744443460940795484e-02 -9.253608485691016128e-01
-6.767875557057071445e-01 7.128691316520496812e-01 -1.837830394229758024e-01
-9.101234569533046548e-01 4.093866053440510799e-01 -6.385844085350401989e-02
6.949426042658696234e-01 7.097268857719796209e-01 -1.155098454183803303e-01
7.307644865956656188e-01 6.556938444437289126e-01 1.898653404104499731e-01
7.307644865956656188e-01 6.556938444437289126e-01 1.898653404104499731e-01
-1.216582570369434263e-01 7.402547007134357981e-02 9.898078087565532757e-01
-8.330435071653294887e-01 5.186547789792923524e-01 -1.924467079781543022e-01
6.634338397088698214e-01 4.919055471719107619e-01 5.638124448703211167e-01
-7.938004017046783600e-01 5.701200788669479325e-01 -2.117640619327000318e-01
-3.852750889099615939e-01 7.963100796947313320e-01 -4.663189496921521515e-01
-6.687295297009320239e-01 7.435057218932665801e-01 -2.400373780922155417e-04
-4.340919963832106099e-01 7.136871347846626135e-01 -5.497406773369579724e-01
-4.366705294588938968e-01 5.620821945067021597e-01 -7.024118843816774538e-01
-8.597003200423467550e-01 2.005421856409642933e-01 -4.697852610474617663e-01
-7.352040966044353087e-01 6.111575633147839914e-01 -2.931916935030597360e-01
7.324487379353556982e-01 6.256984852006310938e-01 2.683658918613544553e-01
-2.953766966793781590e-01 -3.798762776799519680e-01 -8.766108718894619622e-01
-6.573534628362600607e-01 7.087505518079940670e-01 -2.560450745650884041e-01
6.614507395115034605e-01 4.180106630809175550e-01 6.226957561685618758e-01
-7.363313817573154951e-01 6.531932813288889861e-01 -1.765067518996413509e-01
-7.091906395692477716e-01 3.481386609480712768e-01 -6.130645231137137330e-01
9.504926657828075554e-01 9.693419357625762678e-02 -2.952413494224894741e-01
-6.520191895792319947e-01 6.143738364752225900e-01 -4.443149395138071278e-01
-7.649435942629970731e-01 6.110103520551289913e-01 2.037833341504513562e-01
8.029381876124059847e-01 1.587712899557244262e-01 -5.745275836367650379e-01
-5.056165880645447919e-01 1.627503917767789410e-01 -8.472686562422059309e-01
-6.931267672720862194e-01 6.423554909940267788e-01 -3.270393060180533662e-01
-2.260285041909314840e-01 7.730473965196552610e-01 -5.927131161256622427e-01
9.327528868363761383e-01 3.557395284487918086e-01 -5.849307649147718335e-02
-8.273405510072027180e-01 4.675538862570776111e-01 3.112892161720381412e-01
7.342254802755124876e-01 6.631079111879000232e-01 1.456050900010467664e-01
-7.928359025868856325e-01 1.185705717756111444e-01 -5.977894705312590817e-01
-8.748128715966823066e-01 3.936436419850158908e-01 -2.823953307219140285e-01
-6.701350965022989659e-01 6.771384978483808714e-01 -3.039776425454551734e-01
-6.483389078131956973e-01 7.410215728229813115e-01 -1.747675290966476114e-01
-7.620260205884448190e-01 6.187892841416546830e-01 -1.908302014294316895e-01
-7.025917375072687765e-01 5.699194168245089731e-01 4.260947180063707207e-01
9.066615439227984075e-01 -2.608191885616255590e-01 -3.315692923803150727e-01
8.149435263349074088e-01 3.778271049094982237e-01 4.394470703970310144e-01
-3.099443847184653600e-01 7.624440540005038569e-01 -5.679907947324224216e-01
-9.068375201811040842e-01 -2.093475151871141970e-01 -3.658132445343751371e-01
7.853049127301238164e-01 5.821252422532434689e-01 2.107757015728684291e-01
-6.892837886851688189e-01 7.175422849827074456e-01 1.001045848980684078e-01
-6.722377866667754720e-01 4.738345123996660635e-01 5.688384771060461809e-01
-7.767283751116548229e-01 5.629160593279968205e-01 2.825217539359535790e-01
-2.975020875256683683e-01 8.442828840881400065e-01 -4.457341355042059305e-01
-2.132043105704398978e-01 3.562234510376593999e-01 9.097520403302229441e-01
9.275907298177347160e-01 2.257424338100301742e-01 2.976840464884308313e-01
-5.446186210789503157e-01 5.903049502110958580e-01 -5.957605419380662681e-01
-9.610998377293153982e-01 2.349056400340994444e-01 1.452805637270641881e-01
-8.133868749896900896e-01 4.857381677630017158e-01 -3.200940861258578796e-01
-6.326659358557117363e-01 7.180107885706072945e-01 -2.901625770219708467e-01
-7.618387213002326686e-01 5.228624021461808491e-01 3.823828855343187061e-01
-6.406303325256547110e-01 7.659069869745904757e-01 -5.458263782168831790e-02
-9.802012403961728459e-01 4.454254770245988891e-03 -1.979537520236626658e-01
8.365841183526447900e-01 -4.706378388498926868e-01 -2.804051311278568104e-01
-6.080589620422960362e-01 7.883827858726105697e-01 -9.336424165485904259e-02
-6.901639697155292907e-01 5.096748154458236035e-01 5.137171180783911550e-01
-6.194916081533574648e-01 6.514387139218711376e-01 -4.380156954167117034e-01
-6.115572413066685531e-01 5.256779268223101820e-01 -5.913209431917449965e-01
9.048152483867198947e-01 2.704977644299241812e-01 3.288469639897740326e-01
-9.560396868027647432e-01 2.827633164603106097e-01 7.767254419959321310e-02
-3.415879789847505593e-02 4.904029067065526770e-01 -8.708261397201483289e-01
-7.959152528177996233e-01 3.994871033365531288e-01 -4.548944543514993888e-01
-6.530065743159377822e-01 5.052600782488166770e-02 -7.556649630844635146e-01
-6.961676316377548579e-01 7.119211582215276835e-01 -9.229785011796265426e-02
-6.050036953030925035e-01 7.959971648668381361e-01 -1.894840873420115812e-02
-4.641604327600376001e-01 7.953597419023636927e-01 -3.898178723724964878e-01
9.734486571278921918e-01 2.254762477427290912e-01 3.947370820891837190e-02
-8.128493683379418577e-01 5.763020367582969428e-01 8.456871064907718616e-02
-7.734655544607876854e-01 5.757509414834627304e-01 -2.650695935854822105e-01
-7.006027560481785654e-01 6.458813702135081103e-01 -3.033035341515452066e-01
8.026993555778972889e-01 5.813974926802337739e-01 1.328559372401763861e-01
-6.915228562455844052e-01 6.445288307911691827e-01 -3.261575164991866727e-01
-6.915228562455844052e-01 6.445288307911691827e-01 -3.261575164991866727e-01
-6.441384865109285318e-01 6.633577163754876826e-01 -3.808439973539146095e-01
-6.687128787724119228e-01 7.419429816853042592e-01 4.841175158816148072e-02
-9.886864480801721422e-01 -5.032800024457792509e-02 -1.413018038596642600e-01
-9.593034443911825360e-01 4.298389655278104377e-02 -2.790865210223403836e-01
8.968125217331460730e-01 8.993294790363190461e-02 4.331735976995804149e-01
-4.030311239444864246e-01 -5.271698645431102115e-01 7.481028318684824763e-01
-9.513015070216376268e-01 2.101375920398458608e-02 -3.075448986123456852e-01
6.010786515061006946e-02 8.460381164031419710e-01 -5.297230881697152505e-01
7.948081384646655811e-01 5.083657418528879646e-01 3.314276626063306641e-01
9.276378892912299223e-01 3.700785748893244409e-01 5.029706511516000150e-02
-6.407890254697783394e-01 7.261023373086100685e-01 -2.493287400049682134e-01
-9.655622831701672626e-02 8.084228299285166619e-01 -5.806284722811660970e-01
-9.915351670010588148e-01 3.834966355710370950e-02 -1.240456202581908529e-01
-8.640855181798662299e-01 2.076747209032108743e-01 4.585056461698217012e-01
7.950244328306851349e-01 5.782567605397915811e-01 1.831809763383563106e-01
-6.092507084030611697e-01 6.777649526749430775e-01 -4.116409154055271080e-01
-6.827916351277945051e-01 6.387849472619058222e-01 3.546115820882292935e-01
1.007880637731416174e-01 1.329297313247583268e-01 -9.859875520161442974e-01
-7.275854848481463355e-01 5.639152296243868934e-01 -3.906647872997549009e-01
-9.440005686203144508e-01 2.932966425916317954e-01 1.511291033818423779e-01
9.962069966541204913e-01 6.170948347853629640e-02 -6.134785624770782569e-02
-7.068482210476841887e-01 4.039673891367160929e-01 -5.806685292968692957e-01
-4.048191569276773927e-01 9.561690040547082825e-02 -9.093837795679087233e-01
-1.778317333749842022e-01 8.848509959351206211e-01 -4.305979442559768056e-01
9.145835974608100827e-01 1.964156042882740094e-01 3.534936401800111705e-01
-6.509519194748092374e-01 7.543745870472310378e-01 8.473830862945609665e-02
9.801814704255625843e-01 1.101926866149004064e-01 1.646264160181237779e-01
-6.345219101130585848e-01 7.684576678130944360e-01 -8.279346813448207332e-02
9.329544804657209367e-01 3.222339645561061450e-01 -1.605029889609248250e-01
8.232345941746874729e-01 4.819073757252808066e-01 3.000834620161711430e-01
-7.283974786943527846e-01 5.843693944815787633e-01 -3.577003268448928353e-01
-6.165162565068802447e-01 6.620669084656628511e-01 -4.261163153148000982e-01
-6.089887689897911516e-01 7.360918114008303537e-01 -2.954683137545263683e-01
-6.904425835108775056e-01 7.216699610179889701e-01 4.981471910107716783e-02
3.776314667082594223e-01 -1.594901763005510398e-01 9.121169656438740114e-01
-7.847778392452090523e-01 3.777701455588920454e-01 -4.913384374889008255e-01
-2.651064422661628672e-01 8.768031389868613523e-01 -4.011668352839807827e-01
-5.061852714434503797e-01 -6.252601272439580748e-01 5.939917880346409218e-01
7.962862916263609980e-01 5.212671374034041349e-01 3.069343793568889978e-01
-9.592491418548533266e-01 1.588423005475219085e-01 -2.336882697259283492e-01
-8.435051172142552511e-01 -5.295412094861871033e-01 8.991787747312331158e-02
-7.723546687915239239e-01 6.341363110603110975e-01 3.659787686131311946e-02
-7.940973744011131652e-01 6.054224244240644648e-01 -5.360082064433652205e-02
-9.226947594669365760e-01 2.874794885928254606e-01 -2.568850413913968955e-01
8.133621159853199334e-01 4.333454606634354889e-01 3.881414432939079284e-01
-8.875595506238953547e-01 1.926429917823441890e-02 -4.602900508087054976e-01
8.939569121493838866e-01 3.345983335935051040e-01 2.981358656330835855e-01
-6.046207615910668132e-01 7.119732579711046672e-01 -3.571103675154913004e-01
9.374875892363519758e-02 6.648466623257596186e-01 -7.410736034933207428e-01
-4.890269823547143124e-01 5.589884622567995454e-01 -6.696151951627297150e-01
2.321226125102829052e-01 1.998707411309488813e-02 -9.724811615809320076e-01
-2.706696911055877508e-01 9.343750877346969075e-01 -2.316918508225593587e-01
8.321308413718796482e-01 5.271330536170251158e-01 1.723049814199174579e-01
-3.460009524987061047e-01 9.038088857210625493e-01 -2.518190599649666739e-01
-9.220483961571436238e-01 2.619575034687713910e-01 2.849649478803451541e-01
-9.835526217826298101e-01 1.658178934288841722e-01 7.161470800975461293e-02
-5.747396641207739298e-01 7.784432646451768800e-01 -2.523893860979481985e-01
-5.414867854669496161e-01 8.293223370703717290e-01 -1.379004075440186938e-01
9.333865737647432104e-01 3.025758723881549206e-01 -1.929698042810337189e-01
-8.910311833973668660e-01 4.090499150192489219e-01 1.968288526518237880e-01
-9.585732034179852423e-01 2.828913624246482961e-01 -3.331502295523887380e-02
-9.517735188801611512e-01 3.048694927712600755e-01 -3.437675284069396930e-02
-6.509820740076059931e-01 5.661269421719704598e-01 5.056902457708376541e-01
-7.334229122648098231e-01 2.601978525693324218e-01 -6.280031124790013131e-01
-5.889307334884568146e-01 7.125079650427031952e-01 -3.814354347769153830e-01
-1.175653238389852834e-01 7.529786548682790848e-01 -6.474577514737094308e-01
-7.562343876113077901e-01 6.424031410376533913e-01 1.242085157270103879e-01
-2.956217700401946868e-01 8.429987080453368309e-01 -4.494006534398843900e-01
-8.397934758123562493e-02 8.833736206750598674e-01 -4.610840655187137260e-01
8.111486675208472441e-01 4.126507646260882400e-01 4.144359849634909332e-01
-9.150390254956064506e-01 7.510854837966371433e-02 -3.963108474169620421e-01
9.556753023764419375e-01 1.532957900490739822e-01 2.513664997188896355e-01
-7.277657986886574282e-01 6.564682592297070851e-01 -1.985103697114550259e-01
-5.654102189320640015e-01 5.676158593894331528e-01 5.984342240353492937e-01
-5.780887351534346186e-01 7.223515803847432304e-01 -3.795017899883555978e-01
-1.433930284523091958e-01 7.918003514317322189e-01 5.937092241694250649e-01
-9.423896484634243231e-01 3.284259699144178590e-01 6.354630402122064814e-02
-7.950850345705053890e-01 3.622515871660423326e-01 -4.864294146098706584e-01
-5.708280606465453433e-01 3.720976559158897801e-01 -7.319143799929087590e-01
-2.939319891100339865e-01 6.719050020013936364e-02 9.534618096498012063e-01
-2.939319891100339865e-01 6.719050020013936364e-02 9.534618096498012063e-01
4.279410167980727264e-01 -5.787733231560143743e-01 6.941814795460733434e-01
-6.536712098418008265e-01 6.873658550357377717e-01 3.166103768908175020e-01
9.376027879783653818e-01 -2.723923972162672902e-01 2.161096802875138445e-01
-1.804582682452555986e-01 2.194208637935407546e-01 9.587957540342051388e-01
-6.264915098672346749e-01 7.749954633494300360e-01 -8.300855288507742735e-02
-5.699775840320718823e-01 5.813748479670939329e-01 5.806279702634042916e-01
5.807748484810718037e-02 8.558513297456326052e-01 -5.139508800715789638e-01
9.346618147981072822e-01 3.016945699794189584e-01 -1.881161300985166596e-01
1.173792381998442907e-01 5.249144624812941418e-01 -8.430224917032748122e-01
9.743390373908261681e-01 2.226878515239331668e-01 -3.276524072813752353e-02
-3.031082554096962145e-01 8.068906941901260454e-01 -5.070037407474099478e-01
-8.275566448089576310e-01 5.341730722527446851e-01 1.726532030186660738e-01
-6.329412040992334898e-01 7.545435810255390896e-01 -1.733476751692048234e-01
-5.302994962389319111e-01 7.298613401819373792e-01 4.313755537771716275e-01
-3.624762879999254284e-01 7.088504772751244021e-01 6.050966381534633731e-01
3.134837739388043887e-01 5.444672899495439644e-01 -7.779995460487646453e-01
-9.473122029567159208e-01 2.993347321267200156e-01 1.140101235501414512e-01
-9.473122029567159208e-01 2.993347321267200156e-01 1.140101235501414512e-01
-7.453711722525296901e-01 6.509568425101766032e-01 1.437950095242209736e-01
6.704311469579405935e-01 3.002856081827829371e-01 6.784914374603090437e-01
8.075550132440138806e-02 5.178000926693402395e-01 -8.516816383117974398e-01
-7.135695312346524988e-01 6.865219013583584440e-01 1.396646091494287423e-01
9.685063894184904598e-02 -9.853649105356475646e-01 1.402709764050669439e-01
-6.178462847649391909e-01 7.835844532559933517e-01 6.527919283866626121e-02
-5.506437346363538543e-01 6.392396782230296282e-01 5.368091944919034519e-01
-1.676936666176908897e-01 9.761900602171444952e-01 -1.375928795743531219e-01
-1.547832301926060639e-01 9.798152031973442755e-01 -1.265081785280686155e-01
9.879889591201355126e-01 1.822599585263495747e-02 -1.534458527686261009e-01
-4.129904779645546808e-01 8.446279289313226579e-01 -3.406501530599878036e-01
-5.793699222950740024e-01 8.025201749988635225e-01 -1.424495063508232906e-01
-9.712340277274925660e-01 2.205462806652038199e-01 8.979867186644428789e-02
-8.247694315552080990e-01 5.347822474625205658e-01 -1.837480137879981545e-01
-6.049268963361531526e-01 7.477913767017905222e-01 -2.736265831741314658e-01
9.712347299644989995e-01 2.202421871608624404e-01 9.053440398758133556e-02
-9.684535811774978020e-01 1.628859640347180351e-02 2.486611001577943569e-01
-4.642138256885110503e-01 8.600891663202965276e-01 -2.115470397289788695e-01
-2.108103381595751447e-01 9.766196238534299301e-01 -4.210833206659252842e-02
-7.810707290085443510e-01 -5.003667437012204733e-01 -3.735794936608519690e-01
-8.662694322430605220e-01 4.735376143136190152e-01 1.591835374385541790e-01
-6.158660238578963497e-01 4.934608670139353226e-01 -6.141705083959341227e-01
9.670748903338934888e-01 1.560062472669110634e-01 -2.010676684586145679e-01
9.670748903338934888e-01 1.560062472669110634e-01 -2.010676684586145679e-01
2.992537865290889956e-02 -4.689235124741845118e-01 8.827316756304565137e-01
-6.318556188159546450e-01 5.119542235880180092e-01 -5.819461744191609665e-01
-3.698871042998415626e-01 6.741831995386613485e-01 -6.392656283052388089e-01
-6.018696208426951300e-01 6.063584490960823858e-01 5.196945167273403499e-01
-6.136838036134295571e-01 3.317574700581894520e-01 -7.164699367336659908e-01
-6.376923436087169605e-01 7.310393783883216701e-01 2.427548190014737206e-01
-8.754404342912465165e-01 4.554662994979318813e-01 1.617235172435163848e-01
-7.388665643920967474e-01 6.622238938720483858e-01 -1.246423459678193124e-01
-5.670198439019517034e-01 5.607211056409172611e-01 6.033907012129315905e-01
-8.385313132207342646e-01 -1.380738245293489097e-01 -5.270681699060847381e-01
3.537636286099909433e-01 4.184660143799507903e-01 -8.365031320214235677e-01
-1.921229568895527207e-01 9.230059482440068352e-01 3.333898452895596720e-01
-5.798709986564370977e-01 8.121986367948336172e-01 6.389835135431966295e-02
-5.474510088194766144e-01 8.234372845385750095e-01 -1.491590807637116489e-01
5.805836076524241163e-01 6.850383620553830433e-01 -4.400512663744690078e-01
-8.559566321289884261e-01 4.820102855766570937e-01 1.870944374178692970e-01
-4.468244643139824279e-01 8.354523911634886835e-01 -3.199487461918422149e-01
-7.810207157787026899e-01 -9.808279903179324688e-02 -6.167547373621152795e-01
-7.371391803289798483e-01 -6.707574596928451705e-01 -8.191617111609171553e-02
5.602417378667629011e-01 4.809601601253565839e-01 -6.743934456415043854e-01
6.038183044855327530e-01 2.539136827803266661e-01 7.555999582220397359e-01
-4.926663214888597486e-01 2.141815071641118007e-01 -8.434489775081506213e-01
-6.566081268936877491e-01 7.511135003293268886e-01 -6.851479635954058067e-02
-3.165543824586810606e-01 8.824935368652313539e-01 3.478483582501111782e-01
-7.406026310361294440e-01 6.386355189985081227e-01 2.089316078908811936e-01
-8.795273754599133298e-01 4.255169908578214089e-01 2.129950382236665551e-01
-7.741952722101377304e-01 5.518035266773209102e-01 3.100557182732515127e-01
-4.043405511560976828e-01 4.183498536122641220e-01 -8.133216575705950468e-01
-9.239069249213032187e-01 2.200180309904127274e-01 -3.130304459977707454e-01
-6.133828942325634248e-01 7.845508853410080308e-01 -9.078178987839066738e-02
-2.896721403528194072e-01 8.864391411227900974e-01 -3.609926594667914879e-01
-1.523198296765012616e-01 5.835880292453283769e-01 -7.976363091089042623e-01
-9.960704333467325367e-02 9.286595519428498813e-01 -3.573092127323753142e-01
1.232484116529715922e-02 9.867218118095055779e-01 -1.619511172842492963e-01
-8.588273359486051639e-01 4.318829599206601144e-01 2.754863262624684395e-01
-5.983229698643957040e-01 7.087563643954185588e-01 -3.737299020170022357e-01
1.266361816706335075e-01 8.035965024305411486e-01 5.815461622032110922e-01
-8.372811322316310312e-01 -3.253997963906610780e-01 -4.394033205584982338e-01
-5.344462613363765158e-01 7.683616509141378836e-01 -3.521186833271846561e-01
-1.721081980594806327e-01 8.935482172456739036e-01 4.146689663066149278e-01
-1.465148614630468887e-02 9.322899130174121529e-01 3.614150689161850227e-01
-2.826076482326963513e-01 5.487327762916071050e-01 -7.867815817516889965e-01
-1.068889823994891297e-01 8.710680523733237424e-01 -4.793904395961043341e-01
5.172961430275641037e-01 7.550397455941829095e-02 8.524692664457391711e-01
-2.754402089284350152e-01 1.596485005330497142e-01 9.479689064431433554e-01
4.159867445696606714e-01 -8.585012273951771189e-02 -9.053092205252002422e-01
-9.444421170590489023e-01 1.368391912118928355e-01 -2.988379548743710923e-01
-2.109151947863413812e-01 2.081661719571953340e-01 -9.550819993387621443e-01
1.409461459786854054e-01 9.042379441681885899e-01 -4.030979090248955066e-01
6.332746225558402164e-01 8.287500690154857297e-02 7.694770858562496318e-01
-4.856861347123326844e-01 8.117390589880107976e-01 3.243280417439305396e-01
5.661173099716571011e-01 1.425701515626378868e-01 8.119020527341097582e-01
-4.634754715023738925e-01 8.856930433030116845e-01 2.717205108749912168e-02
-5.934657994475495135e-01 6.365098549660430649e-01 -4.925987712298799948e-01
6.561374702363608202e-01 1.586158334484103483e-01 7.377835980362363877e-01
-1.045874461640928371e-01 4.559319454013182615e-01 -8.838481358624015183e-01
-4.993929178249731926e-01 6.407138830506209359e-01 -5.831744453355743874e-01
7.546410911982717185e-01 1.520352380067499509e-01 6.382805886750061442e-01
-4.924868660883869320e-01 5.091938076133384339e-01 -7.058175068802627905e-01
-4.184859565726135600e-01 4.693222233103535035e-01 -7.775642448431714371e-01
9.164845848481290025e-01 8.455671615260255958e-02 3.910321821656637109e-01
9.844127228319118350e-01 1.681939789272149655e-01 -5.140405216802804850e-02
-6.392876614953046932e-01 7.655672984971594319e-01 -7.223570676352586428e-02
-5.926596642701758011e-01 7.507731098673358083e-01 -2.917092042553542930e-01
5.281010341162759580e-01 -5.999699174827406445e-01 6.009537385532046638e-01
8.726793966173138628e-01 1.033477088165673241e-01 4.772315180308265847e-01
9.596091337402605781e-01 6.799811651105421018e-02 2.729955431746388661e-01
-9.331829842166754485e-01 2.788370874639082841e-01 -2.267584543586079193e-01
-9.007965452065194167e-01 -6.112503914004016603e-02 -4.299177988105721271e-01
7.479308287515595843e-01 4.408263936280526485e-02 6.623112533468038521e-01
-5.148023783953282750e-01 8.473319697088049773e-01 1.304110589938983766e-01
6.545512466289370446e-01 7.211521332084961378e-01 2.269411075705316805e-01
-6.333104050977948762e-02 3.935461763763283827e-01 -9.171208133978425714e-01
-3.523486514156277671e-01 8.271011426882799444e-01 -4.378973939284522832e-01
9.630510037967547898e-01 7.275148541458706375e-02 2.593067400898673158e-01
8.782201214736474748e-01 1.189287679134967135e-01 4.632335980921390983e-01
-3.806059758707651675e-01 8.756858679182252247e-01 -2.971756246056652673e-01
-2.669423372004979811e-01 8.018240193352336176e-01 -5.346213899826928184e-01
5.610194521650400112e-01 -3.393369598434009538e-01 7.550547013142006048e-01
-9.711035818386157814e-01 2.373241925925183848e-01 -2.520041568149494066e-02
-5.712852333829252505e-01 8.129342711625719975e-01 1.130090832101314641e-01
-5.192217156133189793e-01 8.535444366208193578e-01 -4.325164446827350212e-02
9.203103623917411324e-01 1.694549375278916192e-01 3.525817082915682632e-01
9.203103623917411324e-01 1.694549375278916192e-01 3.525817082915682632e-01
7.334917711155827247e-01 -5.329500693224656915e-01 4.218459971540615139e-01
-6.236583148847710811e-01 6.709581715619115094e-01 -4.010803389464313029e-01
-4.106549049449262356e-01 9.013827349824528046e-01 -1.373743575789413696e-01
-3.871424224259949198e-02 9.744425852794151854e-01 -2.212755193001495480e-01
5.650304110059294338e-01 4.588836176309586401e-01 -6.856868528041022426e-01
2.128282665385796205e-02 8.812591116041875727e-01 -4.721540209552596012e-01
-3.669925071138167155e-02 8.997220825020167956e-01 -4.349176235282458114e-01
7.108345613969569987e-01 2.736513098846258263e-01 6.479422712881329760e-01
-5.000730387043362396e-02 9.059651675416222627e-01 -4.203883737223121919e-01
-6.675003021106072909e-01 6.968776453511428270e-01 2.623068700817702270e-01
-5.154560279273460166e-01 8.376287729655235159e-01 1.807847393272851988e-01
-4.996699917828352766e-01 1.671057067588494205e-01 -8.499444582326346476e-01
-6.366091250503870258e-01 6.578339941543881464e-01 -4.024714375424238155e-01
4.666193491757974487e-01 4.555385357654760381e-01 7.581233576453118017e-01
-7.400370484145918359e-01 3.288444327448180604e-01 -5.866911504587040138e-01
-9.154971600890009498e-01 3.685909174931152332e-01 1.612627837120444718e-01
7.931944759508418041e-01 2.110243302392510456e-01 5.712366019156552843e-01
9.807068936488062549e-01 9.892815147468263237e-02 1.686037057585372256e-01
-5.396200789152744148e-01 7.771350476898145621e-01 -3.238383672198569263e-01
4.635774527364688313e-01 1.836420745134317301e-01 8.668168974949498340e-01
-5.161862079611508891e-01 8.097017519696873000e-01 -2.791681779284784781e-01
-7.474757346759124399e-01 6.638857012372573196e-01 2.314739215159872937e-02
-8.660635024625533696e-01 2.791385384380822288e-01 -4.147477378611556520e-01
8.865926018053137403e-01 -2.178844007054820675e-01 -4.080195416316445556e-01
-4.648080735125097451e-01 5.868573254546551876e-01 6.629871298583392969e-01
9.615894868712783206e-01 7.936133359921164476e-02 2.627687908941738204e-01
-6.018591012159718590e-01 1.824470205566757208e-01 -7.774822872409984376e-01
-1.077764779424542768e-01 7.858391919370745216e-01 -6.089671544656620750e-01
2.090720339512640580e-01 9.172783725228421670e-01 3.389532001933712180e-01
-7.406602254228287219e-01 6.073863562892485302e-01 2.872355212543785674e-01
-3.836137344396554627e-01 8.233310511964646583e-01 -4.182899507339208900e-01
9.638463949554683108e-01 1.393065463002743087e-01 2.271427152458047605e-01
-6.028546883852572424e-01 6.803167004114977212e-01 -4.168158008438822559e-01
-4.879171120830532726e-01 5.967194288244254130e-01 -6.370736338917070141e-01
4.130552785962540163e-01 5.620941166859045879e-01 7.165441652898052460e-01
-4.417573132774706840e-02 4.509038350140958107e-01 -8.914786796840626915e-01
-4.705497854162073446e-01 5.814291726531862770e-01 6.637190796056660069e-01
6.913896046855144695e-01 -5.002082138454315430e-02 -7.207484526246474843e-01
-5.114796998203774425e-01 8.586088177752571049e-01 3.434260779603078018e-02
9.384422921570075848e-01 2.456287952759185766e-01 2.428838389485856730e-01
-7.037589402353664481e-01 6.879163285744961387e-01 1.774668389287979153e-01
-3.532887697755852097e-01 8.772298673097901345e-01 -3.250458506889476462e-01
-3.473767980139654821e-01 8.355912968227459103e-01 -4.255778951915225039e-01
-1.726869455409943410e-01 3.930365854880359944e-01 -9.031619241905779472e-01
-5.178209746906986544e-01 7.800291742811372719e-01 -3.513060281871945301e-01
7.692656657965153411e-01 3.398410436898863241e-01 5.410530477230608426e-01
2.248287038367529841e-02 -9.848166287867025082e-01 1.721357842068439725e-01
-3.059924839595780655e-01 -4.141844220247516417e-01 -8.572163462698724201e-01
-8.510465595223341007e-01 3.483330576304548010e-01 3.929170834756574027e-01
-2.900742017483125545e-01 9.470967962362922821e-01 -1.373485203379719299e-01
-6.952144578022120269e-01 7.187700395638737527e-01 6.818202704782572350e-03
-5.374194963241250012e-01 7.686918958603088381e-01 -3.468328908990722659e-01
-6.226753273824524593e-01 6.804030691141055298e-01 -3.864286482770931119e-01
-3.495720976804601032e-01 -6.316547068671688470e-01 -6.919621953660718416e-01
-8.374090158519523763e-01 2.873296266633114660e-01 4.649600260359878501e-01
-8.855134148215491052e-01 3.911926442293016670e-01 2.506677228363597409e-01
-9.711857699454576887e-01 -2.053137979605286212e-01 -1.210142331400391597e-01
-3.843929782352252800e-01 4.726119921630553278e-01 -7.930195099410365378e-01
-3.582993652887799252e-01 9.077689472106146296e-01 -2.181217625863818288e-01
-8.186877761495771066e-01 1.496669003724659941e-01 -5.543916883541439855e-01
-6.934627210016389709e-01 6.064957510818183017e-01 -3.889374737675762583e-01
-7.165310234342920914e-01 6.189780671898137410e-01 3.216355776250010012e-01
9.373248959732739805e-02 1.354976020987709029e-01 -9.863339293664038498e-01
-6.807321487838130514e-01 7.206899068724890167e-01 -1.311861263407675948e-01
-6.079511917342519389e-01 7.407800739239830401e-01 2.857275460050731075e-01
4.513740498401375145e-01 2.196194276035231749e-02 8.920645381367336979e-01
-4.220665018204480812e-01 8.543530989876637616e-01 -3.032171668808099629e-01
-8.547366604537198764e-01 5.160201130267991765e-01 -5.611135560857230531e-02
7.055311613341211929e-01 5.510437268088796969e-02 7.065332890232222107e-01
6.912284870197106523e-02 8.243955442588288829e-01 -5.617775524115515839e-01
7.341543173942983724e-01 4.756032093917814674e-01 4.845812888128771534e-01
6.179695390316867210e-01 -1.851801578547405611e-02 7.859839259936131084e-01
-6.559798506946125096e-01 6.296105076591226313e-01 -4.162703978520401749e-01
-4.570456660005363103e-01 1.741798767459856456e-01 -8.722216631836653411e-01
7.434245492591572413e-01 5.041940048883497560e-01 4.394409459682447894e-01
-3.846667497717389250e-01 5.337292670940665396e-01 -7.531032871175619148e-01
-2.849819834504048188e-01 9.580793913809676488e-01 2.948133171598352892e-02
8.727433723972205515e-01 3.624979205814131689e-01 3.269774663656167535e-01
-3.147992430525669433e-02 8.183342168445659759e-01 -5.738798863064693556e-01
-1.910066484988135749e-01 4.537920627479419822e-01 8.703960156251970837e-01
8.713799100759516136e-01 3.975203256529091234e-01 2.875319860621278201e-01
-5.350324350637072346e-01 8.282567216556675493e-01 -1.665265638329388453e-01
-7.376395565517264163e-01 6.052565215228530304e-01 2.992531165488981904e-01
4.056070291621807766e-01 2.732883976639676749e-01 -8.722364298723660481e-01
-3.949291958792744972e-01 8.153410812864776425e-01 -4.233790871178538806e-01
-5.474027188981287484e-01 4.355835480832024875e-01 7.145748638051752089e-01
-7.558777193502227432e-01 5.899082640548216627e-01 2.840019601864267607e-01
-9.673897996506866659e-02 7.982273122555673117e-01 -5.945374064973298900e-01
1.869434794801036193e-01 3.723584226526187035e-01 9.090661915171666108e-01
-8.385267786956213110e-01 4.857711914792446350e-01 -2.467776143396713528e-01
3.281853012796752123e-01 2.222370379323656414e-02 -9.443519021073020214e-01
8.451932116672464801e-01 -3.386411867607158621e-01 -4.134858904254158363e-01
-4.757098164958414865e-01 8.414855455378115190e-01 2.561293562644164079e-01
-8.771732465267274570e-01 4.741635113593174466e-01 7.573678150781919249e-02
1.592752219547694248e-01 7.460176083409063574e-01 6.465981222649607174e-01
1.319729601079243364e-01 9.276915891297213834e-01 3.492441169988758087e-01
-5.714374983365191341e-01 8.181150720466126014e-01 -6.439654016379123269e-02
-6.536148628695280516e-02 8.702124717565983270e-01 -4.883217485527671098e-01
-6.319159392015564203e-01 5.773407889627001355e-01 5.170685246492402465e-01
-7.088077426426983019e-01 6.892149562391515216e-01 1.502475559402776106e-01
1.549073146450947458e-01 9.246934492125971072e-01 3.477725533344400710e-01
-2.703323217599155615e-01 8.848453096776046634e-01 -3.794327526103108417e-01
-4.730472827927693635e-01 -5.205899643131266519e-01 -7.107829185474530131e-01
-4.996570127740860290e-01 7.742194941123391461e-01 -3.884933004854918548e-01
-4.275401460778278095e-01 8.138645020598521684e-01 -3.934895116500805590e-01
-3.667482085843142281e-01 8.299052570293538045e-01 -4.204200469235959137e-01
-3.531774667128566580e-01 8.457035334241256308e-01 -4.000640080790047182e-01
3.809882193167813402e-01 7.208687300824194732e-01 5.789613551276010517e-01
-5.114546133499660030e-01 8.569280549387913171e-01 6.394127885690527313e-02
-6.110592190736964247e-01 5.529783103973383573e-01 5.664111748678243297e-01
-6.019332369912974712e-02 8.941726700978509523e-01 -4.436575253865660540e-01
-8.608831166268698931e-01 4.774807169327883183e-01 -1.757624091327765203e-01
-7.448870875526215629e-01 6.413082261362351710e-01 -1.840298505334622414e-01
7.090004931665789822e-01 -8.316748388422133542e-03 7.051589412223258080e-01
-4.057115159067689047e-01 8.774210170667332553e-01 2.559893057731343347e-01
-6.055277081432419717e-01 7.772412655880565069e-01 1.709742955472219050e-01
-6.665579251040284481e-01 6.729026675482879805e-01 3.207842460087632630e-01
5.332472487855101084e-01 7.875295241032613802e-01 3.089411276090880953e-01
5.242763941333332678e-01 2.642311027327415296e-01 -8.095160201646347531e-01
-8.745875308755898803e-02 6.263266076564237839e-01 -7.746392367095573661e-01
-7.593057125585670475e-01 6.173158582853492948e-01 -2.058542348006212608e-01
-3.325406002525619353e-01 8.989646497295230576e-01 -2.850952607819740581e-01
-5.084584951367739913e-01 2.524839499464135995e-01 8.232386128837154704e-01
1.632299937850931471e-01 4.170205792768091890e-01 8.941195700735740104e-01
-4.394511285955207125e-01 6.418106472241202898e-01 6.284598624302740744e-01
-1.637034828183780710e-01 9.834916436411806906e-01 -7.710613854357900587e-02
-5.228420425038003971e-01 6.287996860218090234e-01 5.755407487305557179e-01
6.532346498721111061e-01 1.443829863165117453e-02 7.570178516647304567e-01
9.393154963635504950e-01 3.094151633139844981e-01 -1.481507846846481791e-01
-1.809375285290081570e-01 9.812138158845895575e-01 6.694070724915601733e-02
-1.913762847829835467e-01 9.774775056770952375e-01 -8.895416526473826080e-02
-4.254479537535229422e-02 9.572330800462964806e-01 -2.861726242175341439e-01
-5.425958982217202742e-01 8.376757185964583963e-01 6.236250241027679192e-02
-6.579289195161684978e-01 3.030478153247898043e-01 -6.894139239173801004e-01
-8.833829715544654348e-01 -9.193646149128415976e-03 4.685616314190558795e-01
-1.685252920303643154e-01 7.529037415965670332e-01 -6.361880082459666630e-01
-6.672947567235365529e-01 6.646462011089484534e-01 -3.360998884271153009e-01
-3.982223111310784214e-01 8.732614514661463101e-01 2.807729123342598831e-01
-4.325185451408150583e-01 8.883924519408457066e-01 -1.539043840954668618e-01
-5.239548042025463648e-01 8.278972346403153937e-01 2.001437783894111921e-01
4.286620217919752118e-01 2.824733822045686904e-01 8.581711131348618293e-01
-3.769381646104274508e-01 9.219963576232830249e-01 8.854567515989358872e-02
5.199845772376018305e-01 7.605388997964942499e-01 -3.888400973811350636e-01
4.530862497242678089e-01 -6.674910729587923974e-01 5.909048297578203268e-01
-2.213506634159386477e-01 9.359688106151053955e-01 -2.737996883874579401e-01
-2.213506634159386477e-01 9.359688106151053955e-01 -2.737996883874579401e-01
-4.007524064111484541e-01 7.129489802582935631e-01 -5.754139903620114627e-01
-3.223327388051754339e-01 7.387951728023460785e-01 -5.918473605063270249e-01
-3.934576766104336820e-01 8.995527492747258380e-01 -1.897258759067973755e-01
4.221442751510301461e-01 2.691745374292284221e-01 -8.656438524918732558e-01
-5.387898883537482753e-02 9.962585001910708726e-01 6.757259325433470631e-02
9.211765367835846041e-02 4.705120058613789791e-01 -8.775720997280485047e-01
-8.427799313664396941e-02 8.298873286809620442e-01 -5.515290033784594481e-01
-1.237576961614574311e-01 9.376400891434900631e-01 -3.248308727196298484e-01
-7.750663558093826566e-01 4.654205433865148955e-01 -4.273825708731751050e-01
-1.477706360860097379e-01 9.240392926489698899e-01 -3.525836422063954312e-01
5.937595253287339947e-01 2.736040182139855004e-01 7.566970776331554127e-01
9.147974899027497830e-01 -3.054027924933342408e-01 2.643382053447853597e-01
2.984339754614704146e-02 7.559860835072883534e-01 6.539070370979455094e-01
-5.197881668014180390e-01 8.360399340741979657e-01 1.756630020420686389e-01
-4.012698535597403193e-01 7.432949429056712187e-01 -5.352524007185766042e-01
-6.202097770869610116e-01 7.822255639296509244e-01 5.884725601658740562e-02
-2.084478554054361998e-01 9.098556216482265313e-01 3.587648802934780279e-01
7.722480609681309227e-01 2.337932698059253800e-01 5.907399083559664588e-01
6.599082038000105843e-01 3.119933729849909132e-01 6.835066186738004701e-01
-3.173663681474612752e-01 8.284030043167111002e-01 -4.615485357012166778e-01
-6.987173277847186226e-01 6.009648388078455694e-01 -3.881177120024831284e-01
6.746909977411953419e-01 -6.212200953623345789e-01 3.985945944001276220e-01
-9.537693079816863539e-01 2.637276472088440071e-01 -1.441243742391366267e-01
-8.956671817367986010e-01 1.994591592841119254e-01 -3.974875385937725603e-01
5.885524985513913565e-01 -6.863078195150096317e-01 4.273026249878034699e-01
-8.643622423484446093e-01 4.666231081323208851e-01 -1.874587660241610332e-01
-1.011507736510802724e-02 4.742394522085116582e-01 -8.803377915203167703e-01
2.748462022430041563e-01 4.775945557908496397e-01 -8.344836759287378447e-01
-9.881397352913589005e-01 1.534830627944253068e-01 4.776292868519158193e-03
4.348692784589021088e-01 3.850041026384798393e-01 8.140396498968417438e-01
-5.400825067339274366e-01 6.150060856684217425e-01 -5.745244994870133404e-01
-8.937992481865749683e-01 -2.280244299079223214e-02 -4.478872096128277414e-01
4.294069400672841930e-01 2.052116915411716369e-01 8.794872605540473565e-01
-1.848256372787437096e-01 5.690380761177229463e-01 -8.012709602455005964e-01
-3.726375347222789514e-01 8.828207634953415539e-01 -2.859523863471053473e-01
-4.815539740383347200e-01 8.507062738467172647e-01 -2.107240036771339531e-01
4.491723562026431749e-01 -1.532124617361340368e-01 -8.802102794174352374e-01
-1.497046012956371741e-01 7.405612982446710957e-01 6.551011340954018269e-01
-3.396762482735183886e-01 -6.181119634731705587e-02 -9.385091487912839980e-01
-8.227662951008554160e-01 5.662311625447137287e-01 -4.937503629643290315e-02
-1.209450559365679856e-01 8.494156727562199860e-01 -5.136782147615359673e-01
-2.498555942695078191e-01 8.434467260814889622e-01 -4.755731303118886921e-01
-7.280977715030326758e-01 6.802212196755268447e-01 -8.469195614375864267e-02
-4.791445898846012907e-01 7.706373872902599897e-01 -4.201648239616912472e-01
-7.821446450646100113e-01 2.465970507034941639e-01 5.722234255787624901e-01
-5.908728609595160775e-01 7.024249058429824499e-01 -3.968230258351868600e-01
4.947340075086723576e-01 -2.801470918754913469e-02 8.685927917520073205e-01
-4.737595517560874714e-01 8.333169577404526684e-01 -2.848415964392624899e-01
-5.066295335128367938e-01 7.220533036722858178e-01 -4.711321920952792341e-01
3.285201901571004335e-01 -1.920401276764575893e-01 9.247675783791039494e-01
9.726620252621054341e-01 5.325992887849757135e-02 2.260353171273835060e-01
-9.241133201291340526e-01 3.651283557156151383e-01 -1.126758865610560240e-01
-7.758366559753528957e-01 -2.411175644183936317e-01 -5.830435690185801212e-01
-5.656145610817626262e-02 8.938401787277209243e-01 -4.448039304850157083e-01
5.615279561034337563e-01 3.395366525154172588e-01 7.545867850107931263e-01
-6.807365406036780531e-01 -1.247902466343149830e-01 -7.218207233322440075e-01
-8.268640500215526101e-01 5.453778324767665220e-01 -1.373275741608342426e-01
-7.684705984984824267e-01 5.956966781013158796e-01 2.336630200576068350e-01
-6.667627630496818503e-01 7.331600408974174865e-01 1.338049783888884126e-01
9.790691113223428665e-01 -1.259232323604770609e-01 1.598968880446615393e-01
-6.076993862358971432e-01 7.799330337040025762e-01 -1.496860678412822721e-01
-7.410179171728604741e-01 5.690260969223601695e-01 -3.565133201580278910e-01
-4.329372074585425834e-01 5.795057841179741542e-01 -6.904624686192658567e-01
-4.441274950022421342e-01 1.187924519520975192e-01 8.880535578118259332e-01
-2.708951516496616030e-01 1.759999475266037228e-01 -9.463824994595682050e-01
-3.541154380441022820e-01 1.751459725247071497e-01 -9.186545296504057267e-01
-6.441248336147447073e-01 7.613484884692428567e-01 7.383547810081939056e-02
-7.676435779179013874e-01 6.407418403370717108e-01 1.316173707628648729e-02
1.236168939783841292e-01 1.413937986221754373e-01 9.822049975612671124e-01
-6.994783323489864868e-01 7.047143378072497910e-01 -1.187761115004629109e-01
5.219617290619374961e-01 1.955803332469874256e-02 8.527446491929120409e-01
-9.635482542725558597e-01 8.463320561958416477e-02 -2.537951579421146020e-01
1.087039654969681884e-01 6.507200801516930255e-01 -7.514963906584036790e-01
-5.562187432306825441e-01 -1.118742158705465783e-02 -8.309606195705747655e-01
-4.238831381905625584e-01 2.193438485507760161e-01 -8.787555753795560642e-01
-7.550213762234003756e-02 4.424146070949218634e-01 -8.936267356360277914e-01
9.389410924875003506e-01 7.740398660537911590e-02 -3.352584789322613501e-01
-9.918886968762699041e-01 1.263378219462295837e-01 1.398455415728193374e-02
-9.761978310192584996e-01 1.764900981219282294e-01 -1.260517353240615257e-01
-4.028935275391425930e-01 7.866613767217499609e-01 -4.678041084057587562e-01
-9.432354552543453785e-01 3.148531000228750321e-01 -1.057090410377141271e-01
4.459296817479104225e-01 -2.700230759560614743e-02 8.946606028660923915e-01
-8.098507159655737864e-01 5.573245663441318554e-01 -1.831151157042287536e-01
-9.477425561292993628e-01 3.003653383825222734e-01 1.075393453571986124e-01
7.734722942118914535e-01 1.733646290830516412e-01 6.096599998929642661e-01
4.433381722042095130e-01 1.812691139380920857e-01 8.778341377496831077e-01
-9.706853272843859459e-01 1.387182544742122103e-01 -1.962835736133624054e-01
7.376668358769019607e-01 -3.352737213324238907e-01 -5.860368341932681302e-01
5.264136593718901080e-01 2.699858426321734631e-02 8.497998209428370142e-01
5.494452053159187832e-01 1.403043049044334356e-01 8.236653861736764615e-01
-3.147562886810433835e-01 1.978375680078128529e-01 -9.283257916380918129e-01
1.067573567841595961e-01 6.675446713290837941e-01 -7.368765015608823576e-01
-7.740636715164693760e-01 6.308995808654946913e-01 -5.283134772260284634e-02
9.275243226409245478e-01 -2.677131097308900476e-02 3.728028001749399967e-01
-4.218277261670906886e-01 8.828142911364013079e-01 -2.066405013593296536e-01
-9.717841296413943786e-01 2.285794172358984189e-01 -5.819841400944391480e-02
-9.348437382929242201e-01 3.214566614629567609e-01 -1.507740023200310198e-01
8.661870754884826162e-01 3.251637661489545916e-01 3.794581339759866001e-01
-6.889857292751128126e-01 4.821830352865149050e-01 5.411082935394027071e-01
-3.734593558786745704e-01 4.412928556853437656e-01 -8.159587765492567479e-01
3.899039349429366252e-01 2.676326304182508609e-01 8.811059508659683237e-01
-8.511688057656368045e-01 4.208362740594731033e-01 -3.137012823168560671e-01
-8.715849995453924803e-01 4.715418610865865223e-01 -1.341188346596282055e-01
9.514946972380269319e-01 -7.107709728086752943e-02 2.993424249418074612e-01
-7.957529421047097040e-01 5.442513007029787797e-01 -2.656459614125808444e-01
-2.504145117394846465e-01 8.070775662884560608e-01 -5.347133571402329366e-01
-4.942257431698535708e-01 7.836174624648417630e-01 -3.764101317823000392e-01
-9.355434770316133353e-01 2.254776296255268375e-01 -2.718790928373361893e-01
-7.995770758847847715e-02 9.779914342496696111e-01 -1.927161631297944766e-01
7.207394961744563178e-01 5.917210405075573609e-01 -3.611104939971206962e-01
