8.605555846533767816e-01 1.810441351800477494e-01 4.760956908424959222e-01
9.347241393644205587e-01 4.012296199562260385e-02 3.531018708675176532e-01
9.187768232751003517e-01 -1.987220681620516238e-01 3.411138939385375268e-01
9.031017045256960474e-01 -2.917112729351807876e-01 3.151378183038636149e-01
8.996968049249008947e-01 -3.475703972252914276e-01 2.640842255428709207e-01
9.009482188466411134e-01 -3.291122832188149716e-01 2.828027793207897322e-01
8.998051975036978067e-01 -3.472644451900330220e-01 2.641174201982707248e-01
9.064185636864259266e-01 -3.398503043179396665e-01 2.508129942001418589e-01
9.152174305049287639e-01 -3.380632144384108084e-01 2.192950476949375171e-01
9.194552224640212268e-01 -3.283264189257736332e-01 2.163419897269474590e-01
9.197601007474476287e-01 -3.334803112284876470e-01 2.069595107647770604e-01
9.127366961542345836e-01 -3.655759805025345921e-01 1.823894897549284688e-01
9.087791669430688168e-01 -3.802010047473532994e-01 1.719523821276249531e-01
9.137123048747823884e-01 -3.746526847195310039e-01 1.573695960243286229e-01
8.794976541086465538e-01 -4.415910366720858238e-01 1.774295148735414163e-01
8.729976624693139842e-01 -4.574345808954832782e-01 1.692001345273918822e-01
8.715804209574205819e-02 9.836490446834347257e-01 -1.576008648180682870e-01
8.735810313748479938e-01 -4.562680322104940567e-01 1.693389039908442528e-01
8.764451789058408382e-01 -4.522755943382369415e-01 1.651987746283345992e-01
4.290028491856388848e-02 9.947381634126515326e-01 -9.303521808611572852e-02
7.410935304655246565e-04 9.969269107472187308e-01 -7.833380756982330495e-02
-8.224094877893528555e-02 9.934700710443116201e-01 7.907998661577363142e-02
-4.766731126807999611e-03 9.978921055653906524e-01 6.471957914445999882e-02
2.168649938153416057e-01 9.696145486893051890e-01 1.132130797545354561e-01
3.200010639914666610e-01 9.363753636216159970e-01 1.442237755947883560e-01
-2.193225472717056368e-01 9.568479529686565455e-01 1.906295233114275178e-01
5.588732493049199945e-01 8.056096763998586985e-01 1.966055454514842593e-01
5.579709324665977910e-01 7.945847578283544710e-01 2.393814970903363759e-01
-3.872601920872720260e-01 7.465403315486136560e-01 5.410241001987017295e-01
-4.558724020469430149e-01 8.051805264405788032e-01 3.792949681881143675e-01
-5.573465743905297032e-01 6.824960145425562619e-01 4.728255345776794516e-01
6.296792824292402058e-01 7.368341604942295620e-01 2.461288711390054451e-01
-5.562714338170547945e-01 8.271196825401061492e-01 -8.021921636286526158e-02
-1.168737746362984997e-01 2.907136965607413637e-01 9.496452324074780016e-01
1.607459524905197057e-01 4.100411008545217784e-01 8.977900836876778756e-01
1.607459524905197057e-01 4.100411008545217784e-01 8.977900836876778756e-01
2.192385617493788630e-01 3.165580212283702899e-01 9.228897400220907876e-01
1.265354014488784540e-01 3.931538740929900744e-01 9.107243399985776033e-01
-4.701411185952738547e-01 6.489175323443460153e-01 5.982251790271865266e-01
-5.011663089764701873e-01 3.828501853262666899e-01 7.760528759965679146e-01
6.738309664941558585e-01 7.017573036926509911e-01 2.312758424643014121e-01
3.709542059363283850e-01 8.634150187628863993e-01 -3.419173620523422441e-01
2.910157921290158489e-01 8.706840363935675065e-01 -3.965086600579189047e-01
-4.235776682569294960e-02 9.572508769489942448e-01 -2.861408362501263181e-01
-2.443591209196362135e-01 9.505778552007451143e-01 -1.915472819575724239e-01
-3.409883075255475959e-01 9.204929969563869774e-01 -1.908392430427021946e-01
-3.467769297422728103e-01 9.165132353767967421e-01 -1.993721404250834439e-01
-5.011798006605808764e-01 8.340047290077780007e-01 -2.307702740876368119e-01
-2.967461398036090880e-01 9.379075840815597198e-01 1.796415659972621648e-01
-2.108346603380239215e-01 7.467286281414006188e-01 6.308289006649994146e-01
-5.414141950967176209e-01 8.240622989170260926e-01 1.667093184298927555e-01
2.926815028739349067e-01 6.561018895215320335e-01 6.956061014983481172e-01
2.926815028739349067e-01 6.561018895215320335e-01 6.956061014983481172e-01
1.886781843182772367e-01 2.546755804361862663e-01 9.484412957541704658e-01
2.824620769060334421e-02 4.383597077183286617e-01 8.983556747748637772e-01
2.824620769060334421e-02 4.383597077183286617e-01 8.983556747748637772e-01
2.824620769060334421e-02 4.383597077183286617e-01 8.983556747748637772e-01
1.813707581954892012e-01 2.927833043633482624e-01 9.388197828964153224e-01
2.190007884766684565e-01 2.899641436575641773e-01 9.316434135652615911e-01
1.962447120957285518e-01 3.170385306382200730e-01 9.278871607395066112e-01
2.271139919314741906e-01 2.890208232657607845e-01 9.299925797487482715e-01
1.518555013099716078e-01 3.492051897459508281e-01 9.246597440012146452e-01
-5.567845983473532212e-02 3.945434532888573709e-01 9.171888423750776953e-01
-1.654577207216601786e-01 4.062815494124538684e-01 8.986428908418566674e-01
-2.944839338113687255e-01 4.005439116563558888e-01 8.676657118741104568e-01
6.490372636388485050e-01 7.331990284551087589e-01 2.029034624659731001e-01
-2.699515340410701958e-01 8.404943471555860190e-01 4.697823130646558432e-01
-1.437971917275314704e-01 8.994403497130966096e-01 4.127098556604362201e-01
2.986348449387199108e-02 9.493774180652124750e-01 3.127150305976916789e-01
1.979443386746226330e-01 2.506514500494388398e-01 9.476243397965143922e-01
1.958267495566201055e-01 3.209376142876054216e-01 9.266341952968651929e-01
1.164017911266448102e-01 3.608155535343094411e-01 9.253446705688852525e-01
4.392455111034588439e-02 3.892303275738993040e-01 9.200925963762939253e-01
-2.176061320782293473e-01 4.253854129912325033e-01 8.784616222102310523e-01
6.163848983840191087e-01 7.776475323559182140e-01 1.238304181728927811e-01
5.683761867510542798e-01 8.139703860456550810e-01 1.200030040249743385e-01
-3.217590793814236183e-01 7.016984714404399526e-01 6.356810127837457802e-01
-3.004847241007102543e-01 6.797504053408842672e-01 6.690652561753775984e-01
-3.555608126643468037e-01 6.455186287377903120e-01 6.759306239918059234e-01
-3.280034185619404297e-01 5.305844455710801988e-01 7.815970211878432439e-01
-3.280034185619404297e-01 5.305844455710801988e-01 7.815970211878432439e-01
-7.196019297932331193e-01 4.077456323790121795e-01 5.620645531553242202e-01
-3.368859708165610201e-01 4.862536559823052440e-01 8.062662244636227271e-01
-4.576964617833353399e-01 7.459486006621217635e-01 4.838126021934921472e-01
1.540051743229069459e-01 5.284650038870591926e-01 8.348695382803359433e-01
5.718380482010937405e-01 2.745286456662867081e-01 7.730687351964234955e-01
2.605696261141828840e-01 5.405854008850394798e-01 7.999193048656071392e-01
7.362086191156599346e-01 -9.922604988498935283e-03 6.766819127552143875e-01
2.012608378578304436e-01 9.420027430307672534e-01 -2.685608073924311556e-01
-3.967106696709278291e-01 3.407644543515730984e-01 8.523498291310434016e-01
-3.792443100357645314e-01 3.508581872032837667e-01 8.561964060762707884e-01
3.388407122424602624e-01 8.291736101076125909e-01 -4.445875572124474151e-01
3.750282679882902537e-01 7.752132450344868531e-01 -5.083288531382059716e-01
-4.214683077710021375e-01 2.151274573663145007e-01 8.809566633108307787e-01
5.829624427596727942e-01 5.813996356990870362e-01 -5.675643170078999988e-01
-7.687533875168073294e-01 1.294965279111028045e-02 6.394142129121179741e-01
-5.826717331949449186e-01 9.596994335955379152e-02 8.070213264264849418e-01
-6.519024854824967408e-01 1.975189354415022858e-01 7.321266417525035264e-01
6.279607627534744552e-01 4.723942595101695563e-01 -6.184730746151471115e-01
-8.210296266072600879e-01 -3.457596423506993644e-02 5.698375689004351319e-01
-6.480051666340219674e-01 1.739301294107341023e-01 7.415103600751500323e-01
7.255419186293622369e-01 4.151883452024440202e-01 -5.488237989734774391e-01
-8.343767064867341210e-01 3.730054273150947008e-02 5.499310694844264935e-01
7.766472358663243369e-01 3.830975803492398524e-01 -5.000553118923503071e-01
-9.645825220058954486e-01 2.533317582020848668e-01 7.350903704298357433e-02
-8.469771505315732973e-01 1.753442836061742394e-01 5.018805522074493153e-01
7.494797670197430595e-01 4.826291495463815306e-01 -4.531547007768627067e-01
8.112537351574186095e-01 3.890493513456007024e-01 -4.364721977522785790e-01
-7.630299257523325274e-01 5.959388349684929809e-01 2.502843130976956654e-01
-8.816441606773340878e-01 4.575360976807111291e-01 1.156040365327519054e-01
9.339156435803230849e-01 3.117134842684470830e-01 -1.750322096106187719e-01
8.785179027163600995e-01 3.048124166425432158e-01 -3.678256180139994336e-01
-7.532953033765835693e-01 6.541558559763001046e-01 -6.801692438426658327e-02
-8.762863874693107569e-01 4.673882365290846219e-01 1.169205007268510482e-01
8.265930700816193077e-01 4.284513283971865261e-01 -3.649292475093345312e-01
8.656783566004471187e-01 2.847840201095799273e-01 -4.117026169503605337e-01
-6.529175538020463021e-01 7.509955403250340167e-01 -9.851074230286888112e-02
8.909297985354392990e-01 3.874288200249642600e-01 -2.369451487067532613e-01
9.582202543149205276e-01 2.417283687533741676e-01 -1.529095809963572083e-01
-7.081170656303558131e-01 6.964944375605494065e-01 -1.160418881709032596e-01
-6.400808246494089637e-01 7.602194778503056360e-01 -1.111885039612503651e-01
9.590321524904716899e-01 2.555245983828033918e-01 -1.223295144713647947e-01
-7.004288311865648486e-01 7.099262306026048464e-01 -7.351326101459246254e-02
9.803794867932120738e-01 1.639081274838613267e-01 -1.094997151585898887e-01
9.398015964474381034e-01 2.527892219254557760e-01 -2.299360097791761648e-01
-7.296017119581149624e-01 6.776757266029906912e-01 -9.185287954602454341e-02
9.933234653096864042e-01 -2.580260493903200128e-02 -1.124398454442035594e-01
-8.139120499661921526e-01 5.795653169545252892e-01 -4.063518553213745638e-02
9.848314620205406156e-01 -1.597955806326031014e-01 -6.761925631633193545e-02
-8.814570559517902471e-01 4.721158040451551297e-01 1.183748637167307896e-02
-9.324288487344605247e-01 3.599453911367673786e-01 3.187094989371974663e-02
8.737428149773643904e-01 -4.845044508200768707e-01 -4.276599596603485043e-02
8.761666578077692558e-01 -4.795283673216202414e-01 -4.883167701220911955e-02
8.359397387698127568e-01 -5.481600225484153377e-01 -2.693218938701419721e-02
-9.764804196541632120e-01 2.054897437006929506e-01 6.526833279510600716e-02
7.443863478083438956e-01 -6.676786026664948137e-01 9.708178916371415848e-03
-9.421213441159850266e-01 2.303618656322147240e-01 2.435996383895813466e-01
-9.837279656475154122e-01 1.642933670600288110e-01 7.271161628707854818e-02
7.505600750595246007e-01 -6.529809853668285813e-01 1.013676796420166504e-01
-7.392887275550874548e-01 3.969707454686591808e-01 5.439360298344252387e-01
7.255417848122508451e-01 -6.500922697492891311e-01 2.257635030372955320e-01
-5.005560124233542352e-01 4.366612783119490082e-01 7.475096029147755283e-01
-7.623303390137037283e-01 2.964875206421712095e-01 5.752804571013252488e-01
-7.623303390137037283e-01 2.964875206421712095e-01 5.752804571013252488e-01
4.684891728510970355e-01 -7.464300766548581656e-01 4.726098132564721666e-01
5.920986915132581130e-01 -6.950548350424690103e-01 4.078209359417118707e-01
-5.006084005976458862e-01 4.365362823740882026e-01 7.475475258617857444e-01
3.777681355867056889e-01 -7.301865648461164371e-01 5.693143387036485592e-01
4.150816788343635322e-01 -7.165729148612499655e-01 5.605626259244350651e-01
5.051611323754747751e-01 -6.932586616731905016e-01 5.140084224526140222e-01
-4.777458836338741022e-01 4.126525623005409260e-01 7.755493108098845401e-01
-4.383393587275792869e-01 4.394190047258498266e-01 7.840724104800769201e-01
4.002795209719906544e-01 -6.759117067526134726e-01 6.188050337264581202e-01
-3.906877829540590374e-01 4.669803948952976347e-01 7.932795012061474305e-01
4.432190726490268795e-01 -5.136095134797438178e-01 7.346850490538361367e-01
4.938370266742458381e-01 -5.664658218802817169e-01 6.597283256970531973e-01
-3.521677810060808156e-01 5.099051439988524503e-01 7.848404921668877821e-01
-3.596203115808770945e-01 5.009301399819444667e-01 7.872370839563784806e-01
5.870116204346161881e-01 -2.029388712113462390e-01 7.837302929108906913e-01
5.431512173971223545e-01 -1.687870930037274619e-01 8.224947855612064762e-01
5.286988782704197254e-01 -2.264702604800349905e-01 8.180395572548464500e-01
-3.176084207849428354e-01 5.855268814615341988e-01 7.458439261215613625e-01
6.411768234835523161e-01 2.376609493728548406e-01 7.296640008735082450e-01
5.895238048688454802e-01 2.111384647098318856e-01 7.796680269274445241e-01
-3.463739271067390324e-01 6.342768743998947745e-01 6.911714325854009244e-01
5.878564990757867426e-01 3.399559694570709056e-01 7.340672144462403459e-01
5.720210987473172137e-01 3.160051737494882773e-01 7.569231088766332771e-01
-5.961241298095441010e-01 6.236178559288312329e-01 5.057042531218629566e-01
-4.863451658353050711e-01 6.346284077859261075e-01 6.005956740601200439e-01
5.967925963931489663e-01 3.132770206919504030e-01 7.387124644925787686e-01
5.622981118228000952e-01 3.018389791560445179e-01 7.698792529368164717e-01
-7.081679403567208153e-01 5.812215319467979313e-01 4.008487234011570144e-01
5.564769430892619884e-01 2.898114568697392479e-01 7.786801212802787475e-01
-7.477645164960280422e-01 5.631603064445314111e-01 3.517082556818407202e-01
5.333572888153034208e-01 2.767708045409908446e-01 7.993296718008918722e-01
5.548911545027747083e-01 3.002901042894280947e-01 7.758361037747742994e-01
-7.917174048408219811e-01 5.277099060851808687e-01 3.077430842304719194e-01
4.989397335597516858e-01 3.891738092807238703e-01 7.743402924071913773e-01
4.123121396371510761e-01 4.215109836226415552e-01 8.076677474019298142e-01
-8.088916251741637975e-01 5.019078881334014808e-01 3.062397925687791456e-01
3.661811539557980333e-01 5.102836201799662019e-01 7.781529344952881067e-01
2.543272372431046313e-01 6.539848702644380785e-01 7.124755756245232385e-01
3.266660876531958801e-01 5.888321421562255908e-01 7.393010046936667745e-01
2.507327416695656064e-01 6.546405724999628806e-01 7.131471188273734718e-01
2.507327416695656064e-01 6.546405724999628806e-01 7.131471188273734718e-01
-8.283402055851490919e-01 4.563544531153825856e-01 3.249509454254793095e-01
2.481009320469897694e-01 7.452984920635294941e-01 6.188506162598887972e-01
2.741125615076471234e-01 7.760848962982493937e-01 5.679388500194824108e-01
-8.180011055447536927e-01 4.358513516416068767e-01 3.753768647635936095e-01
2.505234112369733035e-01 8.454802444295158592e-01 4.715942924819984117e-01
3.480480128110578497e-01 8.374325585775991287e-01 4.213897134630242847e-01
-8.426319499552114012e-01 3.420655168066971119e-01 4.158877001384451155e-01
3.403740734529526191e-01 8.131578703663950858e-01 4.721438001099165227e-01
3.519823706468188651e-01 8.101425945997332567e-01 4.688042098457070872e-01
3.974651296531760969e-01 7.286967411256864979e-01 5.576939395247075826e-01
6.161585604097792324e-01 4.116132844581011918e-01 6.715081030720051469e-01
5.278234509146200182e-01 4.387954538486250056e-01 7.272282683905795242e-01
5.278234509146200182e-01 4.387954538486250056e-01 7.272282683905795242e-01
-8.366144502508314762e-01 2.355027365190868749e-01 4.945854048832423189e-01
-8.609153077437491364e-01 2.009169417947222480e-01 4.673940686319650317e-01
5.973833344784565957e-01 1.118707893439416790e-01 7.941146505253280363e-01
5.735089210653300240e-01 9.359264801751515650e-02 8.138353234503590272e-01
-8.508259112796194845e-01 1.164560350612320605e-01 5.123799962850055234e-01
5.976791832284236161e-01 -2.194788191243345898e-01 7.711087095158449811e-01
-8.222628433434975292e-01 6.655209134744921595e-02 5.652031808066437790e-01
5.802642402753700468e-01 -3.540454585963163092e-01 7.334474928070664479e-01
-7.913773891475724964e-01 8.323105763269876556e-02 6.056355496429465246e-01
5.527973993666082109e-01 -4.220276354222229354e-01 7.185455519265581126e-01
5.684254135883417547e-01 -4.261202412543326767e-01 7.037855420369703019e-01
-7.384939756823659662e-01 1.139161408559927480e-01 6.645673485308548623e-01
-7.932153493252632748e-01 5.701629190551040643e-02 6.062660736443582499e-01
5.509475314379802535e-01 -4.884082121104575958e-01 6.766936056631996932e-01
5.658771804848918840e-01 -4.782184105758528481e-01 6.716324652611531665e-01
5.286467198703256321e-01 -5.292174124348975051e-01 6.636727928324748227e-01
5.364384781162030436e-01 -5.262126744683337520e-01 6.597984392412999943e-01
-6.157545755636930629e-01 1.023586527577630551e-01 7.812611656021256623e-01
3.355085688686873513e-01 -5.741455867923436207e-01 7.468539652318654243e-01
5.704208806215743666e-01 -5.942663923122549763e-01 5.669810172475659993e-01
-5.775844743084224131e-01 1.220227882425600346e-01 8.071595964785246435e-01
-5.622202548259332966e-01 8.420773697027633675e-02 8.226891527775282986e-01
-5.830105219629392321e-01 8.455969705473995179e-02 8.080522191755380446e-01
5.223426122805457927e-01 -4.741692293634071076e-01 7.087465959853689323e-01
-5.628436673027331638e-01 7.243722476915138986e-02 8.233831760759710017e-01
5.138628274678738173e-01 -3.714285302766321961e-01 7.732954425336173720e-01
-5.778596491707153060e-01 4.645195923674363264e-02 8.148131327754638553e-01
5.384764731876741095e-01 -2.353591565008598396e-01 8.091039211835325817e-01
5.763772915577823897e-01 -2.534122659209048778e-01 7.768986042318185570e-01
5.868121196304633136e-01 -7.723434573946622028e-02 8.060312599974019943e-01
5.770214927627661528e-01 -6.265136995538861386e-02 8.143224193969744729e-01
-6.346288753052459208e-01 3.880021399204455768e-02 7.718424282345265341e-01
6.205286395882380068e-01 1.147864246941224242e-01 7.757372520104414138e-01
6.440820066182056935e-01 6.227632678896070743e-03 7.649310984277487568e-01
-6.560509153353841771e-01 1.121408645612332194e-01 7.463388124592367223e-01
6.777983720676122870e-01 1.954327694266166926e-01 7.087985605633928543e-01
-6.589216169040724713e-01 1.911037043735004104e-01 7.275312206024209249e-01
-6.589216169040724713e-01 1.911037043735004104e-01 7.275312206024209249e-01
7.855570144047293590e-01 5.154522963604109276e-02 6.166386838508395307e-01
-6.562555504994777023e-01 2.101512914087463046e-01 7.246827493171502654e-01
8.358060155465518726e-01 1.950662161370547709e-02 5.486782263671640125e-01
7.801338526931037576e-01 1.176915914360875531e-01 6.144427240902571308e-01
-6.674626171289682608e-01 2.113020310415365810e-01 7.140343874163692650e-01
-6.458481969749022555e-01 1.976098691375704763e-01 7.374486057236125935e-01
8.314961819002144594e-01 8.836122356685488510e-02 5.484581968164338184e-01
8.806635368621997806e-01 6.197719693811536840e-02 4.696706951695570065e-01
-6.014189548799788732e-01 9.463633966233579720e-02 7.933090217099442176e-01
8.708857707767270195e-01 8.968328520323466668e-02 4.832337763585876078e-01
-5.003811319981532613e-01 -2.642019148739522261e-01 8.245095941935324246e-01
9.159575177328899143e-01 9.827977745025218148e-02 3.890538665184186673e-01
9.278639667343910880e-01 1.401435426294292685e-01 3.455839213493508977e-01
-3.264968891699551179e-01 1.327689170612379177e-01 9.358270118054554665e-01
-4.424012343433994521e-01 -4.094878654113258687e-01 7.978726940636033937e-01
8.832017535070673109e-01 5.793438819416440316e-02 4.654011917331208892e-01
-4.358079850287062684e-01 -4.518560263204723371e-01 7.783942006869601915e-01
-3.534362812799305420e-01 -5.158237426871250531e-01 7.803900701285610975e-01
-4.184806702764042874e-01 -4.554571824401160707e-01 7.857688486881636569e-01
9.145278614819351004e-01 2.756020580770744410e-01 2.961119655754548829e-01
-3.470268720628089665e-01 -5.527177310721600456e-01 7.576776754166287819e-01
-3.134667882248380333e-01 -5.734398069546767784e-01 7.569051198662798408e-01
8.801524987825416479e-01 3.803435238675663688e-01 2.840253205945731385e-01
-2.944431685880265492e-01 -5.853829867398678832e-01 7.554005423001458608e-01
-2.781586637006341900e-01 -5.713708096291879590e-01 7.721160247734559778e-01
-2.965001488384201855e-01 -5.624269624524895761e-01 7.718572236140959220e-01
8.615801051749280015e-01 4.115551298199183194e-01 2.971566884417550791e-01
8.711006279912167916e-01 3.998952830689672111e-01 2.850744788515772732e-01
-2.978178271334019911e-01 -5.675369496482592924e-01 7.675977804980211872e-01
-3.450498578832016383e-01 -4.882037804652059054e-01 8.016218961045559199e-01
-3.960576944124591381e-01 -4.776337195049849549e-01 7.842221194843465026e-01
-4.411753514028842194e-01 -3.998652517521218419e-01 8.034127766943675031e-01
-3.964768051640077395e-01 -3.528006192183302248e-01 8.475481496918650937e-01
-5.186648317278522713e-01 -3.392044401599342840e-01 7.848102573899655710e-01
8.327979737959153583e-01 4.235711265650949353e-01 3.564197463410160305e-01
8.249898247918361349e-01 4.267858989868614228e-01 3.704667129661071701e-01
-4.631074081897156303e-01 -1.203689546258851495e-01 8.780904527678659033e-01
-5.001323405171997916e-01 -1.925517493355106274e-02 8.657348787054072181e-01
-5.067749161146658521e-01 -2.674792670683240683e-02 8.616633523678833839e-01
-5.299392047770725700e-01 1.133972289407412931e-01 8.404198401446771882e-01
-5.120769650713005161e-01 1.084630767945183871e-01 8.520639311786603054e-01
8.571840690499470394e-01 2.924347565740429977e-01 4.239308728017529004e-01
-5.351204052975394587e-01 2.138230148759460436e-01 8.172673186562388059e-01
-5.009854097091603897e-01 2.458233497703315451e-01 8.298099179729281349e-01
-4.234503470980883200e-01 1.850013694945225884e-01 8.868282228411880075e-01
8.589699544947838605e-01 2.245132862711161081e-01 4.601786626550309900e-01
-4.721164444598172083e-01 2.537071482202694073e-01 8.442385597759429761e-01
-4.879916086248339835e-01 2.753466849151215423e-01 8.282803830937924827e-01
-3.682002994218808722e-01 1.944074796101067371e-01 9.091942979238722966e-01
8.642438885336541921e-01 1.472122075565091837e-01 4.810520419648670054e-01
-5.879409514591950048e-01 2.468515100852780864e-01 7.703179665345176730e-01
-4.518304214097077498e-01 2.157661746123243907e-01 8.656178303280783748e-01
-3.509547949289810731e-01 2.199274148370900794e-01 9.101992441874643402e-01
8.530490526819681785e-01 9.372914108369173602e-02 5.133440969078243432e-01
-5.770272340947434353e-01 2.191998637387795046e-01 7.867598050548023636e-01
-4.393043963154689147e-01 1.742308408954162391e-01 8.812804669676831404e-01
7.506382648784453160e-01 1.773810068427061071e-01 6.364575191729177073e-01
-3.386876030218903821e-01 1.426460275109190656e-01 9.300230203573676135e-01
-4.216456448165887272e-01 1.495304244209813005e-01 8.943464666334208779e-01
5.288597375809742651e-01 2.577544368643604478e-01 8.086223025878765958e-01
8.817878984804119469e-01 8.001909696035357233e-02 4.648086124580181333e-01
8.740011597443838598e-01 8.744234557535157659e-02 4.779914318957534936e-01
-4.262139796706191364e-01 6.671296918140562360e-02 9.021590897820260802e-01
6.964866877638086207e-01 1.759604107073505508e-01 6.956610005106649286e-01
4.409486595125649555e-01 2.815164733766900573e-01 8.522398458718198899e-01
-3.732024457171584375e-01 9.117002071151365794e-02 9.232594228244808132e-01
-3.409492798033507133e-01 1.179535477228421947e-01 9.326524267813662838e-01
6.545300430694860339e-01 1.469707648367383213e-01 7.416131181436590447e-01
4.929370035224772129e-01 1.319303148305771001e-01 8.600043619581159149e-01
8.748662329939931315e-01 1.449773744436132772e-01 4.621586689291206085e-01
-4.349899234388246438e-01 2.732318430146745206e-02 9.000206720438778119e-01
8.604097833307430276e-01 2.118221139028186872e-01 4.634936858366954238e-01
-5.867582698449534950e-01 -3.034664689519340781e-03 8.097564594239300417e-01
6.143364596273125366e-01 1.851014285106739043e-01 7.670255377338407454e-01
-4.371478149471122454e-01 -3.787237224601924801e-02 8.985919381495831582e-01
-5.799166321164860305e-01 -2.567422837085380216e-01 7.731624017958949047e-01
6.799837156443165886e-01 2.348149279695638247e-01 6.946107514725047283e-01
6.112907879644978726e-01 2.538966185783527729e-01 7.495732650143157594e-01
-5.286424331969018509e-01 -1.652264786266355867e-01 8.326087848349315035e-01
-5.150235228936990151e-01 -1.659689581597984798e-01 8.409548595456918241e-01
8.471244214902423630e-01 3.351354545329328638e-01 4.123887021122507046e-01
8.665447857448185243e-01 3.130108283177860939e-01 3.887471616028599919e-01
6.625988812390284366e-01 2.827275858438991762e-01 6.935617022181000957e-01
-6.165793377558987931e-01 -2.658360999754442178e-01 7.410540386519346434e-01
8.685514605591815318e-01 3.410023649756502295e-01 3.596327952808612838e-01
6.659962003126438379e-01 4.290254103540838138e-01 6.102345929555541559e-01
-6.123806752855269764e-01 -3.890100820332200171e-01 6.882303862903390579e-01
6.762870311992275063e-01 4.627160816317863468e-01 5.731750860174064099e-01
6.702051724160810187e-01 4.429083223326376606e-01 5.955310612178170704e-01
8.678019668348888604e-01 3.626181003971913341e-01 3.397467580740556325e-01
6.031419116978720130e-01 5.254919100432732249e-01 6.000650688321299553e-01
-4.695756576533818283e-01 2.369157868726591565e-01 8.505113824458216953e-01
-4.513147358957934063e-01 2.369744452991280614e-01 8.603244280145024847e-01
6.069236717110363388e-01 5.165491118854600439e-01 6.040038673114076495e-01
6.010442272673813813e-01 5.262806631133222224e-01 6.014769326429385554e-01
6.220101632159150684e-01 4.838884270439052226e-01 6.155934917046198551e-01
6.212489220338787144e-01 4.845111631883889380e-01 6.158723160019273779e-01
-5.750241289669184575e-01 2.784904134607849580e-01 7.692791045623674773e-01
-5.295881392336131421e-01 1.911885630546060477e-01 8.264280586597929634e-01
6.362208265170941068e-01 4.004567114229153346e-01 6.594372465839716257e-01
6.651764988674087054e-01 4.173714263319840412e-01 6.191456354009946539e-01
7.007579280756809359e-01 2.060280445748446099e-01 6.830012965490949162e-01
-7.982194597028779981e-01 1.508080919230498917e-01 5.831831732502014143e-01
7.622175361718116493e-01 -2.131096318152650437e-02 6.469700691689288519e-01
-9.213960669160570216e-01 -1.780050662781369752e-02 3.882169880819413832e-01
7.739619005163627108e-01 -1.188194458359983774e-01 6.219846588464430504e-01
7.993626260024713215e-01 -1.766080830566139348e-01 5.743073890779233359e-01
8.239378318063432793e-01 -1.079786949146418762e-01 5.562976278601164948e-01
-9.901746547200600546e-01 -1.282680269342549306e-01 5.569081087938063807e-02
-9.848356117576073654e-01 -1.729774078037609186e-01 1.332794821083267862e-02
8.261542029316732982e-01 -2.504246225277046989e-01 5.047343275528108908e-01
-9.865127441805795483e-01 -1.598752983640142344e-01 3.510690163372269523e-02
6.954168321773511741e-01 -4.516497017864074537e-01 5.589346799051452264e-01
-9.888604597102594873e-01 -1.445952091718342714e-01 3.531595540499658792e-02
-9.785301952532325931e-01 -1.555956727427998953e-01 1.351615463117602778e-01
-9.744383092021509096e-01 -2.108667936810597054e-01 7.749307634829549762e-02
6.357158975860806027e-01 -5.690533352186445404e-01 5.215779895977790126e-01
-9.307484346306970080e-01 -2.505510773291534377e-01 2.663296999617346672e-01
7.632003575072212609e-01 -3.861449307501176320e-01 5.180900566087291992e-01
7.632003575072212609e-01 -3.861449307501176320e-01 5.180900566087291992e-01
8.917008007601958663e-01 -1.109373193654856343e-02 4.524893490849762334e-01
-9.240770566493718974e-01 -1.787522589773281878e-01 3.378301692932941247e-01
-8.131122281238383209e-01 -2.739619470143452307e-01 5.136081736728848046e-01
9.577177830915185597e-01 1.177307664237623175e-01 2.625187890181208128e-01
8.906287412257838376e-01 2.400561011328374295e-01 3.862039792797023474e-01
-8.921499733384410380e-01 -1.556866478618882388e-01 4.240637838223718092e-01
-7.388743071220065239e-01 -2.611291058539954024e-01 6.211894625240095280e-01
-7.266603465504597459e-01 -2.033580476233106948e-01 6.562089950755025658e-01
9.628980842146829255e-01 2.254671696118595858e-01 1.482964424485981314e-01
-7.059910358562216937e-01 -2.330981055563907667e-01 6.687614899773167698e-01
9.746378209350021748e-01 1.426902953490932768e-01 1.723966287844952983e-01
-7.123731014704686171e-01 -2.334776702071759968e-01 6.618253106492487658e-01
-6.326965992870673405e-01 -2.892240586386294332e-01 7.183623439150876866e-01
9.780812547693318315e-01 3.555220425290530478e-02 2.051660299406529164e-01
-5.335951582507637569e-01 -3.213767521604120048e-01 7.822999362534600598e-01
-4.707337695040217929e-01 -4.003530408030022136e-01 7.862106339705183800e-01
-5.124317636543276322e-01 -4.195092847438589012e-01 7.492834227525730917e-01
-4.426016502196263858e-01 -4.742931776675030076e-01 7.610188965071273959e-01
9.375741963906729648e-01 -2.075051062648273770e-01 2.790990095582685515e-01
-4.617013893089616516e-01 -4.314196667568601096e-01 7.750541260102897789e-01
-3.948244595262325740e-01 -5.006497211518612378e-01 7.703658240539892343e-01
-1.370069177439237340e-01 -7.217384886322889548e-01 6.784708236299398232e-01
9.016771475239986344e-01 -3.094964621344882261e-01 3.019772533804830905e-01
-1.295404155078657971e-01 -6.413276716965703450e-01 7.562526682705361658e-01
-8.840602872792199807e-02 -6.719447805425640130e-01 7.353057772016776683e-01
-3.650372699961446782e-02 -6.850547082492821627e-01 7.275764733831272535e-01
-3.650372699961446782e-02 -6.850547082492821627e-01 7.275764733831272535e-01
-3.323489770034998569e-02 -6.703621286190513118e-01 7.412894563449434759e-01
-5.799513279552962614e-02 -6.690611397207201216e-01 7.409411284897334804e-01
-5.476610960539521344e-02 -6.508703744864299257e-01 7.572109539980153015e-01
-2.060871390393104186e-01 -4.317159850441235069e-01 8.781511255928413640e-01
-3.378235039878513812e-01 -4.476593249720816625e-01 8.279350269911947002e-01
-6.431329016015542299e-01 -1.369616356368464072e-01 7.534066506484032866e-01
6.258242454413773803e-01 -7.044426084664910936e-01 3.348202879077917804e-01
-7.311559294599637715e-01 1.556574264106424521e-01 6.642151552161031924e-01
3.684455003029651898e-01 -8.618398054789898621e-01 3.485399015872279738e-01
4.021502236025839561e-01 -8.569576513872082524e-01 3.223333389293011608e-01
4.118758811518389851e-01 -8.489129438870183231e-01 3.312175602628462667e-01
-8.028605760647475886e-01 1.510183071892398921e-01 5.767220875731032814e-01
-7.965282000584873456e-01 2.265509131185156344e-01 5.605510773129892543e-01
2.092931383770590958e-01 -9.049774918275022006e-01 3.704215456933960260e-01
2.229443120594210570e-01 -9.084250823605907188e-01 3.536378139544826271e-01
2.356192597185197968e-01 -9.056498168105704405e-01 3.525364857155594001e-01
-7.919469701705112996e-01 2.260231649254961783e-01 5.672155898375936811e-01
1.993967804872113225e-01 -9.030025391959999315e-01 3.805618716278754698e-01
2.111521002560172999e-01 -9.062480712974417818e-01 3.662365681183946675e-01
-8.102323046030504017e-01 2.498600575337613094e-01 5.301825763139101921e-01
1.942213718101849507e-01 -8.720817521927965998e-01 4.491675369219279013e-01
2.013813946145004419e-01 -8.809486746078211139e-01 4.282230337217304839e-01
1.757200333958842675e-01 -8.923206802618837141e-01 4.157959516882270834e-01
1.906958808767176827e-01 -9.116351213646157747e-01 3.640830763866607089e-01
-8.213553663551362849e-01 2.678993035336915129e-01 5.035924198454371226e-01
6.701171157117541410e-02 -7.667798052257313035e-01 6.384028201772695699e-01
1.979551862868272061e-01 -8.667355708607553666e-01 4.578025714506505639e-01
-8.218569866650667910e-01 2.858867714620758615e-01 4.927675388789394262e-01
-8.250371714031111692e-01 2.761124707313460380e-01 4.930269458252611314e-01
6.482892625447299606e-01 -5.425309529959467802e-01 5.342108171036225039e-01
3.759808470109837764e-01 -7.471512434643323708e-01 5.480907060611456272e-01
-8.336169294928543749e-01 2.791092257014537448e-01 4.766349284213656778e-01
6.827038044256672489e-01 -3.123986087171612414e-01 6.605472160976095797e-01
6.617817552231772815e-01 -5.139650277524997479e-01 5.457882910993078207e-01
-8.316634600945835842e-01 2.869561851444129008e-01 4.753861976865447203e-01
8.934291263803822991e-01 -1.619561138903453379e-01 4.189923785807138090e-01
-8.363304723428754972e-01 2.981676622331606574e-01 4.600515038875044316e-01
9.327019153770568227e-01 -1.310204076067783274e-01 3.360071276662492945e-01
-8.424760718520099001e-01 3.124455204509489770e-01 4.388756829751935262e-01
-8.514504129614147709e-01 3.203160130217054258e-01 4.152467291499296054e-01
-8.481532423524511533e-01 3.413276641428642511e-01 4.051314640679002932e-01
9.566743435766311698e-01 -2.693394776278242864e-01 1.105913474616911918e-01
9.657171531305053236e-01 -2.432490398801414599e-01 9.066578597740995726e-02
-8.430979600891184145e-01 3.812637398206235040e-01 3.792410716042755037e-01
-8.455003114601965519e-01 3.782043449306186633e-01 3.769491965720478399e-01
9.592722596441846106e-01 -2.601895997596690990e-01 1.099913817262216792e-01
-8.370535050067202665e-01 4.013530989005684724e-01 3.718294229332519407e-01
9.571263104024958501e-01 -2.681471949117428255e-01 1.095732987377355666e-01
-8.269985002018590547e-01 4.231009963430646947e-01 3.702148397314478645e-01
9.613610189276752260e-01 -1.991607449986585454e-01 1.900525951885983500e-01
9.530076287929859502e-01 -1.322367418018912388e-01 2.725617426932666065e-01
-5.914364034495358524e-01 -4.495622640332919140e-01 6.694002923751518619e-01
-5.861537944441166381e-01 -4.605390890071284216e-01 6.665789351271526053e-01
-8.201721363145485499e-01 4.597772840161852836e-01 3.404739577646573867e-01
9.571425436639262596e-01 -1.015083780160237203e-01 2.712456456813734373e-01
9.261544759569037000e-01 1.245153665275514215e-01 3.559969243736559874e-01
8.362545510938010906e-01 1.698151072045430698e-01 5.213838846186318321e-01
8.015470795100358981e-01 2.586104491660349836e-01 5.391130817473027692e-01
7.797338421668361663e-01 3.018453593502834487e-01 5.485476409742745529e-01
7.644684904524480240e-01 3.257511088412180511e-01 5.563040015981119968e-01
7.628944997417942409e-01 3.271857683959843999e-01 5.576212471049205588e-01
7.620048267912210571e-01 3.299777981844391195e-01 5.571923336265771631e-01
7.842033973857877038e-01 3.075729680639939234e-01 5.389099190448194410e-01
7.879259591568763543e-01 3.049224113206800424e-01 5.349719674535279301e-01
8.497699215776427506e-01 2.348897927063323676e-01 4.719299372410094562e-01
8.626461454272877916e-01 2.279087346782416035e-01 4.515520307083176754e-01
9.036809071290048401e-01 8.154801054863239362e-02 4.203697658800633619e-01
9.290862528229135719e-01 2.163286145807525457e-02 3.692299474861335806e-01
9.227798865236769288e-01 9.244409858598345506e-03 3.852165909118094311e-01
9.284265604752302004e-01 -1.385923900108216970e-02 3.712573814733448052e-01
9.308428056694599828e-01 -7.781824653394058162e-03 3.653369873671039603e-01
9.341588224356944803e-01 -1.712555472712687377e-02 3.564463632032807694e-01
9.369797793656922114e-01 -4.124151309321094291e-03 3.493592483902444590e-01
9.358794977778662760e-01 2.450715892627546022e-02 3.514668758224751000e-01
9.230912542700898671e-01 1.317519142621622896e-01 3.613086898738089858e-01
9.157646510878865165e-01 1.935788798806166999e-01 3.519976151652837726e-01
8.706462043702859477e-01 3.371784113387185644e-01 3.581702189500297062e-01
8.396187854662440220e-01 4.175828234001571770e-01 3.473685084939949208e-01
7.774464794311964910e-01 5.235687018623891298e-01 3.485007690811754433e-01
6.869640215514273285e-01 6.430392977910378560e-01 3.384979979118032389e-01
6.646349024249736948e-01 6.662007248490900979e-01 3.382854426207146936e-01
8.097195507343085685e-01 3.046289801179110149e-02 -5.860258193999244858e-01
8.659095331932401551e-01 -1.196536570796343651e-01 -4.856785795899734581e-01
7.713768326665432218e-01 -3.560259579533897045e-01 -5.274687661736029431e-01
7.066510989428883560e-01 -5.713228463875241747e-01 -4.174139786332815016e-01
1.740361520788621594e-02 9.956158623721611534e-01 9.190304005109788121e-02
6.007383012255235188e-02 9.935615107301679627e-01 9.605550129999260167e-02
8.939458433706920504e-02 9.843085436249523479e-01 1.521357921007669700e-01
2.414981917717901050e-01 9.456000231974216463e-01 2.179890352746933213e-01
3.139743519535450611e-01 9.230701094691303732e-01 2.221748845391824101e-01
6.899153654620351350e-01 -6.634801923535753598e-01 -2.895009893831953507e-01
7.292508359682663421e-01 -5.795775536720759735e-01 -3.637074064671718121e-01
5.739012340635155640e-01 -8.090231312421091170e-01 -1.269604137343085526e-01
5.579244874383832986e-01 -8.218882544196407514e-01 -1.149781003654746503e-01
5.425270580975637413e-01 -8.296150821028021038e-01 -1.319212142893005923e-01
6.270662046434479775e-01 -7.378209935921239415e-01 -2.498162452859948590e-01
4.772891628532978103e-01 8.292901006965881505e-01 2.906423642716953193e-01
5.389020672667232947e-01 7.934570171603214650e-01 2.828613155146834646e-01
5.619327672299341270e-01 7.811428508405411364e-01 2.721165406476071524e-01
5.586693412810930237e-01 7.868846015849537689e-01 2.621091202172071144e-01
6.071441054759848521e-01 7.559760369460553076e-01 2.446962744896264141e-01
6.013491812184319496e-01 7.638803239821113644e-01 2.342349523041044879e-01
6.232127300723326879e-01 7.481511819050961076e-01 2.277623807607337403e-01
6.376343782120914572e-01 7.386321045161394760e-01 2.187350312596001156e-01
6.855420516634065375e-01 6.934524479733854552e-01 2.217110682867373117e-01
8.941966876531303177e-01 3.955880435295378583e-01 2.095766771533572048e-01
9.564758853082852008e-01 -1.652281682051528477e-01 2.405276143300428549e-01
8.796614338972756908e-01 -4.353816633986338225e-01 1.914120395639410943e-01
8.506224926662048214e-01 -5.089012762616270669e-01 1.321395701128905975e-01
8.506249821261500088e-01 -5.125309140341711700e-01 1.172569910162460094e-01
8.552509693490171205e-01 -5.088751939242442957e-01 9.793781923306976722e-02
8.789722023820235597e-01 -4.648145800851410381e-01 1.065611260261871279e-01
8.704676916445107659e-01 -4.898969219645934459e-01 4.782262699490599789e-02
8.865306489795510281e-01 -4.620922391263530549e-01 2.311213878223682822e-02
8.969195369590252653e-01 -4.418612970130463280e-01 -1.714463248821851415e-02
8.934624140101887768e-01 -4.477612436180944955e-01 -3.513948583379552376e-02
8.942947998388977027e-01 -4.461020139557700936e-01 -3.506856321139970728e-02
8.894743542989543839e-01 -4.542625754345275269e-01 -4.980848927691104711e-02
8.867108755727690639e-01 -4.588059913351110186e-01 -5.692877528964659928e-02
8.654411840242854925e-01 -4.958480913589076722e-01 -7.173720994275825658e-02
8.456702420422383959e-01 -5.264912408777336905e-01 -8.745750398476929977e-02
-7.385455213958737053e-01 -1.569046739256578227e-01 6.556915708825149514e-01
9.728403267796632559e-01 -9.767808845885622704e-02 -2.098587373121784949e-01
4.940229220299826585e-01 7.798855830555162516e-01 3.843433749280907308e-01
2.813570544022778175e-01 9.596017560781290312e-01 -1.636358715115898005e-03
-5.861262074536989219e-01 5.924639999621209574e-01 5.526685061452545344e-01
-1.755129777235741040e-01 8.955265528228782967e-01 4.089344542096894908e-01
1.477155084392713646e-01 9.583165927838652731e-01 2.445596789367600055e-01
2.268906077046725922e-01 9.435363101087298476e-01 2.413708425676290015e-01
3.132916938000145923e-01 9.234615912746159117e-01 2.215107311993531336e-01
3.372020009946025687e-01 9.155926356326677951e-01 2.190546418144586616e-01
-6.915876675827798969e-01 4.142393404526139578e-01 5.917028535242951914e-01
3.252263729926877511e-01 9.089511973125975475e-01 2.608362076361651627e-01
2.967106899607589998e-01 9.247635576196502338e-01 2.382753217638332588e-01
1.887673808162290412e-01 9.501841801558439382e-01 2.480260061391697524e-01
8.661878214741321191e-02 9.874065864629502087e-01 1.323836077045931203e-01
-3.760838758679465460e-03 9.905879156073104097e-01 1.368263042861112277e-01
2.612870471725340423e-03 9.978998002053396377e-01 6.472373334443273785e-02
2.992190553710505699e-02 9.995279843921145435e-01 6.963331534937338904e-03
1.676484858674553158e-01 9.822084964756283565e-01 -8.461946961211198881e-02
2.529824217924642182e-01 9.606917696568434417e-01 -1.143294274350312029e-01
-7.862439772638911695e-01 3.746262404117610134e-01 4.914016567037672312e-01
-2.940914545991630269e-01 7.573768675842061926e-01 5.830012836864805204e-01
-3.098182251330196535e-01 7.198819517638257448e-01 6.211140337330420813e-01
-2.913643934317332596e-01 7.775023328543317902e-01 5.573122218704968933e-01
-6.584327290416459588e-01 5.552664549501220570e-01 5.080802154521414371e-01
-6.584327290416459588e-01 5.552664549501220570e-01 5.080802154521414371e-01
6.499862633743109797e-01 7.355392632796637908e-01 -1.910493381268573709e-01
1.625947631494691348e-01 4.841075465234117581e-01 8.597690541043278012e-01
-3.539420431828837477e-01 7.755444592451367081e-01 5.227387701344660131e-01
4.013360992199371813e-03 4.541246626884560822e-01 8.909291125963064717e-01
-2.900199924698651510e-01 7.913762473500344230e-01 5.381561475054953414e-01
5.411120111193342547e-02 8.198117387508835341e-01 5.700707771149797765e-01
-6.011750284738855837e-02 8.120195947534017966e-01 5.805256786636703303e-01
6.580180747294851473e-01 5.044764190327470921e-01 5.590310867645892356e-01
4.158309389152264335e-01 6.450915929852676367e-01 6.410471643339599179e-01
2.065168064246489243e-01 6.142776222077782622e-01 7.615863782388193615e-01
-2.521093402557558760e-02 8.078108375976057465e-01 5.889024193068090884e-01
1.329431313131386183e-01 8.038493892577157629e-01 5.797864117299188491e-01
-2.248488399620821379e-02 7.753710952451292604e-01 6.311054544606993222e-01
1.532224676782777406e-01 3.240530493914861587e-01 9.335483364982545273e-01
4.783671817632895173e-02 7.980893510498885401e-01 6.006371917679476091e-01
4.783671817632895173e-02 7.980893510498885401e-01 6.006371917679476091e-01
-1.271695514659939019e-01 7.978911012378987477e-01 5.892348392154956871e-01
-2.175255993054155401e-01 7.927245413219798920e-01 5.694474648575374998e-01
8.036668350221177759e-01 5.488925814816281168e-01 -2.298620287911123661e-01
1.378499077863479527e-01 5.007253278073034997e-01 8.545592717977870123e-01
1.510435430606079932e-01 -4.077719439489640441e-01 9.005042419821137623e-01
6.914257321523650801e-02 -4.071459303773326543e-01 9.107422774563348478e-01
8.115055227479398559e-01 5.268659862922776549e-01 -2.527271632370735599e-01
2.114938994316389043e-01 -4.008339005426090895e-01 8.914047984383961509e-01
1.396345818839167530e-01 -3.958952079907958610e-01 9.076173025190894528e-01
1.695782187990320378e-02 -3.582327769269345041e-01 9.334782856672707574e-01
6.662349936610946211e-01 -2.174586289730095698e-02 7.454247451408175795e-01
7.097287195741213139e-01 -6.576083972586770354e-01 -2.526585452078601857e-01
-5.805897150988302557e-02 -3.022133516670647002e-01 9.514705701709190722e-01
6.508978200294209815e-01 2.811203471015035205e-01 7.051974038001540546e-01
6.544933412838543907e-01 2.871697853256856559e-01 6.994083075079218226e-01
7.502442541840299572e-01 -6.164945764898287495e-01 -2.388890877007056324e-01
2.710346749008575307e-01 -3.109065433163323289e-01 9.109760295004891706e-01
1.179727972799635149e-01 -2.811178805927307400e-01 9.523944331593879875e-01
7.168034036845810641e-01 -6.490512476166580003e-01 -2.548045494755918905e-01
-1.869003615504266913e-01 -1.811472644907807517e-01 9.655329737610346408e-01
7.900834981271093183e-01 -5.740013218651117688e-01 -2.151523843333709995e-01
7.938984438077019146e-01 -5.701283398742910125e-01 -2.113739269443940527e-01
-8.334596098164446243e-01 -4.633395138320376555e-02 5.506344011718108389e-01
-7.716194352755224584e-01 -2.443962431562041529e-02 6.356147826068827555e-01
2.783321033644477471e-01 9.459661839844720754e-01 -1.663707275772339234e-01
3.290980017247620015e-01 9.153726691067759491e-01 -2.319210682820889713e-01
2.873483371535086595e-01 9.515405295807259911e-01 -1.095516029108888484e-01
-8.382145184892813017e-01 1.122065777579548188e-02 5.452251991909955464e-01
-7.795370836425439265e-01 -3.122193015860507889e-02 6.255774342983039249e-01
4.410863959253020217e-01 8.885775141679006506e-01 -1.259872717571977607e-01
-7.805959814490854853e-01 3.918233102358061742e-02 6.238065875582731179e-01
5.605615139079657139e-01 8.068068251502883426e-01 -1.866374453750416773e-01
4.662034414370637703e-01 8.839353300165391225e-01 3.623097488048414999e-02
-7.015266570238964938e-01 1.880769805598877242e-01 6.873771882077203133e-01
7.002384608122121934e-01 7.131929398705852963e-01 3.196761670965810737e-02
5.319680671626684232e-01 7.999137512304138609e-01 2.777552269745828806e-01
7.005237150570619020e-01 7.036416532001594781e-01 1.189745709149591241e-01
8.112410810026421393e-01 5.137430425489146746e-01 2.792060076829450121e-01
-6.397850742458368600e-01 2.770900874167262495e-01 7.168654980033842827e-01
7.769063968488701954e-01 5.943810956921432576e-01 2.076717689507004139e-01
-5.722097600292819219e-01 3.346256405729696182e-01 7.487333779112304022e-01
6.894248454240138324e-01 6.117912093109797445e-01 3.878207043491664341e-01
-6.022100619822073897e-01 3.732524065442321404e-01 7.057093468676215453e-01
6.323622900962210247e-01 5.464920529340261401e-01 5.490577111235362961e-01
-5.727417960368756944e-01 4.164877219014327947e-01 7.060487324383556418e-01
-5.956466579491561664e-01 4.093298267469743235e-01 6.911252793881096368e-01
6.525536772851966427e-01 3.899147767719401969e-01 6.497231449751927901e-01
2.486410752315124095e-01 4.900011018278302433e-01 8.355097461521497904e-01
-5.620611280493712503e-01 4.077943037886830324e-01 7.195770244618511224e-01
3.378969568132812462e-01 3.838117644249767757e-01 8.593684751405009647e-01
-5.991819333714808460e-01 3.333666007204904025e-01 7.279063952496086509e-01
5.358010083699200898e-02 2.627952199555996793e-01 9.633627796229132789e-01
7.284286461096230181e-02 3.423618366811553293e-01 9.367402467384300380e-01
3.903740433642764046e-02 3.436963173976959607e-01 9.382691098346661596e-01
3.449667146647312360e-02 3.324369650575447199e-01 9.424943734161296272e-01
-5.684289757248437436e-01 3.192188315126670561e-01 7.582795244262451329e-01
-6.130194998557081387e-01 2.948457403120679499e-01 7.329891419499241501e-01
2.912048228868810082e-02 3.158322327304685651e-01 9.483680710988542373e-01
5.284209920697920115e-02 3.039447354421238590e-01 9.512230602484450515e-01
-4.482266742009552996e-01 4.178397524821453324e-01 7.902548891214847826e-01
-5.516823258358033444e-01 3.782133212558932978e-01 7.433715726236678201e-01
6.163211039447252099e-02 2.388363075420112946e-01 9.691020076173720854e-01
6.163211039447252099e-02 2.388363075420112946e-01 9.691020076173720854e-01
5.000693447940356834e-02 2.421446728449553054e-01 9.689505993170044462e-01
-3.768508906536414127e-01 4.273045570186589370e-01 8.218237169640730810e-01
-4.975085314448176033e-01 3.955281957933314829e-01 7.720380220378353364e-01
6.072188783532683071e-02 1.898572669401418778e-01 9.799321764937274359e-01
7.186602488652371612e-02 1.873977349440590634e-01 9.796516541122389787e-01
6.928596766215655567e-02 1.899136338470898133e-01 9.793529835376578729e-01
9.515199579322779211e-02 1.864462537133772524e-01 9.778465586035534063e-01
-2.975865220638404529e-01 5.446109196231332383e-01 7.841181085226845981e-01
2.884401539052398183e-02 1.140446535160845598e-01 9.930568159881625334e-01
1.425055467744999471e-01 1.335226803578228594e-01 9.807465844796827703e-01
1.922334159262375219e-01 3.198352462830067466e-02 9.808278992533201457e-01
-2.790481207378009976e-01 5.468880510435324416e-01 7.893323798872743380e-01
-1.840123964571541426e-01 -1.977557649014030638e-01 9.628250596023952834e-01
-7.167023368146493989e-02 3.528459756393974994e-02 9.968040804384755704e-01
3.560732633361091484e-04 8.049942841105885150e-02 9.967545912797812768e-01
1.584965793244892951e-01 6.939284951380833566e-02 9.849180000278144886e-01
2.775655066202750709e-01 8.345702978661442839e-02 9.570748736195230366e-01
5.649585500765934576e-01 -1.241658274013104392e-02 8.250258572726133499e-01
-3.795507548982166024e-01 4.987610906343175610e-01 7.792166572433241178e-01
-1.782429401616956177e-01 -2.635594395668942602e-01 9.480326345109111319e-01
-2.335380883652623807e-01 -2.145282459177063339e-01 9.483868372063011254e-01
-1.711101590300762310e-01 -1.913448834746200311e-01 9.664928603175432231e-01
-1.997477876027967669e-01 -2.177889697814079928e-01 9.553370012667472544e-01
