-5.917856206403667718e-01 4.202844435837029269e-01 6.878595537497701473e-01
-4.176833881759201561e-01 9.036913630370374539e-01 9.424705626249021972e-02
-2.811362691908325107e-01 -9.586987156356755468e-01 4.311810274079685978e-02
6.336531687981732386e-01 -7.732350046376051944e-01 -2.431644042857283514e-02
-3.575969764915962190e-01 -5.678187167358934584e-01 7.414218147104063572e-01
3.448817106160120272e-01 8.708803420702185827e-01 3.501771487093818802e-01
7.726644642422518805e-01 -7.193701826235494867e-02 6.307255275480417867e-01
7.726644642422518805e-01 -7.193701826235494867e-02 6.307255275480417867e-01
7.726644642422518805e-01 -7.193701826235494867e-02 6.307255275480417867e-01
3.391973604979135470e-01 2.327924803172248536e-01 -9.114564233900613877e-01
-1.911067558058151816e-01 -1.108906006424388996e-01 -9.752853339277359757e-01
-1.911067558058151816e-01 -1.108906006424388996e-01 -9.752853339277359757e-01
-1.911067558058151816e-01 -1.108906006424388996e-01 -9.752853339277359757e-01
-5.858157278146493008e-01 8.572228546686415374e-02 8.058980225930140184e-01
4.582284639553343419e-01 7.707332924796708173e-01 4.427153336903760228e-01
-2.517471623751273424e-01 9.008108034867329250e-01 -3.537842033749635795e-01
-6.410051417063991064e-01 -3.275870247220176359e-03 7.675295935532926439e-01
-5.145119841882437317e-01 -5.144457070705942270e-01 -6.860197027806946846e-01
-3.161150216813958247e-01 -5.966510183364267528e-01 7.376170113178488474e-01
-3.161150216813958247e-01 -5.966510183364267528e-01 7.376170113178488474e-01
-1.646377344232695938e-01 -1.129915235600343903e-01 -9.798608738017634545e-01
-6.226000612861459782e-01 4.239026039884661312e-01 6.577809255506614772e-01
-6.226000612861459782e-01 4.239026039884661312e-01 6.577809255506614772e-01
1.749254824287266030e-01 8.402336485028129021e-01 5.132333694536325153e-01
1.749254824287266030e-01 8.402336485028129021e-01 5.132333694536325153e-01
-3.038326049521848371e-01 6.430341898873974671e-01 7.029884627814512177e-01
-6.815072392190917316e-01 -6.347078449558390956e-01 3.642716492447443666e-01
2.510610021724041796e-01 9.526605373349917860e-01 -1.714825757702298781e-01
8.781962357817890696e-01 4.320925017376765487e-01 2.051034894895076288e-01
8.781962357817890696e-01 4.320925017376765487e-01 2.051034894895076288e-01
8.781962357817890696e-01 4.320925017376765487e-01 2.051034894895076288e-01
7.867280386100082845e-01 -4.051980366485816720e-01 4.656968373963731311e-01
-9.278447071408320312e-02 -7.524498743833254455e-01 6.520814585117609141e-01
-9.278447071408320312e-02 -7.524498743833254455e-01 6.520814585117609141e-01
-4.086439602182894149e-01 8.458390118565710658e-01 -3.428796870603630920e-01
9.392384331069423276e-01 -2.126164689333853719e-01 -2.694910071099121396e-01
9.392384331069423276e-01 -2.126164689333853719e-01 -2.694910071099121396e-01
9.335178925206233380e-02 -7.692301287902971740e-01 6.321158536255053750e-01
2.260839114133686711e-01 -9.195338014148176642e-01 3.214710765460039310e-01
-2.842263508586840293e-01 -7.769097338519486140e-01 5.618065920970050087e-01
9.487945333695189110e-01 -1.491780367078714975e-01 2.784507978298892961e-01
9.487945333695189110e-01 -1.491780367078714975e-01 2.784507978298892961e-01
-4.995464626314647383e-01 -8.642606933731661334e-01 5.921811853246012475e-02
8.800814486152928884e-02 -6.369773247919592318e-01 7.658423167590772129e-01
8.800814486152928884e-02 -6.369773247919592318e-01 7.658423167590772129e-01
1.688270967996177707e-01 9.297143302919341767e-01 3.273051717220989976e-01
1.688270967996177707e-01 9.297143302919341767e-01 3.273051717220989976e-01
1.688270967996177707e-01 9.297143302919341767e-01 3.273051717220989976e-01
1.688270967996177707e-01 9.297143302919341767e-01 3.273051717220989976e-01
1.195217561261892152e-02 9.995542186355066416e-01 2.735890177048296359e-02
1.195217561261892152e-02 9.995542186355066416e-01 2.735890177048296359e-02
2.036788946173482273e-01 -8.525134987889292359e-01 4.813892835015268767e-01
2.036788946173482273e-01 -8.525134987889292359e-01 4.813892835015268767e-01
-1.199454829586145688e-01 9.921186790730086580e-01 -3.624372707453161341e-02
9.209151818930997324e-01 3.596084379022635447e-01 1.503229827680812591e-01
9.209151818930997324e-01 3.596084379022635447e-01 1.503229827680812591e-01
-2.389552451929531918e-01 -5.805642235606952584e-01 7.783608244998861947e-01
3.867831714321416647e-02 -5.668826066892657112e-01 8.228900886607836140e-01
-6.596987494084990966e-02 -9.363174586706207725e-01 3.449022936845724252e-01
6.754611535295017566e-01 -6.471537760008362339e-01 -3.534744973551197655e-01
6.360162527582812197e-01 -6.906445950751294305e-01 3.442286587732413805e-01
2.731646464091451454e-02 9.779121280420621787e-01 2.072237452314945050e-01
4.483859546507923399e-01 -7.142705488584738527e-01 5.373710251821474104e-01
-3.918320476966969390e-01 4.071984606541987906e-01 -8.250194300976578798e-01
-6.474492890980411142e-01 -3.771332737997185568e-04 7.621084409826037742e-01
-6.474492890980411142e-01 -3.771332737997185568e-04 7.621084409826037742e-01
-4.019525605737120366e-01 7.232062675034072186e-01 5.616109273260507795e-01
-7.553090892244016530e-01 -5.678757735684717423e-01 3.271471924516769492e-01
-1.880643136391675352e-01 7.869960367756611008e-01 5.875959938893651202e-01
-1.235966456354055942e-01 8.335843543676627609e-01 5.383874008008757706e-01
-1.235966456354055942e-01 8.335843543676627609e-01 5.383874008008757706e-01
-3.125973224761861013e-01 8.838624712715980047e-01 -3.479512118938269949e-01
-2.918530815575494097e-01 -8.869321635546594251e-01 3.580127316697175877e-01
8.711764627499613001e-01 2.878905031672634451e-01 3.977067122095943597e-01
1.742179139874498461e-01 9.768518470143332522e-01 1.241313313815133879e-01
-0.000000000000000000e+00 9.821732740498441139e-01 1.879778171546040433e-01
-6.118655018955965197e-01 -2.318910939315695363e-01 7.562057445862665483e-01
-3.880775077928984573e-01 -4.045209846028634537e-01 8.281054407267124384e-01
-2.116915405831256702e-01 -7.853295042009464932e-01 5.817596251692261911e-01
-2.218231827083171348e-01 -8.386573280094486993e-01 4.974418174914573276e-01
-2.218231827083171348e-01 -8.386573280094486993e-01 4.974418174914573276e-01
1.032006338437022192e-01 -9.446900288540648338e-01 3.113043182449679591e-01
-2.826139548702407134e-01 -8.316138435704756304e-01 4.780666979559883845e-01
1.880610985933589769e-03 -6.541419576653580981e-01 7.563694616548533034e-01
1.794507411554584764e-01 -9.122510867083534203e-01 3.682327881900052113e-01
8.402457039962905050e-01 -3.361268935157132320e-01 4.254478444783268420e-01
6.221848385557966488e-01 4.262530999409325227e-01 6.566538825454723005e-01
-3.260283082275746702e-01 -8.727818167152663342e-01 3.632594701387215075e-01
-3.260283082275746702e-01 -8.727818167152663342e-01 3.632594701387215075e-01
-5.352446130080624753e-01 -2.052222997390070192e-01 8.193881936760394336e-01
-5.352446130080624753e-01 -2.052222997390070192e-01 8.193881936760394336e-01
1.526431050180410975e-01 -7.077148240156316827e-01 6.898114310150090800e-01
1.526431050180410975e-01 -7.077148240156316827e-01 6.898114310150090800e-01
-5.678815317965203446e-01 -2.463905934149815125e-01 7.853675835690259177e-01
-7.958983556704091189e-01 3.631206150646440478e-02 6.043403359285971499e-01
-7.958983556704091189e-01 3.631206150646440478e-02 6.043403359285971499e-01
9.930930836154399088e-01 9.189513991668495085e-02 -7.294799884074891494e-02
9.930930836154399088e-01 9.189513991668495085e-02 -7.294799884074891494e-02
-1.080984522242710300e-01 8.586257184808377962e-01 5.010754436110215204e-01
-2.406813765605491373e-01 -6.881821818311457672e-01 6.844543517189755066e-01
7.891684555374585130e-01 -4.690875483731870021e-01 3.964467438961448709e-01
4.407324350202896923e-01 7.325250105239448084e-01 5.188082783437258927e-01
8.093705957286666530e-01 -5.147457044343947130e-01 -2.827650942675953849e-01
8.093705957286666530e-01 -5.147457044343947130e-01 -2.827650942675953849e-01
9.559705213246787459e-01 -3.501808924571193915e-02 2.913659139017492072e-01
-1.183110191908247483e-01 -8.779586127029256337e-01 4.638870305567751040e-01
2.963907957554366424e-01 6.392310884892034029e-01 7.096027844508271398e-01
2.963907957554366424e-01 6.392310884892034029e-01 7.096027844508271398e-01
1.786052338935570083e-01 7.725369346070597443e-01 6.093331232534100472e-01
2.924192238801172627e-01 9.349732039753712032e-01 2.007887082317592053e-01
2.924192238801172627e-01 9.349732039753712032e-01 2.007887082317592053e-01
2.924192238801172627e-01 9.349732039753712032e-01 2.007887082317592053e-01
2.924192238801172627e-01 9.349732039753712032e-01 2.007887082317592053e-01
-2.852617308747371419e-02 -1.537747753411218554e-01 -9.876940700023317810e-01
-3.598039571465516673e-01 5.304589620777201420e-01 7.675639399900897608e-01
4.952465193871507521e-01 -7.573349937751621130e-01 4.256460880103187239e-01
4.491931717133975099e-01 7.608266373026530971e-01 4.683677214078647566e-01
-3.476708056970475580e-01 -8.870807291853782806e-01 3.036655903685883673e-01
-3.476708056970475580e-01 -8.870807291853782806e-01 3.036655903685883673e-01
-3.733370077377573537e-01 8.897221789340337139e-01 -2.627050113079172911e-01
8.745522457526061499e-01 -1.802770335265456714e-01 4.501761440058125174e-01
5.285633139395052860e-01 3.603571891075220135e-01 7.686114229022450450e-01
-1.989606182108555332e-01 9.797952681095667415e-01 -2.039374882791529509e-02
-3.988583844543847623e-01 -8.582265961833459578e-01 3.230465891384494137e-01
-2.482796569187796509e-01 -9.513156414654024839e-01 -1.826355996610813381e-01
-2.482796569187796509e-01 -9.513156414654024839e-01 -1.826355996610813381e-01
-1.359687450907350326e-01 9.379922292489838442e-01 3.188778421699638432e-01
4.467107933704519973e-02 -6.014558524099253844e-01 7.976561616841642000e-01
4.467107933704519973e-02 -6.014558524099253844e-01 7.976561616841642000e-01
7.672771694418399901e-01 4.398435005856599633e-01 4.667155881753580204e-01
5.270585322263356132e-02 9.568963626753410612e-01 2.856071500063965818e-01
9.972194472225702766e-01 -7.435027630044073466e-02 5.040882379055477112e-03
9.972194472225702766e-01 -7.435027630044073466e-02 5.040882379055477112e-03
1.716313223209939287e-02 7.404835455192274596e-01 6.718553011677871334e-01
4.610071108840123055e-01 -4.033188535464619223e-02 -8.864794316497792703e-01
5.893275798923052200e-01 1.203482196094268347e-01 -7.988800345578300766e-01
-5.420616880136667204e-01 8.368854608039841825e-01 -7.610421724633403828e-02
-2.419489636291291268e-01 7.858434730810347491e-01 5.691315619562204997e-01
-1.679390956555433523e-01 -9.835117864277855837e-01 6.708968704669884819e-02
-2.646664218495556886e-01 -7.163752177505952057e-01 6.455681470907161934e-01
-2.646664218495556886e-01 -7.163752177505952057e-01 6.455681470907161934e-01
-7.543395604082968608e-01 -5.656712025465620020e-01 3.331484927364129489e-01
7.801865934194789354e-01 -4.392502260740618336e-01 4.453853593714037218e-01
4.615127781807262797e-01 4.152765277207981498e-01 7.839332631672577545e-01
2.981845304411461228e-01 -9.544642035788786227e-01 9.168963525392436614e-03
-7.880761714746203905e-01 -1.498423648740240532e-01 5.970621522445253015e-01
-8.588636794977315692e-01 5.103464911259109060e-01 4.358484868722730526e-02
4.882239664929741152e-01 -4.357250879743900795e-01 -7.561620238094328705e-01
4.882239664929741152e-01 -4.357250879743900795e-01 -7.561620238094328705e-01
7.420879115271897808e-01 3.667777708282868865e-01 5.610522242995265030e-01
2.692168502010783837e-01 -6.059549921184389509e-01 -7.485591727409081075e-01
6.276220380999248949e-01 -6.451073860914674496e-01 -4.358061928214545522e-01
-2.822054269032073792e-01 9.059672655571516797e-01 -3.155683931658490038e-01
7.031185519420369845e-01 -6.093741999327672021e-01 3.664524339818648890e-01
2.220782462548580860e-01 -8.639447677309657347e-01 4.519742148072767307e-01
-8.226444233499629055e-01 -3.471464960634392805e-01 4.502726540687136958e-01
5.848432520611056978e-02 -8.583790399762314394e-01 5.096714701007593051e-01
1.109106600772733348e-01 9.283507894328132393e-01 3.547726557116485102e-01
1.109106600772733348e-01 9.283507894328132393e-01 3.547726557116485102e-01
9.688325041576693886e-02 -9.690559485455493283e-01 2.270334873479271653e-01
2.446476738701756359e-01 -8.670498159242546743e-01 4.340185852882665341e-01
4.964562896302909256e-01 4.667156107592697056e-01 -7.319205497594166721e-01
4.964562896302909256e-01 4.667156107592697056e-01 -7.319205497594166721e-01
-2.233127594254104287e-01 -9.549350299403878140e-01 1.955262132568400812e-01
7.256587908450544688e-01 -6.434713167791045185e-01 2.436472527073900718e-01
7.256587908450544688e-01 -6.434713167791045185e-01 2.436472527073900718e-01
7.256587908450544688e-01 -6.434713167791045185e-01 2.436472527073900718e-01
-5.218604366420470653e-01 2.210571166390036535e-01 8.238904270902909222e-01
-5.218604366420470653e-01 2.210571166390036535e-01 8.238904270902909222e-01
-6.508965472172075772e-01 -7.209896565756414022e-01 2.377132725189231854e-01
2.515366943985201109e-01 9.220637209628079756e-01 2.941560569753523535e-01
4.512899739522132081e-01 -8.505787487584681728e-01 2.699132297066767494e-01
3.534121561585042981e-01 -7.769556690887878814e-01 5.209987870909017493e-01
-2.817219796762908679e-01 9.592521579120946162e-01 -2.163385560322854395e-02
-2.817219796762908679e-01 9.592521579120946162e-01 -2.163385560322854395e-02
-5.698000674805701049e-01 8.191034034123886309e-01 6.631363070575696517e-02
3.935824132162780709e-01 6.124021252301259377e-01 6.856066809917156224e-01
-5.009440461887889606e-01 8.471157739686689947e-01 -1.773412757410617602e-01
-5.009440461887889606e-01 8.471157739686689947e-01 -1.773412757410617602e-01
9.876498239993275474e-01 -1.455382645576942247e-01 5.802101949838618655e-02
3.029308634467136052e-01 9.020039543963479511e-01 3.076064989963303575e-01
3.029308634467136052e-01 9.020039543963479511e-01 3.076064989963303575e-01
9.675951405386331583e-01 -2.433390652438437440e-01 -6.742212791268945016e-02
9.675951405386331583e-01 -2.433390652438437440e-01 -6.742212791268945016e-02
-6.166406591905509993e-01 -7.407772501575444757e-01 2.664645625258070250e-01
-6.166406591905509993e-01 -7.407772501575444757e-01 2.664645625258070250e-01
-3.082495030210143372e-01 9.481197632855209445e-01 7.778919176020113180e-02
2.615304834685120983e-01 -7.461872829199737156e-01 6.122142966521064711e-01
-7.955098908014844872e-01 4.010672669161769593e-02 6.046118292847849629e-01
-2.936827579495974172e-01 9.519529070308238028e-01 8.681071638157254744e-02
6.274675908756868203e-01 -7.785683947434655083e-01 1.075532924856001035e-02
6.274675908756868203e-01 -7.785683947434655083e-01 1.075532924856001035e-02
-5.865279964461566076e-01 7.262787694265142591e-01 3.584746273659620841e-01
-5.865279964461566076e-01 7.262787694265142591e-01 3.584746273659620841e-01
-3.082779749324074947e-01 7.346946807981196148e-01 6.043082129001086100e-01
-5.808106218458649606e-01 6.161685294153931292e-01 5.319730866398144631e-01
7.545443638822220134e-01 -5.559657646873213954e-01 -3.486615428022064589e-01
8.347380409741125273e-01 5.172132205866181165e-01 1.889520769960450763e-01
8.347380409741125273e-01 5.172132205866181165e-01 1.889520769960450763e-01
-1.217017016252967682e-01 7.734125753978442486e-01 6.221106686418269582e-01
-4.558871176576638207e-01 8.522215563132015115e-01 -2.566814268872839588e-01
-8.749811766387086687e-01 4.651689311500936119e-01 1.342602175650726148e-01
8.954926040822248565e-03 -9.383804629640840611e-01 3.454879390469579592e-01
2.129511177641423697e-02 8.808800681947857036e-01 -4.728602580801005151e-01
-7.036687995013750641e-01 3.943361918052776804e-01 5.910576862209008242e-01
6.236380147116324935e-01 -6.156683760768543179e-01 4.816929284361798902e-01
6.635843211116145834e-01 -7.333023191460571466e-01 1.480660579263585186e-01
-5.798523276585867275e-02 8.897477894167226120e-01 4.527544411810274227e-01
-5.798523276585867275e-02 8.897477894167226120e-01 4.527544411810274227e-01
-5.676177512558836652e-02 9.403274393341234383e-01 3.355032156625662454e-01
-5.676177512558836652e-02 9.403274393341234383e-01 3.355032156625662454e-01
-5.676177512558836652e-02 9.403274393341234383e-01 3.355032156625662454e-01
-5.676177512558836652e-02 9.403274393341234383e-01 3.355032156625662454e-01
2.211033965549929481e-01 -8.974267168526545158e-01 3.817572211640679614e-01
-5.382221354956816528e-01 -7.355280521603654309e-01 4.114795466941788549e-01
-3.543425384555282109e-01 8.294127991073044770e-01 4.318747203968748560e-01
-2.931607742396623029e-01 7.988079559858517475e-01 5.253214348386207044e-01
9.184102172359170924e-01 1.571241470407193017e-02 -3.953173319003895347e-01
-9.237128204258597819e-01 8.807550981228805254e-02 3.728234568159690676e-01
5.281391605769460984e-01 -5.329927815093133958e-01 6.610504685151084026e-01
-1.012973102780383994e-01 -6.507786966128509265e-01 7.524798621659677389e-01
6.659577780855558959e-01 4.373233478163300325e-01 -6.043579463050573475e-01
6.659577780855558959e-01 4.373233478163300325e-01 -6.043579463050573475e-01
1.750642658184238809e-01 9.831540644479102031e-01 -5.254130178260438960e-02
1.750642658184238809e-01 9.831540644479102031e-01 -5.254130178260438960e-02
-6.796703369644609971e-01 3.436224946292514293e-01 6.480523236864335068e-01
9.113199100179091294e-01 3.838114842269814697e-01 1.489455141332955423e-01
-3.913139339469149380e-01 -9.189609936416963665e-01 4.882721847551275973e-02
-3.913139339469149380e-01 -9.189609936416963665e-01 4.882721847551275973e-02
8.230419815428255959e-01 -5.619296326373878214e-01 8.268606038546966186e-02
-7.786775243540809688e-02 -9.694132947100467801e-01 2.327541131109607531e-01
8.274962987626177657e-01 -5.028074567611602319e-01 2.498690396178415984e-01
-5.627230713381332627e-01 8.061099959984536767e-01 1.831104020397293086e-01
-5.627230713381332627e-01 8.061099959984536767e-01 1.831104020397293086e-01
-4.763400565909581275e-01 8.213063929680153308e-01 -3.139362345394218212e-01
3.272584521960199000e-01 -4.337670863303629831e-01 -8.394927160391165710e-01
2.238805202315280185e-01 -9.690575644985325310e-01 1.039468582932295132e-01
-5.359634109509547883e-01 -1.886262356117228978e-01 8.228993652693924465e-01
-8.312469385630554264e-01 -8.148242567607286158e-02 5.498992102517434866e-01
3.725003891977501924e-01 -4.082451208901972106e-01 -8.334142915242531702e-01
3.725003891977501924e-01 -4.082451208901972106e-01 -8.334142915242531702e-01
-2.797106205540798585e-01 8.115162992803106601e-01 5.130333953571061256e-01
7.322031347446416039e-01 3.661090678001638898e-01 5.743193536218462736e-01
-1.210015353457277315e-01 9.899745691385521962e-01 7.286275387956885063e-02
-1.207823952479299690e-01 9.919835545396090692e-01 -3.715158840662279721e-02
2.269039666256894017e-01 8.168793651437095127e-01 -5.303043397257261038e-01
6.033812177818963507e-01 7.944003893673602379e-01 6.970744150391856853e-02
-5.105226242262367320e-01 -8.524526441201606408e-01 1.126549585491166128e-01
-5.105226242262367320e-01 -8.524526441201606408e-01 1.126549585491166128e-01
2.476182447993663382e-01 -7.278190531047017409e-01 6.395034251513095347e-01
2.476182447993663382e-01 -7.278190531047017409e-01 6.395034251513095347e-01
6.102254531711609475e-01 -7.921476543556520422e-01 1.126898402207341179e-02
-3.127990774325416501e-01 -5.863565972075686084e-01 7.472233120483542379e-01
4.001871756349003051e-01 -8.636209344361066576e-01 3.066090443236588192e-01
9.791051750826486044e-01 2.029067493267969757e-01 -1.348729787645256209e-02
-6.591737660843017821e-01 -6.977835917833196122e-01 2.803355224444588623e-01
6.046443753774338736e-01 -7.405335904543561831e-01 2.932834477654895911e-01
-7.271621428945876930e-01 3.339504164689265364e-01 5.997602331608703485e-01
-7.271621428945876930e-01 3.339504164689265364e-01 5.997602331608703485e-01
-8.713895835870426321e-02 -7.110398098304753223e-01 6.977314603573507856e-01
-3.296112039250336800e-01 -9.233768591714072160e-01 1.968035319648432369e-01
2.694011500685947191e-01 5.448432251506611923e-01 -7.940836733928891000e-01
2.694011500685947191e-01 5.448432251506611923e-01 -7.940836733928891000e-01
-4.704075626520172193e-01 -8.652636321656224094e-01 1.733077374249142877e-01
-4.231216228000243135e-02 9.834014971570698149e-01 1.764402910687470349e-01
6.059592479208135776e-03 -6.827831486249713588e-01 7.305959576214176021e-01
6.059592479208135776e-03 -6.827831486249713588e-01 7.305959576214176021e-01
-8.612123760933863004e-01 1.778971116511099959e-01 4.760943823757806670e-01
-2.582872452390965745e-01 9.491546945448668948e-01 -1.799807344418825616e-01
-2.582872452390965745e-01 9.491546945448668948e-01 -1.799807344418825616e-01
-2.059733905162849377e-01 7.458833991841175015e-01 6.334294887521203510e-01
1.844698140235992989e-01 9.722461375083844004e-01 1.439039117401834655e-01
-4.430560931259962532e-01 8.605817671112030443e-01 -2.511977716057361976e-01
-8.479322309617119968e-01 1.576568410931985520e-01 5.061178243776917052e-01
-5.417996617990850083e-01 8.351485223173448214e-01 9.476324258673499146e-02
-5.417996617990850083e-01 8.351485223173448214e-01 9.476324258673499146e-02
1.691576289211217388e-01 3.330903039040470359e-01 -9.275971895294281566e-01
1.691576289211217388e-01 3.330903039040470359e-01 -9.275971895294281566e-01
-3.074829646686427220e-01 -9.504282635084804198e-01 4.626383428593517505e-02
-3.074829646686427220e-01 -9.504282635084804198e-01 4.626383428593517505e-02
9.983085200940872150e-01 5.776956878692419278e-02 -6.540308075802735502e-03
-9.991230147136016537e-01 -3.860687949337922309e-02 -1.620834122876387701e-02
-4.559264421621168073e-01 8.607133094831346254e-01 -2.265031527727235927e-01
-3.568921281205038043e-01 -5.541293927639743266e-01 7.520429674963039490e-01
-3.568921281205038043e-01 -5.541293927639743266e-01 7.520429674963039490e-01
-5.306038987863791467e-01 -4.269703979024610518e-01 7.322265919151720315e-01
-2.086324951046959475e-01 -9.283531304297341080e-01 3.076246856279614694e-01
-2.086324951046959475e-01 -9.283531304297341080e-01 3.076246856279614694e-01
-9.057327734963853405e-02 -9.706841172583426935e-01 2.226405756652128920e-01
3.202145986037685521e-01 9.456313583990206828e-01 -5.695563934721753485e-02
8.168891076595993783e-02 9.840373758794939141e-01 -1.581055493335726814e-01
1.859700354297135760e-01 -6.791943382905185622e-01 7.100071807780365951e-01
-7.336181797001158078e-02 -8.576432495818588908e-01 5.089853633561618462e-01
-9.975396398869039449e-03 -9.882488481496816135e-01 1.525277207510593036e-01
7.364800682971246459e-01 -5.850914233440787093e-01 -3.395071948136927364e-01
-8.320071957369702398e-01 -1.259740377473326511e-01 5.402726793532469651e-01
-2.251436648794005457e-01 9.515761529749101610e-01 2.093159221228584055e-01
9.825939573440534147e-01 3.739419596037864973e-02 -1.819637026976247129e-01
-5.003781938829373610e-01 -8.329413151613924704e-01 2.362846346753411098e-01
7.358837483379722100e-01 -6.269224755065779808e-01 -2.558189176678689059e-01
-2.413295954517383213e-01 -9.652578447424713382e-01 1.001864238418523068e-01
1.457290096224153342e-01 -6.616877433006392861e-01 7.354810576215932150e-01
1.457290096224153342e-01 -6.616877433006392861e-01 7.354810576215932150e-01
8.798001621820379370e-01 -4.729699858042448191e-01 4.744541234716235373e-02
-8.505659694011364902e-01 -2.376795031881735465e-01 4.690905940870357393e-01
9.608722897708097399e-01 -7.941339473819211681e-02 2.653638172147007590e-01
9.608722897708097399e-01 -7.941339473819211681e-02 2.653638172147007590e-01
-9.526279352437960757e-01 -2.338483163665596998e-01 1.944607464905641347e-01
-1.241130842582055110e-01 9.575625342105233972e-01 2.601344563725379033e-01
-1.241130842582055110e-01 9.575625342105233972e-01 2.601344563725379033e-01
8.123042574064077703e-01 -1.089977748645002825e-01 5.729583566665312766e-01
8.123042574064077703e-01 -1.089977748645002825e-01 5.729583566665312766e-01
-7.375605540770503454e-01 -5.981439872011380388e-01 3.134137834312318849e-01
-9.429360715176030583e-01 -3.313747788045800502e-01 -3.259326622425651881e-02
-4.202092042050130094e-01 7.991602085830513680e-01 4.298455370466042202e-01
-6.418526503076432688e-01 -7.560158926891208386e-01 1.283165823053507848e-01
7.303173750252164309e-01 3.911018328162518820e-01 5.600677531371055506e-01
-1.075127681769822985e-01 -9.924757095520242434e-01 5.859155765234661667e-02
-1.864658746259443556e-01 -9.821807697898030654e-01 -2.348218590956336477e-02
-4.150736568748740751e-01 9.026492730612112325e-01 1.137459854701960565e-01
9.761167146498803127e-02 -9.419578475303986842e-01 3.212279176374767675e-01
3.012442595948126578e-01 9.500341404538404921e-01 -8.177425042949290623e-02
-3.092915407637641390e-01 -9.509073593105809019e-01 -1.067411921212984248e-02
1.157267222507266102e-01 9.893464693114815134e-01 -8.832264385767103765e-02
-5.769312594379257669e-02 -6.356024711046598386e-01 7.698577803363968464e-01
-5.858598607333852515e-01 -3.772922853929455700e-01 7.172299177839881468e-01
-6.286445100289869137e-01 -7.020731262524387839e-01 3.345136849286471370e-01
-2.468398853013552552e-01 -9.556325247123620414e-01 1.607375150246220241e-01
-3.006958697383609325e-01 -8.959172752793693739e-01 3.269774147831641664e-01
9.163097243338453879e-01 3.697716628761217317e-01 1.537706292666455865e-01
9.163097243338453879e-01 3.697716628761217317e-01 1.537706292666455865e-01
-4.523361904051565602e-02 -6.641510594638558862e-01 7.462287115365739965e-01
-1.591366773107693033e-01 -9.863848633503167207e-01 4.147793736271367798e-02
5.013896510921148630e-01 -5.810145947698344138e-01 6.411165716483800958e-01
9.759413757393200495e-01 -2.130428718367398389e-01 -4.638066277661038322e-02
1.682534712518649334e-01 -7.136276938638296263e-01 6.800193261682273560e-01
-7.067496523619027915e-01 -6.584382736357209387e-01 2.587739722188869274e-01
9.494825661397312544e-01 -1.433975251661774308e-01 2.791415525731099079e-01
9.494825661397312544e-01 -1.433975251661774308e-01 2.791415525731099079e-01
-8.214616046210895250e-01 -5.025059864644817464e-01 2.696081706860958271e-01
1.165720251267584467e-01 9.864404097693751927e-01 1.155261049801019207e-01
8.783546705441011015e-01 2.956955486306958591e-01 3.755758448747143485e-01
-3.765497226068348913e-01 -6.749330355237566081e-01 6.345673360356670623e-01
-3.765497226068348913e-01 -6.749330355237566081e-01 6.345673360356670623e-01
-8.604233449792113575e-01 5.012533635788226638e-01 9.174275402287430936e-02
4.137396127895742737e-01 4.614378149210642266e-01 7.847895741978271333e-01
4.137396127895742737e-01 4.614378149210642266e-01 7.847895741978271333e-01
-2.986190697163311758e-01 9.516164068820895938e-01 -7.247665385884005662e-02
7.567544012854638957e-01 -6.385007739099095581e-01 -1.401411354725145275e-01
-1.996228098388595218e-01 9.798688225497086401e-01 2.797210590196082172e-03
-1.996228098388595218e-01 9.798688225497086401e-01 2.797210590196082172e-03
-1.996228098388595218e-01 9.798688225497086401e-01 2.797210590196082172e-03
-5.374901136202827612e-01 7.990251879468045493e-01 -2.695609889932688019e-01
-3.143476954355124420e-01 9.489244132952106003e-01 -2.698118282660578321e-02
-3.358009197315938166e-01 9.366648683082844373e-01 -9.948199226211733304e-02
-3.358009197315938166e-01 9.366648683082844373e-01 -9.948199226211733304e-02
3.213845989461763253e-01 7.737538827424785826e-01 5.459092126912166165e-01
-9.237818251595938390e-01 -2.844764466116296853e-01 2.563206796730025938e-01
-2.270177272478654806e-01 -9.289261446868570804e-01 -2.925049900983331952e-01
4.237549397752719549e-01 9.038281060150812340e-01 5.938439014797481513e-02
4.237549397752719549e-01 9.038281060150812340e-01 5.938439014797481513e-02
5.359545808406849243e-01 -8.304920996355763529e-01 -1.517747005227740587e-01
-8.515659942215835221e-01 3.734026044133555433e-01 3.679753422482668901e-01
-8.515659942215835221e-01 3.734026044133555433e-01 3.679753422482668901e-01
-8.575624113025165363e-01 -1.227953705088311587e-01 4.995077654077182960e-01
-6.614950046672106732e-01 7.483860371034293246e-01 4.840142837718012375e-02
-8.998260628557384067e-01 3.557476112064021923e-01 2.525008786647667813e-01
-4.342016491927909172e-01 8.229143666629741283e-01 -3.664435467816793968e-01
8.535841297629513658e-02 8.015768570998907383e-02 9.931206808619921222e-01
-9.413648224064162795e-01 -2.586396478200768678e-01 2.166513413557436818e-01
-9.413648224064162795e-01 -2.586396478200768678e-01 2.166513413557436818e-01
6.691624141194502107e-01 7.205732880989241806e-01 -1.816474607808600539e-01
9.991055719083941078e-01 8.770861212501106577e-03 4.136578507887396505e-02
9.991055719083941078e-01 8.770861212501106577e-03 4.136578507887396505e-02
2.593405527599387805e-01 7.449806145395635459e-01 6.146107399439288965e-01
-2.727389564859253757e-03 9.960970720370960763e-01 8.822235785381019046e-02
-1.782467382077039808e-01 9.047819391237493791e-01 -3.867786743782315462e-01
-1.782467382077039808e-01 9.047819391237493791e-01 -3.867786743782315462e-01
1.027965826264854721e-01 -9.925805334722086481e-01 -6.493648567902070290e-02
-1.889739668052998756e-01 9.691083635195341106e-01 1.584860234416904934e-01
-1.889739668052998756e-01 9.691083635195341106e-01 1.584860234416904934e-01
-5.367423585660088259e-01 -8.409519315223915603e-01 6.861114625013167712e-02
-5.367423585660088259e-01 -8.409519315223915603e-01 6.861114625013167712e-02
4.630462231497981668e-02 -6.698694500894117887e-01 7.410336036841893570e-01
-8.298572573610227820e-01 1.964887286214951900e-01 5.222347287666243565e-01
-3.859924944880220588e-02 -6.486286864192940538e-01 7.601255982375347831e-01
-2.143435036138291172e-01 8.594454005673839436e-01 4.641233304867551368e-01
-2.143435036138291172e-01 8.594454005673839436e-01 4.641233304867551368e-01
9.485824853092271747e-01 -3.101569864166580648e-01 6.319740771192267070e-02
9.277259918467266608e-01 -3.336323527104614883e-01 -1.673736457059160909e-01
9.277259918467266608e-01 -3.336323527104614883e-01 -1.673736457059160909e-01
1.664822691059036908e-01 -9.282789978542853593e-01 3.325383530000607935e-01
9.522039228028628122e-01 -2.473295607464312817e-01 -1.792645469127041036e-01
9.522039228028628122e-01 -2.473295607464312817e-01 -1.792645469127041036e-01
9.974603260100870505e-01 4.487978448951599614e-02 5.530554203717117506e-02
-3.796283896248033307e-01 -9.232165781908142632e-01 5.961069991639710020e-02
4.969497267115200456e-01 -8.554684692364827869e-01 1.456525566666597438e-01
9.112287629829292079e-01 2.642049449058321287e-01 3.160029882768626286e-01
9.442025802080138419e-01 -3.259496785175896583e-01 4.731061828816891107e-02
2.302367498374054966e-01 -8.094258353131645878e-01 -5.402044577304911943e-01
-2.989108911336009200e-01 -6.557245748269932006e-01 6.933091382130163183e-01
-2.875310032000541471e-01 9.054640223507325336e-01 3.121871656990439781e-01
5.925556518106670501e-01 -7.937789330227891238e-01 1.370868520188500139e-01
9.088829956027368873e-01 2.065631569435119330e-01 3.623028601843011898e-01
3.215206642869118947e-01 7.525140258905630430e-01 5.747582998743732130e-01
6.584339879332672396e-01 -7.505300223753942346e-01 -5.629714955026211137e-02
4.331134774835029844e-01 4.585236962879722378e-01 7.759953192929467392e-01
4.331134774835029844e-01 4.585236962879722378e-01 7.759953192929467392e-01
4.331134774835029844e-01 4.585236962879722378e-01 7.759953192929467392e-01
2.754874009573704541e-01 6.820858759572103747e-01 6.773961542062651997e-01
9.902780143782113909e-01 -1.106821072756068586e-01 -8.425512072377581985e-02
7.044772044975322611e-01 -5.943926318888844706e-01 -3.878263367791660032e-01
-3.127670138793730570e-01 9.190502711359107568e-01 2.398403513881446902e-01
2.812042167181467711e-01 -9.311553895193919184e-01 2.321073653913701962e-01
2.129814653886331344e-01 8.448078331251543949e-01 4.908549892700407313e-01
2.129814653886331344e-01 8.448078331251543949e-01 4.908549892700407313e-01
-2.209558547177857546e-01 -9.138106078839309809e-01 3.407765883753359759e-01
-2.209558547177857546e-01 -9.138106078839309809e-01 3.407765883753359759e-01
6.857258592881783077e-01 -7.244959532179418016e-01 -6.989749404889572526e-02
2.244823541550403090e-01 9.139514642033985670e-01 3.380834124198862645e-01
2.244823541550403090e-01 9.139514642033985670e-01 3.380834124198862645e-01
-7.909237444796145544e-01 -2.886761004947032694e-01 5.395421572236200891e-01
2.749606390319849214e-01 -8.867930416335443322e-01 -3.714764437934785501e-01
2.749606390319849214e-01 -8.867930416335443322e-01 -3.714764437934785501e-01
8.442710434450115820e-01 4.947699056846734944e-01 2.059348091728321339e-01
-8.657722775059566445e-01 -3.695100730930204191e-01 3.374917323208668773e-01
-4.840552906177131298e-02 -6.997902638564515998e-01 7.127064552590833824e-01
5.620929697945225012e-01 3.304269347800164458e-01 -7.582015128443471141e-01
5.620929697945225012e-01 3.304269347800164458e-01 -7.582015128443471141e-01
5.620929697945225012e-01 3.304269347800164458e-01 -7.582015128443471141e-01
-6.077463130634683242e-02 2.060950984329666669e-02 9.979387217127094756e-01
-7.055091965761413064e-01 -6.592141268558914247e-01 2.601797618957176761e-01
-7.413243862820041441e-01 -5.866431835545592444e-01 3.260182962543382024e-01
8.832358762319872381e-02 7.144300819437126027e-01 6.941099350126515022e-01
4.782966104045425215e-01 6.222403398004505704e-01 6.197171225652435833e-01
4.782966104045425215e-01 6.222403398004505704e-01 6.197171225652435833e-01
2.648347716542099328e-01 8.011509522456682353e-01 5.366746644278276301e-01
2.648347716542099328e-01 8.011509522456682353e-01 5.366746644278276301e-01
-4.823150696269553062e-01 -8.740915383116212301e-01 5.775946903122222698e-02
8.660145710587221490e-01 4.372849339969271942e-01 2.424884517111701998e-01
-1.515354199538931608e-03 -9.224252488633292169e-01 3.861727126054805281e-01
7.324129675141107798e-01 -5.905437161510017630e-01 -3.388648171937284070e-01
6.410829196595481116e-01 -7.094562324598556735e-01 -2.927192244193343451e-01
5.018048177049126979e-01 -8.562037003901598053e-01 -1.229111401230038869e-01
1.820339861663524128e-01 -6.943788018670814521e-01 6.962052193125420896e-01
8.731036633925844948e-01 -4.763078729772690645e-01 -1.040230893134701240e-01
2.559309337462887801e-01 -8.739338641434759580e-01 4.132057093688386029e-01
2.559309337462887801e-01 -8.739338641434759580e-01 4.132057093688386029e-01
2.559309337462887801e-01 -8.739338641434759580e-01 4.132057093688386029e-01
-7.820863782595753877e-01 5.888913159215947157e-01 2.038330566246620568e-01
-7.820863782595753877e-01 5.888913159215947157e-01 2.038330566246620568e-01
-7.643243682915015422e-03 -9.932697923430788833e-01 -1.155711921057340913e-01
-1.685507274229447738e-01 1.040398225725836347e-03 9.856924316726431989e-01
-9.461800983633606998e-01 -3.176954370646830061e-01 -6.174812328630799318e-02
-9.461800983633606998e-01 -3.176954370646830061e-01 -6.174812328630799318e-02
-9.461800983633606998e-01 -3.176954370646830061e-01 -6.174812328630799318e-02
5.451982251976936755e-01 -6.992764749535224089e-01 4.623540924636231342e-01
9.298101031433105845e-01 -2.506171591770725016e-01 -2.695259015728174723e-01
9.298101031433105845e-01 -2.506171591770725016e-01 -2.695259015728174723e-01
-7.449783171055468500e-01 3.482023953015678241e-01 5.690012293034506508e-01
-7.449783171055468500e-01 3.482023953015678241e-01 5.690012293034506508e-01
-9.481564336784719105e-01 1.529131187946504156e-01 2.785981970053189039e-01
-9.481564336784719105e-01 1.529131187946504156e-01 2.785981970053189039e-01
-6.196985412030100310e-02 7.021854386393145964e-01 -7.092921449890883245e-01
-6.196985412030100310e-02 7.021854386393145964e-01 -7.092921449890883245e-01
2.709110726378573530e-01 6.701198844363506213e-01 6.910474160325162929e-01
7.416425575337459719e-01 6.265333793562269382e-02 -6.678629171471710535e-01
-4.968134790924348954e-01 8.505401265045943182e-01 -1.725046671763384720e-01
7.789333090466787901e-01 4.079048898838819603e-01 4.763155475799728533e-01
9.640413379571679542e-01 -2.563279686897346199e-01 -7.014464467903384903e-02
9.640413379571679542e-01 -2.563279686897346199e-01 -7.014464467903384903e-02
9.640413379571679542e-01 -2.563279686897346199e-01 -7.014464467903384903e-02
-3.679033368137761828e-01 5.672784847024537891e-01 -7.367782947094581036e-01
9.619084676338908457e-02 8.919279943720231918e-01 4.418277649202711488e-01
1.585146493874118323e-01 -7.935820746089080613e-01 5.874526336556908923e-01
8.154557487536212568e-02 -9.272932845935413226e-01 3.653457041843632958e-01
8.154557487536212568e-02 -9.272932845935413226e-01 3.653457041843632958e-01
8.154557487536212568e-02 -9.272932845935413226e-01 3.653457041843632958e-01
-9.493028190620569351e-01 3.132982241953766178e-01 2.585305469098573769e-02
-3.817859744720628612e-01 3.436762041550642244e-01 8.579779346778003690e-01
-9.463544848450284874e-01 -3.008642722869802055e-01 1.178722981659669627e-01
-9.463544848450284874e-01 -3.008642722869802055e-01 1.178722981659669627e-01
2.726529204068626755e-01 -8.850594166152011555e-01 -3.772667677577349332e-01
-1.867340998179349565e-01 -6.326674867918821166e-01 7.515731681756802063e-01
-4.152680432811963612e-02 9.179024685014549600e-01 3.946271440755560467e-01
-4.152680432811963612e-02 9.179024685014549600e-01 3.946271440755560467e-01
-2.994465239876743512e-01 1.933757108205143849e-01 9.343113045106326009e-01
8.334512789782497766e-01 5.473552234721069665e-01 -7.590273320058527062e-02
-2.426794894347371889e-01 9.457635229354095507e-01 2.159583850942082273e-01
-2.426794894347371889e-01 9.457635229354095507e-01 2.159583850942082273e-01
-2.426794894347371889e-01 9.457635229354095507e-01 2.159583850942082273e-01
-5.147932787587909953e-01 -8.289407751966669791e-01 -2.187351626079414857e-01
-1.611784600417315028e-01 -6.238420735791754268e-01 7.647500057214846603e-01
-9.117636836099056730e-01 -4.107011561660839916e-01 3.397877857946203766e-03
-9.117636836099056730e-01 -4.107011561660839916e-01 3.397877857946203766e-03
7.679122680570670267e-01 6.300050143189147578e-01 -1.157775042936892013e-01
-2.976670657406193521e-01 9.508479711696972148e-01 -8.533729369883148730e-02
-9.870253699349146315e-01 -1.530906441569468146e-01 4.841666837418630298e-02
-2.442965529377452098e-03 -9.950054293089164448e-01 -9.979091925220974491e-02
-2.442965529377452098e-03 -9.950054293089164448e-01 -9.979091925220974491e-02
-2.141505703600670996e-01 9.535425387590551471e-01 2.118871397498996723e-01
-9.765764512149880394e-01 5.277962340738482500e-02 2.085970907882342684e-01
-6.959707855993116921e-01 -7.176023415714066767e-01 2.591418460054032216e-02
-1.257539305901168858e-01 9.230819961439695742e-01 3.634633094770371442e-01
-8.989868546499597546e-01 2.164783682077841831e-01 3.807358024466140356e-01
1.415236328412736166e-01 -9.878261438116483495e-01 -6.457995780129499597e-02
2.989174120696623804e-01 -9.290172602676524116e-01 -2.181176537705298568e-01
-9.005507721328656068e-01 -3.557080236717778399e-01 2.499602142470228883e-01
-9.005507721328656068e-01 -3.557080236717778399e-01 2.499602142470228883e-01
-8.967613278818782341e-01 4.400521419546212995e-03 4.424926623422886229e-01
-8.967613278818782341e-01 4.400521419546212995e-03 4.424926623422886229e-01
8.578529789560425112e-01 -1.054342240541180642e-01 -5.029631108683316754e-01
4.340753950136924111e-01 -8.328246814358767347e-01 -3.434844995555653147e-01
8.822095525494972890e-01 4.040612008122118071e-01 2.417454268204663748e-01
8.015120337273857754e-01 5.941828452093277368e-01 -6.726965325567078879e-02
9.128710909674264684e-01 4.068020429182083730e-01 -3.432883851097656008e-02
9.265320486932204780e-01 -2.993506068122647745e-01 -2.278762316378623032e-01
9.265320486932204780e-01 -2.993506068122647745e-01 -2.278762316378623032e-01
9.265320486932204780e-01 -2.993506068122647745e-01 -2.278762316378623032e-01
9.579367371815499244e-01 2.200290858422645768e-01 -1.842400850558405800e-01
9.579367371815499244e-01 2.200290858422645768e-01 -1.842400850558405800e-01
-2.365495849257048255e-01 -9.654108423628317004e-01 -1.096640292883885315e-01
3.732945151921276961e-01 7.097041990708395920e-01 5.974706308670681976e-01
-4.034732660793733383e-01 9.143324391376490556e-01 -3.472051698693735117e-02
-1.991467065129884639e-01 9.751920885708940112e-01 -9.664874377749217704e-02
-1.991467065129884639e-01 9.751920885708940112e-01 -9.664874377749217704e-02
-1.991467065129884639e-01 9.751920885708940112e-01 -9.664874377749217704e-02
-1.991467065129884639e-01 9.751920885708940112e-01 -9.664874377749217704e-02
-1.991467065129884639e-01 9.751920885708940112e-01 -9.664874377749217704e-02
3.561882211388034958e-01 -9.326618614786518213e-01 5.719967889027627317e-02
-7.762578122692601612e-01 5.940149178022477994e-01 2.111162862484346758e-01
-8.016190422608607813e-01 -5.505855420870560124e-01 2.329430658540474486e-01
5.534266084978106681e-01 -8.323978264025345686e-01 -2.885909920539876314e-02
2.003884833793081743e-01 8.472111792925401952e-01 4.920138955463391195e-01
2.003884833793081743e-01 8.472111792925401952e-01 4.920138955463391195e-01
-4.951447941349624848e-01 -8.609581287754967116e-01 1.165449841753856547e-01
-4.951447941349624848e-01 -8.609581287754967116e-01 1.165449841753856547e-01
8.660891389781495420e-01 4.615280001393883280e-01 -1.920455894610035574e-01
5.861748391198100538e-01 3.083783333511495584e-01 -7.492008152040626756e-01
5.861748391198100538e-01 3.083783333511495584e-01 -7.492008152040626756e-01
-9.874952443631938026e-01 -1.889491562530623558e-02 1.565123781800940583e-01
-9.874952443631938026e-01 -1.889491562530623558e-02 1.565123781800940583e-01
4.888657845840349569e-02 1.231134523146764914e-01 -9.911877623870223308e-01
4.888657845840349569e-02 1.231134523146764914e-01 -9.911877623870223308e-01
3.123987890525458111e-01 3.505511247919833040e-01 -8.829048111238143592e-01
3.123987890525458111e-01 3.505511247919833040e-01 -8.829048111238143592e-01
-6.318309246204316387e-02 -6.721257370350092186e-01 7.377363285362045220e-01
6.351245051168190603e-01 6.987993981423733514e-01 -3.290839773613606911e-01
6.995141181573002465e-01 -6.677727810213094362e-01 -2.544789017299489142e-01
6.995141181573002465e-01 -6.677727810213094362e-01 -2.544789017299489142e-01
1.634959917102129373e-02 9.318784099976700208e-01 3.624021517419031557e-01
-2.800031635691654225e-02 -8.555434496532374755e-01 5.169732952864694031e-01
-2.800031635691654225e-02 -8.555434496532374755e-01 5.169732952864694031e-01
-6.083046418181948384e-02 8.999684223671662320e-01 -4.316902748144531565e-01
-1.565026451923662298e-01 9.045635357394781195e-01 3.965750015549216467e-01
-7.311965706033612955e-02 6.761736207923175757e-01 7.331048699169757654e-01
9.224936430470527249e-01 -3.492194053509073970e-01 -1.644727499135811566e-01
9.224936430470527249e-01 -3.492194053509073970e-01 -1.644727499135811566e-01
-8.550394829280564268e-01 4.459287788991488366e-01 2.646790637425559534e-01
8.082270838173323257e-01 5.888539939527919209e-01 -4.467078460945603062e-03
-3.879019575134964870e-01 -8.774279613718299897e-01 2.822272913098095581e-01
-3.879019575134964870e-01 -8.774279613718299897e-01 2.822272913098095581e-01
-3.879019575134964870e-01 -8.774279613718299897e-01 2.822272913098095581e-01
-4.785198001671407964e-01 8.652491410238444258e-01 -1.495417159373906013e-01
7.662945318795257865e-01 -6.179712398358374603e-01 -1.757960100437331585e-01
-8.283340144472171040e-01 5.156348979385938502e-01 2.190511642005432968e-01
2.584462924189679378e-01 -9.497534039504131886e-01 -1.765615632562550774e-01
7.748955654699821172e-02 8.309641920709173180e-01 5.509027864533608820e-01
-5.107707633250584411e-01 -8.595987765944766990e-01 1.425379281511060525e-02
-5.727285341460861545e-01 7.122318024624428867e-01 4.058421931440535091e-01
-3.132243160036253249e-01 9.049254859998969724e-01 2.880978872742931962e-01
-3.462185131599974652e-01 9.319291919148809944e-01 -1.078921795226952529e-01
-3.462185131599974652e-01 9.319291919148809944e-01 -1.078921795226952529e-01
5.034597098389149705e-01 -8.365322248149225093e-01 -2.161993464724435154e-01
5.034597098389149705e-01 -8.365322248149225093e-01 -2.161993464724435154e-01
7.944371260976842430e-01 -5.074062869594361258e-01 -3.337791375021667006e-01
-3.929887113001332560e-02 9.835305908841700528e-01 1.764176168157303992e-01
-3.929887113001332560e-02 9.835305908841700528e-01 1.764176168157303992e-01
-8.566071070058260961e-01 -5.154730822479597352e-01 2.262223916630416373e-02
-2.145014504078715800e-01 8.223091185907132061e-01 5.270643615873529253e-01
-6.283144234711161846e-02 6.947438344031305890e-01 -7.165076513278955117e-01
-9.965465011143167517e-01 -7.424725166905574159e-02 3.718086519172571908e-02
-9.965465011143167517e-01 -7.424725166905574159e-02 3.718086519172571908e-02
-5.194947570175576512e-01 8.539564205546776865e-01 -2.972590157944855760e-02
-5.194947570175576512e-01 8.539564205546776865e-01 -2.972590157944855760e-02
-2.071606385461926547e-01 9.761947738330262192e-01 -6.425132977783841459e-02
-9.922672129059810775e-01 -5.086244696701777007e-02 1.132200939777192744e-01
-9.922672129059810775e-01 -5.086244696701777007e-02 1.132200939777192744e-01
-2.490407042434897300e-01 -9.681212064987958499e-01 2.683388077081758777e-02
-2.490407042434897300e-01 -9.681212064987958499e-01 2.683388077081758777e-02
5.446230078632501026e-02 3.769974390819773036e-01 -9.246116961831548631e-01
9.804830798392972779e-01 -1.385310522741348138e-01 -1.395065507589775267e-01
9.804830798392972779e-01 -1.385310522741348138e-01 -1.395065507589775267e-01
-3.234035156283691648e-01 -9.443140811278892821e-01 6.067192318363695547e-02
-3.234035156283691648e-01 -9.443140811278892821e-01 6.067192318363695547e-02
8.424150551198574810e-01 -4.758448379790046201e-01 -2.528014340864039311e-01
8.424150551198574810e-01 -4.758448379790046201e-01 -2.528014340864039311e-01
-3.614426585462684333e-02 6.894980824505926309e-01 7.233850885543507969e-01
6.076458523707052306e-01 2.947823108947839055e-01 -7.374753604563409892e-01
5.943259914603683525e-01 3.124910218936401973e-01 -7.410303483060047824e-01
-3.686787472488399220e-01 -9.277321550715559306e-01 5.821537402879422424e-02
-3.686787472488399220e-01 -9.277321550715559306e-01 5.821537402879422424e-02
-1.671192459931540308e-01 6.982532091109469041e-01 -6.960701211695153878e-01
-2.816943396820301149e-01 9.594351026300503849e-01 -1.151446187929032472e-02
-1.833570661107292721e-01 -3.750046873530154534e-01 -9.087087931623269998e-01
8.085720459836425178e-01 -9.695591951458036595e-02 -5.803540265432027834e-01
-1.334408302223295262e-01 -9.227296902408080870e-01 3.616123111533645074e-01
1.424850403943957733e-01 9.856081974046710936e-01 9.096424832054668397e-02
-4.914290537354616961e-01 -8.696913977096013548e-01 4.619911140475278788e-02
-1.520797632898604757e-01 9.868101658207510951e-01 5.547469901244862084e-02
7.493036925438077700e-02 -7.441533478764841281e-01 6.637930661039044278e-01
7.493036925438077700e-02 -7.441533478764841281e-01 6.637930661039044278e-01
3.506282074355415723e-01 -7.607553916851902409e-01 -5.461786284471883413e-01
3.506282074355415723e-01 -7.607553916851902409e-01 -5.461786284471883413e-01
-7.379742171249096261e-01 -6.747987225538361056e-01 6.382703078450463995e-03
-7.379742171249096261e-01 -6.747987225538361056e-01 6.382703078450463995e-03
5.221165606193829412e-01 8.392712130934023573e-01 1.517172633542899773e-01
-2.102573347454564645e-01 9.742945475841860992e-01 8.088255518628900687e-02
-2.102573347454564645e-01 9.742945475841860992e-01 8.088255518628900687e-02
-1.346016672618940424e-01 8.681538630666736367e-01 4.776936897350954059e-01
-5.806940309833419356e-01 1.390493703240978929e-01 8.021594074701045018e-01
-3.938234234280252877e-01 9.167971384970103887e-01 -6.622777365368469338e-02
-3.938234234280252877e-01 9.167971384970103887e-01 -6.622777365368469338e-02
-8.214469067824945459e-01 -5.604779609381894678e-01 -1.053063846119548924e-01
-8.214469067824945459e-01 -5.604779609381894678e-01 -1.053063846119548924e-01
-9.782597792957078431e-01 -2.049942784989921551e-01 3.138709918088331691e-02
-9.782597792957078431e-01 -2.049942784989921551e-01 3.138709918088331691e-02
-9.782597792957078431e-01 -2.049942784989921551e-01 3.138709918088331691e-02
