5.153538247206737033e-01 6.390141981295481832e-01 5.710265229694885258e-01
4.080050943741650449e-01 6.818671543667945700e-01 6.071153323384763656e-01
3.320078508931363359e-01 6.068402431338167924e-01 7.221604435709637615e-01
3.889697398961725616e-01 5.928137408498163063e-01 7.051768644139927433e-01
3.855404078925279143e-01 8.739496218875261180e-01 -2.959233892153738110e-01
3.855404078925279143e-01 8.739496218875261180e-01 -2.959233892153738110e-01
3.905800018704593812e-01 8.785613200556112723e-01 -2.749132027404534995e-01
4.537154896208032695e-01 8.860624281648946665e-01 -9.505591971405871754e-02
5.681937854876899507e-01 8.201196743027718838e-01 6.752438044650375948e-02
4.776788177252878076e-01 8.613740942383648624e-01 1.727935672170924641e-01
5.392696059066502956e-01 7.508835491527918737e-01 3.812639345086196729e-01
5.961294250930787575e-01 6.831663817232099811e-01 4.217978229216136077e-01
6.538075252813101423e-01 6.871767960068270176e-01 3.167392790850555029e-01
4.165192274343392231e-01 7.092867650111449596e-01 5.687038052954506151e-01
3.923246087750745792e-01 6.310203391180383425e-01 6.692493802528627356e-01
3.952045145080833044e-01 6.240151837196247220e-01 6.741056610055972120e-01
3.568952383173800147e-01 3.996226223115789122e-01 8.443503707603838837e-01
3.898111153662413564e-01 9.032072760048701632e-01 -1.796215769577505506e-01
4.077992346621244213e-01 9.108381398490467129e-01 -6.382528656664337996e-02
4.477211111692975254e-01 8.941700684965190327e-01 -2.386465641863120754e-03
4.011578315221487889e-01 9.125847723418559765e-01 7.912918234261191730e-02
6.574249688779782996e-01 5.966217039542803802e-01 4.602553124804538154e-01
5.800415256815153464e-01 5.821755574777793818e-01 5.697573595492178011e-01
4.215433480205700301e-01 6.720046779166580775e-01 6.088603440837130343e-01
4.050279127628432785e-01 5.378702777992829809e-01 7.393564459332837568e-01
4.592328441961854302e-01 8.880656924025471799e-01 -2.108366166173606879e-02
4.590041476090746531e-01 8.727947593129716797e-01 1.659653596190442670e-01
5.682250003736077915e-01 7.204050344915490234e-01 3.976643499606716259e-01
5.091908629514789730e-01 7.142067856670150094e-01 4.802429930711311634e-01
5.715348214881167399e-01 5.768312029805484631e-01 5.836212051447069449e-01
5.821053992088085494e-01 5.697938305774200574e-01 5.800761112542593967e-01
2.559543402516107902e-01 5.563628492350781718e-01 7.905363721533552601e-01
3.039703508199079196e-01 4.607050289763681694e-01 8.338782297783686737e-01
3.372373437337260471e-01 5.516716100427904168e-01 7.628429777249157162e-01
5.530266708660886987e-01 5.161594821579621462e-01 6.540190289962479753e-01
4.081303877414681480e-01 8.899833050667905754e-01 -2.033698682312374273e-01
4.053863326667129230e-01 9.011408386091233069e-01 -1.536460551979096645e-01
3.877753771081181577e-01 9.079548929596117368e-01 -1.588967251372946643e-01
3.225248231075364957e-01 9.465067482314265535e-01 -1.013479313174227119e-02
5.794830544570852560e-01 7.712212683552802650e-01 2.634713358860118482e-01
5.059996364572645344e-01 7.571043773753873829e-01 4.132279391136846058e-01
5.017532290601179890e-01 8.245815988060926083e-01 2.613596832683511284e-01
2.912925127385532220e-01 8.263753784005098968e-01 4.819257266383211724e-01
5.473811963895075516e-01 6.036811776866861656e-01 5.796057811530237469e-01
3.948436521466300864e-01 6.277265493169164046e-01 6.708635253478817395e-01
2.538341207929147303e-01 6.390900806419496094e-01 7.260386408080181653e-01
2.346572579959080584e-01 6.109441729163174184e-01 7.560973408559500397e-01
4.327403241365402886e-01 5.394327120543787046e-01 7.223213696353304458e-01
4.327403241365402886e-01 5.394327120543787046e-01 7.223213696353304458e-01
4.380753728763596699e-01 5.521820724281040205e-01 7.093552893777859136e-01
5.688921517897260749e-01 4.472996083429267578e-01 6.901338855673726513e-01
3.890011011396584117e-01 8.960345140874594883e-01 -2.140100298494988229e-01
4.249301081265325908e-01 9.031983390453884875e-01 -6.055710984867481578e-02
4.650178987939621589e-01 8.689623421002183878e-01 1.693009208863064941e-01
4.711651644303807007e-01 8.815272351029768139e-01 -3.021790196213375648e-02
5.573357009770910642e-01 8.232555747710809113e-01 -1.078293792280728691e-01
4.544997754506768239e-01 8.904781209220672400e-01 -2.187853455761630886e-02
4.463874628511709797e-01 8.772651515278577783e-01 1.764768736239935576e-01
4.079435375871459102e-01 9.084795927659803372e-01 9.081244225679484250e-02
4.235781930017621932e-01 8.895658005449786909e-01 1.710385948086954044e-01
3.124534674643271726e-01 8.448912779895624281e-01 4.342022098592804857e-01
1.354470524489175265e-01 8.324538236590998119e-01 5.372845870283684544e-01
1.393047881050828718e-01 8.462214852061652470e-01 5.142989150158396860e-01
4.802900676590073914e-01 8.105317949736540184e-01 -3.352009251850190386e-01
3.832079095963070725e-01 9.120354254520263160e-01 -1.460927128345901327e-01
4.351084559781019934e-01 8.993853439624052148e-01 4.226860066264453292e-02
4.336943089627834369e-01 8.759367197484384526e-01 2.112915269707693333e-01
4.336943089627834369e-01 8.759367197484384526e-01 2.112915269707693333e-01
3.568313202185412480e-01 8.504485910465984233e-01 3.865340902144967505e-01
4.375117247934287024e-01 7.525964467618645459e-01 4.921199843429396314e-01
4.375117247934287024e-01 7.525964467618645459e-01 4.921199843429396314e-01
4.980495475773553671e-01 6.946030450007407708e-01 5.191081371291443869e-01
5.987451406055120939e-01 5.459903791315200428e-01 5.860023570747003863e-01
3.775876329630000194e-01 7.202120134260573403e-01 5.819984838040244135e-01
3.883583317742295149e-01 7.010505473454974323e-01 5.980852248702654972e-01
3.114480199463721677e-01 6.614669937012161993e-01 6.822474236780666779e-01
2.439302488151190440e-01 5.525321253669015498e-01 7.969982962030275342e-01
3.784560378975239114e-01 5.221822648583179793e-01 7.642621995404099700e-01
5.539824425117645390e-01 5.287275998421775425e-01 6.430789831380199217e-01
5.539824425117645390e-01 5.287275998421775425e-01 6.430789831380199217e-01
2.395069398439316211e-01 6.614937419432842525e-01 7.106774620996975100e-01
3.693723879251117892e-01 9.065512643303481610e-01 -2.042763916353239895e-01
3.579979250400353585e-01 9.240776105798922391e-01 -1.338583403900783786e-01
5.461413965157279060e-01 7.457361682986749507e-01 3.815850394120042233e-01
5.893439112779113032e-01 5.707274025528785710e-01 5.717901592497880436e-01
5.893439112779113032e-01 5.707274025528785710e-01 5.717901592497880436e-01
3.996503362182612373e-01 7.907308656941312019e-01 4.637071347297136437e-01
2.612853286399397512e-01 7.936954834668920045e-01 5.493427496215591566e-01
3.741099501646187875e-01 5.710310171652208666e-01 7.307293087204589366e-01
4.600523631520258006e-01 8.854544135892132850e-01 -6.574423635284674938e-02
4.071239477352919245e-01 9.078988216818719703e-01 -9.984898982513523702e-02
5.090654616208486472e-01 8.479031066794099347e-01 -1.480293128679490700e-01
5.090654616208486472e-01 8.479031066794099347e-01 -1.480293128679490700e-01
4.999124576980104595e-01 8.627721154842098450e-01 -7.557652665501592149e-02
5.153305472074430904e-01 8.568727253740152650e-01 -1.426743231926652991e-02
4.348887080991815646e-01 8.558429203377411199e-01 2.800084057230992074e-01
4.386207380668082356e-01 7.629438071314917913e-01 4.748985105234943549e-01
2.895111214850456527e-01 6.807294539321877558e-01 6.728972589375413760e-01
2.895111214850456527e-01 6.807294539321877558e-01 6.728972589375413760e-01
4.293896796194567878e-01 5.001210300033153144e-01 7.519996398833733720e-01
2.102901667161058696e-01 4.726929653350575578e-01 8.557683134501197220e-01
3.514905606737280253e-01 9.326048845363532624e-01 8.186888967247288318e-02
3.851090002455473393e-01 9.102170753636001921e-01 1.523021130726989747e-01
4.169632636864629704e-01 8.402513175475416762e-01 3.465824001526238707e-01
3.352054031443559845e-01 8.013951675623951498e-01 4.953817952957804693e-01
4.179131700673328065e-01 6.896435293137206379e-01 5.913885226819912688e-01
2.852912362439208316e-01 6.144622017232947986e-01 7.355576885437173917e-01
2.873413791238321746e-01 6.642727725706016884e-01 6.900555162192242298e-01
4.360647694487319037e-01 5.252430695016281348e-01 7.307306171128538086e-01
5.279497012649648768e-01 2.664430650377938581e-01 8.063976723847238182e-01
4.676443642975405823e-01 5.987290132328584313e-01 6.502555784104868675e-01
1.420483844372933124e-01 5.156305075779719083e-01 8.449541029746159282e-01
4.209751471083245655e-01 8.613269694141104660e-01 2.844218298180165028e-01
4.389103969192805765e-01 8.906559914710799886e-01 -1.186994875002717748e-01
4.389103969192805765e-01 8.906559914710799886e-01 -1.186994875002717748e-01
4.747586296856731725e-01 8.637810767816691548e-01 1.687794268650115448e-01
3.722396217128295937e-01 9.003518242170225339e-01 2.253979961227898232e-01
3.785391568556211728e-01 9.007517661058850322e-01 2.129656370970786083e-01
5.244318427172148800e-01 6.565296953955765957e-01 5.421623386108793685e-01
3.027577980343726938e-01 7.578675385306403722e-01 5.779052775073836301e-01
2.800216668783410134e-01 6.631958873882395356e-01 6.940886694292025538e-01
2.938647350991965279e-01 6.429146579434383835e-01 7.073218928228862667e-01
7.505130424388826993e-02 6.391664066285142054e-01 7.653976785755782775e-01
3.332518366628072770e-01 5.856660533523119216e-01 7.388765034236727258e-01
2.856799399802385508e-01 6.378782461688324856e-01 7.151911038019569400e-01
6.863859046941097608e-01 7.263106119324010956e-01 3.670537878335335819e-02
5.030884471908104727e-01 8.496835323833078490e-01 -1.579237445723835898e-01
4.476903384566134347e-01 8.923870043099232374e-01 -5.673442862463608932e-02
5.884013290011883557e-01 7.294202055356231451e-01 3.488983229911035155e-01
3.629177635752470765e-01 8.509702899943015764e-01 3.796580862151566205e-01
3.629177635752470765e-01 8.509702899943015764e-01 3.796580862151566205e-01
3.771561094817057480e-01 8.105869251013341215e-01 4.479978860836151267e-01
3.771561094817057480e-01 8.105869251013341215e-01 4.479978860836151267e-01
3.934229539356961514e-01 7.594043383691770899e-01 5.181924644208785180e-01
3.334503709320355558e-01 7.304763358159138686e-01 5.959993061558411798e-01
2.479297161663535365e-01 7.598810351805661556e-01 6.009256761152601545e-01
4.104260684904997292e-01 4.147429534450472466e-01 8.121198956257080770e-01
2.798544205773013660e-01 5.971199565749584215e-01 7.517507969688244085e-01
5.181264415064255058e-01 5.282771389499520964e-01 6.726576061227148573e-01
4.090222856381998673e-01 9.068861322561373450e-01 -1.012833301822499282e-01
3.950962283842038292e-01 9.168600920909754093e-01 5.715366871431031004e-02
5.179574135898760145e-01 8.554050143644210680e-01 1.542435570959363542e-03
3.351230333419449314e-01 7.816156653602472915e-01 5.260888747988797798e-01
2.896552492068589779e-01 6.034621869380246695e-01 7.429220857821424717e-01
8.471193074323274397e-01 4.127505501089446804e-01 3.347026476742266388e-01
1.689330198498497915e-01 9.802028169808608693e-01 1.032669956336247641e-01
3.323206984617560478e-01 9.204626108060121048e-01 2.056976798169353748e-01
3.323206984617560478e-01 9.204626108060121048e-01 2.056976798169353748e-01
3.528440181298401201e-01 9.161269305087507142e-01 1.902959433792624222e-01
2.120818940995035928e-01 6.699057039502501754e-01 7.115107996440297455e-01
1.347534441880099132e-01 8.069081578571416502e-01 5.751006295102299992e-01
5.479649761091888449e-02 9.455630769544708381e-01 3.207924739609239184e-01
2.764777121444738639e-01 6.202146076520314022e-01 7.340939416330816147e-01
2.764777121444738639e-01 6.202146076520314022e-01 7.340939416330816147e-01
2.373518440879310021e-01 6.200600746440543265e-01 7.477898140122452020e-01
2.477951154651302779e-01 6.635671074685658422e-01 7.058868709909709160e-01
3.217122944715775645e-01 6.056565205657480355e-01 7.277921260099098344e-01
7.171951561804701392e-01 6.954433147149611250e-01 -4.460609789634857603e-02
5.264433460905136863e-01 8.500943406708216799e-01 -1.403621446347070104e-02
3.323065807520612092e-01 9.205972343334940522e-01 2.051172068023435768e-01
2.744384273497758597e-01 8.027971992159687042e-01 5.293394057925198126e-01
2.744384273497758597e-01 8.027971992159687042e-01 5.293394057925198126e-01
2.955618810453148337e-01 7.762628668306232882e-01 5.568295394937818887e-01
2.618698984784081918e-01 6.238739216117549224e-01 7.363460369986913889e-01
4.031393363214055836e-01 9.097485692217904818e-01 -9.917770066522779704e-02
4.671993621595877388e-01 8.780874595575850483e-01 1.033787665112176485e-01
4.468353443898090416e-01 8.587509813355391763e-01 2.507686724040489312e-01
3.351666697394619643e-01 8.096081495797254890e-01 4.818692225384925698e-01
3.351666697394619643e-01 8.096081495797254890e-01 4.818692225384925698e-01
3.126980327732051812e-01 7.933791106262092496e-01 5.222734218029219111e-01
3.196308840604488166e-01 6.877207124661997018e-01 6.518253750811782155e-01
3.019757220056960567e-01 7.221858721597906872e-01 6.223007547576502319e-01
1.695880001076084942e-01 7.454591238903026662e-01 6.446166339990025973e-01
1.201511742262962174e-01 7.253091065340092625e-01 6.778572086441799760e-01
1.201511742262962174e-01 7.253091065340092625e-01 6.778572086441799760e-01
1.723242854881294750e-01 6.964774507600743902e-01 6.965798598967340993e-01
1.822198257498721941e-01 6.474225147705059413e-01 7.400270417166660009e-01
2.218706585592262193e-01 6.745087670796564572e-01 7.041387178696943971e-01
2.850236195856886146e-01 6.347773841632109448e-01 7.182055477599599280e-01
1.995025873890533818e-01 5.310530504505354132e-01 8.235176836184237015e-01
2.768764600520106645e-01 9.531462405334684140e-01 -1.218674280765084245e-01
1.946911813369068822e-01 9.633873129033305727e-01 -1.843372703674975299e-01
6.313759039712071863e-02 9.922885500110191215e-01 -1.066633873260850462e-01
2.317909222586120588e-01 9.558677983290760904e-01 -1.805262320994558412e-01
5.149097581842895233e-01 8.136278484472788675e-01 2.699586360123495399e-01
3.216986968649176992e-01 8.810828234859452435e-01 3.467030524720664530e-01
3.216986968649176992e-01 8.810828234859452435e-01 3.467030524720664530e-01
3.379524279856907509e-01 8.534888927409187698e-01 3.966671985259897504e-01
3.061392117566126836e-01 8.320152298524059464e-01 4.626331595537525043e-01
1.599076734267518840e-01 7.224479152289399186e-01 6.726801214251850736e-01
1.590067041651023472e-01 6.646827854288018811e-01 7.300093580120470271e-01
2.239792980436420000e-01 7.013279505656913049e-01 6.767365660308335418e-01
1.844787710351712406e-01 6.597814699579719333e-01 7.284613887759945339e-01
1.888716405057798975e-01 6.662561161733159265e-01 7.214085465769756178e-01
1.984735873390491567e-01 6.947172033264406021e-01 6.913582591761363583e-01
2.510196104193593292e-01 9.627863537644563152e-01 1.001578363876540617e-01
2.510196104193593292e-01 9.627863537644563152e-01 1.001578363876540617e-01
3.425589693070917319e-01 9.354518503834171606e-01 -8.708150298142455781e-02
3.375282053165554741e-01 9.187680464581261530e-01 2.047925472845725792e-01
3.132619290777837184e-01 9.369924863371219548e-01 1.546351976046975163e-01
1.383864539989093922e-01 6.693783544629394733e-01 7.299190420355499143e-01
2.463369565961150420e-01 4.972457348194285753e-01 8.319043112154487218e-01
2.213470685441511210e-01 6.789099733161297889e-01 7.000619425299468013e-01
6.287508368276257809e-01 7.640446041543627054e-01 -1.445967774577410214e-01
2.600408011820555809e-01 9.071973597101541387e-01 -3.307139734808914877e-01
4.115183016722586684e-01 8.205553725202141546e-01 3.966630409012069092e-01
3.173050452631420715e-01 8.564836687847382501e-01 4.071280306679828653e-01
3.206634664961531267e-01 8.234475355823868137e-01 4.680909071942802036e-01
2.437172649856960416e-01 3.653674812426653262e-01 8.983921740522246013e-01
2.156368558579670747e-01 4.792718315705725707e-01 8.507639260445163387e-01
2.801261622434708110e-01 9.454436023258772082e-01 -1.663301778025058075e-01
2.787356137795375943e-01 9.472532463879501652e-01 -1.581699870975332711e-01
3.451767941265769801e-01 9.298972561839858875e-01 -1.270593315659790390e-01
3.919322127133133549e-01 9.190953048128829295e-01 -4.065662687139573461e-02
2.963115710574318884e-01 9.455501653792462990e-01 1.346637947213598918e-01
3.049644840331379725e-01 9.403779562292949867e-01 1.506186008314242819e-01
3.038354493856214589e-01 9.413628436771434016e-01 1.466970219217811344e-01
2.600898402222600048e-01 7.711708746388996616e-01 5.810755175722290833e-01
2.185043808335731252e-01 8.107667910417446500e-01 5.430589711075666237e-01
2.054998562490449598e-01 7.195191433825494087e-01 6.633716992664550061e-01
8.007404181018223932e-02 7.393705677687810729e-01 6.685202400417293855e-01
4.580940150995640309e-02 7.860235940019375533e-01 6.164968843437709234e-01
1.591310837216415586e-01 4.287548228704407549e-01 8.892955639487428732e-01
1.331466660047846418e-01 6.579503658699742408e-01 7.411971946677735623e-01
7.505327382530756486e-01 5.294532335619348551e-01 3.954489629284055896e-01
1.506470533847810434e-01 9.710655808756523122e-01 -1.853027332370336677e-01
3.083127865087204600e-01 9.512429537868767326e-01 8.948102930016011564e-03
3.205850228762828491e-02 9.894214864272641297e-01 -1.414827714852136820e-01
8.212413426262339666e-02 9.964849400895399167e-01 -1.653453193654699435e-02
2.454709262064234676e-01 8.191246817978095063e-01 5.184387910419107071e-01
2.484560246785089688e-01 8.063687301638228222e-01 5.366927191745158865e-01
2.603388479981060821e-01 7.834268311867824686e-01 5.643279936346021763e-01
2.603388479981060821e-01 7.834268311867824686e-01 5.643279936346021763e-01
1.959838534232533069e-01 7.057587613502639412e-01 6.808045974982203097e-01
1.717290271642132882e-01 6.432559507441348856e-01 7.461440364041597162e-01
1.793120523124644983e-01 6.927908862869562867e-01 6.984897821537732199e-01
1.982937868989483321e-01 7.432064609171529224e-01 6.390021365600233594e-01
6.117806125781157789e-01 7.888551796552399908e-01 5.858316827079757677e-02
5.811888571603283093e-01 7.832624995380882416e-01 2.207246454975468897e-01
5.811888571603283093e-01 7.832624995380882416e-01 2.207246454975468897e-01
3.133454927147922842e-01 9.290738569983201245e-01 -1.965613655772392165e-01
2.531774771518601752e-01 9.669754043567174717e-01 2.932119424890613363e-02
2.643815838176567512e-01 9.595710221962767683e-01 -9.657034482313829604e-02
4.541781217812564386e-01 7.975533859216346055e-01 3.970274931288592657e-01
8.837604871827584030e-02 9.928797827032377343e-01 7.987121579215193667e-02
2.655973627008360038e-01 7.815948842022527598e-01 5.644178221098511417e-01
2.655973627008360038e-01 7.815948842022527598e-01 5.644178221098511417e-01
2.606271723688292630e-01 7.810727543267053097e-01 5.674494069708090338e-01
1.609096164523771688e-01 6.859765332826341933e-01 7.096085478055405016e-01
9.051392432569084490e-02 7.358031999732029815e-01 6.711191253513474342e-01
1.641511584984959027e-01 6.397324771140462385e-01 7.508640055889801435e-01
1.748429900956258998e-01 6.134373277906972621e-01 7.701458132635855547e-01
1.641732646405458518e-01 7.035449724118053583e-01 6.914272275310956450e-01
1.865420998128648755e-01 6.977044729747077234e-01 6.916722586518070370e-01
1.846582927132246754e-01 6.708822724671168469e-01 7.182049090765072474e-01
6.265889977607235206e-01 7.321738223245790600e-01 2.670350572262520372e-01
5.404493460800492421e-01 5.624428661741212032e-01 6.257575621688374889e-01
4.334313247099492172e-01 8.856062281382637291e-01 1.668499189178583308e-01
2.069483873737151536e-01 9.737102482531847514e-01 9.518780074221659671e-02
2.904162566216736407e-01 9.441338765856573945e-01 -1.557871014339528848e-01
2.904162566216736407e-01 9.441338765856573945e-01 -1.557871014339528848e-01
-9.994021341349616783e-02 9.847842808874437415e-01 -1.421684699919964767e-01
4.486585075900458852e-01 7.352490983781692080e-01 5.080495122536403674e-01
5.427955543277711570e-01 8.264610990517178291e-01 1.494491149396150742e-01
-6.018745197497609584e-02 9.896701604452303735e-01 1.301170401948636979e-01
5.372988288194197742e-02 9.514512305213561616e-01 3.030736801916159018e-01
1.291794942292371351e-01 9.660434552920955653e-01 2.237693025372056166e-01
2.259778676407807607e-01 7.828764407819202020e-01 5.796882626077212164e-01
9.943931882748185958e-02 7.128725063285981101e-01 6.942079022828170354e-01
6.538901072819516269e-01 7.479669429974126205e-01 -1.138998673480481477e-01
3.057113392336057167e-01 9.415073401086038185e-01 -1.417903578725190905e-01
2.997209795908863383e-01 9.403439438231158132e-01 -1.609987630644038881e-01
-2.007733539875525830e-01 8.904004770035985894e-01 -4.085058761882782163e-01
1.172443082187402535e-01 9.931026877955894117e-01 -9.075700992266248681e-04
9.836417366485621094e-02 6.944165072137628014e-01 7.128184929196689223e-01
1.546377786120302078e-01 7.449060884390961146e-01 6.490008296083312755e-01
1.819534605384423576e-01 6.928112441058436044e-01 6.977861550923739609e-01
1.095446040160816398e-01 4.906722840289698406e-01 8.644308470992656535e-01
5.469235468586605142e-01 7.665817352736431500e-01 3.364923134878312072e-01
4.121355774484175005e-01 7.344088238889175946e-01 5.392475731937570460e-01
4.121355774484175005e-01 7.344088238889175946e-01 5.392475731937570460e-01
4.664313909617583409e-01 8.638057099454248267e-01 1.904769093385337841e-01
4.376437336601005090e-01 8.967093908378326317e-01 6.618331187912966651e-02
1.915568572477769904e-01 7.270775677399758941e-01 6.592906649806863362e-01
1.915568572477769904e-01 7.270775677399758941e-01 6.592906649806863362e-01
1.977479140734374752e-01 7.096687791654868738e-01 6.762144529344013000e-01
1.404831620594485242e-01 7.247696843599938932e-01 6.745171501233261369e-01
1.457179384101738306e-01 6.370756761025274661e-01 7.569021504421797886e-01
2.152436750411637068e-01 6.765438860929195997e-01 7.042432325163405782e-01
5.734943438591020293e-01 8.191756726712920988e-01 7.446802344242281144e-03
4.899624095654118716e-01 8.702564089830896465e-01 -5.089813195700656351e-02
5.235657726084533836e-01 8.466826157513319684e-01 9.490748093483228343e-02
4.309766048241415737e-01 8.842290140785408203e-01 1.799950464761386204e-01
1.400830704146522332e-01 9.874567043958993873e-01 -7.284222900758226260e-02
2.995574023141877040e-01 8.693749494617758478e-01 3.930045291941437480e-01
1.639863359526841646e-01 8.631869762695223436e-01 4.775109691090796415e-01
1.916871018391307080e-01 8.130621857282325227e-01 5.497144141527887662e-01
2.331485734583335079e-01 7.829031316572380161e-01 5.768053650371445240e-01
1.488443318979674190e-01 7.460499720063039630e-01 6.490414502412313880e-01
1.322178104352919603e-01 6.805129547249816335e-01 7.207083800367333204e-01
7.412304309474304631e-02 7.588331939199547405e-01 6.470532885996448380e-01
1.642486389697126181e-01 7.084406375454627147e-01 6.863921966855212053e-01
1.518212102535617669e-01 7.250078236305972368e-01 6.717990590880346113e-01
2.152509966055800583e-01 6.765951442495241608e-01 7.041917489137954345e-01
9.062488963147434691e-04 6.750867233904755960e-01 7.377378224104073068e-01
6.461671710888250431e-01 7.624959337094715517e-01 -3.267932195726165612e-02
6.461671710888250431e-01 7.624959337094715517e-01 -3.267932195726165612e-02
6.461671710888250431e-01 7.624959337094715517e-01 -3.267932195726165612e-02
5.383870568708641891e-01 8.426964524677015289e-01 1.437356003170424086e-03
2.196081154183057715e-01 9.661064975545082811e-01 1.356853382845071010e-01
4.457732644795837640e-01 8.750977103570832805e-01 -1.883884126028070316e-01
-1.744837019240279286e-01 9.434140241788145920e-01 -2.820025119491351151e-01
-2.783311936420883662e-03 9.871410074573485627e-01 -1.598276714801147858e-01
8.178952003923462000e-02 9.965129347210451849e-01 1.650591849614735374e-02
3.589548422776012715e-01 8.329669575448456209e-01 4.210908083109223821e-01
9.261783806308233891e-02 9.799006070828198967e-01 1.766825863271244967e-01
5.700454022077091655e-03 9.893854694354176083e-01 1.452029534617000073e-01
1.078476449694910216e-01 8.104895455620707567e-01 5.757391614343447817e-01
1.290294605230513370e-01 6.294396246807563156e-01 7.662618072166189620e-01
1.710619698304537417e-01 6.859767168575464646e-01 7.072296277780409923e-01
1.993323962633255786e-01 7.070965371529250865e-01 6.784401837643925237e-01
1.276080606035585041e-01 6.420224517987778157e-01 7.559916363659617833e-01
4.912597019449043562e-02 6.752902750042782953e-01 7.359141821823358409e-01
4.872203332897789285e-01 4.658205684211447761e-01 7.386660577451751308e-01
5.484715190955564701e-01 8.359529740603800496e-01 1.901625359050785474e-02
4.707880060514626486e-01 8.692673258824374916e-01 -1.507745652001167003e-01
4.787356384909849938e-01 8.738818045826575176e-01 8.451496943137899731e-02
5.358963351887113813e-01 8.230538959580081526e-01 1.881419737316811225e-01
1.171121070689784688e-01 9.907917652061153380e-01 6.794433293229121262e-02
1.763580979759550305e-01 9.004014158678260715e-01 3.977123477860823875e-01
2.528263798777805049e-01 8.145411197946561543e-01 5.221126179298523073e-01
2.592922336866903543e-01 8.390183910816264579e-01 4.783468166263526999e-01
2.482730350416600951e-01 6.514441086116424806e-01 7.169247334458375143e-01
2.415774926856985860e-01 5.961796321408406873e-01 7.656436254864942281e-01
1.992568460322304003e-01 7.136657715698121462e-01 6.715488632995760820e-01
3.259649082026404576e-01 9.106219551639295195e-01 2.539971129636449110e-01
2.041377925027972884e-01 9.700195476401443084e-01 1.318705382869680420e-01
1.728757792744045063e-01 9.634235269471581598e-01 -2.047658972215974371e-01
2.703872373751349811e-01 9.373654603055565637e-01 2.196286313092952747e-01
-1.261856593369913848e-01 9.895892618528019380e-01 6.921179237178515242e-02
7.555337627853725424e-02 9.340951820947852591e-01 3.489382153336369474e-01
1.078117698624683068e-01 8.500876816635791755e-01 5.154876873049086816e-01
1.657604107063873067e-01 7.467629007452224466e-01 6.441029857973263884e-01
1.306600742046065966e-01 7.303475888423791584e-01 6.704627838150077901e-01
1.325072658928975744e-01 7.280036537729170920e-01 6.726458983587660923e-01
2.882997299214551390e-01 6.240678776498288505e-01 7.262386314517111918e-01
5.029363054517054232e-01 6.155313740171122205e-01 6.067752469071185928e-01
2.025270850584509619e-01 7.984119533644938871e-01 5.670283348673328394e-01
1.660568993472003041e-01 8.905217765519528594e-01 4.235517343441621008e-01
2.196556348939006365e-01 9.614874235325930885e-01 1.652069503623053437e-01
3.896617266792079537e-01 9.008018978482785766e-01 1.916237970459766238e-01
3.722121143163845680e-01 8.446670810467233892e-01 3.847020459422263450e-01
1.684334296046513801e-01 9.839185703117115933e-01 -5.945104530092346073e-02
4.614888589933753837e-01 8.764617929710052380e-01 1.372689276094313238e-01
5.405109010190805030e-01 7.334794406761256935e-01 4.121357494624550144e-01
3.037180722893447760e-01 7.119600440024527188e-01 6.331415547165341051e-01
3.037180722893447760e-01 7.119600440024527188e-01 6.331415547165341051e-01
2.972814959138816993e-01 4.881013993071194323e-01 8.205977919673173027e-01
1.315646730620930183e-01 7.030797456008990309e-01 6.988344640384012152e-01
7.678246657623349902e-02 6.372501090251826428e-01 7.668225031738847841e-01
2.593661455224223755e-01 5.540295762583572481e-01 7.910628490757397602e-01
4.562718623613938318e-01 8.286922043839490826e-01 3.241685024960575534e-01
8.889158323053522603e-02 7.760006428809370638e-01 6.244367771673454692e-01
2.233320632791572780e-01 9.083571611512198940e-01 3.535676134726869480e-01
4.121717768426961248e-01 8.625763809237323443e-01 -2.933878208904573404e-01
5.303156503329172766e-01 8.184736309000834042e-01 -2.210570662367729311e-01
4.276637994122574060e-01 7.888465032095575147e-01 4.413897020166258622e-01
1.767982311402113982e-01 9.834626134961806931e-01 -3.928960830746861671e-02
1.984279100161904230e-01 9.200121301669381690e-01 3.379408896128127116e-01
1.918362221976387116e-01 8.940030893754574715e-01 4.049164605694315910e-01
1.305712916175724436e-01 8.017050018329621164e-01 5.832840027305129516e-01
1.305712916175724436e-01 8.017050018329621164e-01 5.832840027305129516e-01
1.252607878968049482e-01 7.861671192974344358e-01 6.051867443616435471e-01
1.282161187752117459e-01 7.821164837915776102e-01 6.097986820809959685e-01
1.492811949324397425e-01 7.107787102968113890e-01 6.873927187775155101e-01
1.977194240104626632e-01 7.316913550944916800e-01 6.523302769678541724e-01
2.447457414334491821e-01 7.040322828619480777e-01 6.666618833699624602e-01
2.447457414334491821e-01 7.040322828619480777e-01 6.666618833699624602e-01
2.415380908944187444e-01 6.495673428701858043e-01 7.209172058729392818e-01
9.390014682247412037e-02 7.228662276139121712e-01 6.845781032153668288e-01
7.384743253231670912e-02 5.873345294592089427e-01 8.059681800253124528e-01
3.442222838741798019e-01 4.613980966072243062e-01 8.176935952614977632e-01
5.202519378344153678e-01 8.239355412966459236e-01 2.246511628452843856e-01
2.125078991409721785e-01 9.734063844649067931e-01 -8.555935650557816574e-02
4.374024668087079792e-01 8.645661577460667102e-01 2.473953130313108484e-01
-5.448959773871913520e-02 9.596660152094304008e-01 -2.758115715308656624e-01
3.788872735440614870e-01 8.276436271418086132e-01 4.140657682034320497e-01
1.778087288520800446e-01 9.838254150398355602e-01 -2.171655280431991283e-02
1.778087288520800446e-01 9.838254150398355602e-01 -2.171655280431991283e-02
1.896773362752024739e-01 9.145390582892087838e-01 3.572685530060421000e-01
2.264195995852826826e-01 8.636848329047005501e-01 4.503139730610408731e-01
1.308135368014401922e-03 8.256260615510244705e-01 5.642161777808244461e-01
2.078506514046940534e-01 7.099837943112229377e-01 6.728455383861020600e-01
2.190413862449580307e-01 6.234404017062947778e-01 7.505617473813736007e-01
4.344596951838541887e-01 7.027023618210580524e-01 5.634307090955013031e-01
4.205729367086817327e-01 8.589666271318423529e-01 -2.920526294728084116e-01
4.084565247874178406e-01 8.993438285683136302e-01 -1.560254638662326998e-01
4.993113965408325639e-01 8.661942408751333033e-01 -1.989136393500676864e-02
4.674247263593132029e-01 8.708367383569023401e-01 1.521758861181138900e-01
4.671743235348416873e-03 9.007084598998646996e-01 -4.343989469139591941e-01
3.187828102319372192e-01 9.217176745414442651e-01 2.209390149759450084e-01
-2.041740153500850308e-01 9.715623588978918868e-01 1.199147790248857037e-01
-1.891143508828634634e-01 9.712309377198131699e-01 1.447281171923602283e-01
4.944647946085917178e-01 6.906844712032798039e-01 5.276926455156722984e-01
1.326807523711224790e-01 7.797488272436957635e-01 6.118721961016974076e-01
1.038635949825232468e-01 7.166094165898634349e-01 6.896979757053386395e-01
2.053668159525025849e-01 6.955066279693448150e-01 6.885455695567594958e-01
2.318628802676168943e-01 6.585486403021830748e-01 7.159282737189183177e-01
2.256409570187146163e-01 6.856230878467897139e-01 6.921034170751593217e-01
3.078611640563061469e-01 5.063318277111866772e-01 8.055120010977770972e-01
1.270351420314356494e-01 7.642613817167970280e-01 6.322709965713951830e-01
6.561054295078114218e-02 8.187881955412409374e-01 5.703342419108485828e-01
4.088213672019380684e-01 8.613182981046030307e-01 -3.016552321265590919e-01
5.926135252832664957e-02 9.152791102859746397e-01 -3.984372502297294227e-01
2.570380716871076276e-01 9.165514020737615120e-01 3.063738844288060315e-01
2.570380716871076276e-01 9.165514020737615120e-01 3.063738844288060315e-01
2.604270088582404385e-01 9.098573951338044807e-01 3.230128381000951232e-01
-2.178384884543500821e-01 9.759718650332388501e-01 -5.031064645334001537e-03
1.868034126160619812e-01 6.794837584521309370e-01 7.095113156495527207e-01
1.868034126160619812e-01 6.794837584521309370e-01 7.095113156495527207e-01
9.320407797745053347e-02 6.589302628037921883e-01 7.464073342416315260e-01
9.320407797745053347e-02 6.589302628037921883e-01 7.464073342416315260e-01
2.043279085008729498e-02 5.708095793890741732e-01 8.208281946520505912e-01
3.321901692051691390e-01 6.740140883122033300e-01 6.598141406791084851e-01
7.696422583043729948e-02 8.590335201926945219e-01 5.061007005801009262e-01
7.696422583043729948e-02 8.590335201926945219e-01 5.061007005801009262e-01
8.422061254101846639e-02 7.794847364345511842e-01 6.207337868110400780e-01
8.422061254101846639e-02 7.794847364345511842e-01 6.207337868110400780e-01
1.682093953467721503e-01 9.333691195108471117e-01 3.170610131514428609e-01
4.330857168005884938e-01 8.807174095261282032e-01 -1.917644556765061847e-01
8.041507466955973016e-02 9.771646438001335699e-01 -1.966791160058618260e-01
1.559125124522935113e-01 8.981148997108867604e-01 4.111944982342506938e-01
3.003841592298101548e-01 8.070726013737453686e-01 5.083337220720415273e-01
6.341946743857856950e-02 8.039783858794937732e-01 5.912670514990759907e-01
1.695920825236241491e-01 6.901019802087972055e-01 7.035607880327022778e-01
-1.611257571931519819e-02 5.348255625295371685e-01 8.448088556405251026e-01
2.635152880149455035e-01 5.327961908786716938e-01 8.041690817033307903e-01
2.044429167863361096e-01 9.753027313128223019e-01 8.359232063798673062e-02
2.044429167863361096e-01 9.753027313128223019e-01 8.359232063798673062e-02
2.379702331107536040e-01 9.539564009940368905e-01 1.825851942401618966e-01
3.265590444379830037e-01 8.746953845677558625e-01 3.581440697702766851e-01
-4.891527055060652662e-01 8.657295911566266211e-01 -1.060278533776704002e-01
2.143504086879195192e-01 8.623101482950015217e-01 4.587756646148249962e-01
2.431011942279184268e-01 9.005364322668747423e-01 3.604662862529703360e-01
1.535127276216811942e-01 7.767487564541212253e-01 6.108152026637252430e-01
1.158283086991992311e-01 7.989844477779795007e-01 5.900912260937286602e-01
1.451293820624069697e-01 7.090312667590216167e-01 6.900812453764274546e-01
4.170296885096522188e-02 6.019520775853440808e-01 7.974425112067348165e-01
3.277549904960223581e-01 9.249194418748282187e-01 1.926153998176383941e-01
5.226460624771464003e-01 8.430758418913307795e-01 -1.267446969161182824e-01
7.593081336447710106e-02 9.660552779286717406e-01 -2.469245058068678944e-01
3.330853735967591600e-01 8.699658892098782736e-01 3.636117235557364546e-01
9.827329385789104754e-02 9.726133876120430788e-01 -2.106313318387043054e-01
3.117917456129543630e-01 8.468288227674714008e-01 4.308907660856581834e-01
-1.360005498581356720e-01 9.837647374128778432e-01 1.170930905786332354e-01
3.456565371585588187e-01 8.442562849811279246e-01 4.095764685494252544e-01
1.075197393393048095e-01 7.538546121802152111e-01 6.481841785688888802e-01
1.227491682331996181e-01 7.161187983655531442e-01 6.871000715511053070e-01
1.565317226581618426e-01 7.995640943904324116e-01 5.798233168502934243e-01
2.662198379467973219e-01 7.154939264545007171e-01 6.459066798619614858e-01
1.387522584803162762e-01 5.987833041700294512e-01 7.888005865957717910e-01
2.912302534973193469e-01 7.519411519196705918e-01 5.914130904009530232e-01
2.800280087492888481e-01 9.402372926964521760e-01 1.937476393114362094e-01
4.529351966334542179e-01 8.377910255934126749e-01 -3.048867086078887456e-01
5.360524172074008220e-01 8.434103228141205388e-01 3.615015043791239974e-02
5.424569658308245890e-01 8.399226346190624692e-01 -1.644408939979532386e-02
2.929337588698064376e-01 9.534208758815957419e-01 -7.196142263446864140e-02
2.455525975011123019e-01 8.833901740486125309e-01 3.991562629532685036e-01
2.497095705160340684e-01 8.079509022687887398e-01 5.337232147056637510e-01
8.455921204923159962e-02 7.648831297937739304e-01 6.385949713351132262e-01
7.491908339641972780e-02 8.035883373084016235e-01 5.904514502352912197e-01
4.715428898029597193e-02 7.994035993255216299e-01 5.989410308337238531e-01
4.715428898029597193e-02 7.994035993255216299e-01 5.989410308337238531e-01
6.939668720562827686e-02 7.838345310789341935e-01 6.170798389942353523e-01
5.306877046999362163e-02 8.459557869599856339e-01 5.306057972824219648e-01
1.844836202062561936e-01 7.733387720118525266e-01 6.065582722037461405e-01
7.031127743988324630e-02 6.760028675652770547e-01 7.335369433834223463e-01
7.031127743988324630e-02 6.760028675652770547e-01 7.335369433834223463e-01
-2.590792565262743652e-02 6.080132058886219548e-01 7.935040774018858878e-01
3.253966169309581158e-01 5.867285893904040650e-01 7.415299077460286714e-01
1.827553551661801126e-02 8.934230333283231795e-01 4.488443921004235393e-01
3.800223555787545227e-01 8.838999441061811124e-01 2.725874136299478723e-01
5.416015914996755720e-01 8.403891079650868123e-01 -2.034363041997257898e-02
4.907974760242078682e-01 8.294195071070328273e-01 -2.667978987147270331e-01
4.907974760242078682e-01 8.294195071070328273e-01 -2.667978987147270331e-01
3.108690017978259501e-01 9.367204688621536546e-01 1.609820702310983953e-01
3.154093867089730607e-01 9.087835264033151672e-01 2.731838591751433731e-01
2.107224657882040553e-01 9.380117000890995094e-01 2.751910116775190818e-01
3.855390906300336373e-02 8.435345062635078994e-01 5.356893995952705101e-01
5.643389388376146565e-02 8.211341331988238901e-01 5.679383337272917442e-01
3.309798774944615052e-01 6.883378726823439209e-01 6.454791195111554414e-01
3.039136612807196713e-01 6.667182311744609402e-01 6.805316206514918642e-01
1.898684911646945084e-01 5.237279532860636966e-01 8.304570952250531768e-01
2.281109074030019668e-01 6.323165361582552269e-01 7.403655934905436498e-01
1.809966812615438903e-01 6.317147661597636299e-01 7.537749369593169657e-01
2.142327500789857064e-01 5.717869326216160619e-01 7.919368866751683722e-01
2.142327500789857064e-01 5.717869326216160619e-01 7.919368866751683722e-01
2.373592541797968913e-01 6.692599283501619034e-01 7.040963945085549902e-01
2.453954990336960629e-01 9.073538962915290718e-01 3.413062494865634067e-01
3.754517251989663573e-01 8.252674504501208430e-01 4.218644773771278444e-01
4.485351701540931657e-01 8.937333873649957461e-01 7.538795920385626265e-03
2.271023452376878249e-01 9.722273205702471888e-01 5.655583015339678971e-02
2.042717033950428862e-01 9.208902537288812251e-01 3.320153788294217256e-01
-2.291569497008687784e-01 8.885906180506061292e-01 -3.973585357284214470e-01
3.066042460982058016e-01 5.754104211907434818e-01 7.582194164354022492e-01
4.043287193187156681e-01 8.684884329965525396e-01 2.867858582379541055e-01
5.048659487836777426e-01 8.615332364761415507e-01 -5.358037145915908739e-02
-9.332722335182304374e-02 9.409812378996438298e-01 -3.253372700787487415e-01
2.120024157773301721e-01 9.612461337602788980e-01 1.762408750417795433e-01
1.574987223445173043e-02 9.835405304706686946e-01 1.799999067946259357e-01
2.588506976816092875e-01 8.136152068581720131e-01 5.206021623839822698e-01
4.183093145771071136e-02 8.699361073744522610e-01 4.913871612685520862e-01
3.597756171152765442e-02 7.284303009641988069e-01 6.841746207588381701e-01
-4.743232309329280076e-03 7.967145764830722010e-01 6.043371454466939241e-01
6.403921939383058759e-02 8.207528321301145180e-01 5.676828048565722984e-01
1.210632485160330757e-01 8.283367886737451613e-01 5.469934683233544925e-01
2.683937188751039926e-01 7.522885905352119096e-01 6.016865365112766817e-01
2.012292820391133608e-01 6.079393637805896589e-01 7.680602229096848976e-01
3.059769945136318614e-01 9.256396222425333775e-01 -2.226417942864840904e-01
3.059769945136318614e-01 9.256396222425333775e-01 -2.226417942864840904e-01
1.009749953074358247e-01 8.607886691095840703e-01 4.988455847807158894e-01
5.177549289487905215e-02 9.207861420675121922e-01 3.866163200279053580e-01
5.083669600911474573e-01 8.594636495104648333e-01 -5.371470057478151122e-02
2.752065076808615229e-01 8.719055483636128923e-01 4.050211017500832678e-01
-1.226251547842509004e-01 9.923828542784695061e-01 -1.180431905094421995e-02
4.034957603080651101e-01 8.296574346734897354e-01 3.858234214046893373e-01
3.744046984464236005e-01 8.308537804874205346e-01 4.117075627566290641e-01
3.744046984464236005e-01 8.308537804874205346e-01 4.117075627566290641e-01
-3.030182889158935470e-04 9.969562306915347172e-01 7.796269790896166729e-02
1.183069095518722719e-01 7.636947549919542721e-01 6.346446220918160463e-01
1.857989590529696144e-01 7.731548375891446057e-01 6.063912465787549833e-01
1.857989590529696144e-01 7.731548375891446057e-01 6.063912465787549833e-01
4.578405199163546567e-03 6.452919126197355082e-01 7.639223689049798871e-01
-4.440826379291852588e-02 7.170633963733047400e-01 6.955918283652270384e-01
1.564011839203281740e-02 6.705334257302310030e-01 7.417144407891516078e-01
4.608645280887131018e-03 5.805910511385303785e-01 8.141822840903205627e-01
6.262582119822883708e-01 7.612365870904611587e-01 -1.682840170652399325e-01
5.946268981745445048e-01 7.983448361417674333e-01 -9.520700905445071693e-02
4.259578272686233569e-01 9.035217193811339031e-01 4.699395700675740306e-02
3.169970343532513835e-01 9.286942732660935507e-01 1.924573381661659199e-01
2.874046118672760053e-01 8.966896730718572073e-01 3.366693025562418340e-01
2.998117467411580694e-01 9.161882923908252208e-01 2.659171476268489820e-01
1.981626577013513857e-01 9.737070746626732554e-01 1.123658927103603072e-01
1.577052609018477769e-01 8.578698232558810144e-01 4.890689287112846007e-01
1.677830947772394055e-01 8.390133933660927079e-01 5.175957484942143028e-01
3.225343339387509722e-01 6.559841267498057737e-01 6.823902321128145765e-01
-1.094907338912253503e-01 7.653717407952692620e-01 6.342064944353535960e-01
1.588243183475639142e-01 6.305243637247908151e-01 7.597459197987702639e-01
1.453807866255688030e-01 7.151260889314914326e-01 6.837098096485667575e-01
2.518829455795213931e-02 9.485119768847531940e-01 3.157381502502339954e-01
-6.965578752103394888e-02 8.899379059223891941e-01 4.507311780510611099e-01
1.046923540143496340e-01 9.154485166186647760e-01 3.885788522701931202e-01
1.046923540143496340e-01 9.154485166186647760e-01 3.885788522701931202e-01
2.610027273447780294e-01 9.114136324767334596e-01 3.181238231477693246e-01
2.610027273447780294e-01 9.114136324767334596e-01 3.181238231477693246e-01
-1.357790794954460700e-01 8.741616139563695986e-01 -4.662676423006040793e-01
-1.357790794954460700e-01 8.741616139563695986e-01 -4.662676423006040793e-01
1.826660274185442079e-01 9.008963605809281461e-01 3.937243577925624849e-01
6.958422197520720831e-02 7.714729296024321892e-01 6.324456932755141425e-01
6.111299330003416158e-02 7.921077982518539562e-01 6.073141180628933711e-01
6.111299330003416158e-02 7.921077982518539562e-01 6.073141180628933711e-01
5.739420285059495391e-02 8.363602961816124504e-01 5.451672774939361199e-01
3.136124711483331273e-01 5.965307125431632551e-01 7.387816503764708109e-01
-1.915937487425181662e-01 5.980016350556496274e-01 7.782582347226134623e-01
2.044840953080191981e-01 6.514820893004341640e-01 7.305869846136063828e-01
-1.465450579456358815e-01 9.123546751510694941e-01 3.822741067894824818e-01
-9.592247086174764126e-02 9.067508398974697403e-01 4.106114878190945672e-01
3.997185129084971367e-01 8.864211444906195947e-01 -2.334152202367269224e-01
2.697526949021355480e-01 9.584310321792773868e-01 -9.297010352151187373e-02
4.707620420717999465e-01 8.619891974999914774e-01 1.880364941645889243e-01
1.779754132944138811e-01 8.977609206135545028e-01 4.029268937186815114e-01
1.226111246802317478e-01 9.545047450082344564e-01 2.718220076840987542e-01
3.880858792650530020e-01 7.399342010892658861e-01 5.494421974816464660e-01
3.523969585074018113e-02 8.165928738838087453e-01 5.761373466097554630e-01
-1.119106383170990898e-01 7.830428593014222560e-01 6.118168758121277362e-01
1.138591523934441747e-02 6.751572740814530960e-01 7.375859381719963581e-01
2.375841270126260729e-01 7.438053486666270642e-01 6.247458570383365162e-01
-4.320708462401487426e-02 9.842764736290303684e-01 -1.712687107988317137e-01
4.026769422932113263e-01 8.557525150132448966e-01 3.248675317631728454e-01
7.351469256681801047e-03 7.711386047760191431e-01 6.366248566651028229e-01
1.742716839927138661e-02 8.293087634903565375e-01 5.585188166925795228e-01
2.367712876928925944e-02 8.510994189010241406e-01 5.244703735384694809e-01
3.517543469368170084e-01 7.080260696896837347e-01 6.123462778941605178e-01
2.813748729830812811e-01 7.548868476910367553e-01 5.924306103138528012e-01
-9.872484977372836257e-02 7.389628501117081472e-01 6.664737880756721466e-01
2.694495072114777012e-01 9.460360035018299252e-01 -1.800356718591548666e-01
1.783286826745083264e-01 9.824755571064480719e-01 -5.422785837509268986e-02
3.483451185103467740e-01 8.059848144334860187e-01 4.785855799255047116e-01
-2.944084377532639185e-01 9.472092841332913071e-01 -1.269576458169424105e-01
-3.246503163310661133e-01 9.137016198434485537e-01 -2.444412444772707527e-01
1.733923169296535949e-01 9.158653551538914472e-01 3.621129045734253760e-01
-1.015142740329529059e-01 8.213561431245289812e-01 5.613100197922363810e-01
-8.317350100389307374e-03 7.340874791448210868e-01 6.790039724847780622e-01
1.814030522809575441e-01 8.282421984040766461e-01 5.301959952752701710e-01
-2.141606815988368606e-01 6.339249025773213697e-01 7.431516805803880521e-01
-2.141606815988368606e-01 6.339249025773213697e-01 7.431516805803880521e-01
-3.600541254866360813e-02 6.082574681453436494e-01 7.929227343900646652e-01
1.442014440802458219e-01 6.688807260530204024e-01 7.292492837431903130e-01
1.188409029445571252e-01 9.923276058534546973e-01 -3.409930275640227215e-02
3.896379062384913022e-02 9.416574203626216777e-01 3.343099246152192450e-01
3.340253654650971460e-01 9.205855947085022084e-01 -2.023591313509257583e-01
5.116096800971885461e-01 8.591584218734673595e-01 -1.011639040101089057e-02
3.924793199024387280e-01 8.913382469671207176e-01 2.268834787782033069e-01
1.910051892044280220e-01 9.400933414442325109e-01 2.823854229049339581e-01
1.174756571248559422e-01 7.801993132569494671e-01 6.144009290166050352e-01
1.174756571248559422e-01 7.801993132569494671e-01 6.144009290166050352e-01
9.925737484739940997e-02 8.293800081311063499e-01 5.497970313223313754e-01
1.380783374012593268e-01 8.485580699430342877e-01 5.107676327598063004e-01
2.612557977402089060e-01 8.543606047358951461e-01 4.492364246390119220e-01
1.154111822350748495e-01 7.506642922129606044e-01 6.505254640761708451e-01
4.591788123010070999e-01 8.878083426175453763e-01 3.084096484424070708e-02
3.169748214611887160e-01 9.481226766134391859e-01 2.429717372485253046e-02
2.603950915661261134e-01 9.630903114728660563e-01 6.820152663516115821e-02
-3.475495659585006725e-01 9.123588643128330844e-01 -2.163575788176947401e-01
-1.849409688673338270e-01 9.619459412915755125e-01 2.011388676190573321e-01
7.313780416861814793e-02 8.837929207886747740e-01 4.621265354480481036e-01
7.313780416861814793e-02 8.837929207886747740e-01 4.621265354480481036e-01
-2.821588652120304852e-01 9.589910956261396002e-01 2.687849125295723937e-02
4.234447262595825850e-02 9.347441044107971386e-01 3.527894625797181050e-01
-7.298102365897490840e-02 9.969772419598410540e-01 2.664862472693156278e-02
-5.930688366949778828e-02 9.015417358601763853e-01 4.286084367480795798e-01
-6.370962223681801706e-02 7.728153914526103563e-01 6.314249399322063860e-01
-9.320430574414489966e-02 6.213098862532107081e-01 7.780019168580333266e-01
-1.198827920281793011e-02 9.973895747480397977e-01 7.120616086884469509e-02
3.661555394553070442e-01 8.604465897890211101e-01 -3.543469867892731218e-01
4.005380770154096659e-01 9.081213779013175280e-01 -1.220033272472943742e-01
4.528213122919704792e-01 8.614163743129346074e-01 2.300319308264313078e-01
-2.281270970234124396e-01 9.321071824911655312e-01 -2.813080659207118916e-01
4.451621344076958989e-03 8.627859126196275596e-01 5.055498512041373127e-01
-8.164551982766671268e-02 7.579552471144178627e-01 6.471768324529179051e-01
6.106808637631741532e-02 8.491052344006874142e-01 5.246817985595537692e-01
1.155093792674009023e-01 7.904960538238233747e-01 6.014761609492288441e-01
7.948683749165347256e-02 7.615998273354275261e-01 6.431543715689277407e-01
-1.169567686647478982e-01 9.711908151121207977e-01 2.076283094988614908e-01
-1.510103789438789201e-01 8.221840654532061032e-01 5.488253164405447748e-01
-1.510103789438789201e-01 8.221840654532061032e-01 5.488253164405447748e-01
2.905256449643259797e-01 8.963744262690735987e-01 -3.348249356736316407e-01
