-4.039249204722872855e-01 5.330558094919483070e-01 -7.434353788920327055e-01
-3.117951074030627656e-01 7.960562988292801956e-01 -5.187274622513641242e-01
1.443427449799042084e-01 -2.500461665210461093e-01 -9.574142711385681404e-01
5.100368277781349713e-01 -4.083116370007131013e-02 -8.591828969322626852e-01
8.131679788626868799e-01 -4.204513509798080140e-01 -4.024655259915152494e-01
-2.901126522756245496e-01 -1.798965480905205224e-03 -9.569908111955940377e-01
-2.901126522756245496e-01 -1.798965480905205224e-03 -9.569908111955940377e-01
5.734578316473647464e-01 5.584942006127366701e-03 -8.192160421678098547e-01
-1.698828314768278669e-01 3.263251560897371950e-02 -9.849238257319424816e-01
2.050677375868344976e-01 4.349111709018193550e-01 -8.768121215094062393e-01
1.060390766997914430e-01 -2.481882965026669385e-01 -9.628905876016028431e-01
4.176882865974426151e-01 -4.187337654855402547e-01 -8.063488878156858108e-01
4.176882865974426151e-01 -4.187337654855402547e-01 -8.063488878156858108e-01
7.309097962071867682e-01 -3.351592858877808223e-01 -5.945074624355538573e-01
5.624171719172322836e-01 2.549327193258049337e-02 -8.264605361532963990e-01
4.121288276858197652e-01 -2.599034422524547083e-01 -8.732697350164133621e-01
3.710037255536956513e-01 1.618301803155311747e-01 -9.144218000268370394e-01
-3.520397458701906568e-01 8.301785369776901735e-01 -4.322864953583832603e-01
-7.249242190069678238e-02 1.042906531814788429e-01 -9.919013602299131538e-01
9.208371129862555349e-02 7.242309182170431070e-01 -6.833814214711796398e-01
6.720368796703222181e-01 3.363629415053465688e-01 -6.597169119742556376e-01
-5.047332747890008742e-01 2.401535517668321462e-01 -8.291987656132554507e-01
-5.860321708747381342e-01 -2.233542260474628560e-01 -7.788961319756187995e-01
-6.293404070405016482e-01 -1.794595853873292290e-01 -7.561249296767721395e-01
-7.989387728446833981e-01 -2.078704862407484630e-02 -6.010530224987904457e-01
-8.106479420707537464e-01 -1.094774972644200484e-01 -5.752083027992300757e-01
-6.713990217224804491e-01 3.251007504098201162e-01 -6.659826241825441695e-01
-8.572197595986399410e-01 2.605899118000769635e-02 -5.142909806056591426e-01
-8.306794378440373050e-01 5.573660149107140249e-02 -5.539540619919123277e-01
-1.616422326788242991e-01 2.205835251033519684e-01 -9.618808122982720477e-01
-7.115120753771186912e-01 -6.885736229684432663e-01 1.400604596046203243e-01
-8.491866515409345340e-01 -5.233578794263932243e-01 -7.055891784178774939e-02
4.359042419278566505e-02 -5.360105916872961451e-01 -8.430851205647788005e-01
2.052625579982229886e-01 -6.365079309397679852e-01 -7.434547303869964985e-01
2.296024040081438289e-01 9.031367859357612993e-01 -3.628039166868294862e-01
1.907794369681065638e-01 -1.556330252608145726e-01 -9.692169869942947047e-01
1.779347589126643869e-01 -8.051800258631786056e-02 -9.807426129368508327e-01
7.960147690718059055e-01 3.304624921454165087e-01 -5.071045540168220844e-01
-3.493495728225942676e-01 -3.437225704637598134e-01 -8.716706204309381256e-01
-2.801889985339924283e-01 -3.326294270048316126e-01 -9.004730919860713945e-01
5.240875738325491140e-01 5.778586220613417535e-01 -6.256289857924423048e-01
1.467316862587369486e-01 3.123233272447795139e-02 -9.886831411732754926e-01
-5.936538808808256018e-01 -1.272488812774165978e-01 -7.945959928975103725e-01
-5.567208166301751415e-01 -1.314759904045836869e-01 -8.202292339814305500e-01
-5.595215425952932975e-01 -5.404381328876257662e-01 -6.283806711641599652e-01
-5.772418997896642257e-01 -5.014675471920899685e-01 -6.444548768070333944e-01
-2.979297815579965425e-01 3.090761539987297857e-01 -9.031665274411790900e-01
-5.371155790437345257e-01 -5.313079543927147208e-01 -6.551478553330863930e-01
4.496533278989390814e-01 6.626842542520683388e-01 -5.988835144464984550e-01
-7.611654202962674365e-01 -2.028800864027162643e-01 -6.160088258186184884e-01
-5.564142264392559767e-01 -3.458628570523145651e-01 -7.555012195407857511e-01
-5.564142264392559767e-01 -3.458628570523145651e-01 -7.555012195407857511e-01
6.856805201434019725e-01 4.432616869989637332e-01 -5.773744895080717976e-01
-6.264563122107849047e-01 2.336896988693212551e-01 -7.436004394388355809e-01
-7.336082166540958127e-01 -3.273899650046559473e-01 -5.955122125295562174e-01
-7.336082166540958127e-01 -3.273899650046559473e-01 -5.955122125295562174e-01
-7.336082166540958127e-01 -3.273899650046559473e-01 -5.955122125295562174e-01
-7.300973642006265418e-01 -3.168995114691565140e-01 -6.054193079328636928e-01
-7.300973642006265418e-01 -3.168995114691565140e-01 -6.054193079328636928e-01
-7.300973642006265418e-01 -3.168995114691565140e-01 -6.054193079328636928e-01
-7.410059351511505410e-01 -5.785036605191987702e-01 3.409453311553873878e-01
-7.551490787361833101e-01 -4.433959311827605498e-01 4.828560003711939719e-01
-7.551490787361833101e-01 -4.433959311827605498e-01 4.828560003711939719e-01
-7.551490787361833101e-01 -4.433959311827605498e-01 4.828560003711939719e-01
-7.551490787361833101e-01 -4.433959311827605498e-01 4.828560003711939719e-01
-5.630329078619310534e-01 -7.689898203655813891e-01 3.027351992065827058e-01
-7.293990720917515880e-01 -3.303825505338015001e-01 -5.990195021320022795e-01
-7.293990720917515880e-01 -3.303825505338015001e-01 -5.990195021320022795e-01
-7.293990720917515880e-01 -3.303825505338015001e-01 -5.990195021320022795e-01
-7.293990720917515880e-01 -3.303825505338015001e-01 -5.990195021320022795e-01
-8.310157705273968354e-01 -4.406547766856922510e-01 3.394645149626684955e-01
-8.445505677705431591e-01 -7.221653048410398013e-02 5.305837457021198578e-01
-8.175365224079620408e-01 -1.017573883368110173e-02 -5.757868432573676198e-01
-8.083355900822897233e-01 -2.922935140465819648e-02 -5.879959343590560605e-01
-8.070448037167606836e-01 -2.185557588019408984e-02 -5.900856027702422457e-01
-8.170314860384861877e-01 -2.052317270297301932e-02 -5.762276895498400497e-01
-7.776337375816905206e-01 6.250166675498205482e-01 6.811707171955853901e-02
-7.622513840529158147e-01 -4.637005114466868361e-01 -4.516134001482852156e-01
-9.344014929222262955e-01 -2.405122800184901211e-01 2.627692774755487903e-01
-9.433357376142947892e-01 -1.464276680443728496e-01 2.977862054742989595e-01
-9.523257591463770710e-01 -2.107976637817245147e-01 2.205447650941718130e-01
-8.552016367566753763e-01 -3.959328774954960772e-02 -5.167809323629160012e-01
-7.222845186263919803e-01 1.714287927663792413e-02 -6.913835374397830913e-01
-7.284888471908796959e-01 2.813065924722747968e-01 -6.246363746614030932e-01
-6.099844666582405761e-01 -7.914802284561578416e-01 -3.844474474684198007e-02
-1.579452559524065214e-01 9.783699223910886644e-01 1.335873911811445158e-01
-4.518212839079197018e-01 7.326579485773255795e-01 -5.089890546900434076e-01
6.206617253207560303e-01 -7.160055545521666343e-01 -3.195544845129023037e-01
7.215739963477035834e-01 -3.595323067689908808e-02 -6.914031624158931688e-01
-7.018238085244496993e-01 -6.880700995480384385e-01 1.843986981954836291e-01
-8.685926351608613816e-01 -3.514511508872756873e-01 3.493263841800676728e-01
-7.977346378215357525e-01 -3.083892982599194532e-01 5.181848013387673202e-01
-3.415578784268679668e-01 -7.267048024591991062e-01 -5.960187461542408860e-01
-3.422108858176833857e-01 -7.358861939607170832e-01 -5.842629709008489991e-01
-4.625782556803663126e-01 -7.526556656174077098e-01 -4.685411469505390003e-01
-4.628974780431026059e-01 -6.682934257328748684e-01 -5.823313678169447227e-01
-3.973311202379785634e-01 -7.033030666909717565e-01 -5.894851798590931002e-01
-3.973311202379785634e-01 -7.033030666909717565e-01 -5.894851798590931002e-01
-2.893335608483764143e-01 -6.979425839965827105e-01 -6.551047549903541434e-01
-2.178799200631345301e-01 -7.446374945851499394e-01 -6.309067618049697401e-01
-2.178799200631345301e-01 -7.446374945851499394e-01 -6.309067618049697401e-01
-2.810747813653675653e-01 -7.839791623314782409e-01 5.535102892543594111e-01
-2.810747813653675653e-01 -7.839791623314782409e-01 5.535102892543594111e-01
-3.297926968894753230e-01 -6.976998189897835045e-01 -6.359652031833108454e-01
-3.297926968894753230e-01 -6.976998189897835045e-01 -6.359652031833108454e-01
-3.297926968894753230e-01 -6.976998189897835045e-01 -6.359652031833108454e-01
-3.429126826392130956e-01 -6.616235771174272529e-01 -6.668321635070686426e-01
-3.034537917682774144e-01 -7.134279016978166688e-01 -6.316141427647938844e-01
-3.034537917682774144e-01 -7.134279016978166688e-01 -6.316141427647938844e-01
-3.034537917682774144e-01 -7.134279016978166688e-01 -6.316141427647938844e-01
-8.079535766579799549e-01 -4.157646423797222712e-01 4.175533260703826466e-01
2.974859495177177848e-01 7.919174981217664833e-01 5.332623988320419617e-01
-1.048823947613483493e-01 6.712996653779578216e-01 7.337277714061031242e-01
-6.511245626060165881e-01 1.148127495468125314e-01 7.502365203804893801e-01
-6.704147840240316514e-01 1.323272958881262784e-01 7.300914354551401031e-01
-5.765997346689414327e-01 2.298771926065910076e-01 7.840211874044085150e-01
-6.032269177737719090e-01 2.943886810069537563e-01 7.412506931990965331e-01
-7.004926626091514397e-01 1.110718003435403195e-01 7.049631797471314076e-01
-7.174582717743560600e-01 -1.827138477664668739e-03 6.965990883051293991e-01
-6.958463125089919821e-01 7.292665245274686237e-02 7.144785600209949683e-01
-6.680753200749002252e-01 2.111500273277944484e-01 7.135061546099593643e-01
-7.144700217145941723e-01 1.322876340186081301e-01 6.870462647863722072e-01
-6.478082116316417061e-01 1.704568592247089898e-01 7.424883703371130128e-01
-9.002572952933861339e-02 9.958982258932312925e-01 -9.060446204513355681e-03
-8.328500603149877612e-01 -2.176630408734686606e-01 5.089042912680498132e-01
-8.328500603149877612e-01 -2.176630408734686606e-01 5.089042912680498132e-01
-8.750528198028419968e-01 -2.946681674139568496e-01 3.839963979883080358e-01
-8.623298587484621303e-01 -2.583687010296317199e-01 4.354685167025488801e-01
-8.470321318941564925e-01 -1.503140794286498549e-01 5.098453148400577950e-01
-8.176933269949034910e-01 -1.666496355572307519e-01 5.510041033936571298e-01
-7.756036757356032929e-01 7.265334190568213668e-02 6.270250633709606447e-01
-8.501602680450637273e-01 -1.936527287782442361e-02 5.261677535196475075e-01
-7.504146475735573585e-01 7.589713880036277893e-02 6.565953708555766211e-01
-9.078301426962098741e-01 -2.106454887922209335e-02 4.188086875802529141e-01
-9.078867262135421612e-01 -2.082748031070047814e-02 4.186978724918053452e-01
-9.049205223333727233e-01 -1.122145406425887823e-02 4.254326353590890952e-01
-9.135784558325436011e-01 -3.018710324242700541e-02 4.055405575727985545e-01
-9.162575376567522190e-01 -1.501164371499749683e-02 4.003083502003912941e-01
-8.934173349232532590e-01 -1.130847695710482034e-02 4.490852747614223484e-01
-9.043907781881415087e-01 -1.112816372617116412e-01 4.119389730731976007e-01
-9.110286952143992201e-01 -1.123512492942532609e-01 3.967416202996228991e-01
-9.110286952143992201e-01 -1.123512492942532609e-01 3.967416202996228991e-01
-8.970229866240356786e-01 -4.355993789755343432e-02 4.398321194256469280e-01
-8.948101785825789412e-01 -2.980513955775861423e-01 3.323854838877089435e-01
-3.822040829679735352e-01 8.947234900000906599e-01 -2.310625789795225093e-01
-9.090197071008349061e-01 -2.637023353263376335e-01 3.227138832553508863e-01
-9.090197071008349061e-01 -2.637023353263376335e-01 3.227138832553508863e-01
-9.090197071008349061e-01 -2.637023353263376335e-01 3.227138832553508863e-01
-9.082219990466705584e-01 -2.101450460985809787e-01 3.619003454652879870e-01
-9.082219990466705584e-01 -2.101450460985809787e-01 3.619003454652879870e-01
-9.545159895114674331e-01 -3.264200219340203379e-02 2.963675512935757816e-01
-6.716253667508762515e-01 3.137706104836946452e-01 6.711686604225800545e-01
-9.554718005876386977e-01 -2.249527258809652097e-01 1.909709648102003166e-01
-9.554718005876386977e-01 -2.249527258809652097e-01 1.909709648102003166e-01
-9.554718005876386977e-01 -2.249527258809652097e-01 1.909709648102003166e-01
-9.554718005876386977e-01 -2.249527258809652097e-01 1.909709648102003166e-01
-9.547494004761645225e-01 -2.970186825044224266e-01 1.528020071012245809e-02
-9.380495216767145150e-01 -3.164690790414733113e-01 1.411042766634970635e-01
-9.646996331267889691e-01 -2.607192884521750131e-01 -3.714929977846369302e-02
-9.200663911272488615e-01 -3.581596172501901321e-01 -1.587435809388141883e-01
-6.506863094582262530e-01 4.665200491067578170e-01 5.991380228837608346e-01
-8.136509757428141976e-01 5.255417776804023333e-01 2.485516638151691882e-01
-9.332261243088049163e-01 1.841818830891583658e-01 3.084899266577415533e-01
-9.198427119594757562e-01 1.340561842524052583e-01 3.686710250599065652e-01
-8.969539790541319890e-01 9.806953365808805667e-02 4.311101089362727734e-01
-8.796300775696066498e-01 2.721643903597172343e-01 3.900993094777420178e-01
-9.299245271476584973e-01 3.370960752508280617e-03 3.677349730890563939e-01
-8.818345124745480268e-01 7.890702719844058799e-02 4.649102856116230087e-01
-8.519208292414395256e-01 3.028821400832104049e-01 4.271923570514720714e-01
-8.882283691394321501e-01 4.845314062354109247e-02 4.568398597097456104e-01
-5.055283628773059590e-01 2.258176303995112211e-01 8.327349350947998996e-01
-8.489848974206777310e-01 2.838069364675497308e-01 4.457334032406652935e-01
-8.538600604885242529e-01 2.954594371287168064e-01 4.285168819476261048e-01
-4.447934187511488613e-01 4.718091640080962490e-02 8.943896107196488421e-01
-8.134632639875883919e-01 3.675616109119742569e-01 4.507504634789117337e-01
-7.956722618830087690e-01 4.191762108188364366e-01 4.372607413815458588e-01
-7.901884726781158719e-01 4.116962147631442748e-01 4.539916347206471303e-01
-7.901884726781158719e-01 4.116962147631442748e-01 4.539916347206471303e-01
-8.229893377448370684e-01 1.556910004414475412e-01 5.463047339533639857e-01
-7.062936406361953745e-01 6.330507357148057457e-01 3.168533717791435222e-01
-7.013712400382304812e-01 6.626294233314277138e-01 2.626797117835606432e-01
-8.044116001232904933e-01 5.819683083183272432e-01 -1.193099564168546151e-01
-8.567203662180323809e-01 4.325088521710729328e-01 -2.810094427255094840e-01
-8.321644526425527877e-01 4.455813363440979669e-01 -3.300902853158941275e-01
-7.928312475141038318e-01 5.184454852810480574e-01 -3.203636867014245104e-01
-9.318541319384220367e-01 -1.345559776837557120e-01 -3.369607776268013222e-01
-9.669629084738510238e-01 1.942657280489170149e-02 -2.541758090472956422e-01
-8.071366695649704326e-01 3.371898285903141695e-02 -5.894009050201060029e-01
-9.254341473614376978e-01 -2.031018574882967609e-01 -3.198769675706775173e-01
-9.005905031820693463e-01 1.590262082628748908e-01 -4.045335717388606755e-01
-6.914365937199457024e-01 7.818042979817699245e-02 -7.181944425164616952e-01
-9.450390130650564435e-01 1.097321007721394244e-02 -3.267733961717591007e-01
-8.070938440514916490e-01 -3.401110950278973255e-01 -4.826219741506918015e-01
-8.937386751441962485e-01 -3.372023695283310474e-01 -2.958474987826933411e-01
-8.937386751441962485e-01 -3.372023695283310474e-01 -2.958474987826933411e-01
-9.415931968776929395e-01 -3.367510883596000482e-01 -9.777945956474191208e-04
-9.765764032826934615e-01 -1.803660030056475627e-01 1.173312980888084611e-01
-9.765764032826934615e-01 -1.803660030056475627e-01 1.173312980888084611e-01
-9.765764032826934615e-01 -1.803660030056475627e-01 1.173312980888084611e-01
-9.968796084981857986e-01 -7.885702751635019492e-02 -3.551812465384658873e-03
-9.968796084981857986e-01 -7.885702751635019492e-02 -3.551812465384658873e-03
-9.968796084981857986e-01 -7.885702751635019492e-02 -3.551812465384658873e-03
-9.968796084981857986e-01 -7.885702751635019492e-02 -3.551812465384658873e-03
-9.940743283656559015e-01 -1.021596862528882793e-01 -3.714334649814921702e-02
-9.940743283656559015e-01 -1.021596862528882793e-01 -3.714334649814921702e-02
-6.985436221480092467e-01 4.025248804030898131e-01 5.916168765449626443e-01
-8.674420039107511027e-01 -1.556745654654716482e-01 -4.725566627595436664e-01
-8.674420039107511027e-01 -1.556745654654716482e-01 -4.725566627595436664e-01
-8.674420039107511027e-01 -1.556745654654716482e-01 -4.725566627595436664e-01
-9.251527888066963801e-01 -3.538747683738681094e-01 -1.373497931251935200e-01
-9.441864131197867938e-01 -3.085268999770430787e-01 -1.154260337642554757e-01
-1.012925415289776115e-01 9.434487181411761458e-01 3.156649129510147866e-01
-8.685932640616401690e-01 -2.082938962307733233e-01 -4.496213900825334342e-01
-8.685932640616401690e-01 -2.082938962307733233e-01 -4.496213900825334342e-01
-8.685932640616401690e-01 -2.082938962307733233e-01 -4.496213900825334342e-01
-8.685932640616401690e-01 -2.082938962307733233e-01 -4.496213900825334342e-01
-8.679955586643584020e-01 -1.949257219094087390e-01 -4.567139948337954891e-01
-8.679955586643584020e-01 -1.949257219094087390e-01 -4.567139948337954891e-01
-8.679955586643584020e-01 -1.949257219094087390e-01 -4.567139948337954891e-01
-8.958037669650754653e-01 -2.175572311150285321e-01 -3.875622044017487111e-01
-9.202241357965494917e-01 5.807406630168569783e-02 -3.870593529688708956e-01
-9.202241357965494917e-01 5.807406630168569783e-02 -3.870593529688708956e-01
-9.142805284983269720e-01 5.054455404210992514e-02 -4.019158659041770498e-01
-9.123234342945709674e-01 3.960218540866371900e-02 -4.075507553027197249e-01
-9.195558322766737014e-01 1.665745955326216818e-02 -3.926061644538776374e-01
-9.203274467824681393e-01 -2.084763848234773981e-02 -3.905928400119140220e-01
-8.739125994949379361e-01 -1.732750635691740759e-01 -4.541503284036012555e-01
-6.798529715306511623e-01 -2.207308844581780949e-01 -6.993409853192176229e-01
-7.860765824697053539e-01 1.058484103905937279e-01 -6.089989495151308940e-01
-8.108364670469823121e-01 9.368057433726133254e-02 -5.777267292575346547e-01
-7.267857416458952668e-01 -3.069393492229125497e-01 -6.144678361304526382e-01
-7.839560862886173487e-01 1.039416625378276060e-01 -6.120530904749249546e-01
-8.162524934771823171e-01 1.416412798973462443e-02 -5.775216397422460179e-01
-8.688188014163834572e-01 1.344230859336092597e-03 -4.951283503787634044e-01
-7.630888897858018050e-01 9.896249714783220131e-02 -6.386718801103878906e-01
-7.613773478993260957e-01 8.630862351807609689e-02 -6.425382133478161339e-01
-7.619758834416763271e-01 -1.033543743458260611e-01 -6.393047992599927287e-01
-8.762509131400820772e-01 1.180967356778393762e-01 4.671589646398867646e-01
-8.608853170306381974e-01 1.670064140497502236e-01 4.806093305245968117e-01
-9.104320655297729603e-01 3.719689187201397074e-01 -1.809767320993542483e-01
-6.644270091888951901e-01 5.854305920209126324e-01 4.645511504520720147e-01
-7.220722250769541217e-01 1.983388719430042857e-01 -6.627770316243564164e-01
-7.682394166281072412e-01 2.249943193450164303e-01 -5.993210783890203786e-01
-8.461802555979081042e-01 1.366474356982824989e-01 5.150790748548640385e-01
-8.324553807422129248e-01 1.538876525144385610e-01 5.322937436011555556e-01
-8.324553807422129248e-01 1.538876525144385610e-01 5.322937436011555556e-01
-8.319931033709920820e-01 9.040841606629476668e-02 5.473698879619606217e-01
-8.021044965935527626e-01 1.448865787056176080e-01 5.793412257516153963e-01
-8.021044965935527626e-01 1.448865787056176080e-01 5.793412257516153963e-01
-8.425481457798662532e-01 1.332369153332209344e-01 5.218817360622973744e-01
-8.760712607292260312e-01 1.056458352731726863e-01 4.704658368189321704e-01
-7.562198287242676287e-01 3.508875862769239573e-01 5.522766267378997895e-01
-6.375506198822282755e-01 6.077118386763921132e-01 4.735140211444062164e-01
-5.498933661268385897e-01 -4.424475247220285151e-02 8.340621606141642719e-01
-1.010568884597975448e-01 -6.386374511056041037e-01 7.628431761116837295e-01
6.144941035015399899e-01 6.288629372201561818e-01 4.763700273450003353e-01
4.763423613335573958e-01 6.323043134123316200e-01 6.109739847483938169e-01
-3.919578749570964415e-01 5.030356991791032906e-01 7.702753466199654397e-01
-3.255082387076576045e-01 5.894509375123367922e-01 7.393185908654441585e-01
-3.359868331473088721e-01 1.398055164304094489e-01 9.314329098369185100e-01
-2.275673377043100076e-01 2.298600980933355187e-01 9.462438597500618664e-01
2.514438519822462803e-01 8.809226719018664609e-01 4.009379446118894186e-01
-1.070319931571317579e-01 4.617772414012832893e-02 9.931826469658285861e-01
-8.788277229696511705e-02 4.046647334925718709e-01 9.102324273507208519e-01
-3.201590335809145760e-01 8.023239303621633178e-01 5.037603636499652371e-01
1.362155294666481109e-01 9.448562073352416713e-01 2.978121505113305867e-01
2.028178787493547242e-01 7.587028656017217321e-01 6.190596657732984065e-01
1.078904335964451511e-01 9.052283488942682865e-01 4.110003536452589978e-01
2.797521423434237153e-01 8.250700683761332810e-01 4.909155947044944734e-01
-2.663143362579962203e-01 2.342703910702968462e-01 9.349834534210929027e-01
-2.760027838695913727e-01 2.305436957972765710e-01 9.330981018222942458e-01
-2.760027838695913727e-01 2.305436957972765710e-01 9.330981018222942458e-01
-5.270710777666720581e-01 -7.278561068705663439e-01 4.386588271915902726e-01
-5.270710777666720581e-01 -7.278561068705663439e-01 4.386588271915902726e-01
-1.209212700087453490e-01 -2.222562755887686481e-01 9.674606939927230531e-01
6.443865678921820717e-01 4.326270222240390928e-01 6.305551607604961140e-01
-1.956050534656846862e-01 2.182331927431525320e-01 9.560925356072060843e-01
-1.716455528488044779e-01 2.211820859380077831e-01 9.600084838413357469e-01
4.642899866607643200e-01 7.703717883604388472e-01 4.369921234815183353e-01
6.303567884708807245e-01 4.790706186283818502e-01 6.108532242656143918e-01
-3.559323640199896222e-01 -4.891268844131702598e-01 7.962832681825023906e-01
-2.532274307550896886e-01 -5.791388780885045051e-01 7.749025927170231087e-01
-7.157093514843922977e-01 7.590445637452547523e-02 6.942612171944203547e-01
-3.197491943863008945e-01 -4.708034767774632035e-01 8.222557624872958160e-01
-3.424353501855392778e-01 -6.423261885370423752e-01 6.856785678893448921e-01
-6.033668821148705508e-01 3.609704624225314462e-01 7.110898190984341616e-01
-3.651387060973704246e-01 -4.704790570704481811e-01 8.033200994420841567e-01
-5.755994391131451504e-01 1.008744049062390985e-01 8.114860689669570748e-01
-5.615561897126413182e-01 1.221557710455259127e-01 8.183719285237568419e-01
-6.643370562232068233e-01 -3.395967810849628288e-01 6.658305355009003224e-01
-1.951377795229184420e-01 5.210452845137691913e-01 8.309230159821247019e-01
9.294509753019547516e-02 5.894703424246149348e-01 8.024250271812997104e-01
2.832179719794225559e-01 3.541015816928319571e-01 8.912910019687722007e-01
-5.474370096350097414e-01 5.280427372917605444e-01 6.492176738778011602e-01
-6.245119427883114582e-01 2.989188144182054474e-01 7.215485955232558979e-01
-6.664548532629881450e-01 -5.440726287758999025e-01 5.097282640575179213e-01
-6.443926344825041674e-01 -5.576171794898158174e-01 5.232792884899232222e-01
-6.443926344825041674e-01 -5.576171794898158174e-01 5.232792884899232222e-01
-6.139547341031212913e-01 -5.902629799304039970e-01 5.240698417158202727e-01
-6.139547341031212913e-01 -5.902629799304039970e-01 5.240698417158202727e-01
-4.504223092022470731e-01 3.291668820025566156e-01 8.299210246557380266e-01
-6.020003504951425555e-01 3.735832106851034728e-01 7.057132297880881477e-01
6.872515755447889951e-01 -3.005276583436520821e-01 6.613383388869016333e-01
7.220235063611978310e-01 -2.830635259041762719e-01 6.313137861353711466e-01
4.208446491599260320e-01 -8.908285502571045011e-01 -1.712141212642351862e-01
6.890939161988178796e-01 -4.067498932820488577e-01 5.997533651200452898e-01
6.716497376250729623e-01 -7.226388649809913911e-01 -1.633392199294309288e-01
4.511359587956582096e-01 -8.702554727428390979e-01 1.978174887179085517e-01
4.511359587956582096e-01 -8.702554727428390979e-01 1.978174887179085517e-01
8.221595611003632564e-01 -5.406279781817069363e-01 -1.782555617601256637e-01
-5.278238815229231717e-02 -8.236294726075296113e-01 -5.646667259128904659e-01
1.064941533296473036e-01 -8.384758462532460044e-01 -5.344317080380844853e-01
5.847449460720639119e-02 -8.856829741461732519e-01 4.605935331591411441e-01
-2.258246490488166058e-01 -8.135507148586820225e-01 5.358530229782288989e-01
2.294774031718383733e-01 -9.161705006273997975e-01 3.285905281861440930e-01
2.294774031718383733e-01 -9.161705006273997975e-01 3.285905281861440930e-01
2.357276903311704974e-01 -9.251115984782127821e-01 2.976591782092695149e-01
4.533440449938661021e-01 -8.651382321747647097e-01 2.145111094981388133e-01
4.533440449938661021e-01 -8.651382321747647097e-01 2.145111094981388133e-01
4.533440449938661021e-01 -8.651382321747647097e-01 2.145111094981388133e-01
2.694187332966530013e-01 -8.588962417097580904e-01 4.355580238334263443e-01
3.799840144162643929e-01 -9.165875169692965230e-01 -1.244165283399277788e-01
6.430857352703998053e-01 -7.623729543739926617e-01 7.230640034464128063e-02
3.996485163458632361e-01 -8.828993599412318094e-01 -2.465152806580424294e-01
4.089010800696940007e-01 -8.793192640335030230e-01 -2.441260711546728301e-01
5.399253016344738310e-01 -8.271763314767142106e-01 -1.557561725892341598e-01
4.274810439327799139e-01 -8.486681138218633569e-01 -3.114841724071731321e-01
4.529911382037080658e-01 -8.468267325330620654e-01 -2.787176237274684998e-01
4.051918355216539425e-01 -8.612046209357511195e-01 -3.068324906288480980e-01
4.030750012328117027e-01 -8.741284516442027197e-01 -2.709796918724302062e-01
4.805531545106749292e-01 -8.498551334155868275e-01 2.163675527823301359e-01
4.805531545106749292e-01 -8.498551334155868275e-01 2.163675527823301359e-01
3.764342923383301454e-01 -8.783713972068928344e-01 2.945520533293760068e-01
5.542344356103505731e-01 -8.296383342175663866e-01 -6.726384452570352557e-02
6.000848515076260270e-01 -7.995538516236359028e-01 2.473478006530847526e-02
6.150907554076245898e-01 -3.048807631952372699e-01 7.271252181334156850e-01
3.196794092103700247e-01 7.266108750092303836e-01 -6.081461268850022472e-01
6.810186676262778294e-01 -5.422696589019343483e-01 -4.920946975724377337e-01
7.704091446242625763e-01 -2.734780354973429528e-01 -5.759162386839132841e-01
8.578873443641825691e-01 -4.572118105297152679e-01 -2.344923552952425383e-01
7.545683315165497840e-01 -1.711571225320747403e-01 -6.335075946497172872e-01
7.669353803422509497e-01 -5.918997526849127944e-01 -2.479209655330219531e-01
6.445229713845044284e-01 -7.523740360917297032e-01 -1.361008786625938216e-01
5.084278400254983454e-01 -5.190598824709780068e-01 -6.870793039353032539e-01
6.951796162652241762e-01 -3.768994039635066851e-01 -6.121046809339796280e-01
6.853041184732353575e-01 -4.198161259234639564e-01 -5.950736808314043280e-01
6.853041184732353575e-01 -4.198161259234639564e-01 -5.950736808314043280e-01
6.732412158870410002e-01 -4.604511035685392439e-01 -5.785594580105427598e-01
6.408863324150161356e-01 -6.199938034155154654e-01 -4.526283162264513882e-01
5.774699202902920936e-01 -7.967772960371340973e-01 1.779731206662309717e-01
4.029353638607496291e-01 -9.113635776458977045e-01 8.402096102089795515e-02
2.481664628667421546e-01 9.570384733803859456e-01 -1.499692207686311174e-01
5.493500273587870186e-01 -7.199382689211740738e-01 -4.241502521320519303e-01
4.088854573257184044e-01 -5.894790572244886784e-01 -6.966542355295531896e-01
4.181898602357723149e-01 -8.323609054323787282e-01 -3.637204474644993857e-01
-3.318743903622266012e-01 9.390293318619978846e-01 -8.990719061626979702e-02
4.670699013069242178e-01 -1.625012428564651390e-01 -8.691599699498615550e-01
3.808064296192434917e-01 6.498058526449299044e-02 -9.223686826314779763e-01
4.739122006487874184e-01 -2.620570128783034428e-02 -8.801820762184585645e-01
3.590905301027901286e-01 4.559389002344851893e-01 -8.143547816790084326e-01
3.211517726314357946e-01 -5.608491051239982150e-01 -7.630922750344789618e-01
3.728574183899638905e-01 -8.129315996099801822e-01 -4.473472475685194572e-01
4.683463558570457042e-01 -8.209104543487744099e-01 -3.267379942649983326e-01
4.683463558570457042e-01 -8.209104543487744099e-01 -3.267379942649983326e-01
9.192913035997963833e-01 -1.674317479814703691e-01 3.561883053858679871e-01
9.326182681407270136e-01 -1.536445027264024821e-01 3.265218717209421029e-01
8.597482596583747583e-01 -3.142255809660017829e-01 4.026104994668847081e-01
7.370674441633940921e-01 -1.836717797098370575e-01 6.503816265029810362e-01
7.956637046547974101e-01 -9.795268971209843134e-02 5.977662918508945822e-01
5.041917354118677919e-01 2.548720162045503002e-01 8.251248083158065905e-01
6.468258265634619919e-01 4.540287154281379828e-02 7.612850513087464632e-01
9.453908233124185267e-01 -1.147773922561173693e-01 3.050612093065144248e-01
9.649028887176718250e-01 8.465121439727509023e-02 2.485891937421232101e-01
8.778261924081397494e-01 3.436378671279216590e-01 3.336677871746091539e-01
8.025256976870593917e-01 4.018071614097061262e-01 4.410255203406861502e-01
8.229519357210668407e-01 -2.408277265413807586e-02 5.676003273027934171e-01
7.952343677441876535e-01 -2.621378632951316678e-01 5.467047109597327204e-01
7.848544059369859660e-01 -6.085074530982005347e-01 -1.171419694440981873e-01
9.904623761109928592e-01 -1.305421595767820298e-01 -4.407976952748655225e-02
8.701390357655469643e-01 -3.182464158913364538e-01 -3.762675606657086003e-01
8.924061256743095472e-01 -4.482551980872190311e-01 5.175504078595947327e-02
8.972572783258969675e-01 -3.035572708354321025e-01 3.205968805433824231e-01
4.663271631806503725e-01 8.775381332395145728e-01 -1.116503541883994005e-01
9.595079049958173956e-01 1.158496679938869345e-01 2.567555932715853695e-01
6.043312182467128757e-01 5.964792168713800580e-01 -5.282010246988819713e-01
8.780275408921135449e-01 3.852149633064583245e-01 -2.840370917323151723e-01
9.146707109153145998e-01 -5.859256997754486163e-02 3.999304956328030847e-01
5.754038571049588935e-01 2.464080143997315342e-01 7.798676116292546645e-01
9.453560255017993130e-01 -6.902064647429757838e-02 -3.186504909892838300e-01
4.943240282853360035e-01 6.970986277554427346e-01 5.193238471717208649e-01
8.459441766104273119e-01 -1.094567271960466687e-01 -5.219173066017609441e-01
8.508914882393653345e-01 2.061535692754974669e-03 -5.253374394733212327e-01
4.904939564489935178e-01 3.782181422303830809e-01 7.850902595083004698e-01
5.602463573054959900e-01 3.632785904137918465e-01 7.444143233931563852e-01
9.242599133903693920e-01 -3.737572460587803014e-01 -7.777617577499745805e-02
9.409534341345701103e-01 -3.352747038225387666e-01 -4.687758277757277103e-02
9.337172262655245580e-01 -3.529632759434597755e-01 -5.990882414366072162e-02
9.188170800193002918e-01 -3.889080041448964020e-01 -6.727360386392221281e-02
9.817910483301860447e-01 -1.895600022426530418e-01 -1.238317279535621450e-02
5.224205058685180703e-01 -4.385062585909318411e-01 7.312927431779044918e-01
5.676205184927632930e-01 1.571407957289615576e-01 8.081545132607224069e-01
3.336832983099189409e-01 -8.306402236073452405e-01 4.457491170541488801e-01
7.078280459298640359e-01 -5.711518325607477520e-01 4.156501432185606970e-01
6.242987827892743091e-01 -5.966059220147477138e-01 5.042939654851754661e-01
8.516449106397054880e-01 -5.119579131931255578e-01 1.122499055697969012e-01
8.061617396247942047e-01 7.296598733385097069e-02 5.871790308394210234e-01
1.508533340628473718e-01 -5.452289944352132212e-01 8.246020950914988434e-01
2.940842206775284851e-01 -7.372137595393831733e-01 6.083011950459240591e-01
3.122480863323094380e-01 -1.149390577295586330e-01 9.430218160732295463e-01
1.946138931700961971e-01 8.702917243096252031e-01 4.524574534509933077e-01
4.914298594913769636e-01 -5.284052408496123787e-01 6.923038311629864383e-01
4.398355858277170349e-01 -4.759893202604021933e-01 7.615634080217018598e-01
2.921489668262065020e-01 -7.323148103588923430e-01 6.151129975146026885e-01
4.190693170746615515e-01 -5.859086300604701147e-01 6.936079474077844198e-01
4.190693170746615515e-01 -5.859086300604701147e-01 6.936079474077844198e-01
4.160439458082768049e-01 -7.397763043108852576e-01 5.288085236987091209e-01
6.565038855618685054e-02 5.123666900649082034e-01 8.562537015361463277e-01
2.945923220759937844e-01 5.201717837396150346e-01 8.016462306872158550e-01
-2.689581231355768209e-01 -4.863875233383528895e-01 8.313174514829886341e-01
-4.589783710546833650e-01 -1.559156633323028618e-01 8.746594542058282462e-01
7.600902240766650442e-01 2.764545069779505981e-01 5.880780193432360026e-01
7.600902240766650442e-01 2.764545069779505981e-01 5.880780193432360026e-01
8.937583040647422150e-01 2.606101738142115876e-01 3.650731861145680712e-01
8.937583040647422150e-01 2.606101738142115876e-01 3.650731861145680712e-01
9.088827845333491418e-01 2.096947778610744051e-01 3.604999086223187321e-01
-3.530986143776340125e-01 5.147323416682849651e-01 7.812630702684458806e-01
8.475400384364658590e-01 -5.220227778338738522e-01 9.575020976331972966e-02
1.114764104460150007e-01 -4.315242894319335498e-01 8.951870181947102489e-01
-5.482382983002859200e-01 2.750635165960740869e-01 7.897941694610108865e-01
2.778753747682753961e-01 -3.632686018945286421e-01 8.892812822583104904e-01
-1.583052950026646866e-01 5.674882838656430950e-01 8.080200995330171221e-01
2.518399146757140938e-01 6.112561747680427260e-01 7.502949727834173910e-01
-5.255876941730935892e-01 2.047234970390494901e-01 8.257395869727410798e-01
-5.512784356329298863e-01 2.517621026071390489e-01 7.954293998193315840e-01
-1.616578577570600694e-01 9.661233477646614665e-01 2.011775681565952378e-01
-4.664585368049898872e-01 5.726029808444651481e-01 6.741974931500271939e-01
4.453668774122078178e-01 -1.249883611070881223e-01 8.865812168616384881e-01
3.750005447054632346e-01 -3.877047833948409766e-02 9.262134967057722434e-01
6.946159156518374456e-01 2.836922261052140723e-02 7.188211995563530410e-01
5.744159132563116943e-01 -9.221634833328581915e-02 8.133526318258222920e-01
1.007481498399002279e-01 -4.381782942327862029e-01 8.932242679008911557e-01
-3.889839901771167119e-01 -3.727962574104321525e-01 8.424454913207521933e-01
3.600759910180729717e-01 -3.591278694642617286e-01 8.610298798917567220e-01
5.961578603872551563e-01 6.154731884551325471e-01 5.155468550882282841e-01
6.138871324500395632e-01 5.955836721069779349e-01 5.180952404064675942e-01
6.552963070240831467e-01 5.611451924244936773e-01 5.056706665602390682e-01
6.181085126525172058e-01 6.287958067008286855e-01 4.717602145814620007e-01
5.491565966922324904e-01 2.595794203206668871e-01 7.943837591840553491e-01
-3.435154117943507446e-01 -5.968229938977995808e-01 7.251203181642510431e-01
9.997057547860029036e-02 -1.571774694813255213e-01 9.824973929359427371e-01
1.317572990144849632e-01 -1.487140420790658835e-01 9.800633386903693234e-01
4.618167241561083047e-02 -5.434825113003799446e-02 9.974535180809196433e-01
1.713464829534354639e-01 -7.701038253379770271e-02 9.821964079355444133e-01
2.104253447450686876e-01 -6.180684766849473544e-01 7.574381376833805302e-01
3.179487784340988554e-01 1.062838800335011574e-01 9.421317907476047804e-01
6.781408552290325575e-01 5.022804944259797733e-01 5.365065567059082996e-01
-2.533670949482259571e-01 -6.204833780575699231e-01 7.421627131241256281e-01
-1.387874743218368151e-02 -5.773670661606241650e-01 8.163667382266301953e-01
-3.129958095588966649e-01 -6.821595819561323548e-01 6.608267003867244194e-01
-3.129958095588966649e-01 -6.821595819561323548e-01 6.608267003867244194e-01
-4.065459810217544323e-01 -6.124386742526434224e-01 6.779669870979881940e-01
-4.065459810217544323e-01 -6.124386742526434224e-01 6.779669870979881940e-01
-9.075919130888533692e-02 6.430971259044741817e-02 9.937942594216829795e-01
5.234772934693542046e-02 8.824849088984235146e-02 9.947220310659081743e-01
-4.664016708895130092e-01 -6.688826808512853273e-01 5.788483744890952076e-01
-4.664016708895130092e-01 -6.688826808512853273e-01 5.788483744890952076e-01
1.489773983206259533e-01 7.810614453217733510e-01 6.064229163063347139e-01
6.557220087198865066e-01 5.485192342159880274e-01 5.188017896802814555e-01
4.664775308184326286e-01 7.239582371362995872e-01 5.082156866174437626e-01
4.992722086106195223e-02 9.528302493986011701e-01 2.993689837776961071e-01
8.192145955027556326e-02 9.466988129689370979e-01 3.115288622075933489e-01
-5.913199203802733672e-01 4.080087183381859162e-01 6.956073874834122206e-01
-7.633872079201209360e-02 7.908659359782529430e-01 6.072095775077012147e-01
2.729286459322755043e-01 1.111252737017437570e-01 9.555946461624234001e-01
5.883368074205930914e-02 -1.908903135692361364e-01 9.798466646347173681e-01
4.756595044598482813e-01 -3.730025132626934026e-01 7.966286217031910422e-01
2.706972521663072451e-01 -3.935414695202859026e-01 8.785488657083478925e-01
-4.539630421378395564e-01 5.772031264692518704e-01 6.787887058334712842e-01
-8.702197614283241345e-01 5.945645130439524903e-03 4.926278677902961034e-01
3.857186762545265074e-02 8.194635415592391725e-01 5.718318940764616221e-01
-6.323369589321711781e-02 -2.572305460217876316e-01 9.642789772140721860e-01
3.237802257012722396e-01 -3.799048630924976577e-01 8.665094693328537767e-01
1.707603856566476952e-01 -3.147769935416975806e-01 9.336789250203963997e-01
4.997607306422620077e-01 4.672996101222991888e-02 8.649020307825089349e-01
3.044940937990916474e-01 -4.155194484933500410e-01 8.571038062949273284e-01
7.165241001280240329e-01 -4.279502596665428135e-03 6.975492095854245456e-01
6.800576558225963630e-01 3.114919667470532616e-01 6.636974758194635893e-01
7.217056344700796267e-01 -4.143241871342262517e-01 5.545055862024318438e-01
6.177335549423439431e-01 1.456303696875652087e-01 7.727852551148716165e-01
4.283054380965627406e-01 3.607887578616002511e-01 8.284841120369146328e-01
-2.106327907037217340e-01 -2.698965779581328772e-01 9.395688717102389509e-01
-4.473944850653404637e-01 5.492910003846210865e-01 7.057744481274318415e-01
5.340315342203035831e-01 -6.703587468360316937e-01 5.151984772868937190e-01
3.811480028301970080e-01 -1.613080183803319023e-01 9.103328639265763078e-01
3.811480028301970080e-01 -1.613080183803319023e-01 9.103328639265763078e-01
4.852287299179812718e-01 1.137387170800341768e-01 8.669582365368995180e-01
1.811654785650521626e-01 7.812876290164781634e-02 9.803443098135233846e-01
3.632445639017014560e-01 -5.103295936260800886e-02 9.302951272873341004e-01
2.994487935591214067e-01 -1.357686929905117246e-01 9.444031353397948081e-01
3.933053472430785846e-01 3.085379902012712686e-02 9.188900624753904012e-01
3.933053472430785846e-01 3.085379902012712686e-02 9.188900624753904012e-01
4.629148262769369193e-01 1.460004629635557050e-01 8.742961331422097748e-01
2.935552122455502566e-01 3.461302628183677843e-01 8.910775378858776241e-01
6.164339666062703671e-01 -5.558585658667466456e-01 5.577010127000159301e-01
6.164339666062703671e-01 -5.558585658667466456e-01 5.577010127000159301e-01
3.696591537093318891e-01 -1.565178310628468628e-01 9.158898834675937017e-01
5.415117186962616902e-01 -9.131992605846202260e-02 8.357186904810121053e-01
7.367157554170238321e-01 -6.626872228173531498e-01 1.345196656067343677e-01
6.895776608598415125e-01 -7.145424023701046901e-01 1.179483143509435505e-01
4.641020006336694648e-01 -8.784004484228037368e-01 1.141139133429529134e-01
5.454745102359898068e-01 -8.258623344469701033e-01 1.428599426872621536e-01
3.290238242424550763e-01 -9.222148155986198415e-01 2.031333477577558777e-01
1.709467147377569385e-01 -9.504948910560576669e-01 2.594931266848912177e-01
7.671152144472360990e-02 -5.263853592974753609e-02 9.956628581065020134e-01
9.863785772944648755e-01 -3.186009425789776417e-02 1.613760721061993086e-01
9.863785772944648755e-01 -3.186009425789776417e-02 1.613760721061993086e-01
7.669624906537366726e-01 -6.406237213542608222e-01 3.701061426719678277e-02
-1.353017677866392432e-01 -2.030213512221379912e-01 9.697812962631047196e-01
9.893831745140788669e-01 -8.670065658056485408e-03 1.450715821583564713e-01
9.909775030424839981e-01 -1.062882534492481379e-01 8.164799839795169878e-02
9.957433338422598812e-01 -8.624184231607943951e-02 3.252011289387447129e-02
9.957433338422598812e-01 -8.624184231607943951e-02 3.252011289387447129e-02
9.858760190431583581e-01 5.243821589408019512e-02 1.590556776398122651e-01
9.961988310193369278e-01 -8.628685730924173791e-02 -1.193596797084999633e-02
9.981866691686739346e-01 -2.341189227263999750e-02 -5.545499791869565320e-02
8.314983914850346269e-02 -6.060758142840204643e-01 7.910488048088686330e-01
1.660454590907872729e-01 -7.911230666258993738e-01 5.886876922169872461e-01
4.181516469217140264e-01 -5.770292145214271917e-01 7.015600371781752775e-01
6.228862488403937719e-02 -7.403843387260483633e-01 6.692915345193359844e-01
6.805345483601982215e-01 -9.214537456076127286e-02 7.268988639661214668e-01
-4.704333367718025460e-01 -5.356862551890825136e-02 8.808080823957979977e-01
1.357018849036930042e-01 -4.244228085260245975e-02 9.898402149991752941e-01
6.586904090679186474e-01 -8.419683870031723083e-02 7.476883290213982569e-01
9.588113927510343026e-02 -1.760975271874211379e-01 9.796920271441345029e-01
8.440401756482166507e-01 -3.588276796747276731e-01 3.985459549298907000e-01
3.274777441960948776e-01 3.790500310206625922e-01 8.654937325246623292e-01
1.992220268079653855e-01 4.344807823804749947e-01 8.783718083912851471e-01
1.921035060501500302e-01 -3.084426652035341387e-01 9.316433680574238707e-01
5.769190908187221689e-01 -2.071041874550948181e-01 7.901089913344007121e-01
8.507870807179127026e-02 -1.342364923608879435e-01 9.872903208030959776e-01
6.053565565382279523e-01 -3.870389330571044617e-01 6.955172922035779415e-01
7.186801901294570527e-01 -1.066212019670593758e-01 6.871176781356937990e-01
9.908721384319025827e-01 4.396542133486999043e-02 1.274340888704268426e-01
8.902720170838013258e-01 -4.553619817806882075e-01 7.823116150472578592e-03
7.526130266312421879e-01 -4.678034555860803301e-01 4.633935250806634487e-01
6.715471762204123785e-01 -5.905171868417113945e-01 4.475643441505832154e-01
6.384997028252454854e-01 1.181461416056846098e-01 7.604995849543659814e-01
7.008322113634620765e-01 -6.551445836498995812e-01 2.821697822758481577e-01
5.742308314865374186e-01 5.898970668793027672e-01 5.676974569764030587e-01
2.708577988598202813e-02 -5.548837548055205460e-01 8.314868484713964225e-01
7.050309569407772203e-01 -3.142780244594889361e-01 6.357363235626956044e-01
9.560987073698854477e-01 -5.539291522973872894e-02 2.877618576322880650e-01
9.856146937338201575e-01 -1.689123048525295046e-01 5.684079995397835205e-03
4.647745478042514811e-01 -1.494752286541083386e-01 8.727209036869436609e-01
9.509302548780304010e-01 -2.994026592674705056e-01 -7.803651697231935025e-02
9.697970180475368185e-01 -2.438878574815690203e-01 -3.529413429373951232e-03
7.462695735039637235e-01 -4.774740984507360592e-02 6.639291441978569797e-01
3.757765344840618416e-01 -2.428241393549873672e-01 8.943312772556143431e-01
-4.158692827432823869e-01 5.373200799404859174e-01 7.337164788686006967e-01
-5.370276775302729177e-01 5.460079200840014524e-01 6.430214808013678951e-01
5.142491812249098126e-01 1.444711988223543186e-01 8.453850319944999914e-01
2.155520829216596157e-01 7.042504986209860984e-01 6.764381233640122115e-01
-1.276474714400351318e-01 8.154609620845977291e-01 5.645613716426476358e-01
8.159079290241406657e-01 2.301277863837096205e-01 5.304106459052944089e-01
9.401446437634627395e-01 -8.916162240783941095e-02 3.289046273503515305e-01
-7.745732364341460785e-02 -7.660274148387211275e-03 9.969662397563775480e-01
-1.818603400474082948e-02 6.298428679357275239e-01 7.765096457080724601e-01
5.951934836524120920e-01 -5.664930447504600008e-02 8.015831668143983402e-01
9.793265697233465017e-02 -1.048782379230587397e-01 9.896513274423943685e-01
-4.634102331494093646e-02 6.721602653379915582e-01 7.389540494908225510e-01
7.342723003112390512e-02 6.216882974730524314e-01 7.798154285951348630e-01
-9.975189188605217139e-02 6.513064923121311134e-01 7.522296279310070055e-01
3.743460388774232095e-02 -1.582388961349952827e-01 9.866909861662597203e-01
-2.048392087525515159e-01 5.606338458751836118e-01 8.023282304748035054e-01
1.655549553519918005e-01 7.015847700158137634e-01 6.930875610197154701e-01
5.659728122985420162e-01 5.261098284446442674e-01 -6.347308281097006066e-01
4.671667307608229347e-01 4.051767238219127210e-01 -7.858670804552042588e-01
4.797008887535821886e-01 3.883274451849533238e-01 -7.868219955270381316e-01
5.387090144329625963e-01 3.637873733300837631e-01 -7.599021942159822629e-01
7.312617443484107360e-01 6.188466237345995324e-01 -2.868538260940693418e-01
6.519936788469125055e-01 -2.238570162015383891e-02 -7.578938732478595064e-01
8.045632245536363802e-01 4.062389929000763678e-01 -4.331834465251258592e-01
7.767366323179676346e-01 3.873247080448675717e-01 -4.966485422844817421e-01
5.747722640206456290e-01 4.446507318618805327e-01 -6.869662081698598710e-01
8.525199619435768206e-01 3.746575657095167489e-01 -3.644741732199162088e-01
6.936042085761356946e-01 5.019924065906810062e-01 5.166399380330261026e-01
7.059027190026331278e-01 4.731457028797368403e-01 5.271000807732147964e-01
6.810568181059064585e-01 4.301392918053956738e-01 5.925721898272066079e-01
6.913287553467303281e-01 4.611742939509471118e-01 5.562219185087784457e-01
6.360200181502650985e-01 7.312227689225797578e-01 2.465599292694012346e-01
7.799427903198398182e-01 2.743405899812076942e-01 5.625179859496630685e-01
-1.692298042863359941e-01 9.603156345832993823e-01 2.217096193584826291e-01
-1.556435602051983447e-01 9.743641632195846336e-01 1.624486368057589392e-01
-2.059050590922651136e-01 9.670600649081232403e-01 1.496594049838069762e-01
-2.377768701546820462e-01 8.089144225617683759e-01 5.376984442891797888e-01
-1.896845351302514915e-01 9.356403980851190072e-01 2.976521839388057145e-01
-4.633679368404217125e-01 8.841340407574297400e-01 -5.997627099270633200e-02
-2.178671915842158302e-01 9.676738014867226623e-01 -1.270484189096476590e-01
-5.594291469671017758e-01 2.025469822776026774e-01 -8.037498052838939477e-01
-6.450833726813461899e-01 5.966107890966185767e-01 -4.774128282980770743e-01
-6.276676841474783108e-01 5.788146199563094507e-01 -5.205832440655139282e-01
-4.651514221951379424e-01 4.294121639535344870e-01 -7.741055146933027986e-01
-7.713615456626787825e-01 4.302151572898046394e-01 -4.689523262667450454e-01
-5.894890182555251323e-01 4.374567465903032026e-01 -6.790686947715705024e-01
-6.267529189546220403e-01 3.639424361451956136e-01 -6.890041231767491947e-01
-6.725174281695808221e-01 -2.262470252987873812e-02 -7.397353794726918563e-01
-5.242256464262076143e-01 4.951458569949260258e-01 -6.928333507632156163e-01
-4.964293047280246562e-01 6.050540006180672448e-01 -6.224689564494939598e-01
-6.471048589120297345e-01 4.083016126700010351e-01 -6.438517645106819343e-01
-3.500172630935674545e-01 7.193033738102213581e-01 -6.000754718880960681e-01
-4.809522215213030694e-01 7.616607697112689479e-01 -4.342324636603770993e-01
-5.483820260116209488e-02 9.724348650897248758e-01 -2.266345178771374258e-01
-5.483820260116209488e-02 9.724348650897248758e-01 -2.266345178771374258e-01
-5.827157200049383201e-01 8.054686363913600156e-01 1.079938213462678515e-01
-6.098767758563014008e-01 7.913069739485242282e-01 4.340036003942906312e-02
-5.618291160049446731e-01 8.174614843706791145e-01 1.269045546053749196e-01
-6.912736583211742669e-01 5.068128603354729034e-01 -5.150548067049142142e-01
2.058706582428397047e-01 9.549070740600235085e-01 -2.139386640717020616e-01
-7.238177802276454242e-01 1.850816757772381638e-01 -6.647048926537348912e-01
1.107483454087036939e-01 9.687815157222530171e-01 -2.218043705253089359e-01
-7.575670109947901798e-01 5.733513123696929448e-01 -3.120264355088685493e-01
-9.100084815963396245e-01 3.586510185901505832e-01 -2.079759848803988398e-01
-7.999982221077498457e-01 5.974767752215423000e-01 -5.499406963760525291e-02
-7.263162300148815476e-01 6.869031605276003649e-01 2.507552739551624152e-02
-5.117082128651710971e-01 7.330903615707951015e-01 4.480326178509035917e-01
-4.373034552410630105e-01 8.721718924986365806e-01 2.192758034293210423e-01
-8.122072255360952564e-01 5.046467389314814866e-01 2.926620776130374191e-01
