5.694572228793624014e-01 1.606340336847332240e-01 8.061731690726851030e-01
5.690480143393554791e-01 1.600205701287228111e-01 8.065840157802007804e-01
-8.405594430603130496e-01 1.470432055982699715e-01 5.213809723892132153e-01
-8.397348146276772951e-01 1.482254711852602214e-01 5.223740525659060774e-01
5.690450024659634565e-01 1.600551196957611111e-01 8.065792855185951460e-01
5.684675251447361966e-01 1.608325053279346661e-01 8.068318152414160060e-01
-8.406951441235425149e-01 1.490940054499362566e-01 5.205791507407787622e-01
5.667120761925903416e-01 1.607031034151514270e-01 8.080915389052300002e-01
-8.405359654839066330e-01 1.518223559539290113e-01 5.200473660741253834e-01
5.667595987327523899e-01 1.602262115105177465e-01 8.081529053274982832e-01
5.668061967387749700e-01 1.624586623017540699e-01 8.076743888360269352e-01
5.655440184790253566e-01 1.626612850089798612e-01 8.085179463201934702e-01
-8.400902892208816919e-01 1.543923910045872649e-01 5.200108609987507124e-01
-8.402436348861063165e-01 1.542546893246344863e-01 5.198039292413479950e-01
5.656253020903956319e-01 1.620437467781411789e-01 8.085850862866876820e-01
5.645600696240574701e-01 1.621803041444795368e-01 8.093018452553306652e-01
-8.399464926398518827e-01 1.570539184470211846e-01 5.194458164259748711e-01
1.085656736870828226e-01 9.111236520254258897e-01 3.975766406829256971e-01
5.639691227509745497e-01 1.612675039359492968e-01 8.098960555267354922e-01
5.634717140899903054e-01 1.613783492319321167e-01 8.102201280020540075e-01
-8.392068954217919430e-01 1.603664795458432935e-01 5.196290782034723721e-01
-8.395949170608925094e-01 1.599139527438826480e-01 5.191415057220335472e-01
5.631092189079210941e-01 1.603519922168506751e-01 8.106757959708665862e-01
5.620527377614982223e-01 1.604115902308881902e-01 8.113968459973223135e-01
1.044295471577894457e-01 9.115264219759058317e-01 3.977612999277607697e-01
1.118005742396556423e-01 9.107753818464863205e-01 3.974780942669299821e-01
1.154228556413202655e-01 9.032056316693816145e-01 4.133970867293533802e-01
-8.396577446539519318e-01 1.621431651231226012e-01 5.183478232292429988e-01
5.620435644537973285e-01 1.605357483159226828e-01 8.113786447576228911e-01
1.201397494641259917e-01 8.957467042164725113e-01 4.280236938348439546e-01
1.535108033143890160e-01 8.851825605658723006e-01 4.391881917080838749e-01
-8.390110531315521092e-01 1.635083984695850923e-01 5.189657564358128861e-01
-8.397390814361284095e-01 1.643734243339843581e-01 5.175129490955054923e-01
4.844179276166687975e-01 -6.913652730087611609e-01 5.360534774452011542e-01
5.050484928223509806e-01 -6.072060183270674427e-01 6.133733538435303112e-01
5.236299305154649142e-01 -6.180892961931210294e-01 5.863252662130991055e-01
5.415717928520521474e-01 -5.616901151559183791e-01 6.254631945391710968e-01
6.703992626206299876e-01 -4.251424832217167160e-01 6.081272051452623062e-01
6.229085925416455449e-01 -4.414267824446453381e-01 6.458539162057885807e-01
6.323268686638777725e-01 -4.502060300745537313e-01 6.304579777037047084e-01
7.390213656605044701e-01 -3.534276994958807094e-01 5.735296699616616589e-01
6.895846346847834818e-01 -3.842557699274350980e-01 6.138570964680034603e-01
7.568091626314514819e-01 -2.773269003283621026e-01 5.918865446277218334e-01
8.475059227673940043e-01 -2.025784230358505245e-01 4.906074738469603513e-01
8.775839695898671744e-01 -1.975891968376483343e-01 4.368121857411310649e-01
9.032561812225673448e-01 -1.595290937177036017e-01 3.983450003964311703e-01
9.129167466585750290e-01 -2.464409004752127486e-01 3.253458102439455435e-01
9.022077929736866952e-01 -1.655523116664584238e-01 3.982631421553358697e-01
3.585610860857322835e-01 -5.005774942107963366e-01 -7.879442365006932292e-01
8.992520552784232235e-01 -2.959689379059156078e-01 3.220995636016535379e-01
9.445961371383884142e-01 -2.089308598138773510e-01 2.531521943824875942e-01
9.139749685530543788e-01 -3.476910268793528824e-01 2.091905989427457202e-01
4.352946942540733000e-01 -3.718461257688966959e-01 -8.199079142836193101e-01
4.189697701260029494e-01 -3.879799986976478765e-01 -8.209359611633160192e-01
4.301821317789246146e-01 -3.888863186730842636e-01 -8.146844571041209626e-01
4.124091282192020036e-01 -4.039625138286270234e-01 -8.165371996319176207e-01
4.471479613370499262e-01 -3.334559984973095026e-01 -8.299793959721424308e-01
8.234143216387707076e-01 -1.836142636087617630e-01 -5.369121502811935454e-01
8.234547968195723433e-01 -1.845454521249489943e-01 -5.365306829015792367e-01
8.229685220820366354e-01 -1.851660454083770002e-01 -5.370627033130592753e-01
8.233719499696089406e-01 -1.848700197269447787e-01 -5.365460910391599558e-01
8.234325303589833389e-01 -1.847968433177667458e-01 -5.364783263528832835e-01
8.234293275468671514e-01 -1.845341116965887041e-01 -5.365736707629856772e-01
8.241438566937381305e-01 -1.841511745301518121e-01 -5.356073640206383546e-01
8.232864420990041454e-01 -1.834001846925438772e-01 -5.371813534651999067e-01
8.187778072623166370e-01 -1.905195812413017220e-01 -5.415765795327118770e-01
8.195476271164165993e-01 -1.918963440678741750e-01 -5.399235872058518737e-01
8.190008563144915987e-01 -1.929674723051721941e-01 -5.403713093681805635e-01
8.173322536353777590e-01 -1.950427403836436369e-01 -5.421497178740880551e-01
8.173035022977473973e-01 -1.969440034825891417e-01 -5.415053505036546699e-01
8.174345721310112278e-01 -1.954065788312435714e-01 -5.418643642411443695e-01
8.167581745775435165e-01 -1.984800851441492764e-01 -5.417672379001247096e-01
8.178883452598764148e-01 -1.993353395263657013e-01 -5.397444553712152926e-01
8.173565323955802597e-01 -1.976541707611098597e-01 -5.411664510397987682e-01
8.173565323955802597e-01 -1.976541707611098597e-01 -5.411664510397987682e-01
8.183106075752299979e-01 -1.972336595173810880e-01 -5.398764979911978568e-01
8.186875689228519937e-01 -1.929255276108493011e-01 -5.408608002871586606e-01
8.235474748639987075e-01 -1.857419260516645909e-01 -5.359752732652405260e-01
8.206393711276347425e-01 -1.864118798583870584e-01 -5.401866655174877296e-01
8.245421325402209067e-01 -1.824918536630502908e-01 -5.355623166473241215e-01
8.243572049070183594e-01 -1.821664599406740415e-01 -5.359576285403268026e-01
8.244891431137738591e-01 -1.824239575060763729e-01 -5.356670165460405419e-01
8.258227602179624149e-01 -1.781635352973521824e-01 -5.350462815461246580e-01
8.246099031615702346e-01 -1.784343861584939128e-01 -5.368236930726019152e-01
8.261646084052295391e-01 -1.760446209843461451e-01 -5.352198905507077331e-01
8.249431833690582527e-01 -1.759883222216786502e-01 -5.371190321097578657e-01
8.256886071111829706e-01 -1.733593674791525929e-01 -5.368285143265236758e-01
8.249528155456008482e-01 -1.736460865768069683e-01 -5.378660509271299128e-01
8.245002575320490301e-01 -1.811121007806057726e-01 -5.360948911157619179e-01
8.246645708909555728e-01 -1.808622043524208689e-01 -5.359264954767765099e-01
8.243034545145284664e-01 -1.806200383377934982e-01 -5.365633388764727840e-01
8.242290529650613262e-01 -1.803772671590180288e-01 -5.367592660966015172e-01
8.256275775749827295e-01 -1.800664779537859972e-01 -5.347103577311596023e-01
8.279144551915672556e-01 -1.667015094934898578e-01 -5.355074804495659757e-01
8.249932118704751405e-01 -1.841109963636194669e-01 -5.343120262408780352e-01
8.260102625094251083e-01 -1.846129903421210028e-01 -5.325646345994546893e-01
8.277230107758091204e-01 -1.875214020606989773e-01 -5.288764895525416287e-01
8.275329416302489305e-01 -1.954964808375034280e-01 -5.262797321738114098e-01
8.318376293042242242e-01 -1.948548827250655147e-01 -5.196900356479129401e-01
8.327995529896119464e-01 -1.963596023634530674e-01 -5.175787969961376245e-01
8.345303685068027333e-01 -1.944118786796842357e-01 -5.155221483778711367e-01
8.351911712107211727e-01 -1.904683081360353247e-01 -5.159239586678059375e-01
8.380354347263985204e-01 -1.834981351501890900e-01 -5.138336740029202376e-01
8.403343726829023419e-01 -1.751920447121536606e-01 -5.129774747074260510e-01
8.482216713403455399e-01 -1.631112654320781841e-01 -5.038995052168011579e-01
8.497332109000119704e-01 -1.534130345422954622e-01 -5.043985637629039287e-01
8.506611861270506614e-01 -1.455721368183564846e-01 -5.051576975549884052e-01
8.505824766156374617e-01 -1.365995996565082804e-01 -5.077893262447429334e-01
8.475233051484739599e-01 -1.345689339410676977e-01 -5.134154742975433061e-01
8.501964627318623346e-01 -1.325734165161465694e-01 -5.095000137305839560e-01
8.485518988371255622e-01 -1.331181390921293561e-01 -5.120929954847626142e-01
8.495514035604744274e-01 -1.315375557927342398e-01 -5.108427195571071389e-01
8.465090737260039244e-01 -1.369941351070209368e-01 -5.144462994772364128e-01
8.487228511912746631e-01 -1.312622228270213520e-01 -5.122887376512027524e-01
8.459981326420401571e-01 -1.411566828542114294e-01 -5.141614050585444629e-01
8.452194774872402450e-01 -1.423940357186338768e-01 -5.150999645388814052e-01
-7.963222550107618147e-01 4.933022410557881265e-01 3.500339485591537070e-01
-7.963222550107618147e-01 4.933022410557881265e-01 3.500339485591537070e-01
5.285388176586303111e-01 3.295591638862427342e-01 7.823282403995253098e-01
5.285388176586303111e-01 3.295591638862427342e-01 7.823282403995253098e-01
-8.460120263978598842e-01 1.702206144133668053e-01 5.052609163777886936e-01
-8.292705185144604307e-01 2.069390290606067939e-01 5.191210315275341936e-01
5.275046972252223076e-01 1.956749702386439693e-01 8.267104090474683975e-01
4.569219828060680499e-01 1.406128839636329175e-01 8.783224456268899916e-01
5.249329693769997363e-01 1.964124706251272334e-01 8.281711894554043552e-01
-8.479138824861043311e-01 1.536419747581315443e-01 5.073817019559953012e-01
5.286118439541291902e-01 1.562274414669023725e-01 8.343635328585022881e-01
5.344651088589615906e-01 1.550044692712490568e-01 8.308553796650274270e-01
-8.457085831388394537e-01 1.462137430419727102e-01 5.132236683464164173e-01
5.186054375092420399e-01 1.456697872616367628e-01 8.425133312090660187e-01
5.278369031838766601e-01 1.446611528566085769e-01 8.369356931637290664e-01
-8.422124396403568580e-01 1.488938124954650166e-01 5.181783854191563954e-01
5.273002603074421479e-01 1.463478731956007750e-01 8.369807258777399728e-01
5.322417099694906062e-01 1.454238374429576153e-01 8.340087947210850228e-01
-8.418813103809285048e-01 1.474591326446548223e-01 5.191258647293319761e-01
5.312840121488748846e-01 1.540016649734291532e-01 8.330790992579311105e-01
-8.347617416711619054e-01 2.826934019766949580e-01 4.725010847828510774e-01
8.660618527732882876e-01 1.691375033353791635e-01 4.704565571191177686e-01
-8.209466308409588686e-01 3.550627961155427004e-01 4.471879248431147036e-01
8.812189026275629722e-01 -4.608148393352937688e-01 1.053704394043269016e-01
8.583054783115653397e-01 -5.130147379061545942e-01 1.129533494122789312e-02
8.335531936540749864e-01 2.725708506913148699e-01 4.805145208029669157e-01
8.134873047584422201e-01 -5.550255902038767619e-01 -1.737383067020149552e-01
8.312194329271184179e-01 -4.960151795098781680e-01 -2.510840417471869035e-01
7.995955379815090636e-01 -4.821346505456334253e-01 -3.580407160970678349e-01
7.496473302153257023e-01 -4.877072530459039545e-01 -4.474041971500190562e-01
8.148604202717991685e-01 -3.734598881064036258e-01 -4.433172762819189705e-01
7.970335283161672502e-01 -2.876303580752524458e-01 -5.310426836454704702e-01
-9.562956851372898803e-02 8.574473906421381519e-01 5.056075136970045181e-01
-5.924118754443535861e-02 8.234233682809145582e-01 5.643265351436509425e-01
4.332986845916362434e-02 8.261119594256365328e-01 5.618376571512871953e-01
8.911638017659637145e-02 7.943147472404045173e-01 6.009345664052224700e-01
2.529292248351729111e-02 7.557014598153934948e-01 6.544276672827380459e-01
1.069785954779416542e-01 7.282098439464845807e-01 6.769534720266996430e-01
-2.027606155934835452e-01 9.209705183738378098e-01 3.327182547597529738e-01
-2.355819043136629931e-01 8.846009900111367896e-01 4.024701912331704046e-01
-2.196965765557914452e-01 8.678085077574417827e-01 4.456925039906632913e-01
-1.091146493102465448e-01 8.871684786993021543e-01 4.483593243239931136e-01
-9.585641674402890777e-02 8.364824520620655068e-01 5.395448588961156977e-01
-1.421263431754011819e-01 8.586909934771075337e-01 4.923919986117626379e-01
9.754059509739086697e-02 7.141211042042627799e-01 6.931932492733401396e-01
1.868286459055539528e-01 6.195779713945311906e-01 7.623766749001011922e-01
2.382731747553079593e-01 5.674460149153376376e-01 7.881820312267521222e-01
-3.177902953509487705e-01 9.028443203411663509e-01 2.896229642284155470e-01
-2.697536913356835542e-01 9.042804100434103098e-01 3.309227795460664145e-01
-2.821865885441643407e-01 8.824864503262113136e-01 3.762823331442091690e-01
2.518329123648574974e-01 5.305519539108151106e-01 8.093792735493355872e-01
2.659010333400119164e-01 5.137427273820971418e-01 8.156991176473823435e-01
2.846722490216824775e-01 5.033480953689335458e-01 8.158445964308425058e-01
2.817054973517174044e-01 5.093761845736577420e-01 8.131284740746720363e-01
2.907535096621886583e-01 5.207624181860179835e-01 8.026636284423073198e-01
2.792867392925222902e-01 5.098364199167650934e-01 8.136742236188920785e-01
2.858884907798906472e-01 5.257406983943094803e-01 8.011644580805241667e-01
-3.677897150467404064e-01 8.671950642190439096e-01 3.357133391749065332e-01
-3.496433036027027930e-01 8.860514468946243394e-01 3.044049830435285320e-01
-3.386563426716028280e-01 8.926630559094895778e-01 2.974299080163683162e-01
-3.275737337253096237e-01 9.018722965275339787e-01 2.816412784543694259e-01
-3.203109080596955316e-01 9.128352962546262273e-01 2.532442380187592823e-01
2.739232138956268492e-01 5.267060260346810852e-01 8.047029483156156182e-01
2.455479133169885531e-01 5.575109134166430502e-01 7.930244660078357155e-01
2.730666675099265861e-01 5.751289629526949998e-01 7.711428344139501512e-01
2.483368980992933517e-01 6.151557576603307043e-01 7.482727970865744593e-01
-3.418226468803247098e-01 8.647976460947526256e-01 3.678074352004100378e-01
1.698059939276790054e-01 3.889731617559699650e-01 9.054644133591319699e-01
2.263522920580331443e-01 3.822236664476595935e-01 8.959183605035579978e-01
-8.472550349275856374e-02 4.706495759407683943e-01 8.782428853823259773e-01
3.363987286748223310e-02 4.328580546729415834e-01 9.008342042008709027e-01
7.615842028427769472e-01 2.540889205014397190e-01 -5.961780962587815980e-01
7.731226403469917408e-01 2.547363991057870480e-01 -5.808534668515918931e-01
8.522636820803733970e-01 1.423903874461190655e-01 -5.033603021392809573e-01
8.520622216975745067e-01 1.441245838109044830e-01 -5.032077848137159748e-01
8.508199093271652247e-01 1.339406029437468226e-01 -5.080997901747056344e-01
8.591706814369761691e-01 1.241245910817267567e-01 -4.964059085545983740e-01
8.482845234916507327e-01 1.560781648655021059e-01 -5.060167721101347382e-01
8.515610562153078655e-01 1.215946137245899478e-01 -5.099593292122784893e-01
8.171572013163519443e-01 1.397012420892606854e-01 -5.592295336402978156e-01
8.035158471397177982e-01 1.495902137792411990e-01 -5.761814395976517789e-01
7.970344491310953350e-01 9.803218680321500178e-02 -5.959243049657154678e-01
7.921835506383142489e-01 6.441800329361906108e-02 -6.068735806984323355e-01
7.887044358045276482e-01 1.610425954664080131e-02 -6.145616045334398869e-01
7.778410159684768788e-01 3.496379496404483644e-02 -6.274877583816598214e-01
7.779733137834530243e-01 1.975170464493922976e-03 -6.282942159071888133e-01
7.461411903331786055e-01 -4.309134932092113790e-02 -6.643917968351880088e-01
7.226810564542737181e-01 -5.318683772621134870e-02 -6.891322448810680568e-01
7.334422268761614516e-01 -1.643020559514243167e-02 -6.795531974606836556e-01
7.022278469770877329e-01 5.367892693258916395e-03 -7.119320449719604982e-01
6.350690829313122565e-01 -3.847871378837381534e-02 -7.714963697192452896e-01
6.369127340493653255e-01 -6.726072280806259795e-04 -7.709356113225533935e-01
6.567571407889633006e-01 2.908404237199678846e-02 -7.535410914489069079e-01
6.302318810052628395e-01 9.159434684309339381e-03 -7.763529357971361566e-01
6.953728369501496198e-01 -6.055760319326983915e-02 -7.160931464044235639e-01
6.953728369501496198e-01 -6.055760319326983915e-02 -7.160931464044235639e-01
7.812436263151746330e-01 -2.388857260645583236e-01 -5.767079037298905586e-01
8.453572705671770215e-01 -4.290309499975026863e-01 -3.182821531965826511e-01
8.185875970636615762e-01 -5.637424899837667480e-01 -1.100397697218747500e-01
8.072530806387663294e-01 -5.830501520690996031e-01 -9.162414513337253930e-02
7.847948171973342379e-01 -5.991861913317408916e-01 -1.583445705338990817e-01
7.570084922141907535e-01 -5.901948785143084075e-01 -2.803714466401282523e-01
7.123755579446137132e-01 -5.202083036945301942e-01 -4.710672831033371755e-01
7.056371621340925548e-01 -4.022720813228684023e-01 -5.833124102944422518e-01
7.056371621340925548e-01 -4.022720813228684023e-01 -5.833124102944422518e-01
6.687897820171897489e-01 -3.222436566764782517e-01 -6.699845171354124052e-01
5.667623953195197739e-01 -3.171407485623425337e-01 -7.603960368472454379e-01
5.667623953195197739e-01 -3.171407485623425337e-01 -7.603960368472454379e-01
7.130377582089739708e-01 -1.423412075148505485e-01 -6.865246798269782902e-01
6.462099309078035425e-01 -2.588594418544928888e-01 -7.179167880464365492e-01
5.998597277881070333e-01 -8.069536155537335165e-02 -7.960254804975941401e-01
4.672143159815411173e-01 -9.717405120833516596e-02 -8.787877939034318686e-01
4.352591335441494125e-01 -6.327875607518798629e-02 -8.980786634231843202e-01
4.666489005951574565e-01 -1.019034117806390527e-01 -8.785525016985590296e-01
5.378430437070313985e-01 1.686079267652223490e-01 8.260122440786757947e-01
4.271011005377917114e-01 -1.434143512742738491e-01 -8.927580712421402387e-01
4.377849022019429381e-01 -9.559389726012539057e-02 -8.939833254656688322e-01
-8.352714820221293079e-01 1.473492535387725955e-01 5.297261073442787183e-01
5.382292465412408244e-01 1.647124864144894063e-01 8.265464747894123443e-01
-8.352193142444290785e-01 1.461196489284345423e-01 5.301487954434083161e-01
-8.352193142444290785e-01 1.461196489284345423e-01 5.301487954434083161e-01
5.395669137017885530e-01 1.627647383744896814e-01 8.260600375155613406e-01
5.394623384884796868e-01 1.607968310417223767e-01 8.265136202625344986e-01
-8.340710385120971848e-01 1.461706780449882337e-01 5.319395036987009107e-01
-8.350875845205840697e-01 1.453983486839671990e-01 5.305544706998063242e-01
5.405598991001638876e-01 1.607770998291921660e-01 8.258000482291912858e-01
-8.341761470827044889e-01 1.457150362393067888e-01 5.318996934122367515e-01
-8.349377384500950017e-01 1.450136089954039975e-01 5.308954945353829835e-01
5.418977458507212575e-01 1.599601152525303438e-01 8.250815684344817713e-01
-8.348764662023659966e-01 1.455257243817510981e-01 5.308517210338645764e-01
5.423984726631034814e-01 1.591810310645521698e-01 8.249032041409214422e-01
5.422882719890660397e-01 1.607239418476882620e-01 8.246764484208661816e-01
5.426484947547772775e-01 1.612529836580237075e-01 8.243361489112069895e-01
5.432485213121058809e-01 1.612329825376458137e-01 8.239447611546696359e-01
5.428070268675020404e-01 1.603647283911855126e-01 8.244050493970085380e-01
-8.337403073479700000e-01 1.479367960110536950e-01 5.319697400128095000e-01
-8.339448153415334186e-01 1.479486731416244094e-01 5.316457797073238511e-01
5.433663693361857616e-01 1.618724449919316521e-01 8.237416465292658474e-01
-8.337646003825146535e-01 1.490133561966539011e-01 5.316310852687180510e-01
5.436974498929210142e-01 1.637359420335080251e-01 8.231546782144497643e-01
5.430240546590384687e-01 1.627517367494452916e-01 8.237941176329780513e-01
-8.335497873151662684e-01 1.502479104922735675e-01 5.316204637328652005e-01
5.442010292290981877e-01 1.647200742232544091e-01 8.226253928331386245e-01
-8.337270478244992455e-01 1.512467820620912451e-01 5.310589615491930759e-01
-8.335532734041619651e-01 1.507973324983782615e-01 5.314594104055172519e-01
5.439240163224308144e-01 1.670574604505495608e-01 8.223371993139365621e-01
-8.337610294063955152e-01 1.518300670700089006e-01 5.308391249490793662e-01
5.439138669698775352e-01 1.683473382011664021e-01 8.220808226923046469e-01
-8.338881648952234382e-01 1.525518395295180629e-01 5.304323375359357717e-01
5.438658414944284036e-01 1.711213767854331824e-01 8.215396648139485780e-01
5.438658414944284036e-01 1.711213767854331824e-01 8.215396648139485780e-01
-8.343653037829509289e-01 1.522804908259635381e-01 5.297595605149448827e-01
5.437165914235170261e-01 1.742480509379724096e-01 8.209810503020822381e-01
-8.348407904163124282e-01 1.533515802792753124e-01 5.287004326486934858e-01
5.438573058235443014e-01 1.771529888911548278e-01 8.202658407061007573e-01
5.429825852001365361e-01 1.780166730760019689e-01 8.206582579102754682e-01
-8.355301228760901866e-01 1.526526719771073293e-01 5.278130118753376898e-01
5.434553650892982590e-01 1.795665818352024934e-01 8.200073834080272572e-01
5.429646286974595393e-01 1.797807826467438530e-01 8.202854882139231085e-01
-8.350851779388582807e-01 1.520876615515638908e-01 5.286795709979745794e-01
5.421414123865971879e-01 1.826061479228267836e-01 8.202058788598458605e-01
5.421414123865971879e-01 1.826061479228267836e-01 8.202058788598458605e-01
-8.349557942226225604e-01 1.526083910679270628e-01 5.287338656353764987e-01
5.418348155468200034e-01 1.810308495369350734e-01 8.207574941340951558e-01
-8.357914634656824493e-01 1.516322565127341260e-01 5.276933658695638352e-01
-8.363763162239765681e-01 1.530545491995064511e-01 5.263544078175337315e-01
5.411526461701542390e-01 1.785706218314347393e-01 8.217459136264534392e-01
5.417466032923120567e-01 1.789378739869595669e-01 8.212745308812815503e-01
5.414622610963493177e-01 1.785123179864156751e-01 8.215546069103047966e-01
5.417632372135684493e-01 1.814028257209709671e-01 8.207226143005453833e-01
-8.354532156837997103e-01 1.533133216557919787e-01 5.277432612610665208e-01
-3.556139163507038847e-01 8.749863284280399167e-01 3.285386850307478457e-01
-3.619215708315494662e-01 8.881599808575231236e-01 2.831688983098037404e-01
2.168036806861883825e-01 6.500692295432601853e-01 7.282898879168606676e-01
2.476978809304081763e-01 6.805387904388240372e-01 6.895742994708021767e-01
2.224871542168304350e-01 6.881526941272162468e-01 6.906122904886288216e-01
2.504867804788518115e-01 7.010159133631613804e-01 6.677073176302263935e-01
2.571234996476025603e-01 7.092304601077170645e-01 6.564142445014162774e-01
2.632698433560354268e-01 7.078508811271978507e-01 6.554663375542163495e-01
-3.446958317378638337e-01 7.876146778296264639e-01 5.107327117484017354e-01
-3.987243365099591985e-01 8.377584361577539163e-01 3.730679644799421713e-01
-3.428621800582574708e-01 8.255444221989518550e-01 4.482431622031702867e-01
2.507749166704610344e-01 7.221279867303472821e-01 6.447038947840306733e-01
3.335679075830798035e-01 6.638913920989666373e-01 6.693135816099521351e-01
3.492799368982262287e-01 6.431980487207475949e-01 6.813954767990419992e-01
-4.080887334832829505e-01 6.955379082302345362e-01 5.913464329973757705e-01
-4.099474657430172697e-01 7.795608634965442985e-01 4.735271221750662063e-01
-3.475281930658931095e-01 7.519076527153188971e-01 5.602312351275096081e-01
3.903087685487696690e-01 6.026996222067825260e-01 6.959972920821924092e-01
3.809570888570391056e-01 5.498473731151750643e-01 7.433300496602509577e-01
-4.328596606809396730e-01 7.375556143818863264e-01 5.183090100016978230e-01
-4.321184740772276989e-01 7.662085619540919268e-01 4.756028426632989969e-01
4.126738663736094215e-01 4.437680297198805524e-01 7.954685511136133647e-01
4.420017823954673353e-01 3.991740410990906041e-01 8.033022527491452403e-01
4.699748768325108794e-01 3.574474597695852518e-01 8.070656284655771673e-01
-3.325600961839144665e-01 5.344789440086010757e-01 7.770045307703141724e-01
-3.605362887345436307e-01 6.343166425183747181e-01 6.838537720373693007e-01
-4.312886337845777129e-01 6.869894345367172361e-01 5.848381239310190827e-01
-4.410287355766526196e-01 7.247689323032847630e-01 5.293426576081090573e-01
-3.937099396437382381e-01 6.989375630653100746e-01 5.970584279298382091e-01
4.642828328436336971e-01 2.574172499659713731e-01 8.474537217728453919e-01
4.506998448569421445e-01 2.600262981663897799e-01 8.539648553118635022e-01
-3.714817582125645723e-01 4.740967802005664478e-01 7.982690939268272112e-01
-3.274306895370094894e-01 5.400350155641272520e-01 7.753394904904377105e-01
-3.742318441161657794e-01 6.151571889205562638e-01 6.939251831204663601e-01
-3.668909032393548042e-01 6.188022074057003552e-01 6.946041269889222658e-01
4.356066556527748435e-01 2.060710071545895361e-01 8.762314657448099231e-01
7.650536114247388220e-01 -2.630284603840836177e-01 -5.878001366739747935e-01
7.583206222351271952e-01 -1.957123820764293254e-01 -6.218090521976173957e-01
7.587325030101115253e-01 -1.397976421998450847e-01 -6.362244950576605440e-01
7.573977870859875949e-01 -9.180951241810932084e-02 -6.464670181430742790e-01
7.330143622825133765e-01 -7.399613457070587652e-02 -6.761763947049276302e-01
7.368324366651985979e-01 -5.164935755087668445e-02 -6.740996247904370575e-01
7.304998446902020159e-01 -4.841014805865054282e-02 -6.811948579316567942e-01
7.246093458226207096e-01 -4.683827934726776665e-02 -6.875663397333386939e-01
1.626646349699372995e-01 4.174678966182142070e-01 8.940138543799313053e-01
-1.916467857459976665e-01 5.266898029660781466e-01 8.281723014957583784e-01
-1.543443507403675918e-01 5.165219062383045179e-01 8.422487410322929691e-01
-1.071531228884919779e-01 5.043992402626936711e-01 8.567961336733851407e-01
-5.730398326166952910e-02 4.853689489630105824e-01 8.724295025300834450e-01
3.445407306848206896e-02 4.676404693013104241e-01 8.832470256506057549e-01
1.669791094316011026e-01 4.447400400926290187e-01 8.799569726707299200e-01
2.128021406636528556e-01 4.376313340912287853e-01 8.736097895230445776e-01
-1.025998380589133729e-01 8.697811107505347694e-01 4.826531804638302114e-01
-1.848344828410563856e-01 8.664981921173124935e-01 4.636993605886342573e-01
7.970606873144728821e-01 -1.539118209213791999e-01 -5.839566868513839104e-01
8.148116389216030209e-01 -1.554657998952421460e-01 -5.584911620973277424e-01
7.873272656856293850e-01 -3.021491520573110212e-01 -5.374213120253402698e-01
7.937185295359371340e-01 -2.854371318830084547e-01 -5.371559732644811680e-01
7.840747883968304244e-01 -3.405682677909135925e-01 -5.188833984378012909e-01
7.665397527213919648e-01 -3.967499791426270517e-01 -5.049814467365630888e-01
7.502025756148454905e-01 -4.327866978455394698e-01 -4.998917579924733179e-01
5.497757623676708949e-01 -4.343110971947108379e-01 -7.135267913446367016e-01
6.430290977956869547e-01 -3.342000929416698018e-01 -6.890746528975247864e-01
5.751191433030040656e-01 -2.376663344398289579e-01 -7.827852096714361663e-01
5.882806081221810812e-01 -1.972662650303264875e-01 -7.842269740249833143e-01
4.952649373528152932e-01 -9.228277778335872150e-02 -8.638266786534779529e-01
5.101538722929945813e-01 -8.571656403532554314e-02 -8.558012019356135980e-01
4.350245744876243825e-01 -9.137270218134205257e-02 -8.957704219764912601e-01
4.678390341919447248e-01 -4.247469687857458737e-02 -8.827924661048154320e-01
4.728842600449181810e-01 -5.096268489092670162e-02 -8.796495218838458197e-01
5.211267760374027613e-01 -1.337968238226923956e-01 8.429266238717472159e-01
4.667462949283552875e-01 -5.502033199221170040e-02 -8.826781175706802651e-01
-9.111334304555565033e-01 1.998268458020587696e-02 4.116267292381019516e-01
4.487694703862796231e-01 -1.486723556516774403e-01 -8.811937886266557607e-01
-8.368285111372305574e-01 1.554335382591904291e-01 5.249366229670727746e-01
5.421943667916580001e-01 1.695719929077837418e-01 8.229645240474680046e-01
5.414553376510553573e-01 1.695156225818612861e-01 8.234625498648165953e-01
-8.372519615002317339e-01 1.577712282875814442e-01 5.235622145348558520e-01
5.414603844518827147e-01 1.630928684743344348e-01 8.247553384622815509e-01
5.412107245351202023e-01 1.641223802681870958e-01 8.247149786097465185e-01
-8.383520936670847412e-01 1.592391974332320603e-01 5.213527069507126743e-01
5.418914385225248598e-01 1.583072334847534235e-01 8.254044394612816138e-01
5.405146099609801080e-01 1.591654636977731796e-01 8.261418229242496469e-01
5.391851641214587820e-01 1.527812259178049081e-01 8.282132912471088515e-01
5.407410090933453262e-01 1.566508003497094070e-01 8.264742511624340038e-01
-8.412447761163771576e-01 1.552296064963763766e-01 5.178909112196183884e-01
-8.395254038016503051e-01 1.581041824804382545e-01 5.198078143447520949e-01
5.379438033723586976e-01 1.459769649357643140e-01 8.302452590177337166e-01
5.360790725529848144e-01 1.489371001988885335e-01 8.309253685831705649e-01
-8.424934061810126495e-01 1.532232878692826039e-01 5.164566628440787621e-01
-8.415847224024641804e-01 1.544287864508718799e-01 5.175779216060885091e-01
-8.415847224024641804e-01 1.544287864508718799e-01 5.175779216060885091e-01
5.381982256270464449e-01 1.416747623852428473e-01 8.308254519662862103e-01
5.322461741535997604e-01 1.416819270496592342e-01 8.346497718482589478e-01
-8.428481246552542716e-01 1.511422866868957493e-01 5.164910918304180809e-01
5.383160298665472521e-01 1.386612667524784182e-01 8.312574240819246008e-01
5.317317289690679516e-01 1.380214507643142685e-01 8.355904783663344881e-01
5.291532032111017081e-01 1.408371714387001428e-01 8.367567021975843566e-01
5.296903525079911246e-01 1.443715334315615884e-01 8.358139690113941533e-01
-8.477310046711076241e-01 1.480700857094873202e-01 5.093401549429413810e-01
5.281648083527815674e-01 1.607053433650768304e-01 8.337959749432605205e-01
5.283430226521871331e-01 1.604612458855060042e-01 8.337300756141772240e-01
-8.500289543448399376e-01 1.617196054399791250e-01 5.012958667211961927e-01
5.203971021862793256e-01 2.367868987148979421e-01 8.204381881854987402e-01
-8.595679566556883033e-01 1.850236764791542421e-01 4.763498368141866335e-01
5.126673996168269465e-01 3.413560466179243469e-01 7.878122789138934934e-01
5.333439157723676161e-01 3.218295124421963194e-01 7.822851349922327335e-01
-7.038165846506723167e-01 6.445286255346566184e-01 2.987056511635983735e-01
-7.456989037067359716e-01 5.028400352149232644e-01 4.371327532862609999e-01
-8.365234600345922145e-01 4.349294153734347690e-01 3.332640161413712443e-01
3.657172711464009573e-01 7.016187942418982137e-01 6.115406324617970180e-01
-7.031209820478420136e-01 6.799507751926611165e-01 2.080572707669143540e-01
4.084298165662186841e-01 7.608084309177750582e-01 5.043368084763575343e-01
-4.431447891681149498e-01 8.751955914040838724e-01 1.940499230095250605e-01
4.037424157286381710e-01 7.820245621253036905e-01 4.747943196525529763e-01
-6.889648953934804920e-01 6.554414072885023090e-01 3.093928482158533888e-01
3.934084732943041174e-01 7.454375548211460423e-01 5.381009431347576477e-01
3.880772035810699516e-01 7.415028354517770870e-01 5.473295433992866332e-01
4.086236587978098744e-01 6.776956120347485957e-01 6.113553491215549807e-01
3.556022854149475387e-01 7.160762973135327281e-01 6.006511059120821505e-01
4.252040429327142990e-01 5.286475563077244200e-01 7.346654225452196041e-01
7.186705751158082300e-01 -4.798657800226407283e-02 -6.936929384059968839e-01
7.205719480935682819e-01 -6.135178920531654534e-02 -6.906605719034106805e-01
7.154665227093478519e-01 -3.624111942215412635e-02 -6.977064111395446799e-01
7.170456616242175674e-01 -6.533961734152880785e-02 -6.939569536733172228e-01
7.175122612664935895e-01 -7.412301862389693297e-02 -6.925907399339991111e-01
7.171640477054127549e-01 -8.104272124819661416e-02 -6.921761379963019545e-01
7.190116439879422616e-01 -9.555361692120643846e-02 -6.883979678231422206e-01
7.350893626601195940e-01 -9.831437214117888512e-02 -6.708039304703163896e-01
7.439929843599822901e-01 -1.835164254735146550e-01 -6.424921484380575754e-01
7.800660700947901205e-01 -2.541048921520047132e-01 -5.717758564956096912e-01
7.941019347645367210e-01 -3.018785701034698565e-01 -5.275144037043006939e-01
8.045236847034424876e-01 -2.953251072926542653e-01 -5.152909098303384283e-01
8.161451817622884519e-01 -4.116324020707204934e-01 -4.055438420833064606e-01
8.806029448040839647e-01 -4.141313401907276148e-01 -2.302904398237304584e-01
8.413273431107621825e-01 -4.687485025366922575e-01 -2.691526390429684334e-01
8.739971101746619730e-01 -4.597770622161698739e-01 -1.572707997887971276e-01
8.487409824172125195e-01 -4.492736022669094886e-01 -2.789121278675057436e-01
9.051887777700631244e-01 -3.690034684251798924e-01 -2.108784410254554709e-01
8.212420835504850025e-01 -2.169524039125762804e-01 -5.277244495399209256e-01
7.773964013033792808e-01 -5.266789409452383997e-02 -6.268021443583319252e-01
7.715969075750580553e-01 1.361667551309253266e-01 -6.213669020938612508e-01
7.365532805421979301e-01 1.845894725691762106e-01 -6.507042273868823834e-01
7.212109233304780931e-01 2.482036282842956798e-01 -6.467223229294858378e-01
6.674833965170182681e-01 2.958210493273245589e-01 -6.833416584322850040e-01
6.627286195665010871e-01 3.594423909706299103e-01 -6.569565772414466265e-01
4.249729505616492986e-01 5.287250185987647511e-01 7.347433878563737197e-01
-7.781322465341146133e-01 4.679477902978628756e-01 4.189690590713345819e-01
4.749080731355617702e-01 4.075347265701837474e-01 7.799857490429126239e-01
4.930122622983647007e-01 3.464332411745131846e-01 7.980745069432866323e-01
-7.166258046458072739e-01 5.749030286338097095e-01 3.948847474687040005e-01
-2.475461000583096816e-01 9.624237248544106338e-01 -1.116310986387000631e-01
-7.983451729851815948e-01 5.102222667648640408e-01 3.198721983364363752e-01
4.814503093151930035e-01 3.227737089161504258e-01 8.148759000564546051e-01
4.882037279314895839e-01 3.206398903869610573e-01 8.116940191515729097e-01
-1.100551690709882374e-01 9.844049636282602433e-01 -1.372396711771040889e-01
-2.142512856968748769e-01 9.734340521991108330e-01 -8.076219781837822020e-02
-2.142512856968748769e-01 9.734340521991108330e-01 -8.076219781837822020e-02
5.186298894298438933e-01 4.157612516921229129e-01 7.471048248949990755e-01
-8.937046431656917381e-03 9.886005942890301323e-01 -1.502963544882401359e-01
-3.081231045551612729e-02 9.896783970509659412e-01 -1.399545352427831180e-01
2.987638503620032027e-01 8.622351658991345147e-01 4.090118340632242777e-01
3.546434191796608570e-01 8.768727872124666423e-01 3.245337583038162554e-01
2.674203557097559747e-01 9.432357630148050509e-01 1.969584949220172521e-01
3.313020901462566947e-02 9.902023342209227419e-01 -1.356529636760033797e-01
1.459784307460769773e-02 9.896973903699380903e-01 -1.424288540728438912e-01
-8.927609047767362527e-03 9.868193836358892801e-01 -1.615790886135139437e-01
9.962979769459111290e-02 9.937447231407302572e-01 -5.045125014594139395e-02
7.560847911025332657e-02 9.923030387943658770e-01 -9.807159163642471811e-02
7.560847911025332657e-02 9.923030387943658770e-01 -9.807159163642471811e-02
7.173263369819740665e-02 9.905109423518226874e-01 -1.172284195236989457e-01
1.444151714607630754e-01 -1.065781877595225850e-02 9.894597865254035618e-01
1.775608276697691057e-01 -1.061931104160060424e-02 9.840525304627941727e-01
2.050932394510914247e-01 -1.511335722600444346e-02 9.786257454026112690e-01
-1.180491909308819254e-01 8.723077176554413503e-01 4.744930286519697393e-01
-7.484459638296833695e-02 8.608947543620129039e-01 5.032479590661446123e-01
-4.408657452388860948e-02 8.600333581496374391e-01 5.083296143415284574e-01
-4.315079486676753895e-02 8.596756343776656983e-01 5.090145504400871435e-01
1.962685943397880425e-02 8.520610515629357673e-01 5.230743262656111225e-01
-2.980323931828653405e-01 8.548665680228304531e-01 4.247114826450557046e-01
-2.283088326768800969e-01 8.676956297806933671e-01 4.415646849343891067e-01
-1.760997520718285136e-01 8.705270863075394994e-01 4.595339697183943861e-01
8.910775940362049286e-02 8.289940116902674294e-01 5.521129737614787203e-01
1.080526748810447246e-01 8.317602645556657626e-01 5.445176597295445786e-01
-3.276179276342955360e-01 8.486169383170525382e-01 4.153501962127880698e-01
1.168992276313562673e-01 8.217567799242569970e-01 5.577188944510562685e-01
1.144965052951611301e-01 8.235418289167449890e-01 5.555802428989515818e-01
1.097174955365164961e-01 8.240547422797892541e-01 5.557839984196958349e-01
3.573843891995224231e-01 -2.737030520401462774e-01 8.929518674936477440e-01
5.461896811581025135e-01 -4.629079717595418475e-01 6.981354036846130207e-01
3.716899642089819267e-01 -3.901635204024784809e-01 8.423888637995342599e-01
-8.345378581863446277e-01 1.392127724743698891e-01 5.330725722017106705e-01
5.206170165231971403e-01 1.753649369903331479e-01 8.355866567752633367e-01
3.105306140243437873e-01 -3.592018289723387658e-01 8.800822596874627868e-01
-9.293249622206986027e-01 7.726647740002181609e-03 3.691820871984434760e-01
5.748440814807843635e-01 -3.979564237360121992e-01 7.149720042027917222e-01
-8.357152626963278985e-01 1.385508807373088402e-01 5.313978294492023302e-01
1.489584219347822869e-01 -1.920621190638578321e-02 9.886569222732962681e-01
5.206653722377141413e-01 1.748854109238127674e-01 8.356570248604218154e-01
2.177531015047622087e-01 -2.497682725144632562e-02 9.756842444589889363e-01
6.369030381841616073e-01 1.817654720104651955e-01 -7.492101395046633083e-01
-3.768496164101488560e-03 1.016714881693759134e-02 9.999412120327850761e-01
3.985563936177075745e-02 1.052260535458839552e-03 9.992048942828642977e-01
6.224669537251714679e-01 2.076656086825585112e-01 -7.545925301052269774e-01
6.677743255104051645e-02 -7.853086334047923445e-03 9.977369911639646372e-01
6.518224435724353505e-01 4.813693922488500587e-01 -5.860128072501761265e-01
1.200199112418749020e-01 -2.480604538211108115e-02 9.924615262154966588e-01
1.835472202472031855e-01 -2.807552657219727910e-02 9.826098832940864947e-01
5.212571999291913949e-01 1.757149297567000001e-01 8.351138814452655490e-01
6.644775481907257975e-01 5.136047004622324996e-01 -5.428441761809204014e-01
-8.362475877714367067e-01 1.395397567095623403e-01 5.303005074897526594e-01
6.396064361059420333e-01 5.523190560713665542e-01 -5.346468621363918983e-01
5.212878704171611810e-01 1.754220119056990046e-01 8.351563170418444537e-01
6.458138468243604935e-01 5.484950168622864108e-01 -5.311098678495452807e-01
6.738173720586011495e-01 5.469224098830340886e-01 -4.968360158842909380e-01
-8.354789431234437291e-01 1.411120044693542352e-01 5.310954130775135118e-01
5.214565928271579498e-01 1.747217860620138008e-01 8.351977725499459826e-01
5.206473857935940419e-01 1.743390387393992935e-01 8.357823874895419225e-01
6.734328543524196187e-01 6.109410482766494122e-01 -4.162201655486932328e-01
-8.371050656520564459e-01 1.399839534324816281e-01 5.288285183696874725e-01
6.676667552292487873e-01 6.191743012574961735e-01 -4.133331448407420172e-01
6.864084256317548594e-01 6.278582033821257236e-01 -3.669298974838449134e-01
6.702722373800482636e-01 6.583627634461783895e-01 -3.424815316262407316e-01
5.221897529468649823e-01 1.729946490099533163e-01 8.350992236442417171e-01
5.217583153975385857e-01 1.717014526745195557e-01 8.356356092597910790e-01
-6.539973062952377791e-01 2.990831843601272633e-01 6.948645711155368998e-01
-6.166984679058507002e-01 1.783198881085944487e-01 7.667366022223764954e-01
-5.960199253201855507e-01 8.632710719378247632e-02 7.983156513465544668e-01
-8.352070461270625357e-01 1.400203458140756863e-01 5.318115200499267115e-01
6.161943632573116947e-01 -3.895512022705396316e-01 6.845103121936829682e-01
-4.913472928586751221e-01 1.345225054655330710e-01 8.605123667465371939e-01
5.743489928607812267e-01 -4.452753215036762136e-01 6.869156589127982659e-01
-4.979220240435051625e-01 1.379394466946720632e-01 8.561812699527985293e-01
-4.941270424324769039e-01 1.273498370298574711e-01 8.600119097695112513e-01
-9.246643510172279923e-01 1.093495289947599668e-02 3.806261482911743599e-01
6.025644456209787725e-01 -4.774511767046687449e-01 6.394970388804076533e-01
4.281522969978366344e-01 -5.059432801105284705e-01 7.488037178636840485e-01
5.789916989037153794e-01 -4.422437223538863149e-01 6.849737970456738489e-01
5.879885098429313839e-01 -4.427857472001133221e-01 6.769123239896924771e-01
5.879885098429313839e-01 -4.427857472001133221e-01 6.769123239896924771e-01
-9.181799800526531108e-01 1.051384754732188898e-02 3.960239680123683326e-01
8.168346420869591062e-01 -3.846067751841434346e-01 4.299520856666739776e-01
5.388975728597367176e-01 -5.509199514818883259e-01 6.372414087495243962e-01
8.129459419865950887e-01 -3.910098474502964327e-01 4.315439660155421797e-01
-9.113516637416049226e-01 -7.781181718610499093e-03 4.115550974128138195e-01
9.113642835251619667e-01 -2.568232260509711318e-01 3.216472808457115362e-01
-9.067075391055136047e-01 -2.067177389645522695e-02 4.212530311976368513e-01
1.069875945908887183e-01 8.304385355084094034e-01 5.467407917343498625e-01
-6.108597023008436461e-02 8.863256862508630540e-01 4.590155576154102413e-01
-1.624618148850345833e-02 9.317164298255580235e-01 3.628230367274918322e-01
9.749847920308869764e-03 9.358304067110863045e-01 3.523157537500891667e-01
4.271929556141419726e-02 9.333436949503337576e-01 3.564331759014513490e-01
9.793923156409518882e-02 9.246707149156040417e-01 3.679564864193868856e-01
1.683198395842651629e-01 9.140232651855212387e-01 3.690933517444136558e-01
2.204987171481947450e-01 8.946742414126506171e-01 3.885078087872862462e-01
5.591315764608189021e-01 1.589950280000833327e-01 8.136906422441466669e-01
5.577874719564051009e-01 1.594077776071051444e-01 8.145319493837220870e-01
6.134606484254545578e-01 -3.895803948479804601e-01 6.869447931118720652e-01
5.615297602178419556e-01 -4.029558381482655216e-01 7.227108141517751827e-01
-4.976141345404920258e-01 1.422754745951833599e-01 8.556505492514058231e-01
-4.875311389150009944e-01 1.407988130098615231e-01 8.616780621805663065e-01
-8.401529850381558306e-01 1.661952313390926417e-01 5.162577910420544924e-01
6.072848424294585712e-01 -3.499403083440282836e-01 7.132649583089820666e-01
-4.975038321359129267e-01 1.448710100054544370e-01 8.552790933198828327e-01
-4.827928470750987855e-01 1.418655979389440158e-01 8.641673558602789296e-01
6.778180729622031997e-01 -2.145531711936616293e-01 7.032279834424599585e-01
-4.970361159941089624e-01 1.507520196901359077e-01 8.545343339836238838e-01
-4.772921265288133652e-01 1.484193901030370910e-01 8.661200324406806983e-01
7.272330653290888236e-01 -1.260930041534299162e-01 6.747092877644566000e-01
-5.092476540928522200e-01 1.525666825184537334e-01 8.469889221154195402e-01
-4.926095648326075938e-01 1.538977817419000804e-01 8.565344648117503290e-01
-4.686866068189298740e-01 1.478113005160179017e-01 8.709102617539429270e-01
4.171449842693737975e-01 -3.351099615283397171e-01 -8.448025661557726496e-01
4.440580785282892684e-01 -3.343692287390961915e-01 -8.312698970648375596e-01
4.587096889225292240e-01 -3.122938900654860239e-01 -8.319002028587099140e-01
7.296017015334184119e-01 -6.987565079388226297e-02 6.802931357478716468e-01
6.811524907449487687e-01 -7.236558110133455013e-02 7.285564542462160675e-01
4.548467643270168725e-01 -3.174293757095581481e-01 -8.320775278890082394e-01
-4.899995234496351548e-01 1.573863925464069613e-01 8.573972185984503058e-01
-4.626132608720494033e-01 1.547281422343166901e-01 8.729537060268696136e-01
4.669197486924627216e-01 -2.807874720081774411e-01 -8.385370259232589607e-01
4.591847731497430973e-01 -2.921507565397579165e-01 -8.389262658664741190e-01
-8.232670233172131313e-01 1.533013364925027433e-01 5.465620811472634566e-01
-8.229551879370924361e-01 1.530210061448480929e-01 5.471099801007499597e-01
5.271061917440490463e-01 1.663311522586037872e-01 8.333624724052618449e-01
5.250343423599922454e-01 1.634248529336334854e-01 8.352432321104018564e-01
-8.223774516947700564e-01 1.527009765251753082e-01 5.480672757173832288e-01
5.281231221880851034e-01 1.684824095325165583e-01 8.322857955584885836e-01
5.265595413376056300e-01 1.641125839180864465e-01 8.341475344482290888e-01
-8.221448125212706959e-01 1.520731450362208526e-01 5.485906176769316245e-01
5.285541384456302616e-01 1.687523247935859561e-01 8.319574361761288284e-01
5.299669593015944313e-01 1.671122397082542566e-01 8.313895124358455790e-01
-8.213199933628769767e-01 1.506304058822555414e-01 5.502217274210012832e-01
5.308953655937066474e-01 1.711782537103295754e-01 8.299687441390829479e-01
5.315968124434934383e-01 1.705313506849789051e-01 8.296528716478198673e-01
-8.206445445166773434e-01 1.503465417406405769e-01 5.513061299692257888e-01
-8.210018225334682063e-01 1.497982241755435040e-01 5.509233153811673445e-01
5.316695869374102879e-01 1.711699974934623725e-01 8.294747026184050576e-01
6.421002815978970046e-01 3.813722485289250397e-01 -6.650281470914545245e-01
5.913347148931120678e-01 4.502577406318540865e-01 -6.690225870352808357e-01
5.318041126933257257e-01 1.699612182227648316e-01 8.296370110010150567e-01
1.320907457267573304e-01 4.140481269470607656e-02 -9.903724937512476956e-01
5.866350885015561012e-01 4.486556549295991903e-01 -6.742161198298833868e-01
5.857833380650703248e-01 4.644890908429850640e-01 -6.641594427042355475e-01
5.335220993825020575e-01 1.692797049320970693e-01 8.286727647078728776e-01
5.327021649693325367e-01 1.683855032417529152e-01 8.293821349263605924e-01
-8.199185645056158434e-01 1.481098233763781247e-01 5.529891751187073767e-01
-8.208077716922075329e-01 1.481907597521567310e-01 5.516467172509519346e-01
1.966170270778688223e-01 9.841871662643504604e-02 -9.755283188512089421e-01
5.336874493807870490e-01 1.673747260246054580e-01 8.289531998017850567e-01
5.339585317078492377e-01 1.676893374040872298e-01 8.287150128586884268e-01
1.257132436482771287e-01 2.243769847893639369e-01 -9.663597410220805539e-01
1.190653094067813389e-01 2.105353259322999271e-01 -9.703083678039923221e-01
1.005683520936422604e-01 2.214338833324379363e-01 -9.699757944760711847e-01
9.820470094463340516e-02 2.642809481568744734e-01 -9.594328622439813881e-01
1.059811826531656120e-01 2.583584466518566991e-01 -9.602181533209398490e-01
1.087237987489751007e-01 2.596224213264061165e-01 -9.595703902946393082e-01
1.101364319825399729e-01 2.827383333254097630e-01 -9.528530848029641565e-01
1.301544737255281303e-01 2.863594504773949723e-01 -9.492407903643391709e-01
9.499500522420283033e-02 2.819280282859616404e-01 -9.547211822564970474e-01
1.228875483194537821e-01 2.458528630942927728e-01 -9.614858398210411883e-01
1.278721998231555079e-01 1.531857026273571731e-01 -9.798891983397662875e-01
1.484373103602196209e-01 1.499742255186658569e-03 -9.889206821915456080e-01
3.478932083941612685e-01 1.640957799608798173e-01 -9.230616937952994538e-01
2.749202660007698529e-01 2.681893823484387401e-02 -9.610929153281808635e-01
3.968128905008901364e-01 2.672929541759083358e-02 -9.175102586340970756e-01
2.736277930780560141e-01 -1.234821957046445956e-01 -9.538762908255936646e-01
2.668533560368736013e-01 -1.348363935657747037e-01 -9.542580538523280920e-01
4.592032460787341397e-01 -1.212995059319046665e-01 -8.800106866688774954e-01
3.658651860109885523e-01 -2.255897356121685793e-01 -9.029130283984037053e-01
-8.208965305070727858e-01 1.474286573705688719e-01 5.517188388911167252e-01
5.345465331748692206e-01 1.647531924853356533e-01 8.289248394375803297e-01
4.510290108898337702e-01 -2.845634679347568419e-01 -8.459293493269297581e-01
4.602420098634470991e-01 -3.056249538439042568e-01 -8.335290516501305813e-01
4.401257584117926891e-01 -3.914226833446097786e-01 -8.081321672509700349e-01
4.790849144367712031e-01 -3.417769810460843383e-01 -8.084962213802461273e-01
5.352591483519838489e-01 1.646615636873061395e-01 8.284830798209221747e-01
-8.212388311456269019e-01 1.460336594845741132e-01 5.515804134630850619e-01
5.349640477334814959e-01 1.629569203002748101e-01 8.290105607040596514e-01
5.867034569379835363e-01 4.639668576587686610e-01 -6.637121428836960657e-01
5.354316412719211105e-01 1.627154654171402426e-01 8.287560768036276171e-01
6.879022449862010058e-01 4.189507809035775132e-01 -5.926809803960535472e-01
6.865777272740530845e-01 4.218967830052444690e-01 -5.921267844820243820e-01
7.340989545385590009e-01 3.791468756970236553e-01 -5.633350438190229958e-01
