7.993025374720071907e-01 5.131897272300405266e-01 -3.126527745860684937e-01
9.188723301956845946e-01 2.995390118496076282e-01 -2.568073620068426766e-01
9.224325477708379406e-01 3.857029424973750786e-01 1.874659867462649329e-02
9.631084994097320884e-01 2.103347489702662720e-01 1.678729035322530649e-01
9.375439580910733817e-01 2.571621920461878430e-01 2.342625314234507705e-01
8.982940318919785394e-01 4.261464016582596215e-01 -1.070844368756278531e-01
8.176905050073773884e-01 4.469006808462274161e-01 -3.628526139908027637e-01
9.370823592255175249e-01 2.607682951994513831e-01 -2.321132229044906015e-01
8.640645803057783736e-01 2.672435325113425852e-01 4.265832807223671197e-01
9.087335177657027696e-01 4.149104563569983584e-01 -4.530680848171390884e-02
8.687440631905121169e-01 1.664229192954726766e-01 -4.664623935585933134e-01
9.688506393652172033e-01 2.196026914511473305e-01 1.144687577857910615e-01
9.370368457722754174e-01 2.477952693552279984e-01 2.460883055943835773e-01
9.279990834997445814e-01 1.112647038548857242e-01 -3.555810269118958589e-01
9.730538771698138412e-01 1.800501714472474701e-01 -1.440419657135028619e-01
9.663034422933739487e-01 1.635932858729424177e-01 -1.987332237681202485e-01
9.840828853504116625e-01 1.692032840252976345e-01 -5.432424353328026145e-02
8.531416088698746680e-01 1.481178211353116614e-01 -5.002104619828033893e-01
9.753930200087772562e-01 1.374409819576801750e-01 -1.723903506483632775e-01
9.104410359793725371e-01 3.468973123547762771e-01 -2.252984125240110880e-01
9.239935048763791015e-01 3.603483452301819434e-01 -1.280041914787740653e-01
7.406589839591395386e-01 3.805276295561896838e-01 -5.537354897647094321e-01
9.293016411427473811e-01 3.669885573474813145e-01 -4.144705713812290443e-02
9.533332949052284455e-01 2.221887748655197170e-01 2.044205888576297314e-01
8.024209669679053247e-01 4.596576731308635311e-01 -3.805724836377583631e-01
9.293169695277030407e-01 3.111085500845396923e-01 1.989508487344088528e-01
8.857807056731568096e-01 3.213391079647677229e-01 3.348637322099419222e-01
9.177060365755053128e-01 2.476271300463268321e-01 3.106387530523147533e-01
9.266931923701485774e-01 -1.387392105998514619e-02 -3.755625667305572679e-01
9.073019146302055971e-01 3.455975030367059442e-01 -2.395111721885998524e-01
9.207632322974924621e-01 3.898345467085894134e-01 1.496984440742788088e-02
9.186343289073409801e-01 3.596233645013337532e-01 1.636520866280045949e-01
8.300708337452323837e-01 3.782617713394155201e-01 -4.097565659128139526e-01
9.213440037776792213e-01 3.776646168930546388e-01 9.216650069270435064e-02
8.881134594339712418e-01 4.465349564674108707e-01 -1.089082908913341224e-01
9.570036719642591727e-01 9.774124489200648747e-02 -2.731128354616189635e-01
9.048783310744741293e-01 4.130094426921459005e-01 -1.030456510435910494e-01
9.024897942345508906e-01 3.621440116796026398e-01 2.331606444215699736e-01
8.395102181781722850e-01 2.724038601688415495e-01 -4.701262921168647968e-01
8.810206106795315240e-01 3.317387412833961990e-01 -3.372715391039886601e-01
9.726468216678292311e-01 2.188009548678512273e-01 7.800193874761347790e-02
9.600107924178029606e-01 2.752736976370585009e-01 5.102616809602113918e-02
9.649345973339825688e-01 -1.142413291743823306e-02 -2.622417054074149823e-01
9.467054030903109263e-01 2.460263663135584533e-01 -2.078939798025876418e-01
9.083568717103498447e-01 3.303375262203928631e-01 2.564467047695846991e-01
9.216165589688898319e-01 3.757864459382383449e-01 -9.699208876733285412e-02
9.143233893919719968e-01 3.380730192411646184e-01 -2.229784143632275173e-01
9.099578204851875851e-01 3.838994498130547384e-01 1.568374233755489011e-01
9.456400980413451896e-01 -6.615892147284455418e-03 -3.251477125053328088e-01
7.985536049546467785e-01 3.746900534003894112e-01 -4.710833300985627359e-01
8.120999086137840051e-01 3.554929807422676502e-01 -4.627293799538360064e-01
8.356769323919986947e-01 5.401512863110872198e-01 -9.940147164089947751e-02
8.633352082838284813e-01 4.906034982876339434e-01 1.181546681492283285e-01
8.981646827476438277e-01 2.276143546680774454e-01 -3.761541016842148144e-01
8.948502109415135131e-01 4.447030684459060690e-01 -3.850040120212557676e-02
9.711540656369307412e-01 1.372728184442781607e-01 -1.949768040389021073e-01
8.558867503012966838e-01 3.012523945162797756e-01 -4.203627783913481686e-01
9.408939415201839074e-01 2.807883809496888872e-01 -1.894108654070966180e-01
8.932351036882927309e-01 4.418394774617592780e-01 -8.311994763764220251e-02
9.316572760789469942e-01 3.355904435452236045e-01 -1.392615314086290967e-01
9.386512809270443070e-01 2.934950990491401179e-01 1.810922407176910331e-01
9.577647985958510635e-01 3.209979957601538647e-02 -2.857554784038768281e-01
9.806606050979870259e-01 4.891853694097339500e-02 -1.895039692259882225e-01
8.954007232349233680e-01 3.730996544282775274e-01 -2.430106843245297132e-01
8.895054852102263210e-01 4.189145681986608527e-01 1.824570533902415970e-01
6.031439880606861426e-01 1.933041903026792574e-01 -7.738545210035774335e-01
8.774580352529105509e-01 3.045592835664533427e-01 -3.705550420161502490e-01
9.642422103127303856e-01 2.555303336391409053e-01 -7.029372974518785511e-02
9.863460786395912283e-01 1.400814145770949981e-01 8.659451739216164623e-02
8.502742389483997076e-01 3.837952191898194032e-01 -3.601873794398660622e-01
8.423204703286082395e-01 4.981774923381816489e-01 -2.057071009786318461e-01
4.004526580465772589e-01 1.254427159232552047e-01 -9.076903622299999919e-01
4.697382673640396189e-01 2.755391048007008181e-01 -8.387038582833981071e-01
6.520772884485044329e-01 2.074880865134078045e-01 -7.292077233852165552e-01
7.776681252037088710e-01 1.875237651684970863e-01 -6.000559345087580487e-01
8.829878317755416317e-01 4.011649349848118162e-01 -2.437194778325271760e-01
9.311970832124665254e-01 3.118421189894686751e-01 -1.887497948098293132e-01
9.780201272508084465e-01 1.108563986090214254e-01 -1.765998006220573235e-01
7.655357552763240037e-01 3.111606020071110978e-01 -5.631465947265245076e-01
8.665724115731748833e-01 4.917907090928478331e-01 8.481835856821262620e-02
5.305996625550862822e-01 2.426117205817101274e-01 -8.121598064006927409e-01
7.599482029862979493e-01 3.225083265249597542e-01 -5.643289006421400300e-01
9.037185026838221447e-01 3.133257079705966119e-01 -2.917530953248565484e-01
9.677707005874024437e-01 2.168823542133210269e-01 -1.279918572232456586e-01
9.903029462765429169e-01 1.378835604138078375e-01 -1.697640608639626458e-02
7.650212045441552311e-01 5.239473148332335350e-01 -3.744619712024898073e-01
8.258303737147830725e-01 5.378317215106346305e-01 -1.695323956859247638e-01
8.438574483161668249e-01 4.540090663284344630e-01 2.859726815849916171e-01
3.998121488278501001e-01 1.800971698247720298e-01 -8.987298009250412889e-01
6.235543661819982209e-01 2.266103859445250113e-01 -7.482163359600215724e-01
6.988971124619834940e-01 2.319370855222733230e-01 -6.765707757151023793e-01
8.465138980359266929e-01 2.692419809304893441e-01 -4.592635149199711386e-01
8.811338794836526267e-01 2.716111732840393311e-01 -3.870793936305002014e-01
9.476679845306882344e-01 2.850598687005413412e-01 -1.437576514554030349e-01
8.133556440361284778e-01 5.727369669669757357e-01 -1.021027080152323990e-01
9.277907942423165855e-01 3.645323574149869073e-01 -7.950095921863796489e-02
9.641438689882306790e-01 1.972140037619911357e-01 1.775760023555290334e-01
9.452459245749521566e-01 5.691000583324801881e-02 -3.213586677071329500e-01
9.673902954938453647e-01 1.146675617913295829e-02 -2.530306892198229129e-01
9.541850354274054036e-01 4.641295554432459114e-02 -2.955955948995878657e-01
8.279983965061452622e-01 5.217418870713538270e-01 -2.054362642243936221e-01
8.712814308386569451e-01 1.902121094897330500e-01 -4.524246033088922259e-01
8.935095836344454368e-01 2.618094487850009533e-01 -3.648238430808683486e-01
7.202870406356662869e-01 4.194315926210904766e-01 -5.525067585140019943e-01
8.197950679202170576e-01 4.502889038317928749e-01 3.538021335430993064e-01
4.139043884362385017e-01 1.844259115087512890e-01 -8.914427858238518354e-01
6.925754294024845104e-01 1.960369981298835107e-01 -6.941964923220140804e-01
7.855023200678930007e-01 3.225041175085288647e-01 -5.281829222513754196e-01
9.114752354672120971e-01 3.430007661547934128e-01 2.270756912291910790e-01
9.646958367093749764e-01 3.943565768837645896e-02 -2.603973339692328137e-01
8.953554375329686454e-01 4.306898230496277180e-01 1.133354172429184709e-01
4.673801609031248416e-01 1.636021412832378008e-01 -8.687865817113594735e-01
7.197623531197608893e-01 3.074017604475422494e-01 -6.224518557328401203e-01
8.137077630776176074e-01 2.868166398316108756e-01 -5.055847025206792189e-01
9.369616877489448381e-01 1.541409595802818444e-01 -3.135974494002125579e-01
9.267338775094374759e-01 3.281377277300987494e-01 -1.830026008461365650e-01
9.972097612744932338e-01 5.942216776420054108e-02 4.518515239624186497e-02
8.290810734954731087e-01 4.659520665749401491e-01 -3.090521723368667706e-01
8.101802100737310885e-01 5.732958629183796395e-01 -1.222288049747504157e-01
6.362035964972619917e-01 2.678113146147724222e-01 -7.235482593222489767e-01
8.462683583331559456e-01 2.212853962365934901e-01 -4.846262880782666871e-01
9.076174396509519848e-01 4.197981197013223031e-01 3.491943370341941640e-04
9.367016613656711232e-01 3.499531446413017832e-01 -1.108125220613493528e-02
9.419165684446287878e-01 4.979887642269473225e-02 -3.321343854474151924e-01
7.678401631289689666e-01 2.640320299763413980e-01 -5.837024679000858418e-01
7.879721759322575458e-01 5.908522002665314021e-01 1.731863949529001134e-01
3.319137118137031051e-01 1.753553350707915681e-01 -9.268677329437358114e-01
6.278383291844664704e-01 3.053873808418799407e-01 -7.159312676712717982e-01
6.769660711457913260e-01 3.279217743289630782e-01 -6.589265880493637706e-01
3.491042933640532420e-01 1.138602178252907104e-01 -9.301408727453935876e-01
4.431043714037780634e-01 1.595223214960533875e-01 -8.821627655865851292e-01
8.462349227377873317e-01 1.439556587649279407e-01 -5.129943701918437959e-01
9.322196770755674100e-01 1.897094073911324286e-01 -3.081830858766103076e-01
9.178391593849133390e-01 3.738227535636644006e-01 -1.335208838259978603e-01
9.543304594429303789e-01 2.335235767076679625e-01 1.863333392098774910e-01
9.199397938310006628e-01 2.677559941676646016e-01 2.863869817457863620e-01
9.411994722318657303e-01 4.082409795257385676e-02 -3.353758287307183061e-01
9.000540475383581596e-01 2.230335415978110247e-01 -3.743778182961116086e-01
8.701607066150005565e-01 3.241228120775879185e-01 -3.711667379415881096e-01
9.260281689578782061e-01 3.345674236341981689e-01 -1.747468721874421704e-01
9.702456986028825670e-01 1.694557965157836854e-01 1.729393459274246314e-01
9.981628109587183939e-01 6.049214461709127161e-02 3.421002574503602053e-03
9.721704829492553435e-01 -4.215446418992200434e-02 -2.304507609687418412e-01
6.323067401948189170e-01 1.872065703779105528e-01 -7.517591943644866825e-01
8.874778264034491881e-01 4.250643956063510642e-01 1.780543940205261966e-01
4.532654728426786517e-01 2.314596583501994931e-01 -8.608001148263817459e-01
6.854238818483292528e-01 2.992920114452803926e-01 -6.637909264798712572e-01
8.890342241075595009e-01 2.835406472179648474e-01 -3.594757985465605876e-01
9.057241035105311200e-01 3.729600801573386692e-01 -2.014066208670317326e-01
3.785896073260714978e-01 1.607831792676637506e-01 -9.114925553668956626e-01
6.726077113820032594e-01 2.847849695159573313e-01 -6.830054082708709728e-01
8.925694056353286054e-01 2.664953390926610433e-01 -3.637307938100426963e-01
9.280641825917773646e-01 2.603479171770405887e-01 2.663002722714211679e-01
9.731343999885858631e-01 2.275473453079288333e-01 -3.509480306497504004e-02
3.089961802752385078e-01 1.031092921632860288e-01 -9.454574736310979999e-01
5.506482328527531056e-01 1.774112395441365675e-01 -8.156664610853833208e-01
7.084279601896774636e-01 2.186480676102638132e-01 -6.710609866113439459e-01
8.310124201063497917e-01 2.396378927774765466e-01 -5.019880854902416534e-01
9.578408202027283158e-01 2.024941625447307381e-01 -2.038064701835366754e-01
9.773331963885512064e-01 1.291487644303372095e-01 -1.677510652218187071e-01
5.021576329096475444e-01 2.513848607062540430e-01 -8.274317878340649024e-01
8.658434915057542369e-01 2.523341113551297865e-01 -4.320214629665311001e-01
9.380274964262145243e-01 2.672431396042094787e-01 -2.206479555374420420e-01
7.660349084334204806e-01 2.601787147702192549e-01 -5.877904009440084732e-01
8.987479552938516525e-01 2.759426076491098834e-01 -3.407459319477346704e-01
5.840802853756773549e-01 3.094266911275593834e-01 -7.504034535190502453e-01
7.328980550642140157e-01 2.826792384889342813e-01 -6.188318745914825891e-01
9.619487796346715136e-01 2.655876912930172917e-01 -6.416949113878676891e-02
9.973471851125370602e-01 5.488112435337079431e-02 -4.781897675409474413e-02
7.324062328829920032e-01 2.512931162813849539e-01 -6.327976609815613163e-01
9.532926095674822964e-01 2.991349258932827215e-01 4.185088595047665311e-02
8.062557843645953293e-01 4.441914697276754254e-01 -3.906987949812473770e-01
9.666887734578352154e-01 1.926350878445621528e-01 -1.685364595620301442e-01
9.495435889752137371e-01 3.120089368278510245e-01 -3.189664520955691474e-02
9.404865644866977625e-01 2.684268802963531986e-01 2.084035315304809122e-01
9.838111901337408538e-01 2.911143939429170630e-02 -1.768277870246218464e-01
6.013241429316199538e-01 1.565423235845437577e-01 -7.835201184745065328e-01
8.309483312135198529e-01 2.748567301716587918e-01 -4.837133952381416635e-01
9.453321438245124719e-01 2.633118730712226130e-01 -1.923902163621519501e-01
9.747737004553131968e-01 2.231860889832292527e-01 2.050020737806901132e-03
9.645282273416888597e-01 1.495240901197142092e-01 2.175496383241558307e-01
9.285524721843878559e-01 1.213659188100443473e-02 -3.710027082620496186e-01
8.010162595557214216e-01 3.500151981003977730e-01 -4.856565793089807626e-01
6.574603569621483290e-01 1.895474874058172277e-01 -7.292582732073362717e-01
6.992977320062814250e-01 2.315958417072482844e-01 -6.762736488395671985e-01
8.006117293689025693e-01 4.067934688581975600e-01 -4.399317361719313202e-01
9.531125293444854263e-01 1.682041026196194056e-01 -2.515628873035249402e-01
3.767736776139284371e-01 2.021524866774471879e-02 -9.260847367161261223e-01
5.069065003291992610e-01 1.023613848546141708e-01 -8.559018324636588071e-01
8.446572940381500416e-01 2.647549308055008321e-01 -4.652514183130713743e-01
9.881308755669319099e-01 9.262934436609961131e-02 -1.225445931636117008e-01
5.953110946504258649e-01 7.418851742817016148e-02 -8.000629753137699085e-01
9.570859136665785805e-01 1.956801752176823561e-01 -2.137658131876743473e-01
9.864029953363779857e-01 1.604785773685689643e-01 -3.543666176690127984e-02
9.293782690803159552e-01 -2.956421346843276718e-02 -3.679429170989284015e-01
6.809163091009526880e-01 4.824981557408965921e-02 -7.307700974296924556e-01
7.924193126582831370e-01 2.802751902634863512e-01 -5.417725082070338205e-01
8.671172336374024514e-01 3.330640947735240553e-01 -3.703728012445182682e-01
9.374269726010363568e-01 2.420517125608048215e-01 -2.502831186605229963e-01
9.511738726907054131e-01 3.079912854188271987e-01 -2.023936798974139417e-02
9.943094418214368790e-01 -6.680182551835105176e-02 8.298343215460905753e-02
3.347400546229488127e-01 9.733244256809726880e-02 -9.372702339532356097e-01
8.721545805985531086e-01 5.692265847969753267e-02 -4.859076028347013021e-01
8.653508150635669249e-01 4.391807480742063174e-01 -2.414295702473102934e-01
8.782848194578727341e-01 4.682194111689793464e-02 -4.758397647737079295e-01
9.332688824489336898e-01 2.470788584386437448e-01 -2.606937489952052545e-01
8.490523411967921819e-01 1.345133067055324927e-01 -5.108975359378722381e-01
9.832633885544824759e-01 1.462976302750795266e-01 -1.085822826443294670e-01
8.780284410129924888e-01 2.396491336292461416e-01 -4.142877617345767649e-01
8.625646992648302591e-01 3.993126120454836281e-01 -3.106953128767573902e-01
3.286301242401429290e-01 2.554145592579321056e-02 -9.441132747033582628e-01
9.836733891418859566e-01 8.469780806171002541e-02 -1.587858457283186364e-01
9.466565648215861106e-01 2.934578697407575487e-01 1.331308640676930333e-01
9.819733086756337048e-01 8.145320876491878026e-02 -1.705690353801865011e-01
9.315753769052238509e-01 2.380023022069267524e-01 -2.748130660796404556e-01
9.097425348456640304e-01 6.440415329255183563e-02 -4.101470776822082054e-01
8.458068596678932627e-01 1.393889958852700672e-01 -5.149577302700029113e-01
9.601762515951077770e-01 1.702677183043593556e-01 -2.215185544738761947e-01
7.737019482706365414e-01 1.398108273358900921e-01 -6.179306011210928817e-01
8.768222092040157678e-01 2.020018567989775582e-01 -4.363233471822867138e-01
8.692866979130867700e-01 3.607290179673465769e-01 -3.379574121508148177e-01
9.138831233950786004e-01 1.734786545697548574e-02 -4.056065684105004121e-01
9.666628020439884672e-01 9.579963826813865657e-02 -2.374562200746880292e-01
8.942080143024165872e-01 2.454244323124109006e-01 -3.743779843706891985e-01
9.038580157807102333e-01 1.843595263303289822e-01 -3.860728588753865043e-01
5.332530768400137733e-01 2.772770677354395863e-01 -7.992237382289735237e-01
9.460491816035663248e-01 4.387812798159576588e-02 -3.210384024880090781e-01
7.142507728754328156e-01 1.097442763940884580e-01 -6.912322527527088312e-01
9.573441424585473758e-01 7.650392704611171102e-02 -2.786383714545285217e-01
9.544232608530421880e-01 8.531850251141719077e-02 -2.860017347357444173e-01
3.521547508163844209e-01 3.201711095844146926e-01 -8.794756915713675127e-01
5.465582108174827924e-01 1.577071196489732152e-01 -8.224369803212987495e-01
7.726335009222718986e-01 2.383526823832255725e-01 -5.884092725759126896e-01
5.365123335536963189e-01 2.255999294269729616e-01 -8.131784476898734626e-01
9.882390166619926530e-01 1.526318076671945856e-01 -9.336875022317857320e-03
8.076038337219844099e-01 1.534443774218307854e-01 -5.694127420379526683e-01
9.719335606023330465e-01 2.137251359399750250e-01 -9.831947946521209236e-02
4.974546066147452206e-01 6.401168361720625810e-02 -8.651250884804230212e-01
5.971703799415388758e-01 1.812735239161940015e-01 -7.813625578740532873e-01
1.668699227956944586e-01 -1.339960467320285287e-01 -9.768313510152851764e-01
2.766318394999637831e-01 -3.429343293905501994e-02 -9.603638819906342716e-01
2.544077686883252087e-01 1.397653605398464227e-01 -9.569442675643103913e-01
4.823645907523460563e-01 1.889251033748555741e-01 -8.553547257735365505e-01
7.284368612394230835e-01 1.577091511860437556e-01 -6.667140037676089204e-01
9.396028594015218838e-01 1.881879896468806601e-01 -2.858876477869396471e-01
1.144097750848644263e-01 3.939998322382669282e-02 -9.926520259824148651e-01
8.907860105414892038e-01 2.215690748958538958e-01 -3.967460503563625673e-01
5.181243122671979062e-01 6.711493223394932039e-02 -8.526680379308676505e-01
8.717268445875976379e-01 2.615720949276317264e-01 -4.143336186945498767e-01
3.955534601525415028e-01 7.984373215002335544e-02 -9.149658128027007287e-01
8.258617399978384066e-01 2.058580606598529039e-01 -5.249522314164470904e-01
5.941251390435647872e-01 1.467270638804101246e-01 -7.908770371438905711e-01
6.767300744258146761e-01 1.090675331749023647e-01 -7.281076016460569234e-01
3.047337477374201242e-01 4.404592020334926333e-02 -9.514185723977361953e-01
6.996218872039565717e-01 1.865755149276757674e-01 -6.897237071281855370e-01
8.948461029714168680e-01 2.577520011205153283e-01 -3.644370424575940071e-01
6.190869518002592997e-01 9.569195034962228730e-02 -7.794705874816244551e-01
2.911708479819787310e-01 -3.437550839106352091e-02 -9.560532734677035238e-01
5.324255815037759465e-01 1.540776595911950986e-01 -8.323359147455224871e-01
7.802378957367632761e-01 9.114150811196555790e-02 -6.188069582311952477e-01
7.913221945041576388e-01 -9.453777760313244669e-03 -6.113262717822479653e-01
6.502348238189363805e-01 2.149026208747905620e-01 -7.287053845240221150e-01
5.001865044031178487e-01 5.560487570238366317e-02 -8.641305217448994602e-01
8.141672410458007381e-01 1.876953319552740196e-01 -5.494562457285097068e-01
6.592643967236373470e-01 1.111397827366320534e-01 -7.436520718090368076e-01
8.665044353059125903e-01 1.330921433378064456e-01 -4.810993088510214233e-01
5.742231870880927236e-01 1.909317090882884094e-01 -7.961236172071637363e-01
8.634662314907899372e-01 -1.478727894262872621e-04 -5.044066268485495330e-01
6.853440287182518409e-01 1.160259166140707870e-01 -7.189169277281629578e-01
-1.674387871063238165e-01 -8.982075408890459745e-01 4.064326094968463976e-01
1.195874660647026633e-01 -7.689374910236247418e-01 6.280397860474419280e-01
-8.682939878637604275e-03 -8.352253775404823166e-01 5.498392267448938275e-01
5.525308378350320127e-02 -8.369474161547174607e-01 5.444870240183463661e-01
-6.584275701569387851e-02 -9.037115319335109476e-01 4.230486950682617597e-01
1.035570129318827415e-01 -7.766694275384913304e-01 6.213377064042210352e-01
-9.351136156665199040e-02 -8.681017625747325939e-01 4.874986718675177189e-01
4.937970183788319839e-02 -7.981849144557724429e-01 6.003852824492227347e-01
2.466447582856766962e-01 -8.196623425817306519e-01 5.170299869094923118e-01
-1.701099045688311828e-01 -8.098769676401796902e-01 5.613928371947140006e-01
2.839427658219566622e-02 -9.338358933621208058e-01 3.565729789621525092e-01
4.823314609512233120e-02 -8.443370624280598369e-01 5.336370382836271853e-01
1.426507896517164101e-02 -7.072572260708845926e-01 7.068123680954054855e-01
-1.373326409447575835e-01 -9.306130737802760233e-01 3.392625128722072669e-01
3.623988896719931851e-01 -8.191148465936403111e-01 4.446548243912166187e-01
-2.047590885798205584e-01 -8.938603259055747374e-01 3.988576605957830368e-01
1.937790724017079578e-03 -8.874477715464628158e-01 4.609042175380120843e-01
-2.354218868657796948e-01 -8.197621903308829339e-01 5.220790040678413568e-01
-4.883414289609753350e-02 -9.368167968685856550e-01 3.463950282444692164e-01
-1.243253403512920990e-01 -7.952899844770694449e-01 5.933439561814025653e-01
-5.627446403553252458e-02 -8.932305864016404362e-01 4.460631168501773547e-01
7.000130587842133545e-02 -8.410450999032842434e-01 5.364167755616806588e-01
1.563334471067291953e-01 -8.199446310364003621e-01 5.506819911258299394e-01
3.287202100484470230e-02 -9.258828390126702113e-01 3.763779996983018239e-01
3.280521008795317384e-02 -7.939072149881217788e-01 6.071533185126221088e-01
9.857370510192360602e-02 -7.523961278688753307e-01 6.512935524250197394e-01
-9.225775238461120242e-02 -9.512466767615374019e-01 2.943098147786971097e-01
-2.808638709446297788e-01 -8.903776799606207826e-01 3.582500146907751093e-01
-1.527147110487710735e-01 -8.970701391734831054e-01 4.146605629096621892e-01
-2.438103478716799333e-01 -8.823202858291332440e-01 4.025759897026733869e-01
-2.029591148404874257e-01 -9.244344426333029885e-01 3.228444810995227399e-01
1.198584528535632243e-01 -8.018361674422775920e-01 5.853996172368326478e-01
-4.826048292676159840e-02 -9.087277438683137865e-01 4.145899339246912341e-01
7.960283299181152017e-02 -9.469294574416813326e-01 3.114289511411564848e-01
1.217651502914717798e-01 -8.775923735363061473e-01 4.636861806064613289e-01
1.284092307399764266e-01 -8.457002787612978301e-01 5.179788682599230087e-01
1.491585461923791156e-01 -8.532349874035483062e-01 4.997417176584746934e-01
8.618371921630780044e-03 -9.495091346079342909e-01 3.136209925395810894e-01
6.716645260247071370e-02 -9.081215856643953810e-01 4.132842282197378148e-01
9.460792139087267905e-02 -8.081171898544815546e-01 5.813741898913249440e-01
4.784994640173426128e-02 -8.626856063756078719e-01 5.034718732776448658e-01
2.291484159268363519e-01 -8.098156945401498996e-01 5.400829050753934713e-01
2.392536964018227852e-01 -8.566882277840931481e-01 4.569933797487815696e-01
3.240972004005615581e-01 -8.287732296715517588e-01 4.561753374222500268e-01
-8.628477135906546802e-02 -8.462179421294530046e-01 5.258042721866261759e-01
-2.099292902592680976e-01 -8.756487143904879700e-01 4.349356528011076861e-01
6.938143626952067433e-02 -8.848252551249959907e-01 4.607282107643987934e-01
5.699967522522332575e-02 -9.133782713865030711e-01 4.031019354744189154e-01
-8.835534836958923097e-03 -9.036915181597356961e-01 4.280929494050294548e-01
-2.028576149691692643e-01 -9.341623384657150586e-01 2.935805058945281099e-01
-1.534076164752353755e-01 -9.392086946175494111e-01 3.071695479082940383e-01
-7.393045124135860791e-02 -9.388467877437186582e-01 3.363049174819630061e-01
-1.538667685225435788e-01 -8.648258753578327296e-01 4.779134051854880272e-01
-9.809464653263856582e-02 -9.169113699046786969e-01 3.868474894078572368e-01
-2.107488328896656160e-01 -8.947789863027325596e-01 3.936438683717786158e-01
-2.361771562134837577e-01 -9.037080414399081274e-01 3.571164049994860479e-01
-1.083234115139002363e-01 -9.416703155299382955e-01 3.186268277589580644e-01
5.121732354017533018e-02 -8.440972274819932286e-01 5.337383781653642911e-01
-1.664426725141828489e-01 -9.118050330808618043e-01 3.753777010089238142e-01
4.855291997131068460e-02 -8.735245342022629478e-01 4.843526629522947324e-01
-8.029735540015889295e-02 -9.066841770372113807e-01 4.140967735036041319e-01
-8.866451737158793922e-02 -9.548517412044549291e-01 2.835432165968428397e-01
-2.642489424738450263e-02 -8.885941303940397828e-01 4.579325238430600464e-01
-5.353150834463616531e-02 -9.686818573708175784e-01 2.424661560197030885e-01
-9.773268513563249105e-02 -9.569977754585691221e-01 2.731365592950334431e-01
-6.113357714079026978e-02 -9.588760383089465211e-01 2.771631810015726116e-01
9.663594709119321599e-03 -9.488394320398472193e-01 3.156110694250093829e-01
2.803104659537634241e-02 -7.907560349537803290e-01 6.114892914932716916e-01
-6.391508574433515943e-02 -8.373242361861465977e-01 5.429576275452628886e-01
-1.464330110096559619e-02 -9.370181300772868482e-01 3.489736345905391501e-01
8.265858219524945807e-04 -9.656899330214412380e-01 2.596964959658166761e-01
6.320216867354332135e-02 -9.549542736569205381e-01 2.899445138286712575e-01
8.146343151578909481e-02 -9.505156246861549141e-01 2.998061983234519556e-01
-5.669657912854767640e-02 -9.410867002686923444e-01 3.333786443257945042e-01
1.890956560288358235e-01 -7.701896983043821088e-01 6.091392792267046330e-01
-4.078968968747868629e-01 -7.182568235974589044e-01 5.636730052748741837e-01
-2.253694322458910937e-01 -5.233015754514541706e-01 8.218053785046620652e-01
-2.459932952210525381e-01 -8.112948628160738807e-01 5.303658588884997416e-01
4.750547921553679998e-02 -9.225326513578333554e-01 3.829839900350774373e-01
-2.303626712300702595e-01 -8.232570684923699034e-01 5.188264053429586520e-01
7.958719245614309656e-02 -8.670799142399658876e-01 4.917705777276252799e-01
-2.866576791434300997e-01 -6.369953085337883847e-01 7.155867186400584057e-01
-3.076330207950996320e-01 -5.688634893954312988e-01 7.627294769112676898e-01
-3.772492207096120875e-01 -4.904606182337287179e-01 7.855771174339148955e-01
-6.343371764723124140e-02 -7.930175825694265601e-01 6.058871819086404376e-01
-5.065737184743077104e-02 -8.716396491674165414e-01 4.875224637663520544e-01
-1.712159889955754133e-01 -7.781933889257217629e-01 6.042351649354473775e-01
1.264365100234697836e-01 -8.964389411545440334e-01 4.247482003667643058e-01
-3.103604440215085650e-02 -8.165292457976639495e-01 5.764692140131733034e-01
-4.726372830100577377e-02 -7.819624235010170787e-01 6.215310999616227017e-01
6.263124473838761752e-02 -8.308162346588878755e-01 5.530114930177744137e-01
-2.034390045189445051e-01 -6.889364570151180756e-01 6.956860855556888934e-01
4.719522298429515428e-02 -8.927193463296410059e-01 4.481347784051593064e-01
-2.051042033768800954e-01 -7.869046850526593140e-01 5.819907923664346949e-01
-1.718779143180259039e-01 -8.205355531427943605e-01 5.451416225150431671e-01
-3.071506545899263529e-01 -5.941442583006650846e-01 7.434050549420097020e-01
3.914166884148214016e-03 -8.955819714609379867e-01 4.448793226165301262e-01
1.144068507574965907e-02 -8.366680909524523146e-01 5.475907379667561692e-01
-1.585117249080495588e-02 -7.698597906259306844e-01 6.380161777792667799e-01
-4.218160919783365409e-02 -7.387866687872212124e-01 6.726179969847387863e-01
1.209923018431251773e-01 -9.269767366442021039e-01 3.550704051525100380e-01
8.798471735978938280e-02 -8.272809191592744860e-01 5.548558103742846637e-01
-2.715407144792709310e-02 -8.593533637355564858e-01 5.106607999838888023e-01
1.159671332107133634e-01 -9.076948301739206082e-01 4.032886302518657318e-01
1.687519145532539178e-01 -9.167982775263396888e-01 3.619443460800954582e-01
4.307687212133801125e-02 -8.900330935381414177e-01 4.538562277805250900e-01
4.249184681261915231e-02 -8.752611295684239456e-01 4.817804458683014879e-01
-4.273890502369488420e-01 8.448838187306919600e-01 -3.217295954440654859e-01
-7.095787950232870234e-01 6.964947492754316460e-01 -1.067379870760814947e-01
1.580872637538409398e-01 9.716530327140351364e-01 -1.757805480035876666e-01
3.252493993114052157e-02 9.611520750553509407e-01 -2.740963642576613180e-01
2.188551961389665745e-03 9.962931209259928700e-01 8.599550823070409300e-02
-1.350573916176565636e-01 8.935307245134997967e-01 -4.282082966499076715e-01
3.041554481399438847e-01 9.165729135579031572e-01 -2.595834307092166338e-01
-1.121513856368632073e-01 9.312383030926417726e-01 -3.467236501204792876e-01
-1.720676040952598962e-01 9.125989225851859343e-01 -3.708853544119456447e-01
-9.005254920027482013e-02 9.373667565716965466e-01 -3.365027519304855108e-01
3.841851407604912061e-01 9.183298051097376069e-01 -9.524781711909657833e-02
-5.576322676399427802e-01 7.119485307249820982e-01 -4.268202709399759875e-01
-2.971787181637244313e-01 9.548217434406881532e-01 4.977182438998120975e-04
-1.369308431821652794e-01 9.836818239066438263e-01 -1.167048135302053979e-01
4.043189467497983469e-01 9.139519592603785325e-01 3.489993500351020600e-02
-1.794111822338190498e-01 8.985083968135382237e-01 -4.006173842271810170e-01
2.099340239041648792e-01 9.631000807557614785e-01 -1.684219108538176357e-01
-2.588024080384571102e-01 8.555695179925133509e-01 -4.483548967899809168e-01
-4.932174282583201008e-01 6.653101877129106168e-01 5.604452895579197236e-01
-3.891997426917185865e-01 7.793351044104671610e-01 4.910808032515895372e-01
3.931523399357306214e-01 8.750562468469286204e-01 -2.823257027924074292e-01
-3.071011050073793602e-01 8.162735800976377298e-01 -4.892712476099856378e-01
-2.514701140983706673e-01 8.173268195399754354e-01 -5.184010530236418113e-01
-4.738639972970301595e-01 8.720038768023281595e-01 -1.227279548733310049e-01
-4.879431649777258850e-01 5.978951202630914397e-01 -6.359503855782332460e-01
-6.734031768592584066e-02 9.425204924277645890e-01 3.272925342376188373e-01
2.733064670616438541e-01 9.027861897501788802e-01 3.320853364101409300e-01
-3.555135878262312144e-01 9.256600611242316035e-01 1.294740904984640617e-01
-2.647782283972834882e-01 9.456468886496884885e-01 -1.887973828048462310e-01
2.402334251569362283e-02 9.810075105082285418e-01 -1.924763448863827942e-01
6.133305798076778975e-02 9.761233593380395090e-01 -2.083781258994052143e-01
-6.745182069672650549e-02 9.730282029233210395e-01 -2.206045516314401600e-01
-2.330933316698856894e-01 9.715925845543200712e-01 4.093101965611269100e-02
-3.522829977115145006e-01 9.165154055581418158e-01 1.894629275029386661e-01
1.021738681263854032e-01 9.698120999135583231e-01 -2.214158791354997879e-01
-2.950683258438195275e-03 9.998424590458000472e-01 1.750287283722469847e-02
3.733083479792429493e-01 9.254115104310400852e-01 -6.522586673053679118e-02
9.433605991828829251e-02 9.791094849030012037e-01 -1.801258570335556308e-01
2.907605820664966867e-01 9.527360600159222592e-01 8.804705481553046220e-02
2.619786413739837450e-01 9.579337310268727368e-01 -1.171757586908509369e-01
2.047706549204757476e-01 9.389491882904246189e-01 2.764839971719741385e-01
2.710034334182656046e-01 9.451358582515624329e-01 1.824153187717365010e-01
1.115831170475137524e-01 9.577953266980899771e-01 2.649100227346262715e-01
9.858560072334843216e-02 9.842145777595552314e-01 1.469780400454333558e-01
2.137107053671354895e-01 9.593080504538132880e-01 -1.845421327122490629e-01
1.543621748865971199e-01 9.878658463150321589e-01 -1.712859155227920011e-02
3.141213949372673175e-01 9.447142290830783384e-01 -9.403602825848370039e-02
1.925151237866677967e-01 9.771120233762808915e-01 -9.049873417299431066e-02
7.178141848005187287e-02 9.739177373702007090e-01 -2.152479240241363945e-01
-6.506351045040361658e-01 7.540565012566239345e-01 -8.984850415917450261e-02
-8.153635635220861655e-01 5.776784883029808526e-01 3.833827633772351334e-02
7.805273163594800279e-01 4.759728716772701484e-01 4.052492243594812971e-01
-1.984886507948719903e-01 7.534846843219813461e-01 -6.267879114962535692e-01
4.704759147857474205e-02 9.986662181976757591e-01 -2.126755197048965998e-02
-3.541984120884530962e-01 9.056509032506165902e-01 2.331092583218453418e-01
4.032238236080563087e-01 8.316368117091491596e-01 -3.818255642111204606e-01
8.486437716717863955e-01 5.288934916728359470e-01 -8.684657091720367553e-03
5.943117375599621388e-01 7.347589870303583570e-01 -3.269905038018389165e-01
5.372133412152461096e-01 7.005767265814534239e-01 -4.696744363841478531e-01
-1.732430376547356432e-01 8.090826129880333006e-01 -5.615800702167200731e-01
-2.872719040560643422e-01 7.764009136981804282e-01 -5.609603144150520082e-01
-2.184783825281993719e-01 6.562118812858558359e-01 -7.222556079582487243e-01
-2.221464710012518162e-01 7.271224256153147047e-01 -6.495721080749934373e-01
-4.263592252932347226e-01 8.989173419572544788e-01 -1.008237240725470135e-01
4.324302279844688957e-01 9.016296063826984009e-01 -8.255350960473731639e-03
6.358011175968687478e-01 7.499274448363447698e-01 -1.826629856971671850e-01
5.074355398938806827e-01 7.768355392726866704e-01 -3.728749358370978539e-01
2.852266111780714028e-03 7.928965020001275121e-01 -6.093496547090098137e-01
4.006877004448372581e-02 8.008878853364820305e-01 -5.974722493876851726e-01
-2.415796083845163367e-01 9.173822651441629894e-01 -3.163053467960167953e-01
-1.243642725564125112e-01 7.563261991195346923e-01 -6.422649050328940179e-01
2.929218861530331064e-01 8.252745471518931897e-01 -4.828236639144635745e-01
1.327752457203846270e-01 7.928116328693732839e-01 -5.948280834921041427e-01
2.775751052430627808e-02 9.890138221172570798e-01 -1.451935958315918596e-01
8.081880814812582026e-01 5.823353480297547291e-01 8.784968632105466524e-02
8.059048141497776596e-01 5.734872609538576027e-01 -1.470707042678946752e-01
9.017866081277807755e-01 4.198029200144477446e-01 1.026957727890270428e-01
9.102912821300408464e-01 4.054654830741583060e-01 8.347169408539537039e-02
2.132433864235004362e-01 9.743494272105309717e-01 7.190585401167089163e-02
-7.994858092846102160e-02 7.491923964967016625e-01 -6.575096785896421547e-01
5.042782693926393112e-01 7.562869335764238476e-01 -4.168135088021194257e-01
2.589739439370408181e-01 9.184919837752237859e-01 -2.988393750869325904e-01
3.479833672219784235e-01 8.663022674246825261e-01 3.583684662351133143e-01
-4.081772144956571924e-01 8.862093153943453316e-01 2.191447258659263708e-01
3.437537837402335206e-01 9.390550522998190042e-01 2.990804984752110703e-03
-1.783645892112144249e-01 9.776836629220549968e-01 -1.109987773393400073e-01
2.002205073766908372e-01 9.485147473775796811e-01 -2.454211124436256608e-01
3.663283916935211604e-01 9.304842577771620382e-01 1.598583160832874788e-03
-2.098777942193372492e-01 7.267212568676406637e-01 -6.540852592058180592e-01
5.203751140029637678e-01 8.176446200244794626e-01 -2.463067519809945261e-01
2.538304055025966122e-01 7.578174196040234900e-01 -6.010681190905792226e-01
-6.367512746853846162e-01 7.634252566298680431e-01 -1.083037013502207990e-01
-1.017922853956787776e-01 8.900184967579524153e-01 4.444158031198255920e-01
4.119392989930144577e-01 9.110734925140284712e-01 -1.584629872981318729e-02
-2.296385371919672236e-01 7.660794229590188742e-01 6.003236293492952846e-01
3.629552638366694284e-01 9.284524908720277470e-01 7.899018069849483847e-02
4.688729677645455118e-01 8.672737113135621234e-01 1.673154199829394173e-01
3.133068977845591685e-01 9.496287265658724941e-01 -6.638484879496808766e-03
-3.770813929046594459e-02 9.377256934460110882e-01 3.453239349979213557e-01
1.667194544997885330e-01 9.601789435019356667e-01 2.241896963439657386e-01
-3.412113068842002050e-01 9.051379077721620758e-01 2.535748646222832914e-01
-5.417021462600948301e-01 7.687857278580942921e-01 -3.398930557968301569e-01
2.068063784746595191e-01 9.757265324081211277e-01 -7.203371278102901898e-02
1.880665726959467599e-01 9.799528035591419384e-01 6.575307620923781515e-02
1.212911852094808174e-01 9.872362030634008745e-01 1.032139900955250239e-01
-6.983343701851449925e-01 6.543972711615412274e-01 -2.899884806581897734e-01
-5.968921883636851833e-01 7.999718399301997129e-01 -6.135772803080078580e-02
-5.562030486884372849e-01 8.308547683701539288e-01 1.784719883527524295e-02
-3.174653355489147066e-01 9.384492955702519179e-01 1.361200953882745202e-01
-1.319223561416209001e-01 9.504969880486111578e-01 2.813395949036708310e-01
1.600157123620605248e-01 9.867238574746168833e-01 -2.776690273822950833e-02
-7.288287062899505286e-02 9.204823161790489650e-01 -3.839275879258096658e-01
5.416064266994972953e-02 9.819532812488201978e-01 1.812025889170826576e-01
2.542616289856212686e-01 9.551309450807288215e-01 1.519075435084515646e-01
9.302610005580505548e-02 9.954225219947379077e-01 -2.191226629180794208e-02
-3.269078413119166360e-01 9.406438181765943707e-01 9.121661370025116455e-02
-4.189559061110407212e-01 9.070371727877751811e-01 -4.194658407828537328e-02
2.826951411098209688e-01 8.893913930121803979e-01 -3.592581345338635712e-01
-1.988275547225739071e-01 9.481333975737856745e-01 -2.480134348946276546e-01
-2.851798570360899662e-02 9.689874560626382527e-01 2.454588244179979617e-01
2.318959662886607154e-01 8.962254104393742038e-01 3.781590597907495410e-01
6.403555290119469778e-02 9.758470710156620376e-01 2.088586650220468632e-01
3.736974925908120165e-02 9.992813613059831068e-01 6.345296429223925769e-03
-3.694300109317662749e-03 9.968933331811991039e-01 7.867677170284224919e-02
7.958021828628553118e-02 9.967893094969526580e-01 -8.835232317006018812e-03
-1.099596444403111717e-01 9.880305892640357524e-01 -1.081870198920495824e-01
-1.195000644889463171e-01 9.910070976079620175e-01 -6.020520806193541130e-02
3.758959705144301888e-01 9.229189184013675273e-01 8.320390259996603144e-02
7.724933319807465726e-02 9.969844153009052024e-01 -7.390275202242250693e-03
-1.088928298579986270e-01 9.904278747398922444e-01 -8.482320757751023177e-02
-1.249773325370854699e-01 9.852318939743300863e-01 -1.170417935938660864e-01
8.016165869169141617e-03 9.997382142470681021e-01 -2.142998037426890184e-02
1.275755958717478440e-02 9.993569759899796345e-01 -3.350938993092889007e-02
4.814552863582568371e-02 9.988226541237470446e-01 -5.942531579254249630e-03
1.535440750342182137e-01 9.876519239919946402e-01 3.111099575387157173e-02
9.187098673512948677e-02 9.947476193099081820e-01 -4.513198060780897192e-02
-1.279561923371302090e-01 8.443660225136693231e-01 5.202626575750262106e-01
6.170936169316504349e-01 7.858355227634186146e-01 4.071853515732148932e-02
1.344075932584520017e-01 8.334126395424791278e-01 5.360578057684713960e-01
5.450659834012726579e-01 8.373825333930161596e-01 4.115296474250258740e-02
3.591171551913377447e-01 9.168172954561428778e-01 -1.745878449370525942e-01
1.617568126873986656e-01 9.842937912583996640e-01 -7.071397343792684698e-02
3.097951156603638290e-01 8.378022696501422617e-01 -4.495712883203865085e-01
3.304151835994794673e-01 9.406643029893976271e-01 7.730766797926966194e-02
-6.249377266608060477e-01 -7.234571891492757034e-01 2.933641649285964048e-01
-5.068224402401604323e-01 -8.242699396781424381e-01 2.524085589119359763e-01
-4.668370492864805654e-01 -8.389106379099051658e-01 2.798072747715616426e-01
-5.084838393378193766e-01 -8.243607412594050610e-01 2.487439514893075854e-01
4.672971621017558697e-01 -8.818409499694512821e-01 -6.316566510867219209e-02
-1.029140044309844737e-01 7.163282633570997593e-01 6.901322531281817163e-01
-2.263012090823025291e-01 5.563043506004948791e-01 7.995706549585530620e-01
7.131488363889323390e-01 6.904453293004205738e-01 -1.212599868231297034e-01
5.989593393425961532e-01 7.842148117592726564e-01 -1.620334497307552302e-01
-3.843276437708083026e-01 8.653907057334018216e-01 -3.215450025483574392e-01
2.414645360115307560e-01 7.495025179974292850e-01 6.163934241734326802e-01
-3.215397238048730566e-01 8.990570882197789215e-01 -2.971675590256426802e-01
-1.474443049340369016e-01 8.410407102057708695e-01 -5.204908267386575416e-01
-2.702229979025194684e-01 9.518176679262206896e-01 1.449919253891944482e-01
-4.584026233152218022e-01 8.678898750638119886e-01 -1.914006261730704928e-01
-5.543232324138034350e-01 8.236121843762779227e-01 1.199530064368894838e-01
4.372049355268509130e-01 8.726031623242395119e-01 -2.177511548825839249e-01
4.846602649861088130e-01 8.228484808859319877e-01 -2.966897454367249942e-01
-5.455650758140248580e-02 8.828976354162705320e-01 4.663854123542874874e-01
5.796578713764566348e-01 7.071209223298304813e-01 -4.049404318597060182e-01
6.550960123949017833e-01 6.666759126529612223e-01 -3.555171473116869874e-01
-5.295444723650981622e-01 7.944919925757895074e-01 2.972627213771037447e-01
4.500408523153810458e-01 8.786868972191316240e-01 1.592876891120610650e-01
1.987148581714402173e-01 9.718804541951088227e-01 -1.263360118707780866e-01
-1.298136741679994655e-01 9.740813259258067625e-01 1.852403316819172530e-01
-1.001843914519816442e-01 8.007944088540398520e-01 5.905009758311202672e-01
7.789895194678800316e-02 9.499376567514794534e-01 -3.025726385037159072e-01
-4.133095648496905028e-01 8.496837893722380963e-01 3.274334461868451118e-01
1.600431779125557064e-01 8.868120459822910195e-01 -4.335326704002281928e-01
-2.738461490680859645e-01 9.083179944486274859e-01 3.161751217306679740e-01
1.872484406654591760e-01 8.562230230629189753e-01 4.814770568213506685e-01
-2.422109782641742315e-01 9.524563799633988248e-01 -1.848260973870561041e-01
-5.077442047628394350e-01 8.405787553248184052e-01 1.887410358833788160e-01
3.081739616416765415e-01 9.360205784316589783e-01 1.699831936355382378e-01
3.717070932799185212e-01 9.024338445467938730e-01 2.178233068840136344e-01
-4.022845968341769995e-01 8.764630623989905223e-01 2.645365823475966938e-01
-4.361146306128069194e-01 8.948720388708965023e-01 9.491081609858562085e-02
-3.137379469919580055e-01 9.490825571819055950e-01 2.847455478714767257e-02
-8.688336599360559076e-02 9.352955190958290865e-01 -3.430358183526680538e-01
3.935649817477546719e-01 8.233364434862362469e-01 4.089299523993385477e-01
4.956633943022183963e-01 8.666669173588321673e-01 -5.662379274247588551e-02
-3.134584165646269738e-01 9.321847098092719275e-01 -1.810400173514135347e-01
4.175709957810455619e-01 9.078673480914911664e-01 -3.756782868025809047e-02
3.744818143598777627e-01 8.733047653348730011e-01 3.116121909636021536e-01
2.472207293697236130e-01 8.839185410766643436e-01 3.969507824791421169e-01
-3.849000837977340495e-01 8.983823233904056904e-01 2.115682549726066453e-01
-3.577776382579243020e-01 9.206286214707166682e-01 -1.563269103241974878e-01
-2.055113478806216420e-01 8.928938752863989636e-01 4.006315181913758239e-01
-2.355392939337553060e-01 8.425220643642459262e-01 -4.844355602890827450e-01
-3.411223859820216586e-01 9.009076772795869825e-01 -2.683297873897566577e-01
2.218199887148290528e-01 9.619258914376883629e-01 -1.596698844126896721e-01
7.300965433242026514e-02 8.774213551519239873e-01 -4.741322135202604149e-01
3.775214500888988134e-01 9.185729460259305368e-01 -1.170525418434733983e-01
-2.386395738585616877e-01 8.643075488378277882e-01 -4.427455418302367884e-01
-1.935397862542969361e-01 8.590354620147230280e-01 -4.739202740311839190e-01
-2.110619724708886480e-01 8.269699782216320960e-01 -5.211271427365986586e-01
4.202625331940864489e-02 9.438692791999130360e-01 -3.276348238734240748e-01
-3.586796310835922430e-01 9.293811741650980229e-01 8.717542860945455552e-02
-3.483644376918953456e-01 9.217446033619970391e-01 1.703792966432377820e-01
-3.989606784550953078e-01 9.156802336903582251e-01 4.858072329042737586e-02
-2.813797787319081700e-01 8.626556620589034274e-01 4.202982617600237170e-01
-1.621097163419819021e-01 8.180226340951003428e-01 -5.518690152342633493e-01
-2.378627704991840772e-02 8.757437039007425206e-01 -4.821899813375567501e-01
-1.077520220507313109e-01 8.180551537519075156e-01 -5.649559869263460765e-01
-1.164323258142492684e-01 8.907871019047294281e-01 4.392514685071154390e-01
-3.411369433272919971e-01 8.932052970517139201e-01 -2.929332402034148797e-01
1.800706975024038772e-02 8.971719257849483098e-01 4.413142656003056219e-01
-8.369311046485511385e-02 9.164513081800843564e-01 3.912958765381119863e-01
-3.605217749255288928e-01 8.923122537333844084e-01 2.716668762322611563e-01
-2.000804804142675974e-01 8.906021710865892338e-01 4.084061388043150886e-01
-3.370307644841886163e-01 9.041475631021398396e-01 -2.625403739002167280e-01
-3.803235151972286232e-01 9.237758938930784591e-01 -4.463319000550180354e-02
-3.703089437019085883e-01 9.261417781618968004e-01 7.164281511426399962e-02
-2.431239602481999884e-01 9.093913298319566962e-01 3.374879985713523656e-01
3.275117760014257806e-01 9.444018427555951334e-01 2.900337877262459951e-02
3.746887888666678434e-01 9.268363674446853384e-01 -2.413834044771379084e-02
-3.060405933876864104e-01 8.827366928144513292e-01 -3.565320271138592290e-01
-2.945728327689698944e-01 9.305830915606481124e-01 -2.173521472079149308e-01
-2.663567123744175480e-01 9.397503357888761233e-01 -2.142974758549114622e-01
2.940061747316189966e-01 9.558025683931825611e-01 -1.348878302963497575e-03
-3.006839966191472979e-01 9.490930918441858877e-01 -9.386925583374194915e-02
-3.647764678623993118e-01 9.048493009747734517e-01 -2.195128037707498037e-01
-3.609446954580366462e-01 9.207825083025265034e-01 -1.479138236434076881e-01
-2.380127481142705059e-01 9.303944987109705744e-01 2.787759109095594989e-01
-2.712680585780435361e-01 9.592255494568795449e-01 -7.937244902638790345e-02
-3.243677767560728675e-01 9.131167329762390761e-01 2.469886178776713459e-01
-2.947664508459809096e-01 9.456901374885681166e-01 1.370507326230586131e-01
-2.931204949360580736e-01 8.869839534056177532e-01 3.568470846866786395e-01
-2.572516653156869393e-01 9.449228296069284161e-01 2.023423504359417591e-01
-2.626298809581884552e-01 9.559269606650120377e-01 1.312600148622584117e-01
-2.591454052694533994e-01 9.482895871142698052e-01 1.832771614205608579e-01
4.717497681614507554e-02 9.904837976735603178e-01 1.292917944362972082e-01
-2.272587036871454858e-01 9.697629199077302253e-01 -8.895707262759566802e-02
-1.728862014379143330e-01 9.847799561243970601e-01 1.785495359836366050e-02
-2.246571627185449949e-01 9.322249499471924050e-01 2.837001972773505187e-01
-1.987883183191077041e-01 9.064118653223971478e-01 3.726938890062910237e-01
-1.934207517875710935e-01 9.284661629450430276e-01 3.170788498844404057e-01
1.119678374675947032e-02 9.545890124901100782e-01 2.977153829866454049e-01
-1.916298342149858058e-02 9.132632138780624187e-01 4.069190118973305959e-01
-5.267873370212212969e-02 9.251051191517754013e-01 3.760391861691016469e-01
-2.749221937807559413e-01 9.574627484687080470e-01 8.765199747594948354e-02
-1.457077201959773305e-01 9.658219905749568790e-01 2.143761712437249056e-01
-2.195156812443283256e-01 9.493759152451037853e-01 2.247181284194935680e-01
-9.342387047128222766e-02 9.229315797892690965e-01 3.734558601144843948e-01
-3.714771258669740533e-02 9.538951869877662082e-01 2.978322005612399348e-01
-8.782280749710606738e-02 9.577392434012556022e-01 2.739027128973289815e-01
1.130063636015010559e-01 9.777188356194917995e-01 1.769051730742504935e-01
3.197431841264458674e-01 9.068759807355935010e-01 2.744817876827841951e-01
1.536914593951961283e-01 9.879284914913200044e-01 1.939667519601241327e-02
1.161356496219135698e-01 9.870690840499093399e-01 -1.104859004568863462e-01
