3.601497773505422106e-01 -2.795021377321617595e-01 -8.900397142136449169e-01
2.090126766698913452e-01 -5.987502882810815663e-01 -7.731828976863165392e-01
2.360087542162558338e-01 -5.995117852917143386e-01 -7.647780640353332160e-01
-1.712180429884916366e-01 -9.336433466913645063e-01 -3.146338871357308720e-01
-1.710801158858684945e-01 -9.336375567842455370e-01 -3.147260817130069777e-01
-6.754749584016660480e-01 -6.703070926913675676e-01 -3.072816005879850376e-01
-6.755504707516216678e-01 -6.702652141586541434e-01 -3.072069402798639493e-01
-7.015071840003839210e-01 -6.599305571324589614e-01 -2.690340695129406212e-01
-5.536780983072272511e-01 -6.207587889040617757e-01 -5.550667432419771341e-01
-4.079154564813543549e-01 -8.085389187993878846e-01 -4.241105954233225228e-01
-3.591000659662290095e-01 -6.875977573855872604e-01 -6.310756425828530913e-01
-4.516960049287318535e-01 -4.130434363447637036e-01 -7.908007579813846055e-01
-3.755143758663386788e-01 -5.353628969124335502e-01 -7.565550357556555250e-01
-7.180744346993006566e-02 -8.893784820485662879e-01 -4.514970727826491115e-01
-7.661443473578084806e-02 -8.332634154501661339e-01 -5.475420612724110070e-01
-3.368970914026330199e-01 -9.279434426674312286e-01 -1.594406379031438892e-01
-3.459301955390666761e-01 -9.240248885910941068e-01 -1.628198546815441961e-01
1.478789050265156280e-01 -8.705410419520692722e-01 -4.693507470167317397e-01
-4.638335275458800866e-01 -7.800059062836460777e-01 -4.200586207744976264e-01
-4.634644194148002105e-01 -7.802174499475549307e-01 -4.200731635487285343e-01
-4.636388300299101317e-01 -7.800517483747191338e-01 -4.201884162444747828e-01
-3.699839604719570851e-01 -7.234586352692464750e-01 -5.828545891110791244e-01
-3.698832354867679917e-01 -7.235426426894789875e-01 -5.828142382575814961e-01
-4.429075785423360334e-01 -6.780927259353097813e-01 -5.865348513970719546e-01
-4.429532511393857175e-01 -6.780729660938376036e-01 -5.865232049610258347e-01
-3.042492501297698881e-01 -7.422996483751229668e-01 -5.970122493028443555e-01
-2.208965607293157385e-01 -7.912380855500106280e-01 -5.702166267596147087e-01
-2.208782179089682773e-01 -7.912293510085207648e-01 -5.702358520436902056e-01
-2.088565729649313751e-01 -8.081360533711962058e-01 -5.507222995039980917e-01
-2.520510753300391205e-01 -9.161141955939960946e-01 -3.117772218365807979e-01
-2.521138907966623544e-01 -9.160972283393118420e-01 -3.117762888617404693e-01
-2.520570602170458252e-01 -9.161003036538851729e-01 -3.118132005544341778e-01
-2.310145865306570123e-01 -9.243643251327249288e-01 -3.036162960580210401e-01
-2.310604299869745970e-01 -9.243668938624685083e-01 -3.035735878255655940e-01
-2.310604299869745970e-01 -9.243668938624685083e-01 -3.035735878255655940e-01
-2.309785362830931166e-01 -9.243828651150561848e-01 -3.035872765090784076e-01
-2.610014078073408239e-01 -9.332169609311860015e-01 -2.469501345473359977e-01
-2.610127914122066239e-01 -9.331918217185071196e-01 -2.470330880608949675e-01
-2.609730772489993744e-01 -9.332080277450675032e-01 -2.470138253283589158e-01
-2.609730772489993744e-01 -9.332080277450675032e-01 -2.470138253283589158e-01
-3.144946972815013120e-01 -9.186282749414869109e-01 -2.391969436674408200e-01
-3.147817666333979636e-01 -9.185440759526926069e-01 -2.391426769260794061e-01
-3.145446987067634925e-01 -9.186378831762260777e-01 -2.390942745215240695e-01
-3.145446987067634925e-01 -9.186378831762260777e-01 -2.390942745215240695e-01
-3.145446987067634925e-01 -9.186378831762260777e-01 -2.390942745215240695e-01
-3.744588697544758982e-01 -8.842416512974389242e-01 -2.791008007386918677e-01
-3.743783239615011693e-01 -8.842599947222180568e-01 -2.791507339801206911e-01
-3.744879406802377186e-01 -8.842166050580727577e-01 -2.791411428375454307e-01
-3.493284600820357744e-01 -8.956854828258605794e-01 -2.751674814212579090e-01
-3.745462699351861935e-01 -8.917443778662864640e-01 -2.539823935266147803e-01
-3.745755960972915188e-01 -8.917552075953413260e-01 -2.539011077859812393e-01
-3.744065854529251558e-01 -8.918020191975509769e-01 -2.539859589124016659e-01
-3.136705803539956983e-01 -8.877441991933121557e-01 -3.369287815236512995e-01
-3.137863221225132837e-01 -8.877251172633793264e-01 -3.368712813947574714e-01
-3.137609062244512415e-01 -8.877164100208663200e-01 -3.369178966823762056e-01
-3.963042417663445449e-01 -8.156684494201734692e-01 -4.214592846034986295e-01
-1.976465882811096475e-01 -8.828045842491788475e-01 -4.261360019635422880e-01
-1.975599992814683903e-01 -8.828136923006137948e-01 -4.261572847792978180e-01
-2.348406207910287979e-01 -8.515219053952195472e-01 -4.687860145722980154e-01
-2.281920499070422825e-01 -9.085043951370058712e-01 -3.500687823499333828e-01
-2.282830677218536108e-01 -9.085166381606516461e-01 -3.499776552535420193e-01
1.899899391379149260e-01 -8.725276303394537969e-01 -4.501103834845278096e-01
1.899899391379149260e-01 -8.725276303394537969e-01 -4.501103834845278096e-01
1.898692560364123594e-01 -8.725607790423500765e-01 -4.500970478565554100e-01
1.899451099714958568e-01 -8.725656844961869885e-01 -4.500555315042988336e-01
1.895985362673066610e-01 -8.726519986146360486e-01 -4.500343146463123278e-01
2.140804904847299628e-01 -8.906195993363291707e-01 -4.012060229754952911e-01
2.141215098211642631e-01 -8.906053017108106484e-01 -4.012158715660451569e-01
-5.601127682170052857e-01 -7.976542033342777227e-01 -2.236547759012587067e-01
-1.410045382205868392e-01 -9.671124967267827888e-01 -2.116864163712156299e-01
-3.409408475601869992e-01 -9.081437885321432812e-01 -2.429695409211353185e-01
-2.075237684110237679e-01 -9.690702110442832584e-01 -1.335545267337498732e-01
-2.076157377986142527e-01 -9.690500178896713779e-01 -1.335581081266311310e-01
-2.076386495042645830e-01 -9.690706665726813718e-01 -1.333725399789036647e-01
-2.076386495042645830e-01 -9.690706665726813718e-01 -1.333725399789036647e-01
-3.088061652631214904e-01 -9.274944643971472225e-01 -2.106959202455869762e-01
-1.748012580954919626e-01 -9.725238652526793093e-01 -1.537590702437486301e-01
-3.480723722582133584e-01 -9.166926570656158679e-01 -1.962656265180448001e-01
-8.143501376970853356e-02 -9.685013945971919780e-01 -2.353155056421521174e-01
-1.085911813148492666e-01 -9.550385704972390588e-01 -2.758791115746820899e-01
-1.083747338914499009e-01 -9.550594847252420472e-01 -2.758918224418996368e-01
-1.049199435292869909e-01 -9.777234346393774977e-01 -1.817929888823831275e-01
-1.087569231645561380e-01 -9.551035863149877070e-01 -2.755885902428245049e-01
-5.506350474512178295e-02 -9.702753722423357319e-01 -2.356559196480763896e-01
-5.506350474512178295e-02 -9.702753722423357319e-01 -2.356559196480763896e-01
-5.499799004528953955e-02 -9.702877637314850645e-01 -2.356201957471642794e-01
-5.495610900629567530e-02 -9.702780992064771182e-01 -2.356697610707697843e-01
-3.266455628822972912e-02 -9.662767211693421565e-01 -2.554257717786492798e-01
-3.266455628822972912e-02 -9.662767211693421565e-01 -2.554257717786492798e-01
-2.265493802345080326e-02 -9.526439587064764458e-01 -3.032428757995923596e-01
-2.246832774105700023e-02 -9.526566657424323514e-01 -3.032168390195898455e-01
6.724803852742981813e-02 -9.356582176993608613e-01 -3.464410497701861935e-01
2.827968957474796124e-02 -9.517722312831169429e-01 -3.054993926604648857e-01
5.580540094573110260e-02 -9.237314150068447471e-01 -3.789538628312670299e-01
9.871846104116596687e-02 -9.125922119974141378e-01 -3.967746464321157407e-01
9.874738706077217099e-02 -9.125975759255753328e-01 -3.967551108220710443e-01
9.874738706077217099e-02 -9.125975759255753328e-01 -3.967551108220710443e-01
4.464810362569708591e-02 -9.264576612218219376e-01 -3.737415534912069681e-01
4.472946181476010474e-02 -9.264486615685696425e-01 -3.737541340554877967e-01
4.468193199930515364e-02 -9.264344863478904957e-01 -3.737949537622594076e-01
1.143870228568347747e-01 -9.111730122075732963e-01 -3.958274255613515313e-01
-1.988716631140377833e-01 -7.208859360953383533e-01 -6.639077712681213939e-01
-1.988514452944326050e-01 -7.209010751086439850e-01 -6.638973886162804483e-01
-2.515151755128661182e-01 -6.858008335290073365e-01 -6.829475332832317669e-01
-3.020254506578750608e-01 -6.131160322259364692e-01 -7.299790121520152164e-01
-3.019959790856826531e-01 -6.131591785759502589e-01 -7.299549645999716674e-01
-1.930368055538038696e-01 -7.087824099877124695e-01 -6.785015010989976503e-01
-1.929149095257571001e-01 -7.087964342094075221e-01 -6.785215195811389322e-01
-1.929911058577388483e-01 -7.087432941090606731e-01 -6.785553596540555565e-01
-2.432369835046048756e-01 -5.564355386035312323e-01 -7.944905671149146142e-01
-2.431159871624625213e-01 -5.564931880966140776e-01 -7.944872235524544912e-01
-5.831093191615082522e-02 -5.345191094725900705e-01 -8.431424297398982803e-01
-3.691280970968771440e-03 -6.330286192620440122e-01 -7.741195913035552323e-01
-9.837408944371026087e-02 -7.384087403492173296e-01 -6.671394687035110405e-01
-4.984067499221892135e-03 -6.774484453324274291e-01 -7.355533719505609191e-01
-4.905174826048529918e-03 -6.773884416440696388e-01 -7.356091614348919672e-01
-9.828853404238167488e-03 -9.284603637200958826e-01 -3.713014228918404824e-01
-9.826932838950386620e-03 -9.284599323709976648e-01 -3.713025523378761239e-01
-9.826932838950386620e-03 -9.284599323709976648e-01 -3.713025523378761239e-01
-1.246537475829477826e-01 -9.224030239357987604e-01 -3.655599877552530574e-01
-1.247443431234545042e-01 -9.223681600769677580e-01 -3.656170484741198545e-01
-1.334442259861376434e-01 -9.191683215803272411e-01 -3.705701487629093349e-01
-1.334054535158789578e-01 -9.192031253770519550e-01 -3.704977722865308576e-01
-1.334054535158789578e-01 -9.192031253770519550e-01 -3.704977722865308576e-01
-1.333125956688382130e-01 -9.191947252316472472e-01 -3.705520327057364449e-01
-1.222312430953417794e-01 -8.949662657875805394e-01 -4.290628232713730172e-01
-1.221418289476125657e-01 -8.949876519069823733e-01 -4.290436767455716449e-01
-1.222160215300600872e-01 -8.949697180746285508e-01 -4.290599582934579992e-01
-2.519906610665579097e-02 -9.147844042606515513e-01 -4.031556781056632732e-01
-2.515189566304444277e-02 -9.147699422515090939e-01 -4.031914370342283838e-01
-9.228110764561765766e-02 -9.337425331705944131e-01 -3.458454552540186633e-01
-9.234458584831438388e-02 -9.337141040402854308e-01 -3.459052607011784963e-01
-1.210193865773025595e-01 -9.311355120534445806e-01 -3.440072183333116596e-01
-1.209232785959733492e-01 -9.311574814869638672e-01 -3.439815479999694392e-01
-6.499212016467892893e-03 -8.922440009982868236e-01 -4.515068138198294889e-01
1.606798676651288380e-02 -9.098098551565793057e-01 -4.147141753801468211e-01
1.612972026573014292e-02 -9.098064154164524631e-01 -4.147193250756645577e-01
-7.593059098495885673e-02 -8.785299032883868708e-01 -4.716139887458518087e-01
-7.598553642412622655e-02 -8.785706606735542712e-01 -4.715292063679322188e-01
-7.590530959029619107e-02 -8.785684660890430431e-01 -4.715462165789768845e-01
-7.220187280762392634e-02 -8.559055014935404992e-01 -5.120670484186250482e-01
-7.225968003137761553e-02 -8.559377791236074673e-01 -5.120049383655490560e-01
-7.181018467656620219e-01 -6.958002614227776217e-01 -1.384680019860462519e-02
-7.269704606404794323e-01 -6.866482001243539024e-01 -5.310237485697910480e-03
-7.269833752823108286e-01 -6.866342784456912485e-01 -5.342258558300397135e-03
-7.270402879437721788e-01 -6.865741250208086122e-01 -5.328279135688689452e-03
-6.327125211667623539e-01 -7.739676534256975104e-01 -2.547424207937920917e-02
-6.326444785455841435e-01 -7.740224967562753244e-01 -2.549780933664026403e-02
-8.387152001957024483e-01 -5.434485231487662382e-01 3.493587909453201024e-02
-8.386857972562753449e-01 -5.434892842505354427e-01 3.500759039760552305e-02
-8.782890949874996300e-01 -4.778454226735658894e-01 1.649295776869165800e-02
-8.782863620487630918e-01 -4.778506707870934234e-01 1.648643889607218430e-02
-8.782863620487630918e-01 -4.778506707870934234e-01 1.648643889607218430e-02
-8.936728298884101251e-01 -4.455830407996902442e-01 5.295872799588644680e-02
-8.937266637983748430e-01 -4.454686316164481186e-01 5.301272169579503146e-02
-8.936801806325533892e-01 -4.455785108784203197e-01 5.287272820591094880e-02
-8.760739474547402095e-01 -4.784015000910776250e-01 6.021995766916256321e-02
-8.760739474547402095e-01 -4.784015000910776250e-01 6.021995766916256321e-02
-8.760951464591796300e-01 -4.783773664787147606e-01 6.010315791668572466e-02
-8.760616683790394266e-01 -4.784173870028466946e-01 6.027235693336106814e-02
-8.101935002129438956e-01 -5.856008281487177225e-01 -2.565467373081119218e-02
-8.101419278773593913e-01 -5.856676959028579432e-01 -2.575668206491009068e-02
-8.359555402293703530e-01 -5.363685201817696147e-01 -1.161341694672155395e-01
-8.359513652613174139e-01 -5.363796811135715936e-01 -1.161126720312768146e-01
-8.359305868950156482e-01 -5.364089507585818595e-01 -1.161270486985345879e-01
-8.888947389691429501e-01 -4.475532360750042460e-01 -9.778672666456748874e-02
-9.295513503906621677e-01 -3.630762981209705864e-01 -6.410841387578071482e-02
-8.710990744157125487e-01 -4.829691009870816232e-01 -8.903510568207841092e-02
-9.696075175405750590e-01 8.787276562746423880e-02 2.283410584844178803e-01
-9.709552775559167070e-01 8.391841886949280571e-02 2.240614825461018922e-01
-9.678204393177807230e-01 9.759034901866188438e-02 2.319476687038555807e-01
-9.678412548906871748e-01 9.758630532802232971e-02 2.318624987876345689e-01
-8.739911582862867068e-01 -9.538674400801810949e-02 4.764880106623289313e-01
-8.739999278211252332e-01 -9.542720392335719837e-02 4.764638233066996742e-01
-8.740124358647543001e-01 -9.533343486434885106e-02 4.764596500761881237e-01
-8.740124358647543001e-01 -9.533343486434885106e-02 4.764596500761881237e-01
-8.672752261888030390e-01 -1.113442132298657905e-01 4.852176297491493928e-01
-8.672752261888030390e-01 -1.113442132298657905e-01 4.852176297491493928e-01
-8.672710359298556604e-01 -1.112915690233887978e-01 4.852371965353308725e-01
-8.672710359298556604e-01 -1.112915690233887978e-01 4.852371965353308725e-01
-9.296867763538370077e-01 7.757732263570657309e-03 3.682693517833615648e-01
-8.943944613660647081e-01 -1.313978578832172839e-01 4.275431562092986693e-01
-8.944619668617468378e-01 -1.310904218742836025e-01 4.274963053999856211e-01
-8.944687470375262128e-01 -1.311593868073196445e-01 4.274609640954901701e-01
-9.183652704122203803e-01 -1.017225460809911414e-01 3.824366009150928503e-01
-9.184366176298166540e-01 -1.015364435493967127e-01 3.823147002510393078e-01
-9.088890849126728400e-01 4.883411512208766375e-02 4.141688792350857184e-01
-9.089438581461508626e-01 4.895858283921031284e-02 4.140339598448007363e-01
-8.671902665143380595e-01 -1.111222993034846479e-01 4.854203088667573551e-01
-8.987522334437265670e-01 -9.518792969176569085e-02 4.279996272438897909e-01
-8.987506643340762436e-01 -9.508303071333468193e-02 4.280262382488055906e-01
-8.987321610400031968e-01 -9.521458794449622065e-02 4.280358454089159825e-01
-9.064188812869770073e-01 -1.069823701994431359e-01 4.086068821165084741e-01
-9.064148409254189076e-01 -1.070806449343244260e-01 4.085901022180992714e-01
-9.064223319365765086e-01 -1.069421464360545693e-01 4.086097569592631595e-01
-9.064223319365765086e-01 -1.069421464360545693e-01 4.086097569592631595e-01
-8.980742745524724624e-01 -1.492026578100347223e-01 4.137646242605475533e-01
-8.239644947997091240e-01 4.914313933053765515e-02 5.645063889507360155e-01
-8.240000062294037253e-01 4.917618286635280084e-02 5.644516744351438797e-01
-8.239908398111752685e-01 4.918507532227193307e-02 5.644642807767525916e-01
-8.068649881773435339e-01 -9.730143532862194078e-02 5.826674193196025309e-01
-8.332277305593669414e-01 -8.170177846236788277e-02 5.468604652221379370e-01
-8.504957998647005857e-01 -9.953855757245588798e-02 5.164774631761758217e-01
-8.504957998647005857e-01 -9.953855757245588798e-02 5.164774631761758217e-01
-8.769021399540603001e-01 -8.796241526493607521e-02 4.725518494776513312e-01
-8.741902850692661042e-01 -7.281258574012743068e-02 4.800934001299663190e-01
-8.741650322831038267e-01 -7.279809705483820947e-02 4.801415764112437201e-01
-6.816606944645817734e-01 -4.998321600268612608e-01 5.343280915551289478e-01
-7.033549336540543262e-01 -4.269708933703232345e-01 5.683200625695424835e-01
-7.032022171978101754e-01 -4.272759202179605142e-01 5.682797988051123683e-01
-6.446166383062210681e-01 -4.551789487398195666e-01 6.142324594507352353e-01
-6.446455278780459652e-01 -4.551720271593839851e-01 6.142072688258032320e-01
-6.446628418510474967e-01 -4.552457529936783653e-01 6.141344516616455973e-01
-6.142122597151317143e-01 -4.941766560882149273e-01 6.152501382308674938e-01
-6.142122597151317143e-01 -4.941766560882149273e-01 6.152501382308674938e-01
-6.143075593300777459e-01 -4.941497144772285521e-01 6.151766268576827068e-01
-9.965608533319882945e-01 6.334893544187616965e-02 -5.341701961547904581e-02
-9.767679635064492327e-01 1.899005717300270291e-01 -9.930819867499754428e-02
-9.965721622852725670e-01 6.276731813425119599e-02 -5.389052915206802435e-02
-9.394257708422291131e-01 -1.502383892164178281e-01 3.080708481553227074e-01
-8.968537123999451577e-01 -3.831429347039657651e-01 2.210314686664976158e-01
-8.968490486702228592e-01 -3.831432511713761535e-01 2.210498427530407373e-01
-9.355555307002846321e-01 -2.972163242479756717e-01 1.907833996358983542e-01
-9.424217893193405082e-01 -2.929745853079779305e-01 1.612670560894288452e-01
-9.424097147123567941e-01 -2.929725128273165669e-01 1.613413658781349957e-01
-9.282702486959367727e-01 -3.627659417275362896e-01 8.194642706376731311e-02
-9.282433121603134163e-01 -3.628477899510442195e-01 8.188916141525559578e-02
-8.492849143836542769e-01 -4.702810770291637188e-01 2.398975672837028450e-01
-8.493123036807881387e-01 -4.702749621383078837e-01 2.398125743205425375e-01
-8.493096376328798103e-01 -4.702435578977708364e-01 2.398835877661334159e-01
-8.707900362315950105e-01 -4.096195808003905703e-01 2.719126915476546835e-01
-8.707900362315950105e-01 -4.096195808003905703e-01 2.719126915476546835e-01
-8.707537656390044178e-01 -4.096084694772733070e-01 2.720455501528734055e-01
-8.707287606594694696e-01 -4.097238971816939412e-01 2.719517483647959089e-01
-8.594135210814589643e-01 -4.544936395065619639e-01 2.341878123012554047e-01
-8.593323956410223730e-01 -4.546469234504511014e-01 2.341879774858245944e-01
-8.594278398089579829e-01 -4.545066190744818657e-01 2.341100625321171080e-01
-9.840795940865592062e-01 1.728903808145847709e-01 -4.118578303517698297e-02
-9.840795940865592062e-01 1.728903808145847709e-01 -4.118578303517698297e-02
-9.840701721761130338e-01 1.729341457005980909e-01 -4.122714499064343563e-02
-9.840675368098845688e-01 1.729481021513364081e-01 -4.123150444960087951e-02
-9.840675368098845688e-01 1.729481021513364081e-01 -4.123150444960087951e-02
-9.877841808911719257e-01 1.213255634382936904e-01 9.778813648667812608e-02
-9.877841808911719257e-01 1.213255634382936904e-01 9.778813648667812608e-02
-9.877811153877138484e-01 1.212951032033768306e-01 9.785686497270451589e-02
-9.877811153877138484e-01 1.212951032033768306e-01 9.785686497270451589e-02
-9.877867761191040374e-01 1.212839639062849029e-01 9.781352167980583712e-02
-9.895079160970055021e-01 9.248556048499186055e-02 1.109977706223789634e-01
-9.895076041949889545e-01 9.247427251308752705e-02 1.110099552448718940e-01
-9.895091487486534776e-01 9.248698732865034966e-02 1.109855923874154132e-01
-6.495993897839725806e-01 -7.595354604682440502e-01 3.356362739012361263e-02
-6.496716724793732967e-01 -7.594766748949840496e-01 3.349474986192069181e-02
-9.606506042768325759e-01 -2.776637634063608417e-01 -7.297327837843795365e-03
-7.698026319504688297e-01 -6.340263006422528491e-01 -7.358367982121016837e-02
-7.698758424196706640e-01 -6.339439212392325995e-01 -7.352749133778492541e-02
-9.765102391970844620e-01 1.454646600791155153e-01 1.589584392579404815e-01
-9.765148137328847344e-01 1.454626593228809939e-01 1.589321657278502387e-01
-9.814992523858863116e-01 1.321440305193770648e-01 1.385538623209051912e-01
-9.814844621596514607e-01 1.321674950070563237e-01 1.386362283197979661e-01
-9.814876203377467245e-01 1.321673689956510689e-01 1.386139880982966976e-01
-9.847377242220434201e-01 3.290471616834508145e-02 1.709060974566777025e-01
-9.821547657722434765e-01 6.544986023108714801e-02 1.763188358247653464e-01
-9.763388758846148763e-01 1.774827351549513044e-01 1.235405931598360374e-01
-9.763324934451637072e-01 1.775429122967371875e-01 1.235045607916664817e-01
-9.763206814884130003e-01 1.775766106865168670e-01 1.235494809179318587e-01
-9.718637337233003715e-01 1.684981898357146568e-01 1.645881013180883201e-01
-9.718788822923470905e-01 1.684040422720819996e-01 1.645950081278312327e-01
-6.705330171513399495e-01 -5.541102357983752613e-01 4.933024624846198969e-01
-6.735546829638768829e-01 -5.547643327912177291e-01 4.884266824408207697e-01
-6.735785825526752202e-01 -5.546438160049053101e-01 4.885305829667631605e-01
-7.321133052219309656e-01 -5.357150555399965430e-01 4.207368388729446074e-01
-8.949425939295493349e-01 -3.241404501428700735e-01 3.066116797381132075e-01
-5.656943536723529897e-01 -7.633134635084801722e-01 3.119975234675863573e-01
-6.548291378295747478e-01 -6.680679219087107823e-01 3.533893772681240830e-01
-7.808300658860263255e-01 -6.017104827194412753e-01 1.680741003068614015e-01
-7.252297976424029180e-01 -6.255076227267722944e-01 2.877185335049881609e-01
-5.342427741603635871e-01 -7.764629041531608822e-01 3.342005636312996297e-01
-4.411566428127337569e-01 -8.509826446288826229e-01 2.849725513845691727e-01
-4.414339442232856903e-01 -8.508506961203797792e-01 2.849371260452701615e-01
-5.466106974422801912e-01 -7.979344598433184554e-01 2.540026441520157330e-01
-5.112811815809202853e-01 -7.437684571533381694e-01 4.305810440613485612e-01
-5.953918543940512897e-01 -5.473832646598790763e-01 5.881157210035331540e-01
-5.953513992306960212e-01 -5.474054883538085337e-01 5.881359900177685063e-01
-5.550881212296413514e-01 -6.356300304862355643e-01 5.365180724018665526e-01
-5.551480886498058043e-01 -6.355546012689557989e-01 5.365453834246699527e-01
-6.656858154588090049e-01 -5.063624278604470508e-01 5.481418491122658221e-01
-6.657571136866859973e-01 -5.063168840865772680e-01 5.480973257227521600e-01
-6.657571136866859973e-01 -5.063168840865772680e-01 5.480973257227521600e-01
-6.657091360156550675e-01 -5.063189948439402732e-01 5.481536478812412128e-01
-6.855113974562374590e-01 -5.442809976550579965e-01 4.835621155024564799e-01
-6.855236676015794561e-01 -5.442499784022230003e-01 4.835796337391175537e-01
-6.384133045989511812e-01 -6.207395996448437092e-01 4.550942780829109746e-01
-6.383594482981622686e-01 -6.207800649174568530e-01 4.551146292633801993e-01
-6.384839110801968642e-01 -6.206480125636462120e-01 4.551201377576378215e-01
-5.748733715653012721e-01 -6.538160448757257548e-01 4.919808798400667205e-01
-5.748368552334706116e-01 -6.537401192537828365e-01 4.921244216083406897e-01
-5.433393281819287601e-01 -6.425019750980778266e-01 5.403458026540773895e-01
-5.470231869389524659e-01 -6.423528980449575432e-01 5.367945485233583947e-01
-5.470319279409605606e-01 -6.423461032053523478e-01 5.367937718622438625e-01
-5.438982865602406402e-01 -6.247716847599024126e-01 5.602097783858358548e-01
-5.810357927205904716e-01 -5.718859497280159854e-01 5.790888257264511507e-01
-5.809143782921301069e-01 -5.718662322332744852e-01 5.792300903136737844e-01
-6.007996637141060914e-01 -5.506333944623631460e-01 5.795193085513826725e-01
-6.007496120844789678e-01 -5.505612171647707997e-01 5.796397585866538416e-01
-6.007496120844789678e-01 -5.505612171647707997e-01 5.796397585866538416e-01
-8.636089386712966220e-01 -3.327849693319557267e-01 3.787265045303350175e-01
-8.636089386712966220e-01 -3.327849693319557267e-01 3.787265045303350175e-01
-8.636125562827695612e-01 -3.328181810890404324e-01 3.786890689831470258e-01
-8.636442259699109725e-01 -3.327497384076680831e-01 3.786769897134785179e-01
-8.317124166325190471e-01 -3.490262867410190983e-01 4.317813187055120627e-01
-8.317124166325190471e-01 -3.490262867410190983e-01 4.317813187055120627e-01
-8.316985986645103468e-01 -3.490576204790430959e-01 4.317826056767430920e-01
-8.317481225948801793e-01 -3.490736722427910665e-01 4.316742196458164260e-01
-8.317481225948801793e-01 -3.490736722427910665e-01 4.316742196458164260e-01
-8.627543986961202505e-01 -3.407289673290522791e-01 3.735754520219088937e-01
-8.627543986961202505e-01 -3.407289673290522791e-01 3.735754520219088937e-01
-8.627824858555009913e-01 -3.407717885197217855e-01 3.734715119658691407e-01
-8.627787367921594397e-01 -3.407491888995295981e-01 3.735007919719023906e-01
-8.433940503329099281e-01 -3.293650215523215019e-01 4.245057813986609085e-01
-8.433485479538987972e-01 -3.294332052738011551e-01 4.245432721491180783e-01
-8.433485479538987972e-01 -3.294332052738011551e-01 4.245432721491180783e-01
-8.527661519375975274e-01 -3.428601935874808215e-01 3.940009870072631593e-01
-8.527850215743413287e-01 -3.428601344654573224e-01 3.939601949090528188e-01
-8.527998000792187394e-01 -3.428451857124821256e-01 3.939412134045107705e-01
-8.477442596113075046e-01 -3.573199524139224481e-01 3.919848490732624757e-01
-8.477205584387135229e-01 -3.574280276061151396e-01 3.919375714089651797e-01
-8.477738980685861625e-01 -3.573602584644421376e-01 3.918839923036173678e-01
-8.534996788078634822e-01 -3.919325188800273918e-01 3.434052983272548598e-01
-8.535093718065034363e-01 -3.920278693472631359e-01 3.432723436187560262e-01
-8.403861852611900218e-01 -4.199534964115695934e-01 3.426224167707692669e-01
-8.404471624689766607e-01 -4.198052348058447514e-01 3.426545372929633015e-01
-7.815409096433910685e-01 -4.567932138498523309e-01 4.248926527189002544e-01
-7.815612401203722026e-01 -4.568050805782634116e-01 4.248424958727555767e-01
-7.750883130648168473e-01 -3.873004442801761260e-01 4.992358889450102533e-01
-7.750648748967171597e-01 -3.872857587394758494e-01 4.992836676468846990e-01
-7.779197058853519753e-01 -3.996613080377658389e-01 4.848832540445064954e-01
-7.779281949527232509e-01 -3.997028423297833144e-01 4.848353961202607199e-01
-7.711496919067002409e-01 -4.140282891269840837e-01 4.836411153683935482e-01
-6.943895729095499458e-01 -4.492099446858427436e-01 5.621686104985184063e-01
-6.944184710958275497e-01 -4.492549521469924589e-01 5.620969444609504873e-01
-6.943991062729490960e-01 -4.491885372626471806e-01 5.621739403415754177e-01
-6.943991062729490960e-01 -4.491885372626471806e-01 5.621739403415754177e-01
-7.151252127222437194e-01 -4.054752375893366789e-01 5.693731305838350965e-01
-7.151336774346027658e-01 -4.054304768904660738e-01 5.693943728271563254e-01
-7.151024397078343808e-01 -4.054329528219575152e-01 5.694318409519892876e-01
-6.924708072394032410e-01 -4.424480656675345291e-01 5.698454968746056171e-01
-6.925140573646200171e-01 -4.423547012158390856e-01 5.698654215379603816e-01
-7.927265878612880234e-01 -3.505160401450186924e-01 4.987214277518615124e-01
-7.926731227696821591e-01 -3.505650918202798949e-01 4.987719286764233373e-01
-7.927371799725615453e-01 -3.505604867670572000e-01 4.986733486028651630e-01
-8.311491051782426975e-02 4.782675421773145974e-01 -8.742723086940845656e-01
2.414914890585034835e-01 5.620175965147680142e-01 -7.910866462784401643e-01
2.414165772644752961e-01 5.620866462181427492e-01 -7.910604517766932631e-01
3.427168148824925181e-02 1.296478797026394680e-01 -9.909676478758414619e-01
4.065260942365539476e-02 9.599717188482048691e-02 -9.945511089618089828e-01
4.056567132419407889e-02 9.602421607967868977e-02 -9.945520480278047248e-01
4.076574891232397774e-02 9.603392164947159582e-02 -9.945429299976148441e-01
-2.315933051048654073e-02 5.761058011322326422e-01 -8.170469700770539578e-01
-2.314034354963610471e-02 5.760424103772429083e-01 -8.170922016193647996e-01
-2.306350391524500387e-02 5.760905458757785702e-01 -8.170604370177882991e-01
-5.364838916112614209e-01 -5.420746456252696355e-01 -6.467921711120772077e-01
-5.365169692969268267e-01 -5.418422917655509874e-01 -6.469594056126674042e-01
-3.911963248184214259e-01 -1.423656787217606086e-02 -9.201971286543885187e-01
-6.225150988795598028e-01 -2.038087764121205014e-01 -7.556036886651402718e-01
-6.225482642475189676e-01 -2.039325184981487238e-01 -7.555429746754340758e-01
-3.557581025925082852e-01 -1.963301937449873219e-02 -9.343718301565062667e-01
-3.559915031984695055e-01 -1.964219981246837984e-02 -9.342827375249000976e-01
6.628423647625322768e-02 1.668509938464687314e-01 -9.837515671383735283e-01
6.621497853053381899e-02 1.667546072205486618e-01 -9.837725741191006845e-01
-1.427919628315043599e-01 -4.427919444054750214e-02 -9.887617550706653269e-01
-1.427812451913222092e-01 -4.427109412962751400e-02 -9.887636655167812982e-01
-1.427926261290091148e-01 -4.428088387161527306e-02 -9.887615836220223775e-01
-1.427926261290091148e-01 -4.428088387161527306e-02 -9.887615836220223775e-01
1.050955723354833893e-01 1.297085034867921649e-01 -9.859668477178602508e-01
1.050955723354833893e-01 1.297085034867921649e-01 -9.859668477178602508e-01
-2.210263384735645931e-01 4.923392172069714773e-02 -9.740243213867760819e-01
-2.210232933411092893e-01 4.924359653604402226e-02 -9.740245233056740171e-01
-2.082552534887728013e-01 1.763915035431971312e-01 -9.620373105405514158e-01
-1.543448652914484187e-01 2.793487909193170804e-02 -9.876220456674120740e-01
-1.543448652914484187e-01 2.793487909193170804e-02 -9.876220456674120740e-01
-1.543709306952312510e-01 2.793170182901445059e-02 -9.876180616965362091e-01
-1.543709306952312510e-01 2.793170182901445059e-02 -9.876180616965362091e-01
4.141103519880511841e-01 -1.544734009552847787e-01 -8.970231796189215290e-01
4.699955068414452541e-01 -4.346089621354188859e-01 -7.682572964706726459e-01
5.876505621480010433e-01 -2.811870302859848514e-01 -7.586835116213395125e-01
7.545357808721845361e-01 -5.536334028650192751e-01 -3.523716938343686156e-01
7.545127455162028429e-01 -5.536124365246187784e-01 -3.524539501536004260e-01
8.864294134774637346e-01 -1.947055198311983260e-01 -4.199198202862811091e-01
8.864602891463727596e-01 -1.946163605352511927e-01 -4.198959728058156426e-01
8.863956352301571862e-01 -1.948198776285503531e-01 -4.199380824904105913e-01
7.966571090589392723e-01 -2.310325337183105621e-01 -5.585350651029449276e-01
7.885694240135638911e-01 -1.491268218013177549e-01 -5.965898545318669699e-01
6.303127586870432841e-01 -2.149467141978924842e-02 -7.760436877759424590e-01
3.423213385421358113e-01 2.534137551267637845e-01 -9.047638199504183243e-01
3.424191795707353103e-01 2.533224661091103003e-01 -9.047523603873620646e-01
-3.729655947782840875e-02 -6.240321497386704941e-01 -7.805080670586630465e-01
-4.386728477620394639e-01 -1.249621446961237253e-01 -8.899160606648740535e-01
2.765695233313864021e-01 -5.358580528272183924e-02 -9.594987546820745727e-01
-5.681362042954000990e-02 -6.191636298694562779e-01 -7.832040679034852904e-01
2.392580523393918746e-01 -9.367482365129604638e-01 -2.554570918581424710e-01
2.521925867356164530e-01 -9.390553122639341277e-01 -2.336108295958984060e-01
2.521996131485184089e-01 -9.390939725035337693e-01 -2.334477798893569156e-01
7.315089933550137369e-01 -2.807247112462651351e-01 -6.213599835332457300e-01
6.350767375887522714e-01 -3.121309562876584676e-01 -7.065775283014448238e-01
4.411175115772708599e-01 -6.156250302965843302e-01 -6.530093131435462661e-01
-5.156508808531607563e-02 -7.980684286093093771e-01 -6.003564149301822139e-01
3.137824781428497078e-01 2.670521535902204979e-01 -9.111661229838152742e-01
1.953112750107014461e-01 4.245711955457415754e-01 -8.840773754409473328e-01
6.735043482120360581e-02 5.347617620199694999e-01 -8.423145355570520465e-01
1.855132314974456201e-02 5.835224343038352135e-01 -8.118851009062305613e-01
1.855132314974456201e-02 5.835224343038352135e-01 -8.118851009062305613e-01
-8.532547699327108770e-01 -1.366388589734914283e-01 5.032753916152655771e-01
-9.607895748512760292e-01 -2.674473942191363807e-01 7.317980720456937482e-02
-9.607824736634735796e-01 -2.674807739526054995e-01 7.315103462571005688e-02
-9.607942960387600984e-01 -2.674381463344039367e-01 7.315161368419233201e-02
-9.137279407503365869e-01 -4.062561179360467678e-01 -7.564187443622743569e-03
-9.137639103672108298e-01 -4.061751387080524966e-01 -7.567879882661780917e-03
-4.142922839832331727e-02 -9.450967598094555111e-01 -3.241538733872971201e-01
1.571587971812031179e-02 -8.932338406598842040e-01 -4.493176126357369959e-01
-2.086591780309480781e-01 -9.597694661916502668e-01 -1.878933718619258952e-01
-2.086381936821200267e-01 -9.597679837308955575e-01 -1.879242441575691147e-01
-2.086048846439022275e-01 -9.597821938882893367e-01 -1.878886436102144286e-01
-2.310698899026788489e-01 -7.678557415148546950e-01 -5.974983399165528786e-01
-2.310729977701024840e-01 -7.678546563164028171e-01 -5.974985326130577423e-01
-2.412245765584615509e-02 -9.405970645480026260e-01 -3.386669000660124107e-01
-5.015262485506823964e-01 -8.316846330154289424e-01 -2.382689514407417553e-01
-2.276730095601736947e-01 -9.390215579256573353e-01 -2.576887938360616914e-01
-2.278229406739660790e-01 -9.389475897901069512e-01 -2.578257770860308828e-01
-2.839464302369017479e-01 -9.588400892224913097e-01 -3.287180024603143748e-04
-1.429455308795452573e-01 -9.893239259927454343e-01 -2.836802178273775329e-02
-8.355298433052927853e-01 -4.476778433005697000e-01 -3.185505133632396957e-01
-8.487212750326647015e-01 -4.750597779682151633e-02 -5.267023631810436868e-01
-8.485354906025794897e-01 -4.808818238135353917e-02 -5.269488095660692650e-01
-6.944706792653781990e-01 2.768209536229655487e-01 -6.641390180345949634e-01
-6.421688260834715889e-01 -1.434144293367934919e-01 -7.530282200984089735e-01
-6.883396920643406469e-01 -3.823952894284007864e-01 -6.164108296840170587e-01
-6.379592256712717235e-01 -4.320724918356446120e-01 -6.374334382348074701e-01
-7.680991624836291942e-01 -4.679753541546906592e-01 -4.370614882321928740e-01
-4.934767974589000517e-01 4.041517565646935983e-01 -7.701571320421438660e-01
-4.220765941099446916e-02 -1.839632823999844957e-01 -9.820264885509295549e-01
-4.223688377106616515e-02 -1.838639639586626684e-01 -9.820438322227359462e-01
-1.618303734030031027e-01 -2.739322779748273873e-01 -9.480358839873977983e-01
-1.793944180349788253e-01 -1.409177641504907597e-01 -9.736322850669640872e-01
-1.251122689698405677e-01 -3.551354050584473176e-01 -9.264047518375490009e-01
-2.654550383512386258e-01 -4.297678118132354230e-01 -8.630372243091291029e-01
-2.655209297196681195e-01 -4.297630409787949191e-01 -8.630193303104291003e-01
-3.850177723419597187e-01 -4.154252447433388062e-01 -8.241257070439993448e-01
-4.760752512134764358e-01 -5.168192500910729903e-01 -7.115126266745560590e-01
-5.754310060037581831e-01 -4.324445384151265892e-01 -6.941692002130539496e-01
-7.016917025139747244e-01 -3.377993848131556343e-01 -6.273119879636394058e-01
-7.016509908749364310e-01 -3.379392945479152699e-01 -6.272821695255470509e-01
-6.766420170013562885e-01 -2.833062120636740122e-01 -6.796272294680878456e-01
-9.376702590384292657e-01 3.171208498427227022e-03 -3.475117677884654310e-01
-8.901955108828750740e-01 -4.320778107562442960e-01 1.444323989140539055e-01
-9.985041174206380488e-01 1.501351305390397420e-02 -5.257491721165914039e-02
-9.903027087432589859e-01 -1.270935118643339024e-01 5.610511828482814267e-02
-7.112527479111235840e-01 -5.907796371419633541e-01 3.809185594418914023e-01
-5.343917342997680509e-01 -8.200334657054060283e-01 -2.048672483225832397e-01
-7.264517253157102283e-01 -6.571474672727116717e-01 -2.010599339572360089e-01
-6.843807762408078421e-01 -6.931894508395961552e-01 -2.260781686866918661e-01
-7.591521085249746115e-01 -6.503301336600668670e-01 2.754620438036140331e-02
-9.947181798568757172e-01 -8.159991367090667358e-02 6.226714021958021372e-02
-6.822545272030158259e-01 -7.037820584097133070e-01 1.980393253158976297e-01
-6.823757036133956122e-01 -7.037261411880425532e-01 1.978204168601179203e-01
-7.067458553759642381e-01 -7.044282848142610076e-01 6.550639253183719590e-02
-8.066807639823991849e-01 -5.888406549694840120e-01 -5.032721009436085663e-02
-4.875757089720907378e-01 -8.145231800236559794e-01 -3.143595349667542838e-01
-9.751368669417376234e-01 2.060783095660016218e-01 -8.148509714954726979e-02
-9.751304573565044986e-01 2.061134115449566040e-01 -8.147301833732201182e-02
-9.751304573565044986e-01 2.061134115449566040e-01 -8.147301833732201182e-02
-9.627203809781714750e-01 2.578058874420692814e-01 -8.188768191523995710e-02
-9.923132156178561258e-01 1.234127866043819438e-01 -9.152388359950672583e-03
-9.923382155554076878e-01 1.232278806155105710e-01 -8.930587176591101364e-03
-5.478246483003845757e-01 1.290972601305341305e-01 -8.265724724071985552e-01
-5.478841948566535169e-01 1.289750899122109051e-01 -8.265520765253775437e-01
-5.478071275066623835e-01 1.290907738670314664e-01 -8.265850973464924367e-01
-5.297313516604628125e-01 1.556806092451100132e-01 -8.337555055128873516e-01
-4.624198764431187714e-01 3.974784927983948668e-01 -7.925772553089365235e-01
-4.625396618296796492e-01 3.974697069662387894e-01 -7.925117622336326217e-01
-6.476170812334536286e-01 3.235148202958734176e-01 -6.898770014601087741e-01
-6.475343831486884971e-01 3.236711981094179680e-01 -6.898812783042176378e-01
-5.168000056096252459e-01 -1.047296198771979631e-01 -8.496760917680742375e-01
-8.173537207698555740e-01 -1.796653255448897313e-01 -5.474059425513406740e-01
-8.410636460152349780e-01 1.172378145924102694e-01 -5.280788181523239366e-01
-8.760216300053451643e-01 7.932414334952729226e-03 -4.822065745773244094e-01
-8.558234015078286516e-01 1.729441182348064043e-01 -4.875003973327150519e-01
-8.558432934193278552e-01 1.729138489101639253e-01 -4.874762127163041470e-01
-9.348405428968284969e-01 2.393867597861483454e-02 -3.542599316162551304e-01
-9.707128119409004219e-01 1.765748096903333730e-01 -1.629047983228633090e-01
-9.707090060189783598e-01 1.765383212784832068e-01 -1.629670112440615437e-01
-9.517338897633849104e-01 1.151494841154244581e-01 -2.845051834041145145e-01
-9.517338897633849104e-01 1.151494841154244581e-01 -2.845051834041145145e-01
-9.517953510113582594e-01 1.151094392566827246e-01 -2.843157167431610843e-01
-9.517744852271714517e-01 1.150549132792898777e-01 -2.844076233170407253e-01
-9.653574378229237141e-01 5.452246102065842065e-02 -2.551711552746717682e-01
-9.654076295155648024e-01 5.443441021530417284e-02 -2.550000075640191377e-01
-2.901675248630341541e-01 6.739912747239088509e-01 -6.793662996579243885e-01
-2.900266743676439551e-01 6.741850574632558546e-01 -6.792341543595338260e-01
-2.901501406463390387e-01 6.740792783048746850e-01 -6.792864067850090670e-01
-3.057442819737059975e-02 7.609269672766704184e-01 -6.481167755979878597e-01
-1.064699808734659997e-01 1.626378874967864541e-01 -9.809245948203085819e-01
-7.564924687796753533e-02 2.349452208897995220e-01 -9.690603359068202804e-01
-7.549198168623734440e-02 2.348796994969055141e-01 -9.690884827843782023e-01
-1.273561929234682533e-01 4.442812645675679462e-01 -8.867889027712756445e-01
-1.273169506013738517e-01 4.444289730797309490e-01 -8.867205207825422653e-01
-1.228119718696864954e-01 4.453775496765687292e-01 -8.868799568202987427e-01
8.937500980746150570e-02 3.574722000555943247e-01 -9.296374206158706244e-01
-3.298323588551029667e-02 1.516319060867034330e-01 -9.878865679859373250e-01
-3.307243398777027360e-02 1.513992337703064517e-01 -9.879192710560356083e-01
-7.668774377037663841e-03 5.455990350476976891e-01 -8.380112665439382047e-01
-7.675153755835386997e-03 5.456451120839242996e-01 -8.379812072318483240e-01
-3.403536315727810624e-02 7.570989661733034115e-01 -6.524130206196588899e-01
-3.389955727657712609e-02 7.571329449815490387e-01 -6.523806585422491366e-01
-5.210416144719997034e-01 6.873781234948775909e-01 -5.059910585465643429e-01
-5.211094496072585791e-01 6.872854185919144987e-01 -5.060471271738995469e-01
-6.401592350054261527e-01 5.406758998347015455e-01 -5.457707624774372768e-01
-3.042575297376357568e-01 7.142438962318787832e-01 -6.303039047106218096e-01
-2.837343357006268385e-01 7.568103926501879020e-01 -5.888402638417251644e-01
-3.258840269734767925e-01 7.303342368095016024e-01 -6.003428216506240256e-01
-5.401878565168957147e-01 7.504041280578133133e-01 -3.809077634618051045e-01
-5.473882005577439536e-01 7.094448495110053932e-01 -4.439078320918228293e-01
-5.236739374914332057e-01 7.306349712814952380e-01 -4.381074593438317177e-01
-5.236028537983000719e-01 7.306301307348267438e-01 -4.382004832912510528e-01
-1.786141760248604327e-01 8.259233076300230847e-01 -5.347407465645782620e-01
-1.786252928733371714e-01 8.259421960309440980e-01 -5.347078581445162682e-01
-2.889217170567614512e-01 7.627713315190092214e-01 -5.785362021738056360e-01
-3.469131741218830500e-01 8.185855651661481103e-01 -4.577869833473841576e-01
-3.469227942110416629e-01 8.186149328783952628e-01 -4.577271747725971118e-01
-3.468845189911936577e-01 8.186114190512925326e-01 -4.577624657866538604e-01
-3.894180287417001174e-01 7.626775173427692289e-01 -5.164074006351947466e-01
3.520688247850729813e-02 7.258201218235877938e-01 -6.869829882771018026e-01
5.503094360170910498e-02 7.589144712782304181e-01 -6.488608637687972580e-01
4.522203336171112253e-01 5.676382466729128495e-01 -6.879560965478320744e-01
4.521916425726704714e-01 5.676505384047207947e-01 -6.879648135161133826e-01
4.409720544961873712e-01 6.480769755295232581e-01 -6.209185783513949675e-01
4.408874752622464199e-01 6.481743138892082090e-01 -6.208770353066187520e-01
4.408687530551098077e-01 6.481351326269249036e-01 -6.209312300362341830e-01
-5.323076583468105277e-02 2.259598011167650855e-01 -9.726811676227340442e-01
-5.322021048718342945e-02 2.260060857540945878e-01 -9.726709918558343881e-01
3.206546589443780987e-02 1.444416653188598521e-01 -9.889936355795658773e-01
-3.968115489897641041e-02 1.010898978162192569e-02 -9.991612553894783089e-01
4.283332793429707741e-01 3.768036708990384898e-01 -8.213096830089766653e-01
4.282956445325966643e-01 3.767697324616900989e-01 -8.213448785833840082e-01
4.282956445325966643e-01 3.767697324616900989e-01 -8.213448785833840082e-01
3.169683608954858012e-01 3.328180456680344679e-01 -8.881234186017950005e-01
3.169968710298523562e-01 3.328079733634048964e-01 -8.881170174155128549e-01
4.340645210970883738e-01 -5.322596041990881321e-01 -7.268340286905844438e-01
5.191817617186685885e-01 -5.166405291727206306e-01 -6.808324771298962519e-01
5.075950505423992842e-01 -6.898433313102130260e-01 -5.162009714362099100e-01
3.884508626101823570e-01 -8.309521108627259123e-01 -3.982769347956084949e-01
1.916840132936308838e-01 -8.680778853696909936e-01 -4.579279681125980606e-01
3.133939068269842587e-01 4.859893215392480093e-01 -8.158422877698487952e-01
3.134581627332311826e-01 4.859922255780684264e-01 -8.158158719304148265e-01
3.135265157228874777e-01 4.859600463769556122e-01 -8.158087749368556629e-01
1.598055202207791792e-01 3.699971305909071084e-01 -9.151854014687196281e-01
3.272862010994781468e-01 1.824593271017962981e-01 -9.271420260798404200e-01
3.260315346618403720e-01 3.036103580910670674e-01 -8.952788330268168782e-01
3.260315346618403720e-01 3.036103580910670674e-01 -8.952788330268168782e-01
3.259374462134725925e-01 3.036553404591804117e-01 -8.952978361229625426e-01
4.567523489248427881e-01 -4.837879696491581560e-02 -8.882774249950666778e-01
4.565705466976834881e-01 -4.845175956383150628e-02 -8.883669078051856793e-01
-3.343015683732401544e-01 -3.218444476038046509e-01 -8.858095805136640966e-01
-2.625178968798997162e-02 1.551541726683515199e-01 -9.875414048240087617e-01
1.139444578918862305e-01 -5.039786586928604595e-02 -9.922080001852160436e-01
-2.355194813176952062e-01 2.789292093972371711e-02 -9.714692784032308293e-01
-2.356138628734339713e-01 2.779826055930059367e-02 -9.714491053738925075e-01
6.202671249636939471e-02 2.954386650963515201e-02 -9.976371318713801450e-01
4.331760633272512262e-01 -2.070804427518560531e-02 -9.010714039756240190e-01
4.619232912010375336e-01 -4.907477998664565300e-02 -8.855611435780500473e-01
4.619192790298426998e-01 -4.897370166697562893e-02 -8.855688319975947298e-01
4.300577607009967718e-01 1.609334362138494234e-01 -8.883415737030699866e-01
4.300300320355004424e-01 1.609783270672670019e-01 -8.883468634278899323e-01
4.300300320355004424e-01 1.609783270672670019e-01 -8.883468634278899323e-01
4.538665275347540939e-01 1.915366019931734609e-01 -8.702407168596817399e-01
4.636386392523443867e-01 9.584259613933392152e-02 -8.808254134375931299e-01
5.054589922993453222e-01 1.225842119551613929e-01 -8.540985412018115008e-01
5.054229357546825563e-01 1.225962376265942455e-01 -8.541181525602427049e-01
5.054498685774743150e-01 1.226024708669113394e-01 -8.541013198048238442e-01
5.054498685774743150e-01 1.226024708669113394e-01 -8.541013198048238442e-01
4.561700351992521441e-01 3.752025200998963111e-02 -8.891013045066462617e-01
4.561700351992521441e-01 3.752025200998963111e-02 -8.891013045066462617e-01
4.561802740363731234e-01 3.758163241512973290e-02 -8.890934588023430285e-01
4.436958740243572286e-01 3.239137804182069813e-02 -8.955918545868500891e-01
4.437084316189628952e-01 3.233398471473465652e-02 -8.955877071190222471e-01
3.370751014376311416e-01 1.688663140250821482e-01 -9.262097732038855336e-01
3.006372509252319691e-01 1.046223507474172421e-01 -9.479828094855958787e-01
3.007174171041252508e-01 1.047544236459708733e-01 -9.479427966796436511e-01
2.929214723353024130e-01 1.137624105433553551e-01 -9.493445765328223374e-01
2.929161374846351307e-01 1.137262286691418933e-01 -9.493505576517962119e-01
4.409957945392927736e-01 -6.220259989442845222e-02 -8.953510740290824277e-01
4.410067836410876407e-01 -6.224562611935396950e-02 -8.953426711664940196e-01
4.410067836410876407e-01 -6.224562611935396950e-02 -8.953426711664940196e-01
4.410718988625867976e-01 -6.210629852346396390e-02 -8.953202710301304545e-01
3.802654105777664717e-01 -2.714212212449000974e-02 -9.244790547787991031e-01
3.802654105777664717e-01 -2.714212212449000974e-02 -9.244790547787991031e-01
4.073808831067096126e-01 2.014205872318688972e-01 -8.907696464958639870e-01
4.073788720461823387e-01 2.015439397812233691e-01 -8.907426648296593585e-01
4.074787898513546613e-01 2.015542688978675945e-01 -8.906946236002111217e-01
4.074787898513546613e-01 2.015542688978675945e-01 -8.906946236002111217e-01
4.478128373857891975e-01 1.618578590812017326e-01 -8.793552729847808891e-01
4.479904436088252284e-01 1.045577923825273398e-01 -8.879032776644426583e-01
4.478871022970254412e-01 1.046187285892667684e-01 -8.879482334147296152e-01
4.479489274087659068e-01 1.045354149351443440e-01 -8.879268581688886108e-01
4.798325021919532252e-01 1.048620113476827487e-01 -8.710710237496870345e-01
4.798310620684083649e-01 1.048325151891874030e-01 -8.710753673669184849e-01
4.799366199144460277e-01 1.048406864105979747e-01 -8.710162290899355897e-01
7.850108565105419212e-01 -3.762471108983332369e-01 -4.921341958259380922e-01
6.207512258042909847e-01 -6.829872080771182130e-01 -3.849628414087438166e-01
6.208644911486466134e-01 -6.827925623225006291e-01 -3.851254347193990291e-01
6.080414194550937124e-01 -4.865678397157394697e-01 -6.273255690479969671e-01
9.060203691357446854e-01 5.661371743540595525e-02 -4.194305397908846822e-01
2.066398039633399741e-01 -3.417651774666840558e-01 -9.167859918700537181e-01
1.730200306758582912e-02 5.699679988463361713e-02 -9.982244264156033831e-01
6.755937232721025143e-02 -3.416054111624362566e-01 -9.374121154941918999e-01
1.157270353115304462e-01 -2.476866820481997133e-01 -9.619036130683561447e-01
2.467323800441707515e-01 1.097175434409985439e-01 -9.628526332201680082e-01
2.468618886288283243e-01 1.093678618784153511e-01 -9.628592206188564262e-01
1.149197326467861213e-01 -2.505252995743071920e-01 -9.612650671493242482e-01
1.722657393121173330e-01 -5.215240153465878770e-01 -8.356657325007540438e-01
1.719714335853596843e-01 -5.214802414610456571e-01 -8.357536621495150753e-01
-2.339179642964016315e-01 -3.410628664766012785e-01 -9.104715849987803367e-01
-2.339193227418644994e-01 -3.413111254363422886e-01 -9.103781994870949745e-01
