1.889667275022651194e-01 6.044633089831993322e-01 -7.738964297566992556e-01
1.898920429995563097e-01 6.017860702876934864e-01 -7.757541734423024637e-01
1.684921174321996618e-01 5.976421525033546178e-01 -7.838585739241299422e-01
1.483815832086317343e-01 6.658140887204335723e-01 -7.312144042795371002e-01
1.483648212296074520e-01 6.657724217698861580e-01 -7.312557433840553012e-01
1.352601215448795691e-01 6.164219221795129711e-01 -7.757117463182949813e-01
2.060321157418831817e-01 6.191690757493187869e-01 -7.577469385742562347e-01
2.946138412921984334e-02 6.818602870031151841e-01 -7.308888943288301965e-01
1.257009265944070142e-01 6.331256114177629124e-01 -7.637743365812911245e-01
3.719155069627573529e-02 6.671899689028661928e-01 -7.439585566093038782e-01
3.799656741355749573e-02 6.653841052498686848e-01 -7.455335360301497127e-01
3.799656741355749573e-02 6.653841052498686848e-01 -7.455335360301497127e-01
3.701610682961061216e-01 7.921587602027395647e-01 -4.852476503311932698e-01
2.956558955884613926e-01 7.480289525117982397e-01 -5.941719259674649312e-01
8.038649491635130317e-02 6.272888846327293599e-01 -7.746267918496557714e-01
-3.542291019886837922e-01 8.178318762739542613e-01 -4.535115935172046586e-01
-3.147498787334271353e-01 9.156318493110245926e-01 -2.501016400677256724e-01
2.191166736669097337e-01 6.520168499640145443e-01 -7.258525405922010565e-01
-1.968247869325545629e-01 8.747004614170066361e-01 -4.428985279336908332e-01
1.930017579871400324e-01 5.622678612300768819e-01 -8.041176366935550712e-01
1.930017579871400324e-01 5.622678612300768819e-01 -8.041176366935550712e-01
1.985399541867846618e-01 5.443557371538462197e-01 -8.150206856388383381e-01
3.676991767814516976e-01 5.567977990734458427e-01 -7.448312066107390939e-01
3.548459801479189601e-01 5.765844562918542859e-01 -7.359583514951708594e-01
3.744568600791269852e-01 5.987043535180133214e-01 -7.080502503482778431e-01
2.153062823986414409e-01 6.208737362535233784e-01 -7.537632309885291537e-01
1.325980535688168205e-01 6.441186095741371354e-01 -7.533451884694303269e-01
1.187320995902310661e-01 6.671779929367588347e-01 -7.353748800902664140e-01
1.187320995902310661e-01 6.671779929367588347e-01 -7.353748800902664140e-01
1.236933951491932943e-01 6.401212559269300328e-01 -7.582510941020760287e-01
1.561533105380610020e-01 6.722802904210204433e-01 -7.236403490128450189e-01
1.040621672255780672e-01 6.527858022440684582e-01 -7.503610875710999828e-01
9.797280395421464894e-02 6.572048394064768928e-01 -7.473172878677809550e-01
1.374100846588104385e-01 6.725652919710088939e-01 -7.271687539148049551e-01
1.528305460006490757e-01 6.723561178659007709e-01 -7.242790035458976927e-01
1.528351947995597038e-01 6.723677643444818663e-01 -7.242672108420922239e-01
1.555665875503854101e-01 6.666418442996563387e-01 -7.289634341081047131e-01
1.296891011085493095e-01 6.427668227877222362e-01 -7.550043367935267424e-01
7.915894526032007938e-02 6.491496433815235889e-01 -7.565306351251841477e-01
4.467144781214315574e-01 3.622090164811918589e-01 -8.180775045290175074e-01
4.467360567196026477e-01 3.621957411602902965e-01 -8.180715987686945079e-01
4.412078447181670415e-01 3.834546389358266527e-01 -8.113557651472900201e-01
4.410572956099303998e-01 3.835407576364357474e-01 -8.113969122574494763e-01
4.035433021987180346e-01 4.136279473703132759e-01 -8.161278848347086612e-01
4.061916393360072708e-01 4.136774913229391837e-01 -8.147878774909986799e-01
4.061916393360072708e-01 4.136774913229391837e-01 -8.147878774909986799e-01
3.248402155293830251e-01 4.634601446735672758e-01 -8.244292138649504942e-01
3.414357484495514905e-01 4.048292838776053615e-01 -8.482540189093357164e-01
3.414357484495514905e-01 4.048292838776053615e-01 -8.482540189093357164e-01
3.304950869219350218e-01 4.216842547627615012e-01 -8.443668555821202126e-01
3.304950869219350218e-01 4.216842547627615012e-01 -8.443668555821202126e-01
3.976790196123158871e-01 3.649750988991100620e-01 -8.418102960547417801e-01
3.942050582254144619e-01 3.667733517577797531e-01 -8.426622576749605020e-01
3.974530914623943811e-01 3.603115826924541687e-01 -8.439233398032337519e-01
3.938023646298648983e-01 3.610677285751140442e-01 -8.453104713615788857e-01
4.088825650816083623e-01 3.669985239440364255e-01 -8.355400238140496816e-01
4.079025138288013275e-01 3.644615923702545501e-01 -8.371279991130883280e-01
4.701308771771474659e-01 3.462005291928926254e-01 -8.118633825411804006e-01
4.701308771771474659e-01 3.462005291928926254e-01 -8.118633825411804006e-01
4.464992194547655613e-01 3.574579757859210893e-01 -8.202818068038061350e-01
4.957371210252143334e-01 3.411220658642147296e-01 -7.986741782592962080e-01
4.957371210252143334e-01 3.411220658642147296e-01 -7.986741782592962080e-01
4.942423982046004194e-01 3.423931623514465117e-01 -7.990565525617954190e-01
2.795711133782169747e-02 4.032295861008615145e-01 -9.146716901810029166e-01
-5.238691151090196091e-02 5.132903946583217136e-01 -8.566146054404238930e-01
-5.235140718478482197e-02 5.161030485369233478e-01 -8.549251273981055554e-01
-8.406569843831858402e-02 4.886513545883084952e-01 -8.684197211055775245e-01
-7.548737090494371527e-02 4.877172184445426883e-01 -8.697318964293409005e-01
-2.935538983726189086e-02 4.853186343378156353e-01 -8.738444279458328356e-01
-2.935747580854764296e-02 4.853195066403254154e-01 -8.738438734056226398e-01
-2.548993458776097412e-02 4.850696513453762182e-01 -8.741039392305625100e-01
-2.002804251642662653e-02 4.905234316211261603e-01 -8.711978194093432659e-01
-2.761536956370851809e-02 4.832278844117395833e-01 -8.750589712075491633e-01
-2.558563775171685678e-02 4.851843727764472147e-01 -8.740374703377216115e-01
3.286518630311057731e-01 4.439267986776767039e-01 -8.336167886636958180e-01
3.904192312094319495e-01 3.623010939314632584e-01 -8.463514289217577424e-01
3.331668362150403961e-01 3.710471321995851834e-01 -8.667894121024575238e-01
3.331668362150403961e-01 3.710471321995851834e-01 -8.667894121024575238e-01
3.290458184795385099e-01 3.668686940006487540e-01 -8.701357426881102253e-01
3.686976347012613231e-01 4.021793992302300502e-01 -8.380416367940833888e-01
3.703838920998981932e-01 4.032585852498549728e-01 -8.367785166310238720e-01
3.855662244073194689e-01 3.896720846863777621e-01 -8.363577900710059687e-01
3.855662244073194689e-01 3.896720846863777621e-01 -8.363577900710059687e-01
3.786279624240044273e-01 3.687986750884902909e-01 -8.488983468729461856e-01
3.041026930455497101e-01 3.605707302135351400e-01 -8.817654453400417536e-01
3.023100205424021358e-01 3.585531453795101076e-01 -8.832034269737139009e-01
3.054450552336102631e-01 3.582133367781111799e-01 -8.822621626181348375e-01
3.054617733289747838e-01 3.581948894351155710e-01 -8.822638642817031140e-01
3.054626469860326488e-01 3.581930496786381868e-01 -8.822643087296476727e-01
3.355661432948595091e-01 4.059612054483837107e-01 -8.500534472285309340e-01
3.355661432948595091e-01 4.059612054483837107e-01 -8.500534472285309340e-01
2.742209284027705696e-01 3.873742430040830187e-01 -8.801954773133842114e-01
2.742113526803770518e-01 3.874523680692117944e-01 -8.801640736469296122e-01
5.264574889938865576e-01 3.964166975178083363e-01 -7.521278576221772649e-01
5.486222117090258088e-01 3.257020322301915627e-01 -7.700206848004930160e-01
5.486222117090258088e-01 3.257020322301915627e-01 -7.700206848004930160e-01
5.474559320548061381e-01 3.239330034677194714e-01 -7.715953678725564480e-01
5.328694820281009159e-01 3.410817286587880526e-01 -7.744116279461694674e-01
4.804122697998369218e-01 4.105535243881910934e-01 -7.750160350845675117e-01
7.131763275062202867e-01 3.504622053016080430e-01 -6.070879413560064108e-01
6.939315254785188847e-01 3.726074321426676716e-01 -6.161353256055873695e-01
6.733102832093972312e-01 3.480759984966351750e-01 -6.523008215501890916e-01
6.550035921432595387e-01 3.566077612303630850e-01 -6.661840578321391870e-01
7.214084146595893809e-01 2.611339822932186028e-01 -6.413882931189365255e-01
7.371144353128644688e-01 2.799969072094153355e-01 -6.150317399992938361e-01
7.371144353128644688e-01 2.799969072094153355e-01 -6.150317399992938361e-01
7.324524016466571474e-01 2.406768108229086767e-01 -6.368580313179365016e-01
7.133200705382940487e-01 3.006980866622104287e-01 -6.330522392701324330e-01
7.111932887679723869e-01 3.009889204981644473e-01 -6.353029007872900147e-01
7.381732507940159671e-01 1.829014843225181541e-01 -6.493437447491230419e-01
6.467025651533842012e-01 2.388252497325044632e-01 -7.243882193370070333e-01
7.011062382396104908e-01 2.854604821683668914e-01 -6.534235654012686689e-01
7.011030703355300986e-01 2.854743676865265645e-01 -6.534208981660063476e-01
6.309890492313439125e-01 3.215477234972213272e-01 -7.060169128738200683e-01
6.320617106415818975e-01 3.192662709890689565e-01 -7.060927999559063473e-01
5.968329474399099999e-01 3.543577064918562169e-01 -7.198757175374239647e-01
6.139473016248832016e-01 2.602048892191106133e-01 -7.452262250176082681e-01
6.104782343373869047e-01 2.633742810019083502e-01 -7.469607175126643517e-01
6.138897152462032825e-01 2.602935108232844463e-01 -7.452427159913904697e-01
6.363094079900274425e-01 2.378580006147984205e-01 -7.338486961539900655e-01
6.379653931977453674e-01 2.381004254261387953e-01 -7.323307616739431758e-01
4.588373970916626021e-01 3.486914891055584165e-01 -8.172407775285666087e-01
5.545718184699139908e-01 2.763067642457713857e-01 -7.849233530676765769e-01
5.551426500774503392e-01 2.783077367725841911e-01 -7.838121214407872683e-01
5.551426500774503392e-01 2.783077367725841911e-01 -7.838121214407872683e-01
5.666442972873786399e-01 2.810187889157353403e-01 -7.745596688622679027e-01
4.480381891534838679e-01 3.109688793151902941e-01 -8.381886047647758575e-01
4.480381891534838679e-01 3.109688793151902941e-01 -8.381886047647758575e-01
4.263887209557752911e-01 3.603965437644407466e-01 -8.296426880798405401e-01
4.480121419149449280e-01 3.648671175064971406e-01 -8.161844811433769387e-01
4.485040472325204086e-01 3.618932179388224535e-01 -8.172376756035744094e-01
4.071126822325530914e-01 3.863067761065894223e-01 -8.276631794996982538e-01
4.032595297591926031e-01 3.864591142060734286e-01 -8.294764039473648820e-01
4.071376955819262511e-01 3.832903284561406387e-01 -8.290521219731740166e-01
4.061202268748540511e-01 3.856198611943200127e-01 -8.284706898711567957e-01
4.061202268748540511e-01 3.856198611943200127e-01 -8.284706898711567957e-01
3.897145582594181978e-01 3.727078605977035552e-01 -8.421469074510391506e-01
3.895406178284886445e-01 3.756937472269492595e-01 -8.408997058843417083e-01
-1.406295062460604095e-01 4.457218466849048322e-01 -8.840562071275713807e-01
-1.777877730253396849e-01 5.000061035362093342e-01 -8.475761937367212173e-01
-1.779003926474315433e-01 4.998889076530350084e-01 -8.476216905561969606e-01
-1.661362314764673609e-01 5.139349060456678275e-01 -8.415875860174197864e-01
9.469695975358831397e-02 4.308193231414843560e-01 -8.974559580399144032e-01
9.469695975358831397e-02 4.308193231414843560e-01 -8.974559580399144032e-01
-5.929679044310777469e-02 5.056231621840621138e-01 -8.607143013254373587e-01
1.346132265342860415e-03 3.678041603652546510e-01 -9.299023000003463491e-01
1.034727286077824077e-01 3.200799479418386384e-01 -9.417230067063296906e-01
-1.406725844751302926e-02 3.736483778654098864e-01 -9.274637469779176691e-01
-1.414373306939392845e-02 3.736137964093210750e-01 -9.274765150382386913e-01
-7.277932128187063199e-02 2.843233466027353940e-01 -9.559620311342763577e-01
-1.039931566392979650e-01 3.824537132670599582e-01 -9.181037961910580858e-01
-4.591563000706611964e-04 2.128007893101941661e-01 -9.770954985283937244e-01
-4.484162834565624117e-02 2.503395646624662629e-01 -9.671190881850678656e-01
-4.369305272877335028e-02 2.550391418927762666e-01 -9.659430383028996259e-01
-6.350991024760882508e-02 3.219238096098258617e-01 -9.446330250984438237e-01
3.536952340701066816e-02 2.080825203111322519e-01 -9.774715655991882413e-01
2.476299193998047002e-02 1.994418044348676700e-01 -9.795967338011822845e-01
2.475231488788305623e-02 1.994472048077945980e-01 -9.795959041370317921e-01
-3.570122181261868866e-01 5.189772668485191920e-01 -7.766626504493832073e-01
-3.576725742540479147e-01 5.226648758774298242e-01 -7.738809709189866659e-01
-4.771623832517533637e-01 5.724607427654658798e-01 -6.667868909943551747e-01
-5.021507203008328535e-01 5.901080131221285718e-01 -6.321528193011626273e-01
-5.021507203008328535e-01 5.901080131221285718e-01 -6.321528193011626273e-01
-5.023347141932883453e-01 5.948919158707532961e-01 -6.275057317251945266e-01
-5.033521737007601304e-01 5.943679376466887154e-01 -6.271868492948028395e-01
-5.039880171449109270e-01 5.961378720744617832e-01 -6.249925727981680001e-01
-5.034396721135649955e-01 5.943242367499592671e-01 -6.271580328384260827e-01
-4.852031726268954959e-01 5.653297880659450270e-01 -6.670682963521117337e-01
-4.825877181302196672e-01 5.663509676184336206e-01 -6.680985524513068929e-01
-4.943395781564758895e-01 5.692129840416076947e-01 -6.569817046665195059e-01
-4.942421979145627531e-01 5.692437947692735589e-01 -6.570282733012783316e-01
-5.180962460603271147e-01 5.946540600902414653e-01 -6.147868156006507379e-01
-5.209587632990887451e-01 5.664698954343292403e-01 -6.385247250565198041e-01
-5.209587632990887451e-01 5.664698954343292403e-01 -6.385247250565198041e-01
-5.441560945060823773e-01 5.434279241994414145e-01 -6.392028128944471366e-01
-5.397380668168837436e-01 5.480338363085390796e-01 -6.390162231819460636e-01
-5.594885137968881317e-01 5.336877485452526937e-01 -6.341529704905973786e-01
-5.595152918694803468e-01 5.336689772504308316e-01 -6.341451418127314055e-01
-4.503257703283912172e-01 4.643957988847033924e-01 -7.625898258935659424e-01
-4.484039524107167329e-01 4.658457708027751165e-01 -7.628378682836975955e-01
-5.493992691270586093e-01 -1.563901296934639973e-01 -8.207938659719109520e-01
-5.493992691270586093e-01 -1.563901296934639973e-01 -8.207938659719109520e-01
-5.992570383259985256e-01 -1.905329743094160699e-01 -7.775526912805075241e-01
-4.652495070322972825e-01 -1.969910098921758557e-01 -8.629817137273912975e-01
-6.296715772515540932e-01 -1.782019522072883499e-01 -7.561466584142598757e-01
-6.296715772515540932e-01 -1.782019522072883499e-01 -7.561466584142598757e-01
-7.381880973567978010e-01 2.653596700548829235e-01 -6.202117206479690337e-01
-7.547730111209086656e-01 3.686423599079935998e-01 -5.426053005315577549e-01
-7.547730111209086656e-01 3.686423599079935998e-01 -5.426053005315577549e-01
-6.402426423539478995e-01 4.480489723595154072e-01 -6.239723369502987449e-01
-7.327622978079065819e-01 3.348435728918382481e-01 -5.924012125277134944e-01
-5.163952141198023815e-01 3.459928098870570512e-01 -7.833421719406035155e-01
-5.027343115932929596e-01 3.127078640720906133e-01 -8.058982588976655315e-01
-5.236971374927497092e-01 3.514615476249253190e-01 -7.760258299328653964e-01
-5.237227854050703346e-01 3.515751599196370591e-01 -7.759570548522877198e-01
-5.260561027692157721e-01 3.406003125139170917e-01 -7.792665807377384679e-01
-6.147121046319362625e-01 3.568732815580158424e-01 -7.033992389311980453e-01
-6.147442862980231348e-01 3.568375540800262091e-01 -7.033892396547721804e-01
-6.195240519254741063e-01 4.792559377944422550e-01 -6.216942135605030284e-01
-6.021304746134233943e-01 5.197738008824421829e-01 -6.060314244806391804e-01
-5.693769314053834796e-01 4.575302289516012810e-01 -6.829904827879264007e-01
-5.693769314053834796e-01 4.575302289516012810e-01 -6.829904827879264007e-01
-5.790695146858185760e-01 5.133626163269759957e-01 -6.333540252650584623e-01
-5.790695146858185760e-01 5.133626163269759957e-01 -6.333540252650584623e-01
-2.213820377832693628e-02 9.924870892475241568e-01 -1.203298699843328434e-01
-2.213820377832693628e-02 9.924870892475241568e-01 -1.203298699843328434e-01
-2.416024994686748195e-02 9.943666492385209166e-01 -1.032048894416392470e-01
-2.416024994686748195e-02 9.943666492385209166e-01 -1.032048894416392470e-01
4.684192380346310219e-02 9.832729779295444894e-01 -1.760116048672814015e-01
-1.831314491967537400e-02 9.685722763430240079e-01 -2.480571994981068118e-01
-1.126308740400893543e-02 9.648288638441245846e-01 -2.626374047149134250e-01
-1.126308740400893543e-02 9.648288638441245846e-01 -2.626374047149134250e-01
-1.272142530547112384e-02 9.649911474502109732e-01 -2.619737595274049813e-01
-1.134471422307112981e-02 9.648309683898744771e-01 -2.626261599594638674e-01
-1.134471422307112981e-02 9.648309683898744771e-01 -2.626261599594638674e-01
-8.437125795355929214e-02 9.709734568138497224e-01 -2.238125041062202780e-01
-4.918274853610775377e-02 9.740361261912592328e-01 -2.209857056932852393e-01
-8.204472584065040930e-02 9.749046227701266831e-01 -2.069532301346601044e-01
-1.277682283018964082e-01 9.902609155256013596e-01 -5.530460215020326781e-02
-8.289259874225951563e-02 9.960895288082133314e-01 -3.056906397628678801e-02
-1.280474470883590787e-01 9.903724925074864904e-01 -5.259446148276838290e-02
-1.286564613887379305e-01 9.903115297774045533e-01 -5.225503739224640620e-02
-1.285484010593526683e-01 9.903066405958184104e-01 -5.261241466525107963e-02
-9.498547885016546399e-02 9.941590032786554731e-01 -5.124095049465182683e-02
-9.498547885016546399e-02 9.941590032786554731e-01 -5.124095049465182683e-02
-9.498547885016546399e-02 9.941590032786554731e-01 -5.124095049465182683e-02
-9.452670298084754619e-02 9.942017117707744323e-01 -5.126069386608341633e-02
-9.430550689284307453e-02 9.941994726353539091e-01 -5.170957340056267504e-02
-1.078933311208621904e-01 9.856624554784648717e-01 -1.297249126413552722e-01
-1.391395752511263850e-01 9.847909824146885427e-01 -1.040523885052558051e-01
-1.392633540240536816e-01 9.847183828178073250e-01 -1.045725813330306009e-01
-1.392633540240536816e-01 9.847183828178073250e-01 -1.045725813330306009e-01
-1.388668278791036770e-01 9.847988919354350168e-01 -1.043414901059721289e-01
4.122647805558183887e-01 7.546445241592347752e-01 -5.104403911033539298e-01
4.122647805558183887e-01 7.546445241592347752e-01 -5.104403911033539298e-01
4.113786889265192981e-01 7.540993747525959190e-01 -5.119586968641531843e-01
4.611336400304373306e-01 7.484747069545861775e-01 -4.765935155680630086e-01
4.611336400304373306e-01 7.484747069545861775e-01 -4.765935155680630086e-01
4.585104037386810716e-01 7.500837872328908196e-01 -4.765947143997244506e-01
4.585104037386810716e-01 7.500837872328908196e-01 -4.765947143997244506e-01
5.816446942628965555e-01 6.649417093729818040e-01 -4.685530629202614428e-01
3.925429826830681423e-01 7.896685133189580430e-01 -4.715226885515764743e-01
4.369319372829757464e-01 8.156900738261828598e-01 -3.791308291916948292e-01
4.030265932015176245e-01 6.867339631590729798e-01 -6.049512616866016268e-01
4.030265932015176245e-01 6.867339631590729798e-01 -6.049512616866016268e-01
4.537688475277364963e-01 6.285006288697798649e-01 -6.317284167453931509e-01
4.205522423891662753e-01 7.431954529823047162e-01 -5.203809470838367535e-01
2.832552572779407085e-01 8.619346864433740096e-01 -4.205176043047070267e-01
2.832552572779407085e-01 8.619346864433740096e-01 -4.205176043047070267e-01
4.591484236157354903e-01 5.626179232344440395e-01 -6.874909436105658411e-01
5.430181417366266583e-01 4.939701929597561381e-01 -6.790616659863831783e-01
5.018848834341866905e-01 6.214507855980181406e-01 -6.015899640617843325e-01
4.986690905360888215e-01 6.256290148680877516e-01 -5.999312243075001216e-01
4.989026451687411656e-01 6.239328736527782748e-01 -6.015013880441336669e-01
5.409849117784436556e-01 4.973422763774453248e-01 -6.782226665010322453e-01
5.410222747279036515e-01 4.974523956450602746e-01 -6.781120942110052674e-01
5.410222747279036515e-01 4.974523956450602746e-01 -6.781120942110052674e-01
5.410222747279036515e-01 4.974523956450602746e-01 -6.781120942110052674e-01
4.723453313406704712e-01 6.785004926415050264e-01 -5.626072959408785490e-01
4.723453313406704712e-01 6.785004926415050264e-01 -5.626072959408785490e-01
3.863984282809552750e-01 8.002535984222898247e-01 -4.585743482077729860e-01
3.192932039923589982e-01 9.162704596451031192e-01 -2.418683415952677107e-01
3.130297032930196566e-01 9.479305374269419993e-01 -5.865237480062493458e-02
2.851016988915301975e-01 9.479031337889463060e-01 -1.421149895058865520e-01
2.843548097823715426e-01 9.482089114972152011e-01 -1.415704853099597482e-01
3.233851341076221519e-01 9.440103220944430218e-01 6.531896215756380353e-02
2.982780423113244317e-01 9.535021147134696839e-01 4.317321752967815535e-02
2.984424409788439259e-01 9.534509759722678002e-01 4.316648978223035227e-02
2.917953927635372757e-01 9.560078762704457001e-01 3.007306553787563938e-02
2.920180777925077686e-01 9.559533462686823357e-01 2.964189602703691181e-02
2.619266197670347407e-01 9.608151608277921696e-01 -9.071203107019087941e-02
1.715380303134942386e-01 9.835441461114731165e-01 -5.670640886196177954e-02
2.620787962625620859e-01 9.606285462868122682e-01 -9.223611336375991954e-02
2.621171651759446330e-01 9.606152892646193653e-01 -9.226514916900102614e-02
2.232710630733354962e-01 9.747555964071821233e-01 -1.248866278437966645e-03
2.229725260736477588e-01 9.748241448398515807e-01 -1.067358228816162003e-03
2.242349691449143645e-01 9.745287090373819794e-01 3.531837271539019912e-03
2.242119105872899809e-01 9.745340408696571144e-01 3.524533593890038109e-03
2.242119105872899809e-01 9.745340408696571144e-01 3.524533593890038109e-03
1.643266223210628485e-01 9.848387168698760075e-01 -5.558293758562127956e-02
1.645096051659227787e-01 9.848182116129367003e-01 -5.540469189201597394e-02
1.642696731062187609e-01 9.848614367797110525e-01 -5.534821444075074121e-02
8.976239518104064952e-02 9.894325501584665394e-01 -1.138680863906836455e-01
4.397473058688718822e-02 9.864393660901465966e-01 -1.581252671064311832e-01
4.436297727412300690e-02 9.863875614706286710e-01 -1.583398396595199487e-01
4.436297727412300690e-02 9.863875614706286710e-01 -1.583398396595199487e-01
4.420832136953065095e-02 9.864639106304886607e-01 -1.579068628821795883e-01
1.836163366395234670e-02 9.899121734804783301e-01 -1.404875055097294656e-01
-2.698271094198397696e-02 9.941247353433384504e-01 -1.048233938048117181e-01
-4.458091967200977258e-03 9.817103903668196185e-01 -1.903282292825707045e-01
9.053449796467193111e-02 9.918805467365795492e-01 -8.931117334258141527e-02
9.022190348068094556e-02 9.918702577984019886e-01 -8.974073672114737943e-02
9.022190348068094556e-02 9.918702577984019886e-01 -8.974073672114737943e-02
2.104401389651650023e-02 9.891263348360512797e-01 -1.455549491186166056e-01
2.104401389651650023e-02 9.891263348360512797e-01 -1.455549491186166056e-01
2.109085034988991345e-02 9.893184993322898801e-01 -1.442362052690810692e-01
-3.818320696646662626e-01 -3.841660748843366280e-01 -8.406073384663969028e-01
-3.685444663922170516e-01 -3.630237502260681426e-01 -8.557971331241285284e-01
-3.710840276469313248e-01 -3.617522083474276617e-01 -8.552379693284734019e-01
-3.710840276469313248e-01 -3.617522083474276617e-01 -8.552379693284734019e-01
-3.711429757348942426e-01 -3.616788210577294715e-01 -8.552434284815866317e-01
-3.517182253043333873e-01 -4.278139700959223690e-01 -8.326280664135310428e-01
-3.523098546168098033e-01 -4.295695403264551682e-01 -8.314732565534506126e-01
-3.964228265777895444e-01 -4.174483162564570082e-01 -8.176709887373556640e-01
-3.958907379146979766e-01 -4.212012474225936276e-01 -8.160024710765323430e-01
-3.905814698363776483e-01 -4.090600902349125212e-01 -8.246914319898442924e-01
-3.905814698363776483e-01 -4.090600902349125212e-01 -8.246914319898442924e-01
-3.880444437710713901e-01 -4.101042435571749523e-01 -8.253702315172247728e-01
-4.041475351208453914e-01 -3.663553492199118633e-01 -8.381220245010279069e-01
3.727271935847605300e-01 6.076643782935399196e-01 -7.012976846643328432e-01
3.751497408952009227e-01 6.072834174129190243e-01 -7.003352931571775741e-01
3.812432767833985325e-01 6.336794627786622724e-01 -6.731299297758218669e-01
3.833924965280798292e-01 6.328737220628054549e-01 -6.726671134583116496e-01
4.097153968436299531e-01 6.388830150601534363e-01 -6.511234803452525810e-01
3.509422796362612895e-01 6.514673561916327627e-01 -6.726290212148063885e-01
3.509594652219769073e-01 6.514771498689233553e-01 -6.726105685831649250e-01
3.509629155252018129e-01 6.514536957514283078e-01 -6.726314847060429480e-01
2.649638602567881973e-01 7.081370928276440324e-01 -6.544738425020771855e-01
3.076296967262841520e-01 6.280568889812225830e-01 -7.147786467818710854e-01
3.183649595698218593e-01 6.706326710959169546e-01 -6.699966962432436501e-01
3.183649595698218593e-01 6.706326710959169546e-01 -6.699966962432436501e-01
3.192219593791369436e-01 6.719516785060938302e-01 -6.682651288246215238e-01
3.552269277049522334e-01 6.674526654548199600e-01 -6.544621984580596408e-01
3.552269277049522334e-01 6.674526654548199600e-01 -6.544621984580596408e-01
3.567247841519903262e-01 6.686468435619872253e-01 -6.524253420632183387e-01
2.822459850433959860e-01 6.549570425934515550e-01 -7.009768015306375721e-01
2.822459850433959860e-01 6.549570425934515550e-01 -7.009768015306375721e-01
3.330091197812776183e-01 5.869845142567861052e-01 -7.379390938046468396e-01
3.054210901237786394e-02 8.253895066179995910e-01 -5.637369439215168532e-01
3.053704611171420211e-02 8.254094359377153189e-01 -5.637080377994921898e-01
4.114878002856488248e-02 8.282027711963366734e-01 -5.589158681634195380e-01
3.314236318614689758e-02 8.054647406554735767e-01 -5.917162625137560861e-01
1.195166289937988832e-02 8.016783330929726503e-01 -5.976361836462149579e-01
1.195166289937988832e-02 8.016783330929726503e-01 -5.976361836462149579e-01
1.266382906170201647e-02 8.004711104190975757e-01 -5.992375395599919274e-01
7.432450065868656183e-03 8.017211850102256010e-01 -5.976519891975750065e-01
7.432450065868656183e-03 8.017211850102256010e-01 -5.976519891975750065e-01
7.432450065868656183e-03 8.017211850102256010e-01 -5.976519891975750065e-01
2.062370342227937831e-02 8.574331357394199271e-01 -5.141819528077734569e-01
-3.023622655107387897e-02 8.481264857558057368e-01 -5.289302740092111099e-01
-4.248369043589722560e-02 8.678928917351086403e-01 -4.949313735485131316e-01
-1.657344740367307223e-03 8.331375860940899436e-01 -5.530633018432199455e-01
2.977523295429222380e-02 8.283709919558364110e-01 -5.593880005761846519e-01
-4.388827874591764121e-03 8.297340080381689909e-01 -5.581417508973890440e-01
2.706639419325883589e-01 7.011259853379930851e-01 -6.596691467859783220e-01
2.706639419325883589e-01 7.011259853379930851e-01 -6.596691467859783220e-01
2.726626637582476032e-01 7.021221359367217918e-01 -6.577838383693479507e-01
3.373043003545913576e-01 6.830939056012615973e-01 -6.477719699807289455e-01
3.373043003545913576e-01 6.830939056012615973e-01 -6.477719699807289455e-01
3.373288030555265937e-01 6.830863268206364136e-01 -6.477672025811561651e-01
3.379708444253612942e-01 6.813618422282881060e-01 -6.492470625837913900e-01
3.438837937518007815e-01 6.650648966181453847e-01 -6.628971411019695115e-01
3.438768124375957136e-01 6.650855540175193426e-01 -6.628800371899639110e-01
3.646554200624406161e-01 6.636718214779038227e-01 -6.531203089747603663e-01
3.211799334778551174e-01 7.260177614836903492e-01 -6.080638620583960208e-01
3.211799334778551174e-01 7.260177614836903492e-01 -6.080638620583960208e-01
2.196294132079000816e-01 7.294314290650811827e-01 -6.478369479630095018e-01
2.429474842495472908e-01 7.006946790432838634e-01 -6.708229920457744466e-01
2.656566283927258021e-01 7.106011827462458408e-01 -6.515155522860877069e-01
1.707241152496108416e-01 7.412950397195015029e-01 -6.491031817511759838e-01
1.706872201736983341e-01 7.397195712610108442e-01 -6.509076960390021149e-01
1.209320635018868301e-01 7.856185583990621391e-01 -6.067774853405119018e-01
1.552225978436135578e-01 7.614264413171408785e-01 -6.293931359506509393e-01
1.552225978436135578e-01 7.614264413171408785e-01 -6.293931359506509393e-01
1.190363279332260910e-01 7.647529773011424448e-01 -6.332323715202908820e-01
8.099492286153900378e-02 8.003157367077413653e-01 -5.940829437448935657e-01
8.316050620171870633e-02 8.242615322137664124e-01 -5.600689749672697060e-01
1.318244003156997524e-01 8.287091965411345074e-01 -5.439332634152403978e-01
9.533076468306944662e-02 8.231273296509037385e-01 -5.597976817446760345e-01
3.554993676080717840e-02 8.422939357673911998e-01 -5.378448919212494017e-01
2.320918828111955684e-02 8.331307213948029311e-01 -5.525889382239812520e-01
3.672911340404996783e-01 6.481653200701658069e-01 -6.670674184170466425e-01
3.672911340404996783e-01 6.481653200701658069e-01 -6.670674184170466425e-01
3.032367722081026895e-01 6.230035896909204007e-01 -7.210506134891215835e-01
3.790839259834149488e-01 6.680428842121534094e-01 -6.403234197766846103e-01
3.339080010112875363e-01 6.815886632208003615e-01 -6.511085478086802159e-01
3.330608250128507253e-01 6.598470121562410862e-01 -6.735520821660644364e-01
3.330608250128507253e-01 6.598470121562410862e-01 -6.735520821660644364e-01
3.332687115895365260e-01 6.617066116598321335e-01 -6.716221601176620704e-01
3.301909866062498478e-01 6.612276852396611337e-01 -6.736110603579715805e-01
2.578537214600920557e-01 6.450352646925558986e-01 -7.193336956046099129e-01
2.276353550372461620e-01 5.737845680331320475e-01 -7.867359243253729817e-01
2.276353550372461620e-01 5.737845680331320475e-01 -7.867359243253729817e-01
2.860548785255701554e-01 5.980425901779704567e-01 -7.486772781412198707e-01
2.860059258966037854e-01 5.980510233255532659e-01 -7.486892438463937927e-01
1.786836578840453327e-01 7.858622000037758237e-01 -5.920242841390908062e-01
1.646135173124438911e-01 8.211207007645083822e-01 -5.465008551631264089e-01
1.646704290134130000e-01 8.210982689499183307e-01 -5.465174128387730867e-01
2.288281302952592244e-01 7.494359031732882315e-01 -6.212757148162268983e-01
8.483140421239621087e-02 6.862031084454031094e-01 -7.224464871665025045e-01
3.011801451747624925e-01 7.180071823945958220e-01 -6.274999650854830024e-01
3.010902748049044120e-01 7.180341953548207146e-01 -6.275121837216088849e-01
-1.520238674164247072e-01 5.846242384944972947e-01 -7.969336506262504338e-01
-1.532660860896298549e-01 5.820600745561014255e-01 -7.985709589401005504e-01
3.990285765027411918e-02 6.814929500941200313e-01 -7.307360131561568828e-01
-8.272489734237777059e-02 6.401720148394096643e-01 -7.637646121522936316e-01
-8.272489734237777059e-02 6.401720148394096643e-01 -7.637646121522936316e-01
-8.028726550895584624e-02 7.783216818813124549e-01 -6.227112609472703619e-01
-8.028726550895584624e-02 7.783216818813124549e-01 -6.227112609472703619e-01
-1.110724779121435857e-01 7.805698394233571147e-01 -6.151208258814285790e-01
-1.110724779121435857e-01 7.805698394233571147e-01 -6.151208258814285790e-01
1.087335129131652978e-01 7.845535091514123094e-01 -6.104529584233063799e-01
6.110650300738122015e-02 7.985830741768277230e-01 -5.987746395168189739e-01
1.242605176227520314e-01 7.982515608052077605e-01 -5.893672619277180447e-01
3.328016064533465684e-02 8.297428163329497730e-01 -5.571528422715670281e-01
4.397828681827614661e-02 8.436391730459484872e-01 -5.351063968883923438e-01
-1.026235076279157377e-03 8.728431541059985532e-01 -4.879997696432452070e-01
9.492122304315730790e-04 8.721196344195591976e-01 -4.892917761990653314e-01
-1.533437160305091591e-03 8.584234973425944881e-01 -5.129393217336571942e-01
-1.564180046934196848e-03 8.584564830174054029e-01 -5.128840220811796691e-01
3.168661127237654140e-03 8.603235787198947326e-01 -5.097384618461255901e-01
5.179303822318257616e-02 8.196085480190667960e-01 -5.705780483033753292e-01
5.714291213766860278e-02 7.933716890814389577e-01 -6.060495446384652762e-01
2.958647445258001663e-02 7.993263046979772746e-01 -6.001683923261396103e-01
5.009120876991569882e-02 7.928185784399722769e-01 -6.073957297218925966e-01
2.241469121010726540e-02 8.034234103947406336e-01 -5.949860546665273198e-01
2.241469121010726540e-02 8.034234103947406336e-01 -5.949860546665273198e-01
2.238712315215469692e-02 8.033649159378380977e-01 -5.950660707494256352e-01
2.062633987046025991e-02 8.024310484711590918e-01 -5.963882682892283071e-01
2.372879723918133038e-02 8.024208790937575886e-01 -5.962865728623973904e-01
7.583821025956656581e-02 8.357128310050244702e-01 -5.439049824723002358e-01
7.400358131041129273e-02 8.364086086409149301e-01 -5.430875706040436679e-01
7.585331640229980854e-02 8.357202422542596709e-01 -5.438914883294775349e-01
7.585331640229980854e-02 8.357202422542596709e-01 -5.438914883294775349e-01
4.296241401867938181e-02 8.214966656956919078e-01 -5.685925247772330993e-01
1.106605924007351138e-01 8.213322828382261243e-01 -5.596137189680632229e-01
1.106605924007351138e-01 8.213322828382261243e-01 -5.596137189680632229e-01
1.065234525057801446e-01 8.220568764501392511e-01 -5.593525238588713533e-01
1.109857740166785567e-01 8.242056557319574761e-01 -5.553081982335331679e-01
1.109857740166785567e-01 8.242056557319574761e-01 -5.553081982335331679e-01
1.110415064626883719e-01 8.241929305130419880e-01 -5.553159435265844213e-01
1.408133261457590601e-01 8.138829550550567005e-01 -5.637074974227475055e-01
9.888133541238888768e-02 8.226401384719714827e-01 -5.598979229126308521e-01
8.692513731592621529e-02 8.082413543717321680e-01 -5.824001490263850389e-01
1.441899549311591866e-01 8.195321081798783158e-01 -5.545956910752142255e-01
1.206172264783552522e-01 8.254157740433497592e-01 -5.514891518761604328e-01
2.475785897973607416e-02 8.590260955700668166e-01 -5.113327835650536279e-01
1.091800547702718310e-02 8.442445415753163651e-01 -5.358469475295046802e-01
3.555009404648205862e-02 8.615328607965603291e-01 -5.064556452257008567e-01
2.043955924595170642e-02 8.532854993088407891e-01 -5.210432622029513849e-01
2.043955924595170642e-02 8.532854993088407891e-01 -5.210432622029513849e-01
-3.350199678505302609e-03 8.474905192506055895e-01 -5.307999584989182562e-01
-3.350199678505302609e-03 8.474905192506055895e-01 -5.307999584989182562e-01
-3.445602805342566806e-03 8.474418441070638019e-01 -5.308770560852360543e-01
-1.765719551515590804e-02 8.513482014481152937e-01 -5.243037891695985220e-01
-8.480701445021049736e-03 8.474432737886693490e-01 -5.308182131514919133e-01
9.015221479407825589e-02 9.316073249094160014e-01 3.521084638898137054e-01
1.976246899689158287e-01 8.947761946658703280e-01 4.003998543630531981e-01
1.976706308909257914e-01 8.947865351394184152e-01 4.003540660669971940e-01
2.281926712181708838e-01 9.310050187767336949e-01 2.848820103391041525e-01
2.598338724819617696e-01 9.089054675933285754e-01 3.261551926460477535e-01
2.598662308068190319e-01 9.088916691820618787e-01 3.261678644160126983e-01
9.103437921748394612e-02 9.169396611415653320e-01 3.885027665616796466e-01
-1.106494513759417597e-01 9.532941961174727918e-01 2.810460363693897401e-01
-1.703386148762798744e-02 9.797267408298729885e-01 1.996130277955205923e-01
-1.342242464067383012e-01 9.671606670368297909e-01 2.158334909447966743e-01
-1.342407679022541711e-01 9.669885594050026123e-01 2.165930336203149564e-01
-9.982089514913117245e-02 9.536375423883375335e-01 2.839211627180296960e-01
-9.980231509817101554e-02 9.536360194496347198e-01 2.839328094977778827e-01
-9.980790359434826842e-02 9.536314091960312878e-01 2.839463290392972850e-01
4.065683191616773634e-02 9.701597888132356129e-01 2.390334834043099932e-01
1.732818314725216857e-01 9.669451181709548537e-01 1.870575989552056562e-01
1.551363688118140016e-01 9.650474234592274492e-01 2.112254187984755338e-01
1.550032468858790480e-01 9.646535052531314269e-01 2.131140733449627678e-01
1.550032468858790480e-01 9.646535052531314269e-01 2.131140733449627678e-01
-9.770134675638790511e-02 9.800642853006863442e-01 1.729983916689487033e-01
-7.529423408350371938e-02 9.948515090722688248e-01 6.783253799179359000e-02
-7.529423408350371938e-02 9.948515090722688248e-01 6.783253799179359000e-02
8.328820184201486329e-03 9.916348732672395361e-01 1.288057020267539543e-01
1.435902393398063859e-01 8.880353391568767130e-01 4.367780667282503693e-01
1.435968974926694897e-01 8.880351791192775401e-01 4.367762031945795487e-01
1.477142502031983939e-01 9.436464868268477080e-01 2.961617939340835393e-01
1.700355449907504923e-01 9.306268238894613853e-01 3.240704060803948350e-01
1.700355449907504923e-01 9.306268238894613853e-01 3.240704060803948350e-01
1.700887585756097609e-01 9.306038437258222773e-01 3.241084698815094312e-01
1.700887585756097609e-01 9.306038437258222773e-01 3.241084698815094312e-01
1.700291828377925585e-01 9.306095714400293151e-01 3.241232829151858286e-01
1.700291828377925585e-01 9.306095714400293151e-01 3.241232829151858286e-01
4.073124751091571766e-02 9.737190041654444350e-01 2.240809371706120878e-01
-5.139205300324091452e-02 9.553734616625377818e-01 2.908958673461202182e-01
-7.008705055534138195e-02 9.401885528176459061e-01 3.333666007492555594e-01
-5.115216184905749947e-02 9.149399208778743464e-01 4.003353563228668754e-01
-5.240208425603395254e-02 9.143745606697344375e-01 4.014638020614728076e-01
-5.114285203840503863e-02 9.149295538945003692e-01 4.003602379055499760e-01
-5.114285203840503863e-02 9.149295538945003692e-01 4.003602379055499760e-01
4.442525975138093136e-02 9.010605986339502715e-01 4.314118610857256564e-01
-1.421719969809370505e-03 9.501093196847681943e-01 3.119138652905230624e-01
7.538096997171943314e-02 8.867616177706455494e-01 4.560389705002306227e-01
7.538096997171943314e-02 8.867616177706455494e-01 4.560389705002306227e-01
1.122006949050278896e-01 9.237788374192626994e-01 3.661197394284336215e-01
1.636478976684133460e-02 8.708438769785787903e-01 4.912872231035580461e-01
1.824811996594031399e-02 8.708474719200147707e-01 4.912145017894196108e-01
1.327754703853226415e-01 8.991958759146959634e-01 4.169142012476415582e-01
1.327061436718756371e-01 8.991678408281322810e-01 4.169967307452351335e-01
1.318505505395358435e-01 8.934579180697943546e-01 4.293581034064806179e-01
2.690341765846916006e-02 9.169043911160189575e-01 3.981991256525513889e-01
2.690341765846916006e-02 9.169043911160189575e-01 3.981991256525513889e-01
-5.517393838530103983e-02 -5.023867477486040345e-01 -8.628808679126195313e-01
5.003829159828583964e-03 -5.834843458150220652e-01 -8.121089704482735705e-01
-1.409265808078243726e-02 -4.598006856516494989e-01 -8.879103144251062618e-01
-1.393213261398230651e-01 -4.153374074960189399e-01 -8.989351511745032886e-01
-7.774140643785723559e-02 -4.507776535243407934e-01 -8.892445000156893320e-01
-7.773979370433369007e-02 -4.508190015401982720e-01 -8.892236795796130133e-01
-1.195177275127130428e-01 -4.346283484908254335e-01 -8.926442244804669857e-01
-1.195177275127130428e-01 -4.346283484908254335e-01 -8.926442244804669857e-01
-1.205620187263416049e-01 -4.316485995708300716e-01 -8.939487044171888774e-01
-1.205620187263416049e-01 -4.316485995708300716e-01 -8.939487044171888774e-01
-2.709571924121212949e-01 -3.397604524177401109e-01 -9.006359058204560508e-01
-2.404699444125525110e-01 -3.815320937135402990e-01 -8.925286927044902008e-01
-1.751454081755552394e-01 -5.879261329103834255e-01 -7.897258690432145123e-01
-1.975725969676419280e-01 -4.832568997585053316e-01 -8.528938021601866204e-01
-1.211595075347475514e-01 -4.019412341828360602e-01 -9.076142451490698537e-01
-1.211595075347475514e-01 -4.019412341828360602e-01 -9.076142451490698537e-01
-1.218756031756423469e-01 -3.988089662742908548e-01 -9.088991945038816800e-01
-3.106898243195069242e-01 -4.768505391160230977e-01 -8.222441221492993169e-01
-3.683791435564050532e-01 -4.917124210321802136e-01 -7.889966423219564318e-01
-3.696701692526365157e-01 -4.924892307844851436e-01 -7.879075602670868594e-01
-2.243164833403905878e-01 -5.370726403306299579e-01 -8.131636331699088061e-01
-1.599157539091173585e-01 -4.507183200546964752e-01 -8.782254537524808446e-01
-1.626218491587868020e-01 -4.505413688063213962e-01 -8.778192349056286314e-01
-1.943652696103761734e-01 -5.306273302643564893e-01 -8.250192593787175621e-01
-1.943652696103761734e-01 -5.306273302643564893e-01 -8.250192593787175621e-01
-1.972172892592473914e-01 -5.311027193612851693e-01 -8.240359472160679877e-01
-1.972172892592473914e-01 -5.311027193612851693e-01 -8.240359472160679877e-01
-1.957557720779523336e-01 -5.338344225422867462e-01 -8.226180687336669406e-01
-1.957557720779523336e-01 -5.338344225422867462e-01 -8.226180687336669406e-01
-2.727557703679056589e-01 -5.755252539838087156e-01 -7.709571789391955754e-01
-2.727557703679056589e-01 -5.755252539838087156e-01 -7.709571789391955754e-01
-1.956073690112559993e-01 -5.767760764818916641e-01 -7.931375131631648312e-01
-3.081010777455919780e-01 -5.257816146528072609e-01 -7.928602774670273634e-01
-2.983671931948314593e-01 -5.197037843661150847e-01 -8.005529305052706546e-01
-3.711349665211065019e-01 -5.905810469921825012e-01 -7.165702083948192191e-01
-3.711349665211065019e-01 -5.905810469921825012e-01 -7.165702083948192191e-01
-3.696036724693788078e-01 -5.922610581039835509e-01 -7.159748349981989168e-01
-4.211486418818783939e-01 -4.587043575490743486e-01 -7.824475278295280889e-01
-4.211679273928744527e-01 -4.586303288815692936e-01 -7.824805418446990624e-01
4.558410057839691848e-04 -6.921629306604277776e-01 -7.217411375476288082e-01
-2.970526480322510099e-01 -5.637190700026064594e-01 -7.707013263336349729e-01
-1.151148039411182128e-01 -7.726487360243202707e-01 -6.243096288169982522e-01
-1.668662104996007089e-01 -7.995984529376632954e-01 -5.768864549052944435e-01
-1.667983867564512002e-01 -7.995388283318844991e-01 -5.769887002057516590e-01
-2.651296874742022913e-01 -7.748792123913866847e-01 -5.738191832132629733e-01
-2.650718919763452863e-01 -7.749297917128269431e-01 -5.737775788578666214e-01
-2.732398351707361339e-01 -6.842387993596866780e-01 -6.761340532222018807e-01
-1.199136980568229205e-01 -7.749526036380081084e-01 -6.205394162605706310e-01
-1.186730436410787654e-01 -7.733926846167996638e-01 -6.227202133335498768e-01
-1.198996945626338295e-01 -7.749203209334438736e-01 -6.205824356587895663e-01
-4.532928202658110389e-02 -6.676260063101433495e-01 -7.431155844747996397e-01
-4.415548670087843242e-02 -6.671381566491895176e-01 -7.436242148672471686e-01
-4.681986474741257898e-02 -6.681913684843934220e-01 -7.425147778650519337e-01
-4.676666447903867624e-02 -6.682217556593867958e-01 -7.424907840215875243e-01
-1.814278350320197020e-01 -5.933264809661989991e-01 -7.842497227668370208e-01
-1.814278350320197020e-01 -5.933264809661989991e-01 -7.842497227668370208e-01
-1.808193609812630553e-01 -5.958178734053946046e-01 -7.824994699199487869e-01
-4.590061760519920098e-01 -3.633779449929462335e-01 -8.107217768376713263e-01
-4.525695376148907711e-01 -3.665016630750255189e-01 -8.129313283336325746e-01
-4.543022233994730708e-01 -3.664061622116524530e-01 -8.120073978158224293e-01
-4.543022233994730708e-01 -3.664061622116524530e-01 -8.120073978158224293e-01
-3.345823709848660399e-01 -3.357567211109431238e-01 -8.805237425844767429e-01
-3.668773317349978136e-01 -3.810292147964832177e-01 -8.486564445820132807e-01
-4.144485159200230751e-01 -3.547129078029744309e-01 -8.380997438787635145e-01
-2.376698048032015870e-02 -3.781183014602781944e-01 -9.254521493516789654e-01
-2.371663216891288506e-02 -3.781992689953570519e-01 -9.254203554547210109e-01
2.726523261541299870e-02 -3.862034331312345636e-01 -9.220105830889770981e-01
2.726523261541299870e-02 -3.862034331312345636e-01 -9.220105830889770981e-01
2.726523261541299870e-02 -3.862034331312345636e-01 -9.220105830889770981e-01
1.282287919031818019e-02 -3.828623431187261894e-01 -9.237164066914201888e-01
1.279250937696636489e-02 -3.828829248661829721e-01 -9.237082967851685256e-01
-1.724368920798750593e-01 -3.282349899166387974e-01 -9.287234839521705254e-01
-1.691020322390111852e-01 -3.298782870079989826e-01 -9.287544446479406579e-01
-8.534785661227825559e-02 -3.690263613336740578e-01 -9.254919167731929797e-01
-1.138299021513363846e-01 -3.298017542827276771e-01 -9.371625025833313360e-01
-5.596032744086681943e-02 -3.096572252384467983e-01 -9.492001077804071985e-01
-6.019273314746927117e-02 -3.098337451533320075e-01 -9.488834940289021525e-01
-1.732624128966201993e-01 -3.153691977927817192e-01 -9.330179019508566540e-01
-1.732624128966201993e-01 -3.153691977927817192e-01 -9.330179019508566540e-01
-1.981392637321792161e-01 -1.782114849719629579e-01 -9.638368631629304906e-01
-1.602512047522363092e-01 -2.434761847406291257e-01 -9.565766560185354761e-01
-1.602512047522363092e-01 -2.434761847406291257e-01 -9.565766560185354761e-01
-1.602916439530958082e-01 -2.434487668001621141e-01 -9.565768588160044050e-01
-1.597643667885564611e-01 -2.522112361633329636e-01 -9.543923928121048617e-01
-1.573416992167937234e-01 -2.487317958709185373e-01 -9.557071117295296014e-01
-8.558250268875862432e-02 1.476385936233055307e-01 -9.853316603593232914e-01
-1.247589847525218676e-01 3.613079735658918934e-01 -9.240626298910853409e-01
-1.079424964987121954e-01 4.723135506616090162e-01 -8.747961632923690889e-01
-1.532764200796693232e-01 4.435129229024681319e-01 -8.830643386900357550e-01
-1.507013838278011830e-01 4.419822521561912465e-01 -8.842741552772684921e-01
-1.532190613154386927e-01 4.435527625701946586e-01 -8.830542826270445511e-01
-1.884496926739959999e-01 4.640967486961470323e-01 -8.655061647271738989e-01
-1.847044150273759455e-01 4.636154184773554343e-01 -8.665708412007996353e-01
-1.960994048640715415e-01 4.092243250396944143e-01 -8.911119319186358023e-01
-1.130768547088342318e-01 2.776054588018710412e-01 -9.540172085306216632e-01
-3.559897887241376263e-02 1.752905806049524506e-01 -9.838729211917665030e-01
-3.568351699645549990e-02 1.753480742742347664e-01 -9.838596136965279682e-01
-3.571978518461625673e-02 1.752667135921099906e-01 -9.838727946502973110e-01
-1.552600309532568487e-02 2.318400194336217024e-01 -9.726300163047107983e-01
-1.547340519303970485e-02 2.318595297900550023e-01 -9.726262037274477912e-01
-6.680998037237011467e-01 5.816556805390222795e-01 -4.640251303119680149e-01
-5.895296070648462505e-01 5.625182356267637296e-01 -5.796792880389300961e-01
-7.626086824427937838e-01 5.293076329121383372e-01 -3.718352151206434919e-01
-7.626086824427937838e-01 5.293076329121383372e-01 -3.718352151206434919e-01
-7.572031615197637455e-01 5.217656327531480231e-01 -3.929427396735835631e-01
-7.572167808372292086e-01 5.217612502428971011e-01 -3.929223136492407398e-01
-7.740421676844045917e-01 3.563943138494350960e-01 -5.232989735344590887e-01
-7.740595298751384856e-01 3.564053516132688615e-01 -5.232657733417138690e-01
-6.551283411360195874e-01 1.352808804280413724e-01 -7.433074330524220841e-01
-2.587850272045366107e-01 5.114824780380364810e-01 -8.193997707803052366e-01
-2.408620794333641568e-01 5.960405722042004806e-01 -7.659772157039169693e-01
-2.428975165886113063e-01 5.948254535076304972e-01 -7.662789807208122417e-01
-4.437908993897976551e-01 6.270223393353387964e-01 -6.402285713659097155e-01
-4.437908993897976551e-01 6.270223393353387964e-01 -6.402285713659097155e-01
-4.437908993897976551e-01 6.270223393353387964e-01 -6.402285713659097155e-01
-4.545541042154840339e-01 5.062260045006974352e-01 -7.328818449846598027e-01
-6.005294364782023386e-01 5.456910547692054303e-01 -5.844533075174138670e-01
-5.865453853141806562e-01 5.239517822502827160e-01 -6.176075135904611768e-01
-5.846500774480190010e-01 5.232512799566925166e-01 -6.199938588112854365e-01
-5.636840668259238685e-01 2.894717493763410143e-01 -7.736060878247975614e-01
-5.163630411394298791e-01 3.741618484500627839e-01 -7.703065110134222904e-01
-5.162940472784943724e-01 3.741553763722844095e-01 -7.703558989691102754e-01
-2.584522407178510561e-01 1.893050640175529542e-01 -9.472940578327473382e-01
-3.545518598820777689e-01 2.798967093610505441e-01 -8.921607538683905547e-01
-1.578820939509960053e-01 2.334701970445939301e-01 -9.594607399480226118e-01
-1.212402209428068700e-01 1.649695774106949564e-01 -9.788185977772776436e-01
-7.754789999539445089e-02 1.676294036247961139e-01 -9.827953531873760973e-01
-7.646633801452150381e-02 3.285517899243749484e-01 -9.413854792209928046e-01
-7.184165786430037060e-02 2.917878108659311964e-01 -9.537812378241544709e-01
-1.939252606210990423e-02 3.761083726731489496e-01 -9.263727230106066912e-01
