1.854075731237352365e-01 -4.649347889971769399e-01 8.657133901058232661e-01
-1.593732675965433554e-01 4.431484122832225481e-01 -8.821675840034362004e-01
-2.713743378583657329e-01 4.321435633302556090e-01 -8.600045984901261154e-01
-1.539002767880306155e-01 4.148108990625636316e-01 -8.967979832846832977e-01
-7.591596334678685221e-01 -4.072605372953013933e-03 6.508917458367463604e-01
-1.605037134107218100e-01 4.000989396121797936e-01 -9.023078169353173639e-01
9.656817545022960969e-02 2.031357550049149030e-01 9.743769560743915648e-01
-7.783779202622942428e-01 3.010728139510647147e-02 6.270736518584888453e-01
-7.783779202622942428e-01 3.010728139510647147e-02 6.270736518584888453e-01
-7.742598145219444783e-01 -1.534244717918078430e-03 6.328660092860018960e-01
-2.018852752016900010e-01 3.931916530391585396e-01 -8.970187621432851310e-01
-8.004855868183776701e-01 7.277336994445589291e-02 5.949175253116727458e-01
-7.990557557949916623e-01 1.395382797414070064e-01 5.848409763497283143e-01
-7.849501727820852315e-01 1.613196326393730173e-01 5.981882666639928292e-01
-7.849501727820852315e-01 1.613196326393730173e-01 5.981882666639928292e-01
-4.134420917993945621e-01 4.481227908948358096e-01 -7.926232402656159248e-01
3.125282860746275704e-01 2.781247550081594189e-01 -9.082800730253345334e-01
3.077778516296242883e-01 2.773049182656062150e-01 -9.101509634955941008e-01
-7.817736649729110088e-01 3.128878313327484451e-01 5.393803312679393835e-01
-7.615093287696614865e-01 3.316385133328359491e-01 5.568836850466766242e-01
3.582329964233184061e-01 -9.049228900528824004e-01 -2.297469985264434800e-01
-7.891657646723636566e-01 4.138438174776785106e-01 4.538179046760776880e-01
-2.046150153408626549e-01 3.867218490547971732e-01 -8.992101572828774536e-01
-7.872608769795012007e-01 4.561994791750575429e-01 4.148521987140394995e-01
-7.896327921041658149e-01 4.422920725723231139e-01 -4.252737661477112852e-01
-8.722936737456588041e-01 3.924292089132604411e-01 -2.917242923292726053e-01
-3.947221443107162830e-01 3.524377375432500292e-01 8.485175719725225330e-01
-3.426459150666551490e-01 5.361571008384530268e-01 7.714462652114141283e-01
1.583008166944722128e-01 -9.161831291552201550e-01 3.681702395430844765e-01
-7.743659947605416871e-01 -4.030372031836773616e-01 4.877687146675110386e-01
4.448413310816148186e-02 2.146763478038448691e-01 -9.756716802260984034e-01
-7.054084764473605995e-01 3.348230167837613624e-01 -6.247338863772595730e-01
-6.964617953355062285e-01 3.381181772311484535e-01 -6.329431774369080888e-01
-5.677792212126909766e-01 3.054698458557200680e-01 -7.644049510776292911e-01
-1.993152642196376612e-01 3.637677370685887812e-01 -9.099156328567248320e-01
-1.550591052578059736e-01 8.901068311427983160e-01 -4.285633010764856032e-01
2.063948935259923845e-01 -6.668021580440710583e-01 7.160838148947118453e-01
1.912138811560760709e-01 -6.015208106769491803e-01 7.756352016094781865e-01
-7.117129678042500851e-01 -1.074674458558402407e-01 6.942012673140897094e-01
-1.845077837631823869e-01 9.147443173970158936e-01 -3.594436138265166836e-01
-7.413808054388737467e-01 -5.412090855983403559e-02 6.688986683971384073e-01
-2.168460731760240012e-01 3.769000066079136180e-01 -9.005132789510065239e-01
-2.263914111412026198e-01 9.362503358724331148e-01 -2.686675223026613879e-01
-2.389773301893593216e-01 3.973931529379767791e-01 -8.859844906394128694e-01
-7.741200035810168467e-01 6.308932379792103751e-02 6.298872575933311957e-01
-2.999184135041861321e-01 4.195050517418066893e-01 -8.567756163688577953e-01
-2.134851114629304492e-01 3.665038803844595794e-01 -9.055931828623677848e-01
-3.228015307923026156e-01 8.419224941820699915e-01 -4.323952884900441052e-01
-7.782242468195337270e-01 2.114456259049783127e-01 5.913186695410701521e-01
2.006418125290189980e-01 -5.598595116623615864e-01 8.039279757952524363e-01
-7.616463380994173971e-01 4.409283252166411038e-01 4.748442562371331666e-01
-1.970032259553804455e-01 6.126109575712584965e-01 -7.654394447811003754e-01
-2.199202839093712392e-01 3.485204324325588687e-01 -9.111358718117972266e-01
-1.919090795046028419e-01 5.513730875178730617e-01 -8.118858439243191727e-01
-1.527560238407667803e-01 4.915119691299963955e-01 -8.573689878822959853e-01
-6.603707782689907102e-01 5.921001450512026754e-01 4.618742831537089311e-01
-5.141224090478724307e-01 5.151552825383555190e-01 6.857792526663657462e-01
-2.350026993888205129e-01 3.633469545382412846e-01 -9.015279928586538150e-01
-2.422953327001295953e-01 3.632574401810015341e-01 -8.996315934341565512e-01
-3.026520810126910876e-01 1.629805013403773650e-01 9.390628701218713958e-01
1.631702969402812342e-01 -4.724667073338454926e-01 8.661123856968764301e-01
-7.432158061926007475e-01 -4.316243706046648532e-01 5.112051135558109971e-01
-7.201605693077238746e-01 -3.925112966700251005e-01 5.721045677153701048e-01
-1.943775389317610458e-01 3.701535954559976305e-01 -9.084072259343984879e-01
-7.099012474659389671e-01 -3.508841441316745691e-01 6.106722003196853876e-01
-2.029976270107694547e-01 3.606017189870027728e-01 -9.103616664225352428e-01
-6.776704316960282526e-01 -3.062894756067644497e-01 6.685428506367051549e-01
-2.951259729351967120e-01 3.956205929365783081e-01 -8.697039763871173834e-01
-3.139549705532191926e-01 4.077623003683289449e-01 -8.574159917235367745e-01
-6.490447933851796192e-01 -1.805728609492651404e-01 7.390089972850039102e-01
-6.253162889686748604e-01 -1.636727305627998508e-01 7.630142698669282186e-01
-8.665350008591261588e-01 4.029081410886584114e-01 -2.945880549692331263e-01
-7.510924278994232650e-02 -6.232539584056610849e-02 -9.952256762568167936e-01
-6.301558232326028852e-01 -1.649394491844044797e-01 7.587480586787590520e-01
-6.335431981960826242e-01 -8.902969810448388421e-02 7.685679728396854760e-01
-6.148761781244062030e-01 2.816350247341889990e-01 -7.366199823641063071e-01
-6.805666444423753569e-01 6.854069688625549772e-02 7.294732451178670418e-01
-2.394381005922296413e-01 3.290692080382045526e-01 -9.134455935116739811e-01
-7.134838749737431041e-01 1.901699477642981306e-01 6.743709299189700745e-01
-6.841575589371162724e-01 1.843004499165664112e-01 7.056640693061803082e-01
-7.301284314919814777e-01 3.336074116168539772e-01 5.963376295701638963e-01
-2.311744286453723818e-01 3.090051317587668156e-01 -9.225368350842328979e-01
-2.311744286453723818e-01 3.090051317587668156e-01 -9.225368350842328979e-01
-7.047329261957564484e-01 5.174481765343156292e-01 4.853852978169795884e-01
-5.045698163435792249e-01 5.648465269856032256e-01 6.529607196358052645e-01
-3.818938132249387607e-01 8.285197421513538218e-01 -4.095267418447418040e-01
-2.487773307879866391e-01 3.073559042369118921e-01 -9.184999661495447665e-01
-2.368891343192888743e-01 3.020474359031585787e-01 -9.233909705567762138e-01
-6.265282980043137551e-01 -3.133472181709267557e-01 7.136356301813688852e-01
-5.879171154699276425e-01 -2.801873023499970583e-01 7.588468494626244842e-01
-5.132522537856368805e-01 -2.464319056684086406e-01 8.220969771581699836e-01
-2.393554457646634437e-01 3.148531227994763593e-01 -9.184641972587811454e-01
-5.594292983855037038e-01 -2.137940168743434066e-01 8.008314294885260365e-01
-8.884099295174933963e-02 2.580346670849986146e-01 -9.620423008130574161e-01
-2.406040127370301374e-01 7.272551249139798113e-01 -6.428138862386145735e-01
-2.759197258708023792e-01 3.253634720096976740e-01 -9.044373477235313485e-01
-2.736532551080334552e-01 3.233783635807601087e-01 -9.058368119791816442e-01
-4.972698863257621893e-01 -1.714774992904339324e-01 8.504811152463427337e-01
-5.883909250745905650e-01 8.005348147580334528e-01 1.137546906733467172e-01
-1.500727794685124128e-01 4.146947436094084449e-01 -8.975001005489203765e-01
-6.392647763948828832e-01 2.656047465918998183e-03 7.689821136233657706e-01
-1.826176446258380437e-01 6.218196445987203003e-01 -7.615714841447468464e-01
2.201471677104361035e-01 -7.246377839587438974e-01 6.530201425748166644e-01
-5.153057782914104434e-01 4.431809049332471329e-01 -7.335193524113945429e-01
-5.937701149149678947e-01 4.543165335796949811e-01 -6.641035596576754241e-01
-6.699080236504553199e-01 4.177508991915394043e-01 -6.137649599589416471e-01
-8.423805302733893274e-01 4.069173086974017806e-01 -3.532893234995743148e-01
1.152002922759113035e-01 2.485242119582615761e-01 9.617508038624504874e-01
-8.819325303596599053e-01 3.453973162213603287e-01 -3.207736052740148280e-01
-8.819325303596599053e-01 3.453973162213603287e-01 -3.207736052740148280e-01
-7.056497320812604723e-01 5.056443437812524477e-01 4.963690695598104718e-01
-2.396884164591144006e-01 2.856350614931207899e-01 -9.278804204535967548e-01
-2.396884164591144006e-01 2.856350614931207899e-01 -9.278804204535967548e-01
-8.428487608255325059e-02 -5.361216979770000446e-02 -9.949983894023805009e-01
-8.428487608255325059e-02 -5.361216979770000446e-02 -9.949983894023805009e-01
1.114144909877968354e-01 2.453323377519375792e-01 9.630155010440378804e-01
-7.997560938885204251e-01 3.441882193399041223e-01 -4.918583738799232052e-01
-6.587254722428703690e-01 -4.014088155938838609e-01 6.363581656440990830e-01
-6.115597255109640473e-01 -3.679666353882902752e-01 7.004250547874306676e-01
-2.420727366318715101e-01 9.585123324516123255e-02 9.655119529373721310e-01
-7.769494210465298645e-01 6.224243717027655443e-01 9.453834484419212925e-02
-1.126379032430726290e-01 -1.019272453864820821e-01 -9.883944250150989985e-01
-5.272724409935206635e-01 2.680996689355512053e-01 -8.062917217021282612e-01
-5.266490392589074920e-01 -2.705461056246041274e-01 8.058818735888221285e-01
-3.293529988425112909e-01 2.606898337483610217e-01 -9.075061502456589491e-01
-4.569723254740651330e-01 -2.521768335764942304e-01 8.529848406379555437e-01
-4.643155546677437684e-01 -2.025680626309529775e-01 8.621932762991879606e-01
-3.482870942687494864e-01 3.135553815496792129e-01 -8.833906965024400648e-01
-6.218844508691306200e-02 6.861422924298588022e-01 -7.248043541789536137e-01
-1.214750185963324597e-01 8.475972366549974213e-01 -5.165488788796595010e-01
-4.710090957558453750e-01 -1.832897895438480307e-01 8.628761700060053608e-01
-2.492447810579514200e-01 2.818778944548127607e-01 -9.265105999032582362e-01
-4.125800922626221556e-01 -1.335176069730473758e-01 9.010830794642396002e-01
4.733187771820309697e-01 -8.296725584189076352e-01 -2.959945624053441637e-01
-5.173787070340387650e-01 -8.085721115891401911e-02 8.519280397494786161e-01
2.788319655109343653e-01 -6.353202048915504996e-01 7.201534366132451570e-01
-2.479407634764776713e-01 9.440148967868887686e-01 -2.176264056844686434e-01
-2.479407634764776713e-01 9.440148967868887686e-01 -2.176264056844686434e-01
-2.617752410445944311e-01 9.415985551800847286e-01 -2.118156841662614531e-01
-2.824432184132052992e-01 9.370606315466015745e-01 -2.052880931225054550e-01
-3.149310757019337936e-01 9.047550532934833800e-01 -2.867694389176241310e-01
-2.359586743095541395e-01 2.767652561914679121e-01 -9.315173090089892138e-01
-2.957477829824147753e-01 9.146282534478529236e-01 -2.756599478631535649e-01
-3.063955357093761100e-01 8.805295717375993814e-01 -3.616482393057711131e-01
-2.801722242243654959e-01 7.763558874910596597e-01 -5.646016832521321138e-01
-6.611174264226167274e-01 2.141303772226067770e-01 7.190771377472934267e-01
-6.592056184853564149e-01 2.607600339061408312e-01 7.053028833590623270e-01
-2.478981582376814652e-01 6.681621959943678801e-01 -7.015025181610893279e-01
2.094556830697642813e-01 -5.116670334801594056e-01 8.332617618008111293e-01
-7.022143139666703338e-01 4.169645432271698038e-01 5.770923903082383344e-01
-6.386068557318878014e-01 5.934684570539199289e-01 4.898739371453350033e-01
-6.007407949584926410e-01 6.244622066633909174e-01 4.991567386319920030e-01
-1.250384808082707633e-01 4.315933042701565747e-01 -8.933602845584348584e-01
-4.412298255498759980e-01 5.535695836713167006e-01 7.063122235096821466e-01
-2.473213439319461859e-01 2.741350767866652660e-01 -9.293449911151752119e-01
-2.923282903188219040e-01 3.603022760617713982e-01 -8.858478653493395694e-01
-2.053607024194265551e-01 2.594381395613674091e-01 -9.436730544223120853e-01
-8.423864814214876429e-01 4.053652507483526679e-01 -3.550549667362094541e-01
-8.636810051692760393e-01 3.218531143465184208e-01 -3.878990772033829582e-01
-4.825548693392887056e-01 5.551240370403187629e-01 6.774792259375935766e-01
-4.516636303233317329e-01 -1.006706219291679111e-01 8.864904911636353191e-01
-4.396089156431930434e-01 -4.508176282203012197e-02 8.970572088489531248e-01
-5.678414928338358925e-01 4.763210099919392149e-01 6.713228243226201375e-01
-4.919685958901699463e-01 4.797630957781823247e-02 8.692900404221528543e-01
-5.003717581590481078e-01 6.650944413599665928e-02 8.632523370820051056e-01
-8.203341893686975916e-02 7.870136063586522512e-01 -6.114573587617343486e-01
-9.604569787751147947e-02 3.255278460398050577e-01 -9.406417199826438980e-01
-6.393367910040208546e-01 2.521929319010660087e-01 7.263932769291201463e-01
-7.281505050111661825e-01 3.461572151605576408e-01 5.915843341775295361e-01
-2.461209388855086222e-01 2.564648884395548389e-01 -9.346925935513784589e-01
2.478357293177020915e-01 -4.615511628288496704e-01 8.517910397303433134e-01
-2.171956825806363178e-01 9.495068104047610369e-01 -2.264130130167180122e-01
2.454391819099602523e-01 -4.317431803332378859e-01 8.679616548091919626e-01
-6.374698839232618708e-01 3.861744708271457882e-01 6.667094008428537943e-01
3.141448885554700143e-01 2.771776724310903162e-01 -9.080118539425322544e-01
2.343684208093637644e-01 -9.710040888553399530e-01 -4.714342746911760057e-02
-2.180125728106163951e-01 2.459484455308372508e-01 -9.444468646977767223e-01
-2.180125728106163951e-01 2.459484455308372508e-01 -9.444468646977767223e-01
-5.318883671003949987e-01 -3.878870849802492082e-01 7.527538603347050383e-01
-4.074134638779488005e-01 -2.235985538348423673e-01 8.854478845047508706e-01
-4.145680630074073392e-01 -2.651004167795029121e-01 8.705487293412242922e-01
-2.707704850170062905e-01 8.179617588620314850e-01 -5.075646810830980460e-01
-3.482559992159324214e-01 -2.252489936715246499e-01 9.099344206370466592e-01
-3.447606368444449121e-01 -1.962985841688537347e-01 9.179362554861401069e-01
9.315111011049207468e-01 -1.366058702211249143e-01 3.370844178235287147e-01
-1.447544266900790688e-01 4.804143418561159784e-01 -8.650134196025988098e-01
-3.007261886709506893e-01 2.564712107091593474e-01 -9.185784003147590138e-01
-1.453892403847450165e-01 4.753763401795948473e-01 -8.676861782797977707e-01
4.024155778228089009e-01 -3.537218544052095348e-01 8.443592555551663326e-01
4.230992486517238249e-01 -3.502236042169202812e-01 8.356616856357940160e-01
-3.578262061441818687e-01 -1.157468474495086108e-01 9.265867868159796128e-01
-3.678018299193208662e-01 -1.256871287042777563e-01 9.213710216769751549e-01
5.573360713802772981e-01 -2.740527693737056514e-01 7.837547978398607951e-01
-2.209641115340567896e-01 2.511956458684191373e-01 -9.423776360412594588e-01
-2.342494811560838774e-01 2.317170213682404611e-01 -9.441580389883548197e-01
-2.333732958403647306e-01 3.372994284419785771e-01 -9.120120615218419990e-01
-3.928130093416260515e-01 -5.658329469012414112e-03 9.196009585682236587e-01
-3.038287997949294383e-01 2.591254572360401354e-01 -9.168108080882260147e-01
-5.650914361002831177e-01 1.567284965219136739e-01 8.100048439510099119e-01
-6.318665327928514597e-02 -1.130929353869415538e-01 -9.915732120287077400e-01
-6.558472536138751918e-01 2.829917587079746055e-01 6.998428712436132182e-01
-8.776225063011758865e-01 3.671006486509696409e-01 -3.082464114854863713e-01
-6.504132564157971697e-01 3.302888227079932570e-01 6.840116150130538530e-01
-8.915418680148652353e-01 3.148410179372795881e-01 -3.256197644504745248e-01
5.467040281915088729e-01 -6.726745818078971872e-01 -4.986217128733448911e-01
-6.358300155402955012e-01 5.682764966225776204e-01 5.222853767093209587e-01
1.611765456721074574e-01 -1.049515914624823687e-01 -9.813293456198581843e-01
-8.097938478476325586e-02 -6.384089197516297498e-02 -9.946691307925951131e-01
-4.317686409457512364e-01 5.700624438458788967e-01 6.990026114488580022e-01
-5.866438445254332779e-01 -4.419434054561716674e-01 6.786273101299571398e-01
-5.264147939392544995e-01 -3.892189744861204725e-01 7.559074378664791816e-01
6.929068998016594261e-01 2.497328869124199324e-01 6.763974522436061454e-01
-7.188720392102222467e-01 3.101021784433603545e-01 -6.221411657866879885e-01
1.680368052386476685e-01 -9.473126790660437724e-01 2.726945547052662122e-01
-4.054388065296760102e-01 -2.850740863111645429e-01 8.685344779993748876e-01
-7.361654114767340884e-01 2.863571472774064652e-01 -6.132373693346130361e-01
-1.820676747321066380e-01 2.325215232127894049e-01 -9.553978768348022621e-01
-1.820676747321066380e-01 2.325215232127894049e-01 -9.553978768348022621e-01
-2.997169392770704932e-01 -2.196171086515536774e-01 9.284062052237245233e-01
-3.219100623840198128e-01 -1.885069876931276256e-01 9.278141124852432586e-01
-3.199534076027690799e-01 -1.798680783419834284e-01 9.302028226988662274e-01
-3.131820743532445217e-01 -2.011687675769003314e-01 9.281422925690810954e-01
-2.820828068458523519e-01 2.377639887813031982e-01 -9.294609059668781370e-01
-2.998566448833696052e-01 -1.633036664486488543e-01 9.399031359899365778e-01
-3.050675570867584230e-01 -1.460985635402365923e-01 9.410573815366397588e-01
-2.945935799150475876e-01 -1.381393899684479343e-01 9.455856024771007728e-01
-1.542359192791718236e-01 9.224032563078842228e-01 -3.540953458557742350e-01
-1.852280822024820750e-01 2.262716617503395533e-01 -9.562905900678572158e-01
-3.075889153084808147e-01 -1.382341614628543047e-01 9.414246522075008228e-01
-3.198305622140224513e-01 -1.267213494383661598e-01 9.389622522073939326e-01
-2.233074510449899186e-01 6.460277163881399110e-02 9.726048859657103751e-01
-3.204642650457454889e-01 -6.086157947451586309e-02 9.453034026028667158e-01
6.111927809534448142e-02 6.503550908552808707e-01 7.571675439714273814e-01
-3.461021817186698546e-01 -1.934780850521347281e-02 9.379973038957107878e-01
-3.642855991900386115e-01 -3.300700243194817224e-02 9.307021757862242728e-01
-4.487672595813966825e-01 5.940767655638375805e-02 8.916718424925031972e-01
-4.891645007138826218e-01 9.855100284396743626e-02 8.666059029800029512e-01
-2.634369063668892674e-01 9.239030278844388988e-01 -2.774962908397308192e-01
-4.540247826456739189e-01 7.570593042428273856e-02 8.877669225884360360e-01
-1.872280118596634513e-01 2.285808385904125606e-01 -9.553514912347086385e-01
-2.900369223742557678e-01 2.429618346199538814e-01 -9.256609155504924580e-01
-2.497315246956493817e-01 2.385515736004087117e-01 -9.384707306602347865e-01
-6.022723573767899685e-01 3.971127860219507699e-01 6.925095253624229397e-01
-6.194157166494677069e-01 5.999260822331402565e-01 5.063722601249219801e-01
-3.849902163684985612e-01 5.695040082758117128e-01 7.262559589141565075e-01
-2.538726182445673607e-01 2.294161597856014256e-01 -9.396365889719682229e-01
-4.945541007143214318e-01 -3.674970113964243223e-01 7.876307434841184341e-01
-4.358706013853618777e-01 -3.924392829297050911e-01 8.099433486742030341e-01
-4.250897192069109654e-01 -3.769560487436775520e-01 8.229233669912063842e-01
-1.585577509279533504e-01 5.424949055106945695e-01 -8.249598275768412758e-01
-3.677857330942669867e-01 -2.324333347637053404e-01 9.003934692249472294e-01
-3.076889088920491400e-01 -2.713862612740304825e-01 9.119632846428215034e-01
-2.884549184522014476e-01 2.224415979983938030e-01 -9.312966742669355202e-01
-2.884549184522014476e-01 2.224415979983938030e-01 -9.312966742669355202e-01
1.409798545523683055e-01 -9.084618366654949595e-01 3.934739787238143438e-01
-2.916497925895896737e-01 -1.957795489395851296e-01 9.362749418303695226e-01
-2.910508375182317420e-01 -1.939646145141012690e-01 9.368389073348373230e-01
-2.933317411557319621e-01 -1.981098333717338789e-01 9.352587789226949333e-01
-3.148108809205683589e-01 -1.457169028538313482e-01 9.379022835438149963e-01
-4.312606809849117151e-01 3.601011015572617713e-01 -8.272493104824427679e-01
-2.760701707149840756e-01 -1.474237939106004258e-01 9.497639105748356680e-01
-2.760701707149840756e-01 -1.474237939106004258e-01 9.497639105748356680e-01
-3.133071711424971761e-01 -5.974243625784930040e-02 9.477707833757393896e-01
-5.516787488082262880e-02 -6.199844780076669420e-02 -9.965503991527119299e-01
-2.490466056125376082e-01 2.192083040860360876e-01 -9.433575714714952376e-01
-7.201124302036072677e-01 4.122224894794351280e-01 -5.581314424341562441e-01
-8.625397910648869848e-01 3.643211616308161815e-01 -3.511341624190301158e-01
-8.889457362716003397e-01 3.469217016000721854e-01 -2.990331267994448261e-01
-8.603928510845089139e-01 3.049190941577392677e-01 -4.083484882066956700e-01
-5.601109801163740576e-01 2.104915004886240837e-01 8.012296912715619612e-01
1.342998535480705025e-01 -9.701499135374594962e-01 -2.019224965184083787e-01
-5.751977517260090655e-01 2.544537190288886364e-01 7.774322165190429290e-01
-5.778462048361290293e-01 2.896978761690114923e-01 7.629999371557291132e-01
-5.838887707938169580e-01 4.586181341954071455e-01 6.698830572032771213e-01
-5.689897209660371713e-01 6.489254038469958186e-01 5.051203002028371580e-01
-2.409584214282866899e-01 2.171477172770216180e-01 -9.459312385285555402e-01
-3.048296904584746891e-01 2.214871863853365985e-01 -9.262949239211547559e-01
-3.480904788443592301e-01 -3.258376787649832074e-01 8.790124149492727357e-01
2.499146050650715434e-01 3.652509273079402319e-01 -8.967354405151271024e-01
-3.150750464725399769e-01 2.248922684883780665e-01 -9.220364323954222119e-01
-2.079435108923033404e-01 2.082060839644044592e-01 -9.557247108231480270e-01
1.514885979744326761e-01 6.582809114593594080e-01 7.373719863759239379e-01
-2.809083553148142842e-01 -1.462150183300986450e-01 9.485313196352848086e-01
-2.529267242605934829e-01 -1.395139609221371091e-01 9.573734521400842912e-01
-6.878823311181002376e-02 8.307807304628447298e-01 -5.523328316124049842e-01
-2.875401388965868610e-01 -8.472444991276560644e-02 9.540138553031138891e-01
3.152494174068242727e-01 2.723699779035640423e-01 -9.090832744922050512e-01
-3.660584154833299575e-01 3.998987315840431267e-02 9.297322445191457119e-01
-5.093776193802855845e-01 1.756763995800410261e-01 8.424204671688994006e-01
-2.553964292332731034e-01 9.454471048761566854e-01 -2.022435062398473260e-01
-5.888301722774328395e-01 4.966259704119622698e-01 6.376846193284776421e-01
-5.762084084193130895e-01 5.217065200801169755e-01 6.291312875487726775e-01
-4.033896143550051439e-01 6.705168323277733711e-01 6.226427519819441869e-01
-3.465662491679994406e-01 -3.546323001736070291e-01 8.684053008884737856e-01
-2.522226870089012141e-01 2.042527457179009465e-01 -9.458670794697890960e-01
-1.062535255494003184e-01 -9.460732769220024929e-01 -3.060319313444058165e-01
-3.099291094039188788e-01 2.121259206958379662e-01 -9.267936884296509303e-01
-3.034000918744200748e-01 -1.549893085656393714e-02 9.527371974437112145e-01
2.959614786319731961e-01 -5.184311212362427979e-01 8.022692663312660510e-01
-3.310335693563300485e-01 6.679288288692301206e-03 9.435953386209388061e-01
-4.450158073938914605e-01 1.139922380386217127e-01 8.882379753402288580e-01
-5.126568661819905781e-01 2.658734216469206824e-01 8.163909977567239684e-01
-5.280278910296620776e-01 2.815476277967594032e-01 8.011975284390141505e-01
-5.513685969396155961e-01 3.804031879317941733e-01 7.424864206974884917e-01
-2.515002244132834575e-01 2.018366167070183570e-01 -9.465778453335637055e-01
-3.973558676788781496e-01 6.519026986650156008e-01 6.458569391857890141e-01
-2.802806068136893813e-01 -2.737826938638965313e-01 9.200466390269451677e-01
-2.620887009635295972e-01 -8.552722116580059597e-02 9.612463821866409353e-01
-5.167558682594144970e-02 -6.920547179813694993e-02 -9.962631361238816208e-01
-2.020006772803190909e-01 3.485263799836373355e-01 -9.152732317913563342e-01
-2.020006772803190909e-01 3.485263799836373355e-01 -9.152732317913563342e-01
2.574794606833810118e-01 -4.811367393763341660e-01 8.379807666936661681e-01
3.249260474597088222e-01 -5.127048087492958039e-01 7.947055069442763298e-01
-7.034890094006293615e-02 -6.009928890886433867e-02 -9.957103532700530835e-01
-2.887235332796156406e-01 -4.669237684441199937e-02 9.562732576388164318e-01
-7.595973308545458935e-02 -5.597491017667808461e-02 -9.955385117514536919e-01
-5.095279070713074621e-01 3.853417000061074571e-01 7.693458820010256050e-01
-5.319696709371094512e-01 4.414155511409060262e-01 7.226067951618180274e-01
-3.186390167507299198e-01 3.414934267496788634e-01 -8.842236235765756902e-01
-3.499960794034507883e-01 5.927423968479175187e-01 7.253683170508614664e-01
-2.569472724958034582e-01 -1.429223726140716466e-01 9.557987730497103929e-01
-9.294507559781303163e-01 1.729456681079330482e-01 3.259004266557235518e-01
-3.105567647492399330e-01 2.168901923302644363e-01 -9.254799513438560776e-01
-3.390263913462241430e-01 -2.258048710553951094e-02 9.405058360121075767e-01
-3.574448923426057356e-01 3.643596923402663834e-01 -8.599274175974909173e-01
-4.164520272113391708e-01 1.255240261871559682e-01 9.004506804269361009e-01
-3.682057381918460992e-01 8.044009786507887172e-02 9.262580229169701251e-01
5.202396279999932371e-01 -3.401966483092750404e-01 7.833370730008659688e-01
-4.724963344997963333e-01 2.184482255552389340e-01 8.538311230190804846e-01
-1.526815228173891703e-01 1.662917331907657476e-02 -9.881355287534636656e-01
-5.016079537644152486e-01 3.889661915655028279e-01 7.727190709043647576e-01
-2.656454708012206956e-01 2.182908415865039975e-01 -9.390322637280646978e-01
-3.273932646099081967e-01 5.263342590286542722e-01 7.847202673952190510e-01
-2.219103771706973094e-01 4.976528957444579793e-01 8.385090219318540594e-01
4.359345345127201010e-02 2.035998599411509014e-01 -9.780831804341262314e-01
2.024028819733654505e-02 1.889698588727143080e-01 -9.817742730237513094e-01
-2.529702825179451220e-01 -3.396934792559164890e-02 9.668775101140274497e-01
-2.516592218617239585e-01 -1.340102184447110323e-01 9.584930346144162616e-01
-2.808809069613329434e-01 -6.566895724737485673e-02 9.574933441850244087e-01
-2.938386000217448890e-01 3.512753275826154681e-02 9.552093663587989392e-01
3.128965722822913964e-01 2.629518890797943875e-01 -9.126620618188094891e-01
-4.189146160674507846e-01 2.159187156163833166e-01 8.819805285218215163e-01
-4.636857498188310389e-01 2.770403798257988770e-01 8.415724290641450889e-01
-4.825729767364730360e-01 3.223175499219438356e-01 8.143922391182364384e-01
-5.123498101373745728e-01 4.880368981323931488e-01 7.066241278880224241e-01
-5.271897669018976718e-01 5.180724103729907881e-01 6.735517257673996339e-01
8.710478838226827225e-01 -1.141133172456440387e-01 4.777590762248491996e-01
-5.249269224563712921e-01 5.938745853412851217e-01 6.097251044251000840e-01
-3.732969761748579085e-01 8.317256499205079312e-02 9.239760235045878511e-01
-3.243778332171877721e-01 7.459527753832016772e-02 9.429817420747357293e-01
2.301712980459904093e-02 2.367937422856624397e-01 -9.712872568658098560e-01
-4.085193137679952180e-01 2.636432344181395271e-01 8.738445028859930241e-01
-4.701169663999447135e-01 3.526376630320894323e-01 8.090962343962427861e-01
-2.048452481507789455e-02 1.938224290809319184e-01 -9.808227414921961707e-01
-8.983933784945669077e-01 3.164599892828972583e-01 -3.045363897142447374e-01
-3.028817878723261137e-01 3.389404372091187057e-02 9.524252287584091814e-01
4.527726710193456794e-02 2.138455493291542275e-01 -9.758176315869130368e-01
-3.922975536803428032e-01 2.374985653550099607e-01 8.886490087940966953e-01
-4.499287363235828785e-01 3.986367474897432039e-01 7.991576038436113416e-01
-4.793774714401232151e-01 4.442222205991149808e-01 7.568777038608450747e-01
2.054283695570432167e-01 -9.468465384244852956e-01 2.475496266503030562e-01
-3.270178390319526396e-01 9.437286753691362384e-02 9.402941533518817119e-01
4.886279150385598735e-02 2.139235797181050780e-01 -9.756275568304958457e-01
-3.434752540606301197e-01 1.683419189576925989e-01 9.239511611387407619e-01
-4.203303796851022289e-01 3.626433738875169954e-01 8.317524603445765052e-01
-4.484359374249590746e-01 4.486701588138464758e-01 7.730461167457967075e-01
-6.080621122836549208e-02 -9.687348221688496519e-01 -2.405315966635954150e-01
-2.529048212101211446e-01 1.829011730477863029e-01 -9.500454264436097862e-01
-4.038440022569799170e-01 6.373062394970054889e-01 6.563160663424673080e-01
-3.293643137542976440e-01 1.928975025782601604e-01 9.242887548402991538e-01
-3.838171075810822841e-01 3.543885703688559596e-01 8.526975836250566543e-01
-2.621281610819257701e-01 1.711214613973545129e-01 -9.497401079332397078e-01
-2.621281610819257701e-01 1.711214613973545129e-01 -9.497401079332397078e-01
-3.809448822507265908e-01 5.574999368521552645e-01 7.376142739242665947e-01
-3.498875807539527649e-01 3.699546946090861432e-01 8.606463877637807736e-01
-3.399916367250894744e-01 3.973089613895957606e-01 8.523797722591236470e-01
-2.410347580511258692e-01 1.557733381265563877e-01 -9.579336681316429347e-01
-3.715255633779031008e-01 6.112761974049178981e-01 6.987919334415041428e-01
-3.731878088354430578e-01 6.914429859004651568e-01 6.185769609237398159e-01
-6.446995817565558118e-02 -6.196530833108035430e-02 -9.959939382628106852e-01
-6.446995817565558118e-02 -6.196530833108035430e-02 -9.959939382628106852e-01
-3.455527721054464374e-01 5.124755150141739879e-01 7.861056724138293372e-01
-3.027351874008657462e-01 1.281425605953818991e-01 -9.444209286506848322e-01
-1.944243460427569625e-01 1.627561139381894229e-01 -9.673208470004072135e-01
-2.378207500522021012e-01 1.470666168477882951e-01 -9.601107754074806877e-01
-2.542398821474581849e-01 2.767855084649842312e-01 9.266886557142193226e-01
-2.500577689800597136e-01 1.453010053041447758e-01 -9.572662795849021800e-01
-2.303600374499831238e-01 1.642513253992672062e-01 9.591432402152592074e-01
1.549238110780001565e-01 -7.779533393881259140e-02 -9.848586186749938021e-01
-2.903985601376037340e-01 5.151869838555960257e-01 8.063814531199116065e-01
-3.000424648668655880e-01 4.308107734223463603e-01 8.511031645927864542e-01
-2.463484191816283642e-01 1.348689861496156217e-01 -9.597514328937923889e-01
-2.692233905922999937e-01 6.005854373218822984e-01 7.528717675905168827e-01
-2.532866663619365855e-01 9.196899007501749268e-02 9.630096414407481875e-01
2.956490003021131421e-02 2.387565008300104319e-01 -9.706293061708022307e-01
-2.732115339362693462e-01 1.003535076658961522e-01 9.567050910407771669e-01
-7.321478218355019496e-02 -9.555014607472708255e-01 -2.857561096103582998e-01
-5.743485089583999503e-01 -7.794116028692250897e-02 8.148919963960814528e-01
-2.333879853933470971e-01 1.254087694591518864e-01 -9.642627695896881512e-01
-2.485933220919019082e-01 2.820705155204579206e-01 -9.266269931775865665e-01
-8.130383770757835249e-01 -5.545543146334083184e-01 -1.773079511004700126e-01
-6.793729917764566029e-01 -3.839404062760693598e-02 7.327879882264668465e-01
-6.742547839390324871e-01 -3.829191046698075807e-02 7.375054006094582393e-01
-2.421917836330027829e-01 9.421657425858720458e-02 -9.656429863441462480e-01
-2.669702115242399976e-01 1.106898011561767564e-01 -9.573268376467404250e-01
-5.516902349760894886e-01 1.899138442896210546e-02 8.338328441297443439e-01
-2.550247103471875998e-01 1.285456616484922654e-01 -9.583519238691412534e-01
-2.550247103471875998e-01 1.285456616484922654e-01 -9.583519238691412534e-01
1.932343589544615464e-02 1.938988585795075326e-01 -9.808311972336314355e-01
1.932343589544615464e-02 1.938988585795075326e-01 -9.808311972336314355e-01
-8.301847970301385882e-01 -5.360100167998390619e-01 -1.532529434309948257e-01
-2.544015603018102700e-01 1.269613151156126496e-01 -9.587286741201175300e-01
-7.279776547147712717e-01 -1.262077993138567000e-01 6.738843562721533731e-01
9.236049950068920822e-01 -2.672019249039823685e-01 2.748762349238752511e-01
-7.367922256136684167e-01 -4.524612604448661340e-02 6.746035905279660350e-01
-6.869745785030068053e-01 2.731466906868882383e-01 -6.733920209338819518e-01
-5.689923464798837816e-02 -5.888134568431099142e-02 -9.966420943482560135e-01
-6.664705559689959591e-01 -5.151261441613509684e-02 7.437495872821658915e-01
-6.452367749815828279e-01 1.465262220583832611e-02 7.638421334764530224e-01
-2.414067827633962215e-01 9.162834222803911688e-02 -9.660885115435169368e-01
-2.414067827633962215e-01 9.162834222803911688e-02 -9.660885115435169368e-01
-5.488161721005064830e-01 3.550450083367649029e-02 8.351887449322451529e-01
-5.401472018716531043e-01 2.558636046632040695e-01 -8.017323843521448890e-01
-5.062721124934692618e-01 -4.340565209156174720e-02 8.612807309338265105e-01
-2.737542967436626395e-02 2.169146367215925852e-01 -9.758066541206219524e-01
-2.737542967436626395e-02 2.169146367215925852e-01 -9.758066541206219524e-01
-8.278620599413116787e-01 -3.023995222939470651e-01 4.724393491508944720e-01
-4.347276125361066446e-01 2.395482215853849683e-01 -8.681178217465276292e-01
-9.170054339270096166e-01 -1.200702807074357781e-01 3.803737133914150692e-01
-8.311523821083929287e-01 -1.769959692622321834e-01 5.271225138243167407e-01
1.251185196774234204e-02 2.188602625448155259e-01 -9.756759908079893906e-01
-2.364403402689230216e-01 1.083903612608653894e-01 -9.655814285078472281e-01
-2.381334673894244525e-01 9.735181133143622212e-02 -9.663410767113124189e-01
-8.042648198800632642e-01 1.420597555969986417e-03 5.942693677162514954e-01
-2.499497862457680797e-01 8.044476624958696309e-02 -9.649112622095070702e-01
-2.362203463711133045e-01 7.964121865844354942e-02 -9.684302887925950731e-01
-2.362203463711133045e-01 7.964121865844354942e-02 -9.684302887925950731e-01
-7.620499706891178393e-01 6.742196569626530619e-03 6.474831155776428204e-01
-2.487431407764101876e-01 1.037726703081451873e-01 -9.629943316623437166e-01
-1.777730556021829833e-01 1.497193246421067436e-01 -9.726154761932254145e-01
-1.255272085533685744e-01 9.338244352462266029e-01 -3.349848415225158971e-01
-3.597768286427900364e-01 -1.166539055205531028e-01 -9.257172894024062737e-01
-8.195178760792951600e-01 6.671356542826946401e-02 5.691570529953300372e-01
-3.618958305226743222e-01 3.993135400522918044e-01 -8.423657783773094154e-01
-8.160220941319483723e-01 -4.135813453089211000e-01 4.038049191143821548e-01
-8.737815371565563760e-01 -3.821815364834016959e-01 3.007375907589736608e-01
-8.978414037899028477e-01 -3.212585226679535166e-01 3.011208648595787851e-01
-2.335513988847009170e-01 9.521288634293051389e-01 -1.972419111239267775e-01
-8.440937632618592534e-01 -2.175622928979409898e-01 4.900738388563736225e-01
-9.403180148360618107e-01 -1.863162537586109668e-01 2.847600473383241626e-01
-9.570148044092967599e-01 -1.645353717511648384e-01 2.388530418147142564e-01
-9.289963864712620367e-01 -1.510777058450359089e-01 3.378479550329381298e-01
-9.370726982147371542e-01 9.092138702707007469e-02 3.370876141919569857e-01
-1.658356810209416637e-02 7.613867751834162145e-02 -9.969593206619621339e-01
-9.174308681995482218e-01 -3.433767606681419893e-01 2.010298542696504209e-01
-1.163441671231273400e-01 4.888231828140187085e-01 -8.645900362136950124e-01
-1.133919952127886432e-01 4.729451544605972058e-01 -8.737649204985885598e-01
3.197979996510075806e-01 -5.192852417324730352e-01 7.925099855131549909e-01
-1.704364615417814088e-01 3.878153834945075040e-01 -9.058425033647543589e-01
-9.561266872895197722e-01 7.766816515642342711e-02 2.824702001521640637e-01
-1.550435663360213712e-01 1.321181564288388122e-01 -9.790333422716778200e-01
-5.502324124434478936e-01 3.541838786876322920e-01 -7.561733084250251702e-01
1.418849103695233871e-01 -4.624409139667906565e-02 -9.888023848172736718e-01
-9.821278663925592234e-01 -1.052913994933973307e-01 1.560082537813981263e-01
-7.936758241022965343e-01 3.800255617560391874e-01 -4.750360603654706915e-01
-9.777861063227089033e-01 -3.082457801354069465e-02 2.073262541806115966e-01
-9.839451374701883024e-01 6.527866582265454132e-02 1.661043715173876334e-01
-9.229854105241253048e-01 -3.706146311338274768e-01 1.036471280313592258e-01
-9.380960877283878174e-01 -3.461575281035802476e-01 1.227582689321526747e-02
1.790637111450145702e-01 -7.357275244139752091e-02 -9.810826863466562964e-01
3.297947420254786488e-01 3.460782955235517933e-01 -8.783309407620006892e-01
-9.457395353383931669e-01 -3.115364902029923444e-01 9.231330657018667341e-02
-9.570844572892936997e-01 -2.703379352718336959e-01 1.044353501847911092e-01
-9.764808837758462978e-01 -1.960544220538748272e-01 8.970923705763723943e-02
-9.852038588577087808e-01 -1.662102960773347016e-01 4.180303780545922832e-02
-2.366279458482608844e-01 9.354360687159858634e-02 -9.670867638723447124e-01
-9.958847563637067690e-01 -7.963799928613379819e-02 4.325900035948844480e-02
-2.280512338259021721e-01 8.141943033921286710e-02 -9.702388938368332605e-01
-2.280512338259021721e-01 8.141943033921286710e-02 -9.702388938368332605e-01
-6.644153553157590431e-02 8.247863788078682035e-01 -5.615273383275388719e-01
-1.155709257294752906e-01 9.047965857047245430e-01 -4.098615615340201468e-01
-5.347627574486071844e-02 2.915851335078554762e-01 -9.550488981458833404e-01
-9.559773813931051745e-01 -2.861801788323259377e-01 -6.487026675048941649e-02
-9.729585100688870059e-01 -2.301146099451602811e-01 -1.997508383757724132e-02
-9.823108100948242383e-01 -1.793545441517489791e-01 -5.382768676962158133e-02
-2.217933846511894735e-01 9.088272005159779565e-02 -9.708491261370082448e-01
-1.897728577269964245e-01 9.557573487422765801e-01 -2.247535378926514560e-01
-9.246106114422786293e-01 -3.754805505809640787e-01 -6.410595404291187516e-02
-3.587270359023185251e-01 7.255807543667198711e-01 5.872371604431707581e-01
-6.999438825613157888e-01 5.559387770266317474e-01 4.483420986959888443e-01
-1.372093411594472179e-01 5.489241692877474543e-01 -8.245337185769584520e-01
-2.280893001145982701e-01 7.469441177476789095e-02 -9.707708359972780920e-01
-9.920288031574382437e-01 -9.716780510594258402e-02 -8.023260781573882117e-02
-9.934007422108147578e-01 -8.675722829113426127e-02 -7.502098849150382054e-02
-1.218409968036725660e-01 4.254211541978882849e-01 -8.967561614278566351e-01
-9.995895601572404310e-01 -1.699551006747233167e-02 -2.306217383944753063e-02
-8.959496934700534876e-01 -4.278653871508892315e-01 -1.191862292764437198e-01
-9.767528904787979860e-01 -2.000626647677197223e-01 -7.699818898748310436e-02
-3.970471693060308865e-02 -6.482335791512296164e-02 -9.971065478282994388e-01
-6.189584510609566492e-02 -6.896890604424801841e-02 -9.956968385797263510e-01
-2.276793700344705573e-01 7.496599568367144639e-02 -9.708461278451195886e-01
6.817590717240243903e-01 -2.933807804238938166e-01 6.701733251927174395e-01
7.089794111273313160e-01 -2.602175301805184082e-01 6.554655075473411197e-01
6.107559849494983290e-03 6.991247689131304677e-01 -7.149736045511376759e-01
-9.236671873825555990e-01 -3.753375138654263532e-01 -7.720542492674883905e-02
-8.584447255599130244e-01 2.774845205021430061e-01 -4.313641084282062721e-01
-2.525001863774720690e-01 2.369851435472227486e-01 -9.381266959303760089e-01
-9.709518010111162223e-01 -2.049424693301898637e-01 -1.234956856659939345e-01
-9.828537951827380770e-01 -1.163132055556630462e-01 -1.430722038281883046e-01
-9.922700836573160599e-01 4.170937465219020507e-02 -1.168777529935713655e-01
3.324218279903853185e-02 2.207064184231280202e-01 -9.747736322601214809e-01
-8.346563218184357424e-01 -1.841347679902767820e-01 -5.190791959476769302e-01
-8.908819139978535473e-01 3.247903247781069869e-02 -4.530723206738924147e-01
-2.996569350948589949e-02 6.921503981035010966e-01 -7.211309753558368119e-01
-8.741807133787248274e-01 -1.188828655405129858e-01 -4.708236874218841295e-01
-8.835902642593821410e-01 -9.912187370583964985e-02 -4.576495373744835504e-01
-5.689959582338351141e-02 7.332673222187762185e-01 -6.775555107599973148e-01
-8.881442848688443359e-01 -7.769604011955967560e-02 -4.529492848041035136e-01
2.151734992561709081e-01 -9.540373108676933889e-01 2.085981176573617202e-01
-9.110447614574025410e-01 -5.624106346260049349e-02 -4.084536514729919521e-01
-2.045278269788126380e-01 3.582655250370994637e-02 9.782048998686440067e-01
-8.611631679274039941e-01 -1.688749857163824031e-01 -4.794572320911738572e-01
-9.280367861893230597e-01 -9.224334391845144532e-02 -3.608862549088492910e-01
-9.464631250116771755e-01 -5.589249280310524398e-02 -3.179364437138110233e-01
-2.138826488260729131e-01 9.565874637236122524e-01 -1.979763540879808104e-01
1.369924897864769342e-01 -1.315355570379770911e-01 -9.818001094809528650e-01
-9.837668258091336604e-01 -1.731607519456153654e-01 4.709762651186294447e-02
-9.453397557322575917e-01 9.044510146500107581e-03 -3.259615668576366088e-01
-9.654623822269711164e-01 5.651674699061453450e-02 -2.543388405537400643e-01
-2.361805976070635582e-01 9.125719997686819740e-01 -3.338129274790885281e-01
-8.768867457257403242e-01 -2.383043578682733088e-01 -4.174693619794281330e-01
-9.084817917345545668e-01 -1.989629992687665938e-01 -3.675249093718005455e-01
-1.128127486814031882e-01 7.351502948973084317e-01 -6.684514400069365703e-01
-9.224185230662581558e-01 -1.391549678395948286e-01 -3.602498622204097223e-01
-1.120254845532476090e-01 5.499833275867858084e-01 -8.276283164483777544e-01
-9.648060563820264057e-02 4.781600898866656402e-01 -8.729572848514762784e-01
-2.173748312367049795e-01 7.308804890648783192e-02 -9.733479952472584573e-01
-1.778328211367290468e-01 3.788936971237058526e-01 -9.081932911040917489e-01
3.018776889702315044e-02 2.183426651542768326e-01 -9.754051359216575623e-01
-2.082824756086418261e-01 7.364078357707544431e-02 -9.752924922034875710e-01
-8.202543844288839869e-02 -8.157123722302338231e-02 -9.932864444389428726e-01
-8.202543844288839869e-02 -8.157123722302338231e-02 -9.932864444389428726e-01
-3.108192057552043308e-01 2.239476486629499163e-02 -9.502051861783785691e-01
-4.319251618191697339e-01 3.534717468858020739e-01 -8.297580242100605075e-01
-5.117218425573998308e-01 3.612729552160158231e-01 -7.795015123007436042e-01
-8.928196108323507296e-01 -2.178767057213449876e-01 -3.942117243527699655e-01
-2.449906436708685076e-01 5.604275001550520358e-02 -9.679043313698070250e-01
-7.739732392761502489e-01 3.392547477961028735e-01 -5.346696559392402071e-01
-8.976090239750150745e-01 2.730278496908606911e-01 -3.460546681838083671e-01
-8.017178966034592680e-01 2.711443986541365314e-01 -5.326623032881261377e-01
-2.050582666879611216e-01 7.719965695386879490e-02 -9.757004254529839660e-01
-2.050582666879611216e-01 7.719965695386879490e-02 -9.757004254529839660e-01
2.979360696368374972e-01 -8.471523760462695840e-01 4.399624417703327239e-01
2.814766221333680485e-01 -8.036512518755859480e-01 5.243239233061870452e-01
-1.823561490418273145e-01 1.615813519887301097e-01 -9.698647852129331781e-01
-9.680752820751600263e-01 6.516551828560064596e-02 -2.420407062080023042e-01
-9.693989571569326946e-01 1.034817413562114929e-01 -2.226144448793416497e-01
-2.958003021863757076e-01 1.443033903368165158e-02 -9.551407993284662945e-01
2.260585568452180144e-02 2.399801238415498750e-01 9.705145622038677811e-01
-8.880093909586411760e-01 -3.038650219396055174e-01 -3.451164586207187135e-01
-1.624289207927794021e-01 9.613981605692817345e-01 -2.221045306698953004e-01
-1.591899046223710645e-01 9.624104309259409185e-01 -2.200562126168335852e-01
-1.869471445540641652e-01 9.633796169852418823e-01 -1.922250730795813656e-01
-2.293028148372445452e-01 8.707186837283918956e-01 -4.350507934873960592e-01
-2.067205929823044130e-01 5.535658304439759758e-02 -9.768327621198488186e-01
-2.480676996871516299e-02 -9.216290843339256522e-01 -3.872782656869982465e-01
-9.719239563812151483e-02 4.905793271921428667e-01 -8.659593304317629858e-01
-2.266088726538005860e-01 4.516195581513005736e-02 -9.729382388320061414e-01
-2.266088726538005860e-01 4.516195581513005736e-02 -9.729382388320061414e-01
3.132915128329282761e-01 7.900908756606123129e-01 5.268821843493116663e-01
3.593963820331779746e-01 -7.457512605982132836e-01 5.609717442952343314e-01
-8.985463820876166130e-01 -3.020888061807995850e-01 -3.183657525826450452e-01
-9.282885044180885226e-01 -1.974776768620646605e-01 -3.150920813133681331e-01
-9.347959513423500510e-01 -1.725565609720036697e-01 -3.104525126641200505e-01
-2.199090664579348570e-02 -1.066363665200675270e-01 -9.940548703971494593e-01
-7.479168873650817728e-01 3.248781718055468448e-01 -5.788562024185394117e-01
-4.053023181096496869e-02 -6.378120127738043377e-02 -9.971405410838353189e-01
-3.754449528221742716e-02 -6.100957718064620172e-02 -9.974308208423491307e-01
-7.200672844770148462e-01 2.045215136252002963e-01 -6.630792232383357909e-01
1.143836103497246487e-01 1.760717882798731315e-01 -9.777091157677163524e-01
-9.698221728894574900e-01 5.183000806927053755e-02 -2.382406414437099607e-01
-9.674694640159363646e-01 1.116609906873884811e-01 -2.270124651983401465e-01
-9.637419733009895406e-01 1.442196682753317527e-01 -2.245041117228551431e-01
1.674321946279555898e-02 5.811562966343385150e-02 9.981694436271044690e-01
-9.102663877112973645e-02 9.104341136779019461e-01 -4.035144057968232945e-01
5.878930780300544584e-02 4.221048097370749125e-02 9.973776078216372021e-01
-2.314185307262855984e-01 4.788364458358898568e-02 -9.716751618817266456e-01
-2.314185307262855984e-01 4.788364458358898568e-02 -9.716751618817266456e-01
-2.302449876531986461e-01 4.142754741107183836e-02 -9.722504841737451553e-01
-9.180579379871894874e-01 -2.406410594118094937e-01 -3.150579359798316159e-01
-1.977764433633856511e-01 6.455907647199522759e-02 -9.781189110203384329e-01
-1.977764433633856511e-01 6.455907647199522759e-02 -9.781189110203384329e-01
-1.890253793784510139e-01 1.070238127337321127e-01 9.761225893599470016e-01
-2.283848237502147105e-01 3.603501153783462280e-02 -9.729038237277369827e-01
-2.283848237502147105e-01 3.603501153783462280e-02 -9.729038237277369827e-01
-9.552691295187597520e-01 -4.720409686243452752e-02 -2.919463365549785361e-01
-9.503037032838310694e-01 -2.610162330807255793e-02 -3.102282656137572703e-01
3.869152700939471612e-01 -6.531353224324482065e-01 6.509307369906492946e-01
-2.145609865778711767e-01 3.425719191808945241e-01 9.146628139524690670e-01
-9.481981212114817259e-01 6.971798521544651794e-02 -3.099350342709179529e-01
3.601390931253614092e-01 -6.415097936890785668e-01 6.773219457568447899e-01
-1.894122079773308820e-01 3.628561189259797426e-01 -9.123916113309721299e-01
-1.894122079773308820e-01 3.628561189259797426e-01 -9.123916113309721299e-01
-1.923526992292848015e-01 3.569873898664326917e-01 -9.140899532188064835e-01
-2.275823176848335017e-01 2.752342024492893460e-02 -9.733697909916974034e-01
-9.185240993909534746e-01 -2.436978990797234734e-01 -3.113275009088770640e-01
-9.185240993909534746e-01 -2.436978990797234734e-01 -3.113275009088770640e-01
6.690023097639138938e-02 2.272262222480945226e-01 -9.715413542501241118e-01
-9.128413121406639963e-01 -2.109226564856903074e-01 -3.496174649961444891e-01
-9.282521268366926703e-01 -1.869294516506211923e-01 -3.215670523059766528e-01
-1.965394880301350455e-01 5.050872485937057954e-02 -9.791941065784316445e-01
-1.965394880301350455e-01 5.050872485937057954e-02 -9.791941065784316445e-01
-9.408869647049221685e-01 -1.389873029223269996e-01 -3.088919702335038431e-01
-2.006888402348312728e-01 4.291018539297682399e-01 -8.806790495743804792e-01
-7.933991310266911290e-01 2.140720407485644516e-01 -5.698166198487338852e-01
-1.821289263395128866e-01 3.797697444141530654e-01 -9.069751900785518739e-01
-2.208878286872540953e-01 3.477033571809293178e-02 -9.746792246128371806e-01
-1.950837984116676194e-01 5.425122884169601006e-02 -9.792850023187539277e-01
-2.277208004227287419e-01 3.508540189952166766e-02 -9.730941638034731334e-01
3.397150813003627090e-01 -5.987756713973251266e-01 7.253008747270132117e-01
-9.400315569965089768e-01 1.522426748728023839e-02 -3.407475510259682094e-01
-4.898938571822314403e-01 2.065551925047863224e-01 -8.469586537396178727e-01
8.304493913250882500e-03 -9.541385042870519362e-01 -2.992503133126385717e-01
7.461943178868676993e-04 -9.337117786486821558e-01 -3.580248002677389185e-01
2.879434370245364909e-03 -9.328069084171730641e-01 -3.603650655472905862e-01
