4.758347795636397870e-01 6.442831229380141522e-01 5.987324277629050284e-01
4.899629384246634856e-01 6.401232187268054430e-01 5.917588899350003651e-01
4.970249359715149251e-01 6.338996027754817408e-01 5.925685670229210444e-01
-8.073548721514789417e-01 1.114576773545245120e-01 5.794439546427279097e-01
-8.317253582901403819e-01 1.428433378508396634e-01 5.364967000912200801e-01
-8.280255431888736695e-01 1.402373074628801009e-01 5.428694110210414703e-01
-7.641488612851125017e-01 1.691557867801525283e-01 6.224651296220965468e-01
4.730318447089412182e-01 5.781840055914870503e-04 8.810451404976430423e-01
-7.804926500163931191e-01 8.735595579360207197e-02 6.190316310640145980e-01
-8.097630326397146083e-01 1.983487650996772211e-02 5.864216986469437121e-01
5.448318552909284795e-01 -3.489368972555368931e-01 7.624967483169509119e-01
5.056168942588723514e-01 -2.547350091727928478e-01 8.242946265394125449e-01
5.024563320630393015e-01 -2.549160820716792619e-01 8.261691264329485973e-01
-7.669773221750222358e-01 1.329827811721132069e-02 6.415363926297161790e-01
-6.195338975650497293e-01 -1.944586475344604881e-02 7.847290029760906060e-01
3.827851048670057876e-01 -5.089798522070938525e-01 7.709831862882614573e-01
4.678807148201186705e-01 -4.883605792504568388e-01 7.366081599694459525e-01
4.268451238551117521e-01 -4.743352305062875085e-01 7.699411206979800415e-01
4.452261542243966530e-01 -4.431995833298934540e-01 7.780410020884263034e-01
-8.042735801396529993e-01 3.579927746870936039e-02 5.931799221332962890e-01
-6.763448283699984298e-01 -3.440768920403903391e-02 7.357810707410157303e-01
-4.019198598021449520e-01 -3.147793692266193100e-01 8.598688126719772340e-01
-3.101694513503301318e-02 -4.762074353633812818e-01 8.787857688988376381e-01
1.272679773299622598e-02 -4.339475431271862527e-01 9.008482438420704064e-01
2.979102680171571427e-01 -4.844985100804735656e-01 8.225026844574715446e-01
3.850235956784262004e-01 -5.021223477025147375e-01 7.743577846890742356e-01
4.237530003958627223e-01 -5.069713936464873560e-01 7.506086867866920143e-01
4.237530003958627223e-01 -5.069713936464873560e-01 7.506086867866920143e-01
-4.669800924689880839e-01 -6.844871839651493761e-02 8.816146358741612232e-01
-6.296331199866930239e-01 -2.476162962329999662e-01 7.363751109697241892e-01
-7.770889676765048437e-02 -4.173102213086936629e-01 9.054355341792388323e-01
-3.953051563628657838e-01 -1.950907392548484887e-01 8.975931354516515359e-01
2.222560495077746320e-02 -3.762428841263984469e-01 9.262544545797454232e-01
3.628990275797996379e-01 -5.298118387612797964e-01 7.665531366383073753e-01
3.321968331386227491e-01 -5.047408010222996788e-01 7.967948216674335393e-01
3.973145792197128046e-01 -5.228822259015534213e-01 7.541454123547389754e-01
-7.671975256136635835e-02 -4.354246478848203261e-01 8.969500853343529423e-01
2.232102354034309344e-01 -4.827964730746222566e-01 8.468085712827015943e-01
1.930109738750683535e-01 -5.129668049673056229e-01 8.364280130205060670e-01
3.451669869667497448e-01 -5.133367519228658749e-01 7.857131348231222168e-01
-1.689509618907491795e-01 4.429824926658794126e-01 8.804669690952151573e-01
-9.054896420650865307e-02 4.676406615195597416e-01 8.792685009567198229e-01
-1.709879252486014856e-01 4.665357130576598399e-01 8.678176985179316683e-01
-1.673818505462937312e-01 4.668370023406477887e-01 8.683585258136733431e-01
-1.690259765068888587e-01 4.796533962144935437e-01 8.610242962691556645e-01
-1.513635422831421662e-01 4.942428389632629870e-01 8.560450304750525374e-01
-1.105420869966153019e-01 5.064258373303253125e-01 8.551685905637038676e-01
-1.727477681395396814e-01 4.652071867906837355e-01 8.681822861364461019e-01
-1.687295833629088859e-01 4.609113242361186913e-01 8.712583307430045165e-01
-1.709641302547014741e-01 4.631269318434125259e-01 8.696463138354353362e-01
-1.706155178326716759e-01 4.641899021074614717e-01 8.691479044766516893e-01
-1.092103435765528763e-01 5.018367242695170871e-01 8.580402106138919072e-01
1.246988773967327296e-01 6.728132153445403052e-01 7.292273769091062174e-01
1.168775206434600200e-01 4.853206269948519003e-01 8.664892002682788030e-01
1.754518986105197409e-01 5.720613285663204151e-01 8.012256034556686224e-01
1.754518986105197409e-01 5.720613285663204151e-01 8.012256034556686224e-01
7.445409152310096257e-01 5.044981675362401052e-01 4.371960938749870351e-01
5.525679964200671535e-01 5.644431441517065995e-01 6.132475408450069887e-01
5.524486481035855157e-01 5.642967744557424448e-01 6.134897240764231041e-01
-1.749591210378142192e-01 4.644651387141424670e-01 8.681367639288913862e-01
-1.767628476834277318e-01 4.664934559874563402e-01 8.666826127249378509e-01
-1.771954931610260353e-01 4.664569989581427434e-01 8.666138847989823812e-01
-1.725948163392576340e-01 4.675717860153059680e-01 8.669415518333833948e-01
-1.703962506309236458e-01 4.656344304604942974e-01 8.684179264275091459e-01
-1.662392631514242602e-01 4.630533527658891590e-01 8.706009992408350051e-01
-1.681537580811190147e-01 4.629086358876514651e-01 8.703102369062599708e-01
8.583401979203044707e-01 3.251398046570157518e-01 3.969083169470379868e-01
-1.781383307417529760e-01 4.626678679972629493e-01 8.684498713474537723e-01
-1.760294869189599487e-01 4.606402055868695777e-01 8.699564476063926799e-01
-1.790115504412805314e-01 4.626241006739110206e-01 8.682936175535691525e-01
-1.799508267747812473e-01 4.672615280797786652e-01 8.656121327243645469e-01
-1.772680065924726045e-01 4.649765335410908085e-01 8.673943031256556857e-01
-1.772680065924726045e-01 4.649765335410908085e-01 8.673943031256556857e-01
-1.701130628487818874e-01 4.672023434032735456e-01 8.676309792571356150e-01
-1.668040855531121858e-01 4.637680683868600773e-01 8.701123926180518442e-01
6.813796623087883253e-01 7.006425310632111714e-01 2.117115949996566382e-01
8.785911776176468235e-01 3.829038674395667807e-01 2.854157860249835199e-01
9.010829373924545971e-01 3.433499201651880051e-01 2.648780328051847377e-01
-1.746878419909188018e-01 4.605046779929142242e-01 8.702985691170577187e-01
-1.757268864065489322e-01 4.596251167164909779e-01 8.705543139156866062e-01
-1.899775291717362979e-01 4.614887551864558790e-01 8.665660201313328814e-01
-1.785879571214999129e-01 4.594244951106362662e-01 8.700778556333371716e-01
-1.815923161457795865e-01 4.623462342747968190e-01 8.679056344837992043e-01
9.131333114363229253e-01 3.846294772404284523e-01 1.350841248374140269e-01
9.322808984046163649e-01 3.145756723934439170e-01 1.785902371578415859e-01
9.339132672833375670e-01 3.113258068906785692e-01 1.757334662380193036e-01
-1.822144789801360687e-01 4.489334257391184857e-01 8.747894963384830191e-01
-1.822144789801360687e-01 4.489334257391184857e-01 8.747894963384830191e-01
-1.797066746258645098e-01 4.513943179779915660e-01 8.740415784115178610e-01
-1.771266924889699224e-01 4.539798918213162060e-01 8.732287172498530703e-01
-1.800738832586206706e-01 4.546058194934344265e-01 8.722998025053448901e-01
-1.801116051351639713e-01 4.561805976922308492e-01 8.714694899907821091e-01
9.340112749663983527e-01 3.127527306857829648e-01 1.726518684643442436e-01
-1.758254393214670475e-01 4.571865042313100203e-01 8.718175928691549448e-01
-1.774334174164129974e-01 4.529891339274487727e-01 8.736808495827254051e-01
-1.804649747318283204e-01 4.526641412244164497e-01 8.732282451596501405e-01
-1.776278625099116937e-01 4.502135764510227789e-01 8.750748985311707084e-01
-1.830176122281869655e-01 4.497578228615042306e-01 8.741981779832149746e-01
-1.817530036443694152e-01 4.486232002749421244e-01 8.750446102007136684e-01
-1.805999874583507081e-01 4.499975910834906334e-01 8.745775051698386759e-01
9.395664219093502467e-01 2.983065053943417810e-01 1.680124032917701682e-01
9.424204997134704165e-01 2.972394141403520429e-01 1.532720861778587018e-01
-1.763463399452762648e-01 4.597066533303582059e-01 8.703859840735642672e-01
-1.757685170171556510e-01 4.604850915287011515e-01 8.700913221641700668e-01
-1.758375385684503300e-01 4.612437933747180474e-01 8.696754124979556577e-01
-1.767558268173783642e-01 4.611725184595624749e-01 8.695270472525680194e-01
-1.750854097335143023e-01 4.599977414725543445e-01 8.704867472504085324e-01
-1.718511717473148737e-01 4.568365676394119390e-01 8.727929452261378174e-01
-1.765684158617759347e-01 4.566491632235338827e-01 8.719490445245694499e-01
9.361596165403885950e-01 3.188101494432351579e-01 1.482068182336251372e-01
9.377511084458517443e-01 3.153431352386899533e-01 1.455388802568225448e-01
-1.766032537224888066e-01 4.549377322777884980e-01 8.728361533097569458e-01
-1.787965000647601388e-01 4.568653849692809188e-01 8.713815648620659715e-01
-1.785366293981401065e-01 4.597095774993155137e-01 8.699378002584736702e-01
-1.768700170785865722e-01 4.583733431928678215e-01 8.709827066646123050e-01
-1.756497254145421849e-01 4.610384652867767774e-01 8.698222275199740672e-01
-1.733689797467264371e-01 4.636846097648920639e-01 8.688727061709090593e-01
9.393731152509903204e-01 3.107389247706040525e-01 1.449809331465986562e-01
-1.816384573926584090e-01 4.496824159046368674e-01 8.745245540419003261e-01
-1.822361070606398625e-01 4.503054330278890016e-01 8.740795262840495017e-01
-1.792699817617099678e-01 4.513270708915049778e-01 8.741659732108374437e-01
-1.826873844748997389e-01 4.540755413373218641e-01 8.720325236554758996e-01
-1.810335887056370441e-01 4.569382553621030296e-01 8.708813182902683803e-01
-1.788042488833225252e-01 4.543555028879482927e-01 8.726913071508795028e-01
-1.791595014772332517e-01 4.582319632843150914e-01 8.705890769215011149e-01
-1.787244677436020113e-01 4.582624369095863459e-01 8.706624509805471757e-01
9.375375634291945870e-01 3.114330586050463867e-01 1.550250533531744856e-01
-1.806922517904324954e-01 4.483320707142020578e-01 8.754134249096359177e-01
-1.799305581921324670e-01 4.491785721656186281e-01 8.751363348278504706e-01
-1.810105328591096185e-01 4.493705062983935350e-01 8.748150290565351872e-01
-1.823889167121185151e-01 4.498113587873524555e-01 8.743020213670191776e-01
-1.816712709072377252e-01 4.493084802438267467e-01 8.747099170055931960e-01
-1.823265499650911503e-01 4.498183495897522532e-01 8.743114328145197289e-01
-1.827144420983131956e-01 4.522256212167316547e-01 8.729876403270800944e-01
9.361354125905554380e-01 3.142223372323763031e-01 1.578442652684386716e-01
-1.883543506921925015e-01 4.463332242412607620e-01 8.748195765492008391e-01
-1.864089233417076108e-01 4.482257927232776717e-01 8.742684667973417145e-01
-1.834063625920419049e-01 4.485282065692670073e-01 8.747482804055767280e-01
-1.825258796467967848e-01 4.494249257633568528e-01 8.744721489914725199e-01
-1.800297341283262631e-01 4.495445441858385571e-01 8.749279956787476831e-01
-1.797881346619935317e-01 4.493255016326340723e-01 8.750901783344060547e-01
-1.787199725396953209e-01 4.492249178474263527e-01 8.753605797614967265e-01
-1.787199725396953209e-01 4.492249178474263527e-01 8.753605797614967265e-01
-1.798708274803379470e-01 4.484809899056925175e-01 8.755063032981250659e-01
-1.807049552770136069e-01 4.478805655771869176e-01 8.756418891970573215e-01
9.375629720256233313e-01 3.135409717125106077e-01 1.505580703385074604e-01
9.344106120051154374e-01 3.195759331224040656e-01 1.573150696569480533e-01
-1.848083988929952459e-01 4.366498659532233040e-01 8.804446321385801522e-01
-1.838067028199797115e-01 4.358737823776629994e-01 8.810386721559033685e-01
-1.904515668518343419e-01 4.378053791021001007e-01 8.786664046798122740e-01
-1.889511055169623421e-01 4.379251339977152102e-01 8.789306324943970683e-01
-1.905041921937982718e-01 4.428070290520877417e-01 8.761450152678219583e-01
-1.883722194624012081e-01 4.410875668636156655e-01 8.774723159696518060e-01
-1.883722194624012081e-01 4.410875668636156655e-01 8.774723159696518060e-01
-1.805349742502190269e-01 4.445016328406827255e-01 8.773969577531253172e-01
9.387730021133512404e-01 3.138855619868466951e-01 1.420602142729887052e-01
-1.844592435753505677e-01 4.200431167425446866e-01 8.885598277757207342e-01
-1.844592435753505677e-01 4.200431167425446866e-01 8.885598277757207342e-01
-1.867678599740136003e-01 4.268868766385751634e-01 8.848080927718106059e-01
-1.813816533711183898e-01 4.222303120544395605e-01 8.881566637720904600e-01
-1.870336410775230163e-01 4.289171972906634656e-01 8.837694580452564175e-01
-1.850629910809893919e-01 4.269966435316769893e-01 8.851133010777997301e-01
-1.904333265517486606e-01 4.302550022876474034e-01 8.823920790356697408e-01
-1.955750784813362619e-01 4.372344696304305001e-01 8.778248158055316219e-01
-1.881909204258333801e-01 4.334981167486806064e-01 8.812851753233030827e-01
9.348974047682836463e-01 3.265819038157614651e-01 1.389643934884071674e-01
-1.857691709100656730e-01 4.827960129111466547e-01 8.558024451101355901e-01
-1.803949721461340361e-01 4.480462014448246544e-01 8.756210683824704466e-01
-1.801856164881000255e-01 4.822390952925192931e-01 8.573089283229564650e-01
-1.820219634896506067e-01 4.820702311718991773e-01 8.570159257710697753e-01
8.165339274287383153e-01 -9.986906682795172741e-02 -5.685934530477060322e-01
8.165511352733247907e-01 -9.962652840549353350e-02 -5.686112893020274228e-01
8.143595273126520429e-01 -9.765395684821893962e-02 -5.720858895192224569e-01
8.144063531842182790e-01 -9.710254872858919972e-02 -5.721130892783298227e-01
8.167360594989940825e-01 -9.354994661589272065e-02 -5.693773938278716695e-01
8.127232860895986510e-01 -9.409464686762072927e-02 -5.750017892829397681e-01
8.151592228822999164e-01 -8.902571533801066639e-02 -5.723546657086675538e-01
8.102412577294656471e-01 -9.545252112604930839e-02 -5.782714937498254493e-01
8.070658658477058989e-01 -9.126102709032385407e-02 -5.833661912708962838e-01
8.087516753043954010e-01 -9.221847884449370369e-02 -5.808756147850772100e-01
8.068612001330909278e-01 -9.578057576021412056e-02 -5.829245963474434244e-01
8.066708550367402975e-01 -9.586924150932109312e-02 -5.831734048863356223e-01
8.076083413333159378e-01 -9.539759402027177260e-02 -5.819519448064366385e-01
8.088120717785743929e-01 -9.370129421573773765e-02 -5.805541318495165415e-01
8.088264954227021297e-01 -9.353738264081677689e-02 -5.805604691597034961e-01
8.110315214161302189e-01 -9.270510995948415267e-02 -5.776102785242285265e-01
8.111983735224752579e-01 -9.438885014660199080e-02 -5.771030616471317654e-01
8.119401971054990286e-01 -9.463978266039864418e-02 -5.760177322463917449e-01
8.129391234377021380e-01 -9.180760337284869788e-02 -5.750663836004276108e-01
8.125774153180070902e-01 -9.207424292173767288e-02 -5.755347755831058398e-01
8.127888048925763220e-01 -9.006853321981465876e-02 -5.755536621071304371e-01
8.121602963455801794e-01 -9.102249003371036540e-02 -5.762903429243999565e-01
8.109331043861047750e-01 -9.420465786360950056e-02 -5.775058291026292645e-01
8.143985322695829199e-01 -9.187167895908394943e-02 -5.729874564441947982e-01
8.121323740461631191e-01 -9.572151566556967583e-02 -5.755678921420381844e-01
8.156704063121331671e-01 -8.668580554694312046e-02 -5.719854538214035333e-01
8.156704063121331671e-01 -8.668580554694312046e-02 -5.719854538214035333e-01
8.146640514427996305e-01 -8.821140591337629788e-02 -5.731851630612826431e-01
8.157306210430321780e-01 -8.189166404177292136e-02 -5.726057188443181012e-01
8.160049530195225831e-01 -8.144158290005829026e-02 -5.722789400478925925e-01
8.145532194735757292e-01 -8.016573928455208997e-02 -5.745228514952162024e-01
8.139596483005919758e-01 -8.806608930053265449e-02 -5.742073274120483850e-01
8.071579665205670384e-01 -9.654213716045070837e-02 -5.823878714695867043e-01
8.062612740599792716e-01 -9.784018825028679978e-02 -5.834124231744876043e-01
8.123502599121813494e-01 -9.157841993834177352e-02 -5.759344131254946486e-01
8.069638201409355949e-01 -9.917264932965634550e-02 -5.822148904042944162e-01
8.064917810366654116e-01 -1.007651925784608105e-01 -5.825953853961880480e-01
8.076264534755378532e-01 -1.028383946549925043e-01 -5.806580544789753384e-01
8.069349857137207982e-01 -1.003505901112692472e-01 -5.820529940611225417e-01
8.096447136469056005e-01 -1.046448789920059880e-01 -5.775161356744662466e-01
8.114274884386937225e-01 -9.918280720781574855e-02 -5.759758690782547097e-01
8.100876119242333973e-01 -1.002783994353821095e-01 -5.776697184495397375e-01
8.110888833507642337e-01 -9.960557901266571534e-02 -5.763796942418790703e-01
3.194415777449696181e-01 8.217424481981573381e-01 4.719072231245281523e-01
3.517315724767400842e-01 8.120666131579309388e-01 4.656530003309836130e-01
3.644280180333750452e-01 8.148131578393296159e-01 4.508566706661505941e-01
3.768610100555560005e-01 8.095691469364555415e-01 4.500817430517324302e-01
6.014496202687179965e-02 7.440246634480837118e-01 6.654396168877771967e-01
2.821032381858868954e-01 8.067671370839274436e-01 5.191767998730683065e-01
3.708813284100352936e-01 8.075989683118020013e-01 4.585094836734794899e-01
3.793418140882663381e-01 8.103912532582894235e-01 4.465039806392346877e-01
3.869091854174297462e-01 8.021572387855002706e-01 4.548022059133429718e-01
3.869091854174297462e-01 8.021572387855002706e-01 4.548022059133429718e-01
-5.030950214904146289e-01 4.256489727639424792e-01 7.521425073325930244e-01
-7.172393915557713218e-01 3.654689448528964935e-01 5.932959679188942737e-01
3.957766577323240109e-01 8.023008821618553554e-01 4.468491151121814497e-01
3.934373086596405500e-01 8.054768573517070429e-01 4.431863224711211080e-01
-7.787013033795983086e-01 2.436797543831198676e-01 5.781387873328488469e-01
-7.787013033795983086e-01 2.436797543831198676e-01 5.781387873328488469e-01
-7.674204618630612318e-01 1.961468279804181036e-01 6.104033556486287981e-01
4.043777865648767178e-01 7.994329707292643361e-01 4.442809145618053512e-01
3.960528792180295632e-01 8.015970973671886490e-01 4.478662862458022698e-01
3.960528792180295632e-01 8.015970973671886490e-01 4.478662862458022698e-01
3.963084117146103980e-01 8.034554485844389582e-01 4.442960555127866140e-01
-8.325640409175395495e-01 1.061279860229042138e-01 5.436671484960075018e-01
-8.884661678515095584e-01 1.214690509762468146e-01 4.425755734766474436e-01
3.969351054096022513e-01 7.996551917072618476e-01 4.505486615994882538e-01
3.952168635838410604e-01 8.006730257137678608e-01 4.502514149153909462e-01
3.958131777642279192e-01 7.999986814174590011e-01 4.509257566811977758e-01
3.979581418832223716e-01 7.964302418915559789e-01 4.553330507545115813e-01
-8.268070837309047239e-01 9.532150010670369100e-02 5.543499417424021525e-01
4.029403501680777766e-01 7.910213798561908094e-01 4.603523116232117185e-01
4.059329567844569553e-01 7.883494163493917073e-01 4.623025333456454722e-01
4.059329567844569553e-01 7.883494163493917073e-01 4.623025333456454722e-01
-8.304914599670304431e-01 7.929545943113970596e-02 5.513584723530007281e-01
4.089986567786905725e-01 7.825303115972364054e-01 4.694320080530927641e-01
4.069056484151210573e-01 7.818999351634882133e-01 4.722925837647707348e-01
4.044539800406503072e-01 7.841885921068801890e-01 4.706009243921076002e-01
3.982627932457173392e-01 7.843558352499335751e-01 4.755761466111373958e-01
-8.305603410770072692e-01 7.843364598005504729e-02 5.513779856036338245e-01
4.050157681589193759e-01 7.810117581606621506e-01 4.753765467052740168e-01
4.045916789864256180e-01 7.786236779565118837e-01 4.796360510016102752e-01
3.971255244818993058e-01 7.813879487768004006e-01 4.813773896968581156e-01
-8.362612166028016158e-01 7.357813810750786498e-02 5.433722804842315846e-01
-8.349808471864668125e-01 7.509718843502054264e-02 5.451306239067157389e-01
4.041538800414984922e-01 7.768612098691054513e-01 4.828522567495275863e-01
3.881545436556249062e-01 7.831317335147086611e-01 4.858402393809523323e-01
-8.386367234249759717e-01 6.929157127163600161e-02 5.402657903974006359e-01
4.032665450955186248e-01 7.693761752552228383e-01 4.954153757771034838e-01
3.875658841097603391e-01 7.717129221944301065e-01 5.042339250708477438e-01
3.961087294146615756e-01 7.712059393956021136e-01 4.983365063111964144e-01
-8.373362412411852196e-01 7.179495370976742008e-02 5.419534147192873741e-01
-8.381854047547911968e-01 7.063072470609203790e-02 5.407924999327737847e-01
3.875554595868193619e-01 7.654707290931718200e-01 5.136685007337099540e-01
4.224045226829801214e-01 7.571452419010928914e-01 4.983026207873075819e-01
4.088023293975229788e-01 7.325389894307273719e-01 5.443044042105187330e-01
-8.378711587199113575e-01 7.372523999056930510e-02 5.408664441187732708e-01
5.123076198676542736e-01 5.872347051799087225e-01 6.266548520978710846e-01
6.185799085489683824e-01 3.904290626858442081e-01 6.818533887499592661e-01
-8.386799033591182395e-01 7.631381946425402907e-02 5.392515374668090944e-01
8.541393597443996955e-01 -2.167544571817342502e-01 4.727192183815662752e-01
6.466468567144981749e-01 -1.626416346536679602e-01 7.452486439963792453e-01
-8.406555107258704140e-01 7.765228151788865218e-02 5.359742861941163561e-01
4.429038611646176626e-01 -4.863912871989741760e-01 7.531664394424368858e-01
4.569978431016015752e-01 -4.828212452303593527e-01 7.470184847476595280e-01
4.569978431016015752e-01 -4.828212452303593527e-01 7.470184847476595280e-01
-8.455824197185767277e-01 6.803445540362107469e-02 5.294919114970590979e-01
-8.436668432878600132e-01 7.153873409069845535e-02 5.320793804136725313e-01
4.264164567641401393e-01 -5.318511975006584569e-01 7.316442503825418830e-01
4.462170236281951530e-01 -5.512848619876381528e-01 7.049647996656751570e-01
-8.470852262076911110e-01 6.561761276199834514e-02 5.273906980940042954e-01
4.201729201779899059e-01 -5.437815508446159907e-01 7.264684040687006128e-01
4.221166543955919837e-01 -5.432813661359982005e-01 7.257154313443224813e-01
4.221166543955919837e-01 -5.432813661359982005e-01 7.257154313443224813e-01
-8.434179855761719802e-01 6.222799124700675172e-02 5.336419948917011657e-01
-8.481236568547685373e-01 5.990001118703659755e-02 5.264012265782518352e-01
-8.473660744657682820e-01 6.120080235952404107e-02 5.274705656574824042e-01
4.115727969122007779e-01 -5.673808421886759046e-01 7.132228352760007217e-01
4.154807376175741473e-01 -5.638115449028767712e-01 7.137872921977442831e-01
4.225676267516335072e-01 -5.594436455086773119e-01 7.130633971264082049e-01
-8.409386739806118394e-01 6.400693975911561640e-02 5.373316092194866389e-01
-8.481765468235687999e-01 5.713295131429369650e-02 5.266235574796908070e-01
4.104296117765875995e-01 -5.802684675736833331e-01 7.034458325390867683e-01
4.060938416626960756e-01 -5.754059954076607974e-01 7.099265681833243358e-01
4.088394241176600552e-01 -5.775755563488723654e-01 7.065810654096459364e-01
4.088394241176600552e-01 -5.775755563488723654e-01 7.065810654096459364e-01
-8.405813501431518286e-01 6.260558851618154563e-02 5.380553262240401757e-01
-8.410570751900217079e-01 6.176718830712744218e-02 5.374084207764501242e-01
4.083387287205330063e-01 -5.820478717525651158e-01 7.031925466152271209e-01
4.049334772713491515e-01 -5.821836998246771033e-01 7.050468201781949773e-01
-8.387093085620416222e-01 6.495676091745052061e-02 5.406915155081454261e-01
-8.405922686409343925e-01 6.227865299466642940e-02 5.380762095486635310e-01
4.066699901858013555e-01 -5.838661702367546891e-01 7.026519866444165263e-01
4.082109857791163532e-01 -5.859307039788126392e-01 7.000349999993822347e-01
4.074917878566955420e-01 -5.836952709351651558e-01 7.023177867014889220e-01
4.067140494986680177e-01 -5.846551721495897302e-01 7.019700931087653473e-01
-8.389509881135794878e-01 6.485502034836482244e-02 5.403286646836921170e-01
3.990933540546804381e-01 -5.899787474788931174e-01 7.018900001229693153e-01
4.022225206183134838e-01 -5.907885491582042237e-01 6.994182826399339969e-01
4.055775209022728922e-01 -5.877231853767755920e-01 7.000630913777290409e-01
-8.383406828441580805e-01 6.647181332328280789e-02 5.410789198646583920e-01
3.920053563048895295e-01 -5.949317687229835894e-01 7.017036348718872496e-01
3.929699933332955752e-01 -5.956651638112787639e-01 7.005409316815913723e-01
3.941031214611205313e-01 -5.945238917663523415e-01 7.008737916155745040e-01
3.987140967931189772e-01 -5.932755532988485125e-01 6.993219479441443731e-01
-8.387027728194953458e-01 6.842542135290380356e-02 5.402736534179393146e-01
3.952827265590025951e-01 -5.931946884161715117e-01 7.013356027743935517e-01
3.927434148361177435e-01 -5.957532486354827350e-01 7.005930893486844724e-01
3.930058208822041488e-01 -5.984465013544887357e-01 6.981462667444958692e-01
-8.404662154471610469e-01 6.760861280384977690e-02 5.376296273148135629e-01
-8.386105344673466799e-01 7.001528347111116157e-02 5.402131353094362654e-01
3.914028790538899849e-01 -5.963501516370887101e-01 7.008354178484043073e-01
3.949425427421012769e-01 -5.942398807956797979e-01 7.006420997944241558e-01
3.954816720542791986e-01 -5.940484508520517126e-01 7.005003105705444044e-01
3.938797203255046120e-01 -5.966984393247332097e-01 6.991492962334510120e-01
-8.383344859806148852e-01 6.696886267922133595e-02 5.410272276393027768e-01
3.792701397691179976e-01 -5.987421269914920963e-01 7.054516471348106776e-01
3.853622979757234113e-01 -5.969365155475251372e-01 7.036779772771413199e-01
3.918092174627930135e-01 -5.955353997206322969e-01 7.013010229500455939e-01
3.876207839307954650e-01 -5.949368077682472000e-01 7.041308987875785075e-01
3.826154321723122531e-01 -5.958777302063948955e-01 7.060702243457585014e-01
-8.289178543520054898e-01 5.207625718422017463e-02 5.569409790760150303e-01
3.850306324546627357e-01 -6.061208980399948043e-01 6.959661407214812190e-01
3.911245191121610620e-01 -5.929052104646548305e-01 7.039069696722316527e-01
-8.444141487189112949e-01 7.482878111397915644e-02 5.304388739150935894e-01
-8.100111327416812390e-01 5.695797527727625847e-02 5.836418027239408390e-01
-7.893594686269658212e-01 2.689740841040521441e-02 6.133417959912383921e-01
3.911227779007873662e-01 -6.054483205129348455e-01 6.931488323550996089e-01
3.870465788142692376e-01 -6.034123006955171009e-01 6.972005028666522497e-01
-7.750226080089535063e-01 -1.332370981796872356e-01 6.177279601439911172e-01
-7.286722806817469422e-01 -1.102028191618313786e-02 6.847738756352707012e-01
-5.033618888228013066e-01 -1.446534878095108723e-01 8.518815512413010493e-01
3.756431829430490477e-01 -6.181653206226103148e-01 6.904808726445365030e-01
3.909005655944411406e-01 -6.058437405467341774e-01 6.929286470180658908e-01
-5.080626954915958837e-01 -2.438540026335976052e-01 8.260796104791519046e-01
-1.062872767954679554e-01 -4.831028054563550889e-01 8.690884271186694043e-01
-4.355487531420078051e-01 -2.536538715237287023e-01 8.636880206981373265e-01
1.913045703633407535e-01 -5.869434638028809825e-01 7.867019331723887898e-01
2.968426520826876747e-01 -5.769332471105034221e-01 7.609418297629899630e-01
3.806001745955699400e-01 -6.038493739130635918e-01 7.003637916987305312e-01
-9.929139123278402090e-02 -5.064417231192359647e-01 8.565383825089668557e-01
1.913473341031957931e-01 -5.291888965735512818e-01 8.266470283469645741e-01
3.502309491047897461e-01 -5.899276024286227438e-01 7.275463601599385655e-01
3.502309491047897461e-01 -5.899276024286227438e-01 7.275463601599385655e-01
2.903912523597151352e-01 -5.865464290787778534e-01 7.560662716243136128e-01
-1.705942469326360011e-01 4.455181632156410831e-01 8.788692560093611661e-01
-1.684038918822332309e-01 4.755116239009846701e-01 8.634401106816649296e-01
-1.678984384141666564e-01 4.770747795680999603e-01 8.626759351449032609e-01
-1.614298055763514483e-01 4.751412049902838386e-01 8.649747124580942081e-01
-1.649788019572926978e-01 4.774905141403700259e-01 8.630091562728064991e-01
-1.556009885897436384e-01 4.763375197319393295e-01 8.653848274874703650e-01
7.441369089401457526e-02 5.714300097799835942e-01 8.172700572824003196e-01
2.720531121536733377e-01 4.528451244027699163e-01 8.490691358612330042e-01
2.720531121536733377e-01 4.528451244027699163e-01 8.490691358612330042e-01
-1.684180781856919329e-01 4.807485175045523307e-01 8.605325176060537595e-01
-1.683408595763672688e-01 4.739748889447943925e-01 8.642969163700976454e-01
-1.697562339515518715e-01 4.812189693637213828e-01 8.600064677425999227e-01
-1.691929317875930094e-01 4.805546576238761691e-01 8.604887988051431735e-01
-1.652646640907749487e-01 4.784198889111985764e-01 8.624395635041098851e-01
-1.675163380515218570e-01 4.806226099418422493e-01 8.607788236814959415e-01
-2.095712889011370206e-01 4.947064730058801096e-01 8.434129358946297339e-01
-5.529986584308069220e-02 5.770668838440392578e-01 8.148225183487919354e-01
-5.648925964291619944e-02 5.068557468934052901e-01 8.601780137774526214e-01
5.825426459428129089e-01 5.409536182348693156e-01 6.066409552416894835e-01
1.839118993841479810e-01 5.020828555550399530e-01 8.450379988039661283e-01
6.388523816843356684e-01 4.676943721246565877e-01 6.108433585618943118e-01
-1.677440753749892266e-01 4.796000980690560689e-01 8.613046331634014452e-01
-1.712927375023614307e-01 4.816009320515315939e-01 8.594878360547305585e-01
-1.707326305671761357e-01 4.816655642778556179e-01 8.595630593787213503e-01
-1.707010637756188887e-01 4.816397049221604054e-01 8.595838187567086397e-01
-1.707010637756188887e-01 4.816397049221604054e-01 8.595838187567086397e-01
-1.696809588387166445e-01 4.817827321864381895e-01 8.597056305355597061e-01
-1.685910704027831220e-01 4.844658879868818380e-01 8.584112384851014799e-01
2.003611524691208678e-01 4.771469697222310291e-01 8.556787819422297936e-01
7.426648396903661187e-01 3.507060250922288680e-01 5.704859506172711425e-01
6.739803847679375348e-01 5.628034425142446340e-01 4.785422928458656355e-01
-1.711575111504506086e-01 4.742071662670648835e-01 8.636160430641290908e-01
-1.656300223386168446e-01 4.788818449315035419e-01 8.621130287236753453e-01
-1.656300223386168446e-01 4.788818449315035419e-01 8.621130287236753453e-01
-1.676581940196218146e-01 4.803087390013245361e-01 8.609263878038798667e-01
-1.703251744210242113e-01 4.808537270832842214e-01 8.600982665420050521e-01
-1.703251744210242113e-01 4.808537270832842214e-01 8.600982665420050521e-01
-1.683515972987950637e-01 4.793568050167346661e-01 8.613215387827548586e-01
-1.714700846105105536e-01 4.807208962061999546e-01 8.599450157041276244e-01
-1.709189702654705101e-01 4.806584487151079332e-01 8.600896239823947464e-01
8.275419243621856547e-01 4.497871702965986485e-01 3.359551530480056614e-01
-1.766122047230096748e-01 4.658793610181717337e-01 8.670435687554447490e-01
-1.758809986772682521e-01 4.690322337901082217e-01 8.654909808716367836e-01
-1.760660934779745279e-01 4.733159077718983587e-01 8.631180580763381238e-01
-1.714447639712256555e-01 4.756408488064834961e-01 8.627702335230965636e-01
-1.691411500525332456e-01 4.737322444449996173e-01 8.642737019787246622e-01
-1.680907281485433113e-01 4.769668398951635857e-01 8.626981747696664815e-01
-1.685292559438918425e-01 4.772267309790100831e-01 8.624688615423085070e-01
-1.673699231861855985e-01 4.781643569230046298e-01 8.621752470240953148e-01
-1.685014566845629280e-01 4.757713743149467045e-01 8.632779728903359207e-01
8.750052863705141126e-01 4.140388932574834979e-01 2.508735611693124756e-01
-1.741000193330773660e-01 4.725054033497379513e-01 8.639605471741886866e-01
-1.767969428053567937e-01 4.701710932380473440e-01 8.646860610059692309e-01
-1.759456169385011093e-01 4.677191146932783705e-01 8.661881837283778030e-01
-1.766027247030266534e-01 4.682173520868723182e-01 8.657851863090663125e-01
-1.824074920457947058e-01 4.689404948774190673e-01 8.641888214445294647e-01
-1.760146782770574680e-01 4.677137701463300878e-01 8.661770386280913669e-01
-1.779322183225159892e-01 4.710727767573319458e-01 8.639621315086474240e-01
-1.687184419992960316e-01 4.733932474876679231e-01 8.645420293787975385e-01
9.233188450769538314e-01 3.407966911214439509e-01 1.770308607176597215e-01
9.250639578178337930e-01 3.438496527915655410e-01 1.613198382764033101e-01
-1.680867751863246717e-01 4.784962177886843415e-01 8.618516145888373003e-01
-1.676386993545839754e-01 4.791851975066934166e-01 8.615560416880462258e-01
-1.701172870016583183e-01 4.790849884122582725e-01 8.611258227118854247e-01
-1.710215457091979752e-01 4.779077481383897652e-01 8.616007283960072094e-01
-1.723582447238412307e-01 4.817835017993918334e-01 8.591724465260928145e-01
-1.698212345778594423e-01 4.753640696187442227e-01 8.632437370765903006e-01
-1.700289612115430393e-01 4.720405478020534007e-01 8.650247820612199101e-01
-1.742235260947755382e-01 4.714412741549211527e-01 8.645167945033153112e-01
9.374902397981598190e-01 3.218498174018522007e-01 1.323810610381373765e-01
9.377900328991340961e-01 3.135544014516136180e-01 1.491089921009507990e-01
-1.680374147706757137e-01 4.761730026177298791e-01 8.631469740520458789e-01
-1.707312984425786995e-01 4.794888070269273106e-01 8.607794767929850543e-01
-1.701291636765493720e-01 4.789840675076084131e-01 8.611796158413090874e-01
-1.716469325934249501e-01 4.720185285731149927e-01 8.647172018729244458e-01
-1.714141067222852699e-01 4.662840256470685563e-01 8.678688906989149299e-01
-1.704801360449401393e-01 4.663829687494115417e-01 8.679996829922141943e-01
-1.737380967989186897e-01 4.687562904101321148e-01 8.660730996409146121e-01
-1.775039036995233466e-01 4.740550734749481299e-01 8.624176201145776766e-01
-1.707091909492941262e-01 4.690406679876660268e-01 8.665213349359156547e-01
-1.717048130366207181e-01 4.753366041301722578e-01 8.628861859793880429e-01
9.397182416813816275e-01 3.174800787527760626e-01 1.270276578009029989e-01
-1.769013753499179831e-01 4.620686867256270092e-01 8.690215372169792785e-01
-1.756996550595095186e-01 4.623892610140028503e-01 8.690948179059024836e-01
-1.761989379798262756e-01 4.621694824194659823e-01 8.691106395476380087e-01
-1.751082963650973934e-01 4.681450956967057042e-01 8.661277353365585130e-01
-1.749078823942400995e-01 4.629447238429850731e-01 8.689588110735197990e-01
-1.716109912596268938e-01 4.645183730057259597e-01 8.687763514386205310e-01
-1.730811782361179052e-01 4.651635506640883211e-01 8.681392612213637561e-01
-1.723630737299029492e-01 4.652336750725027392e-01 8.682445498780356763e-01
-1.708579807431065689e-01 4.641047188271322232e-01 8.691457647476495962e-01
-1.698926488886359221e-01 4.627459536602119283e-01 8.700590038754290045e-01
-1.777101629932815730e-01 4.661120271382298008e-01 8.666941075869798450e-01
9.406303551100290150e-01 3.137771614804188425e-01 1.294543470837188348e-01
-1.765360305486049497e-01 4.530325440690950445e-01 8.738401134832535222e-01
-1.783640511460051759e-01 4.549269716093637950e-01 8.724836478474071733e-01
-1.773647725042961087e-01 4.556429931182892634e-01 8.723137052097174049e-01
-1.766527136565869405e-01 4.550233583731396747e-01 8.727815087939210237e-01
-1.760753465563079656e-01 4.557150351463282179e-01 8.725372651506965171e-01
-1.779130128102321684e-01 4.596690468145182007e-01 8.700869653508311874e-01
-1.762131431573810969e-01 4.581827686253513998e-01 8.712160918586181468e-01
-1.751154803144010785e-01 4.598454041808979209e-01 8.705611826907762030e-01
-1.791899939059513336e-01 4.632870887846674002e-01 8.679032316159519533e-01
-1.736548331337900986e-01 4.608574811504845270e-01 8.703185514493565478e-01
9.437074005057050075e-01 3.027982510108422343e-01 1.331523992106030951e-01
9.456916278270367515e-01 2.984931936807059261e-01 1.287212429404783476e-01
-1.737904528314507258e-01 4.519739604335663574e-01 8.749379507111553211e-01
-1.738408300842375354e-01 4.520122969562623272e-01 8.749081375755668466e-01
-1.736394799261902766e-01 4.520299426542967458e-01 8.749390047054226294e-01
-1.746086962129330955e-01 4.514992650449140554e-01 8.750201236947193761e-01
-1.747847999423923493e-01 4.516182709553433483e-01 8.749235458303794566e-01
-1.749854355685331320e-01 4.503093909963543640e-01 8.755578505840623249e-01
-1.773193315360764299e-01 4.500969235164192783e-01 8.751974714912365005e-01
-1.773193315360764299e-01 4.500969235164192783e-01 8.751974714912365005e-01
-1.786711126554198503e-01 4.494138762242184670e-01 8.752735580146341343e-01
-1.788211862370634175e-01 4.500789163268905657e-01 8.749011100866093127e-01
-1.776725302789001482e-01 4.513377992307178177e-01 8.744865138867871091e-01
-1.809782865975994026e-01 4.552521213696288371e-01 8.717754101651697951e-01
-1.789480389203167709e-01 4.533817847135430124e-01 8.731681147731720216e-01
-1.791608373763284578e-01 4.568345290513259327e-01 8.713229065146089747e-01
-1.762869313999777254e-01 4.571407689734456881e-01 8.717483783523467533e-01
9.450378477406393696e-01 2.966602965258298696e-01 1.374632125441085928e-01
-1.749064073034232447e-01 4.453342558097425630e-01 8.781145422361434916e-01
-1.783640854960038546e-01 4.489448456058519055e-01 8.755768262175009919e-01
-1.762354748885404665e-01 4.498777430278487199e-01 8.755290250579814693e-01
-1.755484218736403090e-01 4.492688525239398323e-01 8.759795943567961762e-01
-1.745207521996908484e-01 4.504234832335124450e-01 8.755919099691613638e-01
-1.745175415370059657e-01 4.517586299396179617e-01 8.749044336217292051e-01
-1.749844873305071991e-01 4.508766511994415915e-01 8.752660593195972227e-01
-1.797444897737163760e-01 4.475870461791467414e-01 8.759895858334234564e-01
-1.801013960310042239e-01 4.454606683392599575e-01 8.769995895725510859e-01
9.449708886216282577e-01 2.958269600745883077e-01 1.397012145640761649e-01
9.452191380191794501e-01 2.953439104922659930e-01 1.390422801072247472e-01
-1.806069186605678834e-01 4.489019093401139804e-01 8.751389699486220586e-01
-1.782356230670390784e-01 4.495259479586819484e-01 8.753047953608805720e-01
-1.762529964813235872e-01 4.497355417788748699e-01 8.755985516732062157e-01
-1.745680603886435867e-01 4.499149067456085782e-01 8.758439181613566493e-01
9.465241084023823248e-01 2.908784274396179481e-01 1.395774074244479079e-01
9.452029303992486309e-01 2.944433863163486986e-01 1.410479089502386374e-01
-1.846979607475269514e-01 4.504420340525452371e-01 8.734922078955889013e-01
-1.833513843275261790e-01 4.506385579733175328e-01 8.736745160143499778e-01
-1.810165095412172021e-01 4.508749467647648057e-01 8.740393616155882617e-01
-1.810165095412172021e-01 4.508749467647648057e-01 8.740393616155882617e-01
-1.781758124249387121e-01 4.506148237768789477e-01 8.747569150679778138e-01
-1.760629084191505100e-01 4.506822943912565105e-01 8.751498853346336704e-01
-1.750339734595418861e-01 4.501557832427942607e-01 8.756271346572300773e-01
9.443685237937752275e-01 2.962330144084613370e-01 1.428778934686606716e-01
9.452144378946583103e-01 2.944500053155363339e-01 1.409569464948986495e-01
-1.834602749331094296e-01 4.523907143331908909e-01 8.727456497207952690e-01
-1.865381652234405774e-01 4.522386203325801102e-01 8.721718541633619592e-01
-1.852906283513315600e-01 4.511747060365303152e-01 8.729884121098168137e-01
-1.859255485000244068e-01 4.516781047601247101e-01 8.725930208838866831e-01
-1.846298494278648950e-01 4.510206569710558111e-01 8.732079853537993985e-01
-1.832791034706097721e-01 4.511476690563688829e-01 8.734269007398469675e-01
-1.804477036344395713e-01 4.509748975880502608e-01 8.741054101185422587e-01
9.436153836544864948e-01 2.974330387990676283e-01 1.453395856652576479e-01
9.446130988245107218e-01 2.954359667667461609e-01 1.429114518495735175e-01
-1.835056819477831613e-01 4.502343652057120282e-01 8.738504912630584709e-01
-1.833052640875660610e-01 4.502526276068393174e-01 8.738831452150365164e-01
-1.838006014583853931e-01 4.506189179259289523e-01 8.735902527562912079e-01
-1.838049031260148569e-01 4.507308785913577975e-01 8.735315865331366725e-01
-1.836805861507018467e-01 4.506321044561745204e-01 8.736086931256659138e-01
-1.848260450867392768e-01 4.507755799299356103e-01 8.732930261924828352e-01
-1.846969315097380382e-01 4.506668911928871091e-01 8.733764346909216325e-01
-1.854636436727092330e-01 4.498533793333505115e-01 8.736333178044476400e-01
9.433474901763085896e-01 2.985829490083623527e-01 1.447195057327412548e-01
-1.796253211050024001e-01 4.469781985727669937e-01 8.763248450309786275e-01
-1.802093954068245130e-01 4.474906380454314325e-01 8.759433216075109829e-01
-1.833979360533236347e-01 4.481186206379307868e-01 8.749599413052802088e-01
-1.824152210833386023e-01 4.473192172917594966e-01 8.755742144208018551e-01
-1.842100902753407987e-01 4.484276019618010922e-01 8.746309670023918459e-01
-1.838182810368826636e-01 4.480908423173076138e-01 8.748859563326017996e-01
-1.839766538310318722e-01 4.484592089527847936e-01 8.746638947336164982e-01
-1.840594974854058152e-01 4.486358448461214565e-01 8.745558759191015552e-01
9.440763688863306191e-01 2.981464092295634249e-01 1.408138074690082897e-01
-1.783738417702696866e-01 4.478935178486996849e-01 8.761131029959724481e-01
-1.780979518245971172e-01 4.458661584824929469e-01 8.772026494920930340e-01
-1.778906526227247153e-01 4.456968351123746785e-01 8.773307511311077000e-01
-1.815317699416256758e-01 4.466601037016616482e-01 8.760941549074972023e-01
-1.804461187697937730e-01 4.456956460223877037e-01 8.768093232497041756e-01
-1.834283500514730658e-01 4.465743855234186044e-01 8.757427468108287538e-01
-1.838744226801679316e-01 4.477196410301845786e-01 8.750641803432692711e-01
-1.842419807510311813e-01 4.473843138852695023e-01 8.751583675074718904e-01
-1.831268663749406334e-01 4.465808533384768020e-01 8.758025418113221106e-01
-1.840472189927312985e-01 4.473947313836938444e-01 8.751940216381474125e-01
-1.841948096218173625e-01 4.465475054938637944e-01 8.755955672829723868e-01
9.443608063700708044e-01 2.972364169381345178e-01 1.408303228635404414e-01
-1.812614238598511951e-01 4.483820927432370373e-01 8.752701269479580271e-01
-1.784773842884461448e-01 4.457926187384634864e-01 8.771629064067045789e-01
-1.770468629509897307e-01 4.448460378721219577e-01 8.779330332711533513e-01
-1.781840683181110385e-01 4.446711747354142319e-01 8.777915379844085653e-01
9.471421303302129946e-01 2.933258316335302096e-01 1.299297558300014921e-01
9.438721282568398596e-01 3.011652367765420557e-01 1.356646809498812944e-01
-1.820178472124449331e-01 4.503512356347087464e-01 8.741014059355116661e-01
-1.794539203672744776e-01 4.478609854111427757e-01 8.759091438108040917e-01
-1.806336870832773722e-01 4.477562194956423713e-01 8.757201830457437275e-01
-1.797439151727948936e-01 4.469775659583797855e-01 8.763008504436573531e-01
-1.796163926879850159e-01 4.458468202935852442e-01 8.769028248967242201e-01
-1.811209546522552505e-01 4.468889779340759483e-01 8.760624642038332688e-01
-1.774315486061010250e-01 4.439901713331125821e-01 8.782885478695678927e-01
-1.798101696299293784e-01 4.458204181723432469e-01 8.768765350026723748e-01
-1.774976923095268333e-01 4.437578801984815025e-01 8.783925733899068389e-01
-1.774976923095268333e-01 4.437578801984815025e-01 8.783925733899068389e-01
9.459153626955584260e-01 2.973851335780223759e-01 1.296387632743853935e-01
-1.815148535171063893e-01 4.527751160935546415e-01 8.729530641444198658e-01
-1.803852043164910213e-01 4.528796799585870780e-01 8.731329644128124068e-01
-1.819030313556520562e-01 4.500596760488534964e-01 8.742754572664303003e-01
-1.826061592315854631e-01 4.491223880009863612e-01 8.746108112794973577e-01
-1.817886867480695556e-01 4.473084870886940290e-01 8.757099923769490202e-01
-1.840082707958947961e-01 4.491375220296834891e-01 8.743091230129880209e-01
-1.803389986418400259e-01 4.458868331960183506e-01 8.767341544341047399e-01
-1.806824364020571394e-01 4.448790727909331388e-01 8.771752776774413007e-01
-1.795071784155554684e-01 4.459496032171746949e-01 8.768729236826338092e-01
-1.792723613330466093e-01 4.447679350398399678e-01 8.775208854622608134e-01
-1.797832590593101132e-01 4.447168705897330820e-01 8.774422401360033597e-01
-1.800133399174611015e-01 4.447964398643204920e-01 8.773547313007359350e-01
-1.800133399174611015e-01 4.447964398643204920e-01 8.773547313007359350e-01
-1.797094422725449558e-01 4.453971468962860669e-01 8.771122493129023256e-01
9.457487734290430659e-01 2.979051191939161014e-01 1.296603158854668369e-01
9.457487734290430659e-01 2.979051191939161014e-01 1.296603158854668369e-01
-1.836901935813015085e-01 4.604327890193433692e-01 8.684811797488375396e-01
-1.832701054851917088e-01 4.590119739471121840e-01 8.693216183948392350e-01
-1.831182377196748090e-01 4.590263238727494421e-01 8.693460444531340148e-01
-1.794298631310837222e-01 4.564968561358461741e-01 8.714445160507059418e-01
-1.756679683410728443e-01 4.527338702829232786e-01 8.741697819059893737e-01
-1.771012471833069701e-01 4.500122013773790730e-01 8.752851917275891180e-01
-1.818989115801674938e-01 4.495386438628024561e-01 8.745443348624144519e-01
-1.818989115801674938e-01 4.495386438628024561e-01 8.745443348624144519e-01
-1.810185680405416719e-01 4.472611349342333620e-01 8.758936894406155194e-01
-1.810185680405416719e-01 4.472611349342333620e-01 8.758936894406155194e-01
-1.802446942320754253e-01 4.460539595532520551e-01 8.766685322104651457e-01
-1.803208767081845021e-01 4.460485145249964978e-01 8.766556359901166440e-01
-1.766673790413163248e-01 4.422405186920450593e-01 8.793247186390604764e-01
-1.794090476087758512e-01 4.428833393570639210e-01 8.784456393858688372e-01
9.459594979962930861e-01 2.967942392350678138e-01 1.306667811935325885e-01
9.476531086918066338e-01 2.909957388443282778e-01 1.314346436872652069e-01
-1.889170400511373527e-01 4.579116073347178628e-01 8.686928754435896405e-01
-1.856731693050616694e-01 4.583835183726823193e-01 8.691432702866050963e-01
-1.825973513720870467e-01 4.572996311573959693e-01 8.703650122880677298e-01
-1.837750259595578584e-01 4.577734079473099738e-01 8.698679479150094318e-01
-1.829882853980085156e-01 4.572635181009156446e-01 8.703018800514397135e-01
-1.841042578787119577e-01 4.581365918834308659e-01 8.696070867974590168e-01
-1.836444647432609878e-01 4.577881140216845668e-01 8.698877819751409390e-01
-1.802440455239593120e-01 4.568407491262628795e-01 8.710962139688771533e-01
-1.820468761628977472e-01 4.583121507131610595e-01 8.699476463489094202e-01
-1.793763877810028717e-01 4.569076836562274702e-01 8.712401965718409302e-01
-1.802418246574932492e-01 4.463244528085462126e-01 8.765314412325945215e-01
9.483596694351856815e-01 2.894161635557748191e-01 1.298161070955475838e-01
-1.898210900834206571e-01 4.555349199073668864e-01 8.697447272070873980e-01
-1.905173342292832972e-01 4.554720022298333060e-01 8.696254369226524839e-01
-1.907252424646735667e-01 4.556517818163223765e-01 8.694856730357332086e-01
-1.895257954008010004e-01 4.564105144777975687e-01 8.693499957737422790e-01
-1.867979661851439654e-01 4.575178162183887731e-01 8.693583655040367786e-01
-1.825852068546026385e-01 4.574006425153801514e-01 8.703144802106761446e-01
-1.801451216570689184e-01 4.590301476908207334e-01 8.699649755329825762e-01
-1.842394169548869920e-01 4.524581022228008065e-01 8.725465620659248467e-01
-1.895625928947960726e-01 4.533059590170684383e-01 8.709648275875541135e-01
-1.929724934362095912e-01 4.550330659501901076e-01 8.693138246162785965e-01
-1.896813993736728987e-01 4.553232258657901599e-01 8.698860423749860127e-01
9.488121381980390012e-01 2.884273189559216077e-01 1.287058976425111967e-01
9.490319086007005245e-01 2.881202232003033936e-01 1.277700021159854371e-01
-1.933604126077985430e-01 4.752707292816084061e-01 8.583294732934841909e-01
-2.005393728473311432e-01 4.757434169576284511e-01 8.564182162702280721e-01
-2.091837226404763272e-01 4.760474343490447846e-01 8.541785588692590858e-01
-2.139254062472170925e-01 4.737739541231285600e-01 8.542682020047912550e-01
-2.095544981379991734e-01 4.734958911674891913e-01 8.555048529129665180e-01
-2.029747227969785628e-01 4.758743659208427568e-01 8.557714938959615214e-01
-1.746639343710918724e-01 4.510844683818180934e-01 8.752230072471263167e-01
-1.765793424484702057e-01 4.513746250343310673e-01 8.746889068094911845e-01
-1.833809094305367815e-01 4.504358920929691368e-01 8.737728246923455178e-01
-1.850963006658761512e-01 4.515356183813861723e-01 8.728430241531101030e-01
-1.953911355866417288e-01 4.576820579504798925e-01 8.673807917889214680e-01
9.483874102290655861e-01 2.895657733215653562e-01 1.292787029625907247e-01
9.483874102290655861e-01 2.895657733215653562e-01 1.292787029625907247e-01
-1.988525355120804861e-01 4.770380550619937599e-01 8.560913287395724991e-01
-1.988525355120804861e-01 4.770380550619937599e-01 8.560913287395724991e-01
9.483743686198792266e-01 2.934949873354018024e-01 1.201946311356629216e-01
