-9.998359240064312869e-01 -1.774573076720361089e-02 -3.635121145665883274e-03
-9.984484064006245996e-01 -5.446084542058356875e-02 -1.161017106369472557e-02
-9.983069206932008166e-01 -5.662160712935564166e-02 -1.331486771049855515e-02
-9.998335489740293180e-01 -1.780717966119554907e-02 -3.972240993635460515e-03
-2.030414485338992159e-01 -9.445741077059909285e-01 -2.579804745105470087e-01
-9.998336125378122219e-01 -1.758625938832278010e-02 -4.844658947185972835e-03
-9.998343514483235550e-01 -1.754854628974260311e-02 -4.828890869196100256e-03
-9.987423043365594166e-01 -4.748411616279555464e-02 -1.609559693635071592e-02
-9.970430907569171053e-01 -7.447429609647107651e-02 -1.893817295382895644e-02
-9.966858474453305083e-01 -7.881455533415510084e-02 -2.013919982677507894e-02
-9.968162272045282268e-01 -7.757905560019882907e-02 -1.840921817762947860e-02
-9.969761618561167049e-01 -7.548038438611830159e-02 -1.847279793561260042e-02
-9.967899598839125019e-01 -7.856055751288656963e-02 -1.542772432643050098e-02
-9.956972083129662643e-01 -9.033179623471401798e-02 -2.066968666370069471e-02
-9.966601197635776010e-01 -8.022939265971353040e-02 -1.522662885555372929e-02
-9.963861974768517538e-01 -8.343134786684823501e-02 -1.592971031566533038e-02
-9.898276554044458386e-01 -1.395075437410363828e-01 -2.790802457861559990e-02
-9.899152452860495721e-01 -1.390016815809683726e-01 -2.731921792298367888e-02
-9.871490717646311808e-01 -1.563237626232014121e-01 -3.316008675428799152e-02
-9.787070968414600669e-01 -2.013397805948527464e-01 -3.993383705803223160e-02
-9.792577384576796051e-01 -1.988695562155202157e-01 -3.879666585407622742e-02
-9.794690641101861939e-01 -1.979732709157386306e-01 -3.803861793019240600e-02
-9.556560673441947262e-01 -2.887999293819679680e-01 -5.758542990373717585e-02
-9.552162621164739242e-01 -2.906228029543934666e-01 -5.568014898654217310e-02
-9.485086136583659178e-01 -3.094638803315986619e-01 -6.755380511854672254e-02
-9.241827160094218119e-01 -3.706590675329271001e-01 -9.218548196473018430e-02
-9.140537908006831636e-01 -3.963245750121859867e-01 -8.621194096127932083e-02
-9.249780544715807684e-01 -3.655342022999713558e-01 -1.039247116661522335e-01
-9.249297507659685058e-01 -3.656695531151524237e-01 -1.038784581738109725e-01
-9.255061756151881092e-01 -3.596993921029270624e-01 -1.185523775338698099e-01
-8.953850017419673346e-01 -4.215126422477707413e-01 -1.435715538706743566e-01
-8.989516565404969128e-01 -4.210062013047387586e-01 -1.209946183350740362e-01
-8.992100774752247450e-01 -4.210566159070004422e-01 -1.188804557862431638e-01
-9.052838250204128245e-01 -4.131822504581802447e-01 -9.869966597068204062e-02
-8.995896869551903707e-01 -4.246232163535195725e-01 -1.021445997469022926e-01
-8.767632043925296381e-01 -4.671561976172771691e-01 -1.142425947320476198e-01
-8.681029052389577227e-01 -4.839183556991246693e-01 -1.105457865915136506e-01
-8.389374921945534913e-01 -5.299996897693936004e-01 -1.236293372734012241e-01
-8.498532178906985646e-01 -5.187037000586011137e-01 -9.325223636107420055e-02
-8.366990802799170179e-01 -5.382585984942164226e-01 -1.010560745615171480e-01
-8.398318793731620602e-01 -5.329035963058138536e-01 -1.034222965944605194e-01
-7.911358534859475045e-01 -5.960393292059432691e-01 -1.372631755744802284e-01
-8.073247316313358901e-01 -5.828135846741533399e-01 -9.249380095798298562e-02
-8.008874404506596267e-01 -5.930632582841836031e-01 -8.279661467559457089e-02
-8.028536164251701690e-01 -5.890980731893118438e-01 -9.159438169268786789e-02
-7.732892396381989553e-01 -6.261558419943406006e-01 -9.976278562737921074e-02
-7.681823188978572636e-01 -6.321464325809397211e-01 -1.014239257172701442e-01
-7.372524770239009539e-01 -6.654429099417860094e-01 -1.168097544314286584e-01
-7.611194867626851490e-01 -6.425455844124422500e-01 -8.850027583109533469e-02
-7.641449852723734004e-01 -6.412540521689695794e-01 -6.982608438084139668e-02
-7.624335668141938305e-01 -6.422603292532880204e-01 -7.871928392995088120e-02
-8.388758908104081424e-01 -5.384877424995260231e-01 -7.948704922695548625e-02
-8.255267588898361764e-01 -5.600403628144360324e-01 -6.971629920984816209e-02
-8.526126914767625520e-01 -5.190004449734172409e-01 -6.074649331563031218e-02
-8.716288603865741669e-01 -4.844274045439620480e-01 -7.478782967838065732e-02
-8.825016017586608807e-01 -4.663520087619352772e-01 -6.088289428982401191e-02
-8.638670001778513408e-01 -4.981893985281113379e-01 -7.443876139430916083e-02
-8.704516758628597639e-01 -4.829443902200741823e-01 -9.528166635035052734e-02
-8.700328091106784845e-01 -4.841644228426965069e-01 -9.288553560366785700e-02
-8.717242816187354970e-01 -4.805960626797345370e-01 -9.552068557666502924e-02
-8.949603939650679907e-01 -4.401711535496852790e-01 -7.276846031509805190e-02
-8.944457287448509542e-01 -4.364107507718694157e-01 -9.753202007969338783e-02
-9.054966391533735282e-01 -4.165568981933070458e-01 -8.097028497860045415e-02
-8.973650622080314720e-01 -4.319666118731460558e-01 -9.022633404505993326e-02
-9.063441528766267297e-01 -4.141487095684003861e-01 -8.379214109436804170e-02
-9.247492143456609304e-01 -3.733502391426693490e-01 -7.381388418986248312e-02
-9.347447362159401196e-01 -3.518652300083588980e-01 -4.942810969233455559e-02
-9.466507525919972688e-01 -3.185019699351364086e-01 -4.908001390018922744e-02
-9.522154014821841983e-01 -3.045435882347026224e-01 -2.321706366563791243e-02
-9.470431568066608463e-01 -3.189826989052196304e-01 -3.686864446676163531e-02
-9.462093780264080323e-01 -3.215449043363398096e-01 -3.600954637609516534e-02
-9.247897599496278653e-01 -3.781270998540474104e-01 -4.223501211408475786e-02
-9.253241452449189053e-01 -3.747998589166523509e-01 -5.744816779339366464e-02
-9.105438751799760366e-01 -4.074101117606298006e-01 -7.019153942907489785e-02
-8.988094941154223250e-01 -4.332426549621998246e-01 -6.665054545375277695e-02
-9.004225205922911091e-01 -4.320537257267142439e-01 -5.068394712224217474e-02
-9.210244785406375145e-01 -3.860841546580698336e-01 -5.150665443329130455e-02
-9.220327557695524590e-01 -3.854054807948778527e-01 -3.630719847735282280e-02
-9.253384709151474263e-01 -3.782372621744070074e-01 -2.617800120761155577e-02
-9.243039928354267465e-01 -3.805237924304343267e-01 -2.939000208994655902e-02
-9.359238091517795288e-01 -3.501753818050206690e-01 -3.773361154900563980e-02
-9.236037017180390718e-01 -3.829836855412652175e-01 -1.672419749837274552e-02
-8.938468877596779105e-01 -4.441684924949067526e-01 -6.125431835503387240e-02
-8.777683331160663904e-01 -4.739785949687421174e-01 -6.976420923438726718e-02
-8.695275023674017278e-01 -4.915419866104454583e-01 -4.804579092662279727e-02
-8.645623609732958625e-01 -5.004529497292742324e-01 -4.559352032415630446e-02
-8.708025941838218875e-01 -4.904066513634384727e-01 -3.470098357719788446e-02
-8.975715782005284638e-01 -4.400845013057965160e-01 -2.628485718129204562e-02
-8.997173185703295495e-01 -4.362765335239259801e-01 -1.309705924866715228e-02
-8.837444883851992561e-01 -4.679290145337858808e-01 -6.173864771946426314e-03
-8.634743336500965150e-01 -5.029882417005123729e-01 -3.761520754360948154e-02
-8.594473485968615600e-01 -5.095680861502603909e-01 -4.111715660142029743e-02
-8.391098937973159311e-01 -5.425603416903385101e-01 -3.902386137122024895e-02
-8.270763725275560585e-01 -5.607593412704221514e-01 -3.864757669791786532e-02
-8.700646499314571569e-01 -4.929111659409516344e-01 5.107585572696606707e-03
-8.720543374408504800e-01 -4.893727476572262147e-01 5.962080259100566333e-03
-8.390551709222937582e-01 -5.437634339754793267e-01 -1.754274835238184282e-02
-8.365819658750219823e-01 -5.477305871112374547e-01 -1.103713348033962156e-02
-8.012292863234623530e-01 -5.981037263227759748e-01 -1.742306793894097747e-02
-8.039555816698752411e-01 -5.931400371514504721e-01 -4.289893972848934922e-02
-7.643831712305921844e-01 -6.430533578895163416e-01 -4.691211406961590114e-02
-7.646981381107684772e-01 -6.422964891425174683e-01 -5.188427126904773118e-02
-7.657949516918827193e-01 -6.414310919282985024e-01 -4.608954622143443536e-02
-8.031821766307348787e-01 -5.956979888531628298e-01 6.503631217409325087e-03
-8.036339170838653345e-01 -5.943200502343418679e-01 3.092256784117973847e-02
-8.049416645306427531e-01 -5.932094716926057387e-01 1.309348680900952744e-02
-7.771996561200980036e-01 -6.291653643390103801e-01 -1.056592840035393450e-02
-7.632698586611413871e-01 -6.460776714906258933e-01 1.662907289125210245e-03
-7.607463853630066497e-01 -6.488922402268151313e-01 -1.427577425377613528e-02
-7.222430398796220175e-01 -6.897114408728469703e-01 -5.160542291798688591e-02
-7.239483114761271487e-01 -6.878601237741972518e-01 -5.241462040509662496e-02
-7.275177242583823478e-01 -6.808540793150674730e-01 -8.459127360393825512e-02
-7.277558532914806255e-01 -6.812444238527477491e-01 -7.923037908231124471e-02
-6.960864099059250742e-01 -7.154351920975769996e-01 -6.013481398145067991e-02
-5.638133310664332765e-01 -8.221938983283316738e-01 -7.817749844701785134e-02
-5.994836222949470050e-01 -7.971243059498220873e-01 -7.219575793731752844e-02
-4.148665803759497006e-01 -8.976797955999056278e-01 -1.485149994407207463e-01
-3.851349082269149293e-01 -8.993277891674555935e-01 -2.070763871044266069e-01
-1.775140219301148126e-01 -9.723044463999062081e-01 -1.520290614624927317e-01
5.515850674999431963e-02 -9.918537755131975331e-01 -1.148199770655197877e-01
-5.524807771340880386e-02 -9.915541603358285494e-01 -1.173371084937896019e-01
-2.722215703730626601e-01 -9.442401041401672357e-01 -1.852189038866973725e-01
-3.220691377963604829e-01 -9.385441976212284265e-01 -1.241219545069836561e-01
-4.707851339236628907e-01 -8.786622657158217331e-01 -7.946055929590062350e-02
-5.030072661810111034e-01 -8.622800849052650873e-01 -5.879409277192969296e-02
-5.465876870438295398e-01 -8.367375683062587832e-01 3.334879543560183290e-02
-5.515181707675496092e-01 -8.341187402179891519e-01 -8.581056483378668789e-03
-3.357756227604352661e-01 -9.380458788164214301e-01 -8.558422982868658935e-02
-1.240298281354962201e-01 -9.917714428355020040e-01 -3.171761196348452105e-02
1.131514636902771348e-01 -9.928658901194094000e-01 3.760412879114174989e-02
-3.907486705829265965e-04 -9.926648012044992919e-01 1.208984688286349057e-01
1.579609371729474854e-01 -9.796925953924752184e-01 1.234939709483823256e-01
2.372069158912021303e-01 -9.619621607683306319e-01 1.355052777692027921e-01
2.454196761725443710e-01 -9.588458450139846212e-01 1.427719441864588046e-01
1.013463041311870108e-02 -9.948763387322866469e-01 1.005900586391605678e-01
3.246796372890013993e-01 -9.452427336915435463e-01 3.315580693061561529e-02
3.928333666998463092e-01 -9.186882193079810577e-01 4.115703721108997931e-02
3.101834352291750196e-01 -9.505123846688283695e-01 -1.767606009848972370e-02
1.093803933417990121e-01 -9.928501327814385213e-01 -4.779689726617630807e-02
-1.509358947841540899e-02 -9.991572457223416581e-01 -3.817043197556433537e-02
-3.117423396072776035e-02 -9.958560905472858549e-01 8.543309696386898466e-02
-2.940933057200559864e-01 -9.552868737288356948e-01 3.059601954563989298e-02
-4.058008479044263317e-01 -9.134231410452978706e-01 3.136617992345636097e-02
-4.794912583042315046e-01 -8.766286060033824379e-01 4.013004294031401881e-02
-3.282623782603575346e-01 -9.394729093010066867e-01 9.815530402559186074e-02
-3.538964468997581880e-01 -9.286673633780724302e-01 1.110595924184214905e-01
-4.295185976043890408e-01 -8.836855910933334446e-01 1.860471725288642963e-01
-5.460024306349443579e-01 -8.265048128637809688e-01 1.370078101924813441e-01
-6.664983307249591205e-01 -7.446381535592873080e-01 3.597214762365973095e-02
-6.022482503755194339e-01 -7.972506526153514406e-01 4.109065373076395411e-02
-6.680096450615532477e-01 -7.435205099805576312e-01 3.066537694190369853e-02
-7.258885216477986013e-01 -6.877505610682794757e-01 9.220623093927368327e-03
-7.261367580197403138e-01 -6.875002197105004598e-01 8.297984730937171469e-03
-7.409165855950785584e-01 -6.697082833000290725e-01 5.033317464116970896e-02
-7.272458039341201941e-01 -6.854805763584480571e-01 3.507021664468569500e-02
-7.273366020792463305e-01 -6.843016293355053126e-01 5.208404136190734196e-02
-7.664474603359743288e-01 -6.412548051821482797e-01 3.675003912024883690e-02
-7.636597320527571675e-01 -6.448586404380522996e-01 3.132327399072293295e-02
-7.943499425569007233e-01 -6.063660293268791079e-01 3.644732141328122649e-02
-8.021679572661423174e-01 -5.946835109785472140e-01 5.364783411930745122e-02
-8.058556017770509561e-01 -5.904352161326261728e-01 4.453094019854258317e-02
-8.067130268765360102e-01 -5.880644317532727205e-01 5.826076187622194341e-02
-8.001911141996790322e-01 -5.978773201669621562e-01 4.729577978898540785e-02
-8.055637717949905019e-01 -5.887718650721979197e-01 6.644321237593750484e-02
-8.290349833329195839e-01 -5.536185308688512663e-01 7.878780799591163231e-02
-8.358486340108329804e-01 -5.429749484825673322e-01 8.084099419587806312e-02
-8.685975683550883897e-01 -4.874124748997764045e-01 8.925997736781129954e-02
-8.513116354647890516e-01 -5.151680796278651497e-01 9.934963037074644177e-02
-8.584526264031073772e-01 -5.044805615459492243e-01 9.251189785044279523e-02
-8.698461280622450387e-01 -4.858052904146635820e-01 8.579588160421779131e-02
-8.689706704984788699e-01 -4.896213435127061975e-01 7.183950020870590036e-02
-8.372294295678961440e-01 -5.429719356891795634e-01 6.502583578363764494e-02
-8.275327752576304707e-01 -5.583373092055056164e-01 5.872780451847165600e-02
-8.368515339812180320e-01 -5.466656664904234741e-01 2.891641668435617971e-02
-8.387349548671069188e-01 -5.438691641335283711e-01 2.701865630947229008e-02
-8.385541267770234564e-01 -5.442091469161194350e-01 2.575618135619333129e-02
-8.435159022713376586e-01 -5.357981965100861999e-01 3.743280956473996057e-02
-8.487356126698457626e-01 -5.280068807412184873e-01 2.926762162988795837e-02
-8.850742483666196314e-01 -4.643613650953175576e-01 3.181347961284367032e-02
-8.708249870235313939e-01 -4.873597865887387970e-01 6.437608555702402369e-02
-8.755293679157462039e-01 -4.801000994597897087e-01 5.433433919497124981e-02
-8.998373033142862409e-01 -4.300240301966343770e-01 7.329502723594000235e-02
-8.992757944563364303e-01 -4.306039427415260801e-01 7.670260752006788363e-02
-8.904535432434547149e-01 -4.479857380129955713e-01 8.000791124712859637e-02
-9.255986364430356383e-01 -3.689840480094674913e-01 8.436786431657590513e-02
-9.206313516225620441e-01 -3.811204961035765115e-01 8.476486217400538981e-02
-9.194438210434683345e-01 -3.842152271830499011e-01 8.367627588309613229e-02
-9.267729920359213391e-01 -3.671552528272309379e-01 7.930221657783641243e-02
-9.248204285233903033e-01 -3.747309875682595104e-01 6.545121803243565684e-02
-9.212982064077920308e-01 -3.834200519586777323e-01 6.479721155875928229e-02
-9.240593196964667078e-01 -3.785089366426225288e-01 5.334190251363667840e-02
-9.239724361100637440e-01 -3.792073026726351381e-01 4.976704641204728746e-02
-9.000525621491730632e-01 -4.323100684633338076e-01 5.489435375278984425e-02
-9.028613997301040417e-01 -4.277451648014584662e-01 4.330550618998145473e-02
-9.012777021936047017e-01 -4.313232242433425179e-01 4.072811997801153300e-02
-8.986144410841222507e-01 -4.369030840818563521e-01 4.009714946019030113e-02
-8.992867555598393903e-01 -4.356611239338908925e-01 3.850605624206146493e-02
-9.249317044926931297e-01 -3.785265949211133463e-01 3.491359279233127721e-02
-9.269779968367740652e-01 -3.730198807987178955e-01 3.959749877696784603e-02
-9.236663272199542307e-01 -3.802476338726970551e-01 4.745790655113045486e-02
-9.265455121569001751e-01 -3.728678403553076226e-01 4.982958489368093102e-02
-9.459435170089722789e-01 -3.218167449927465951e-01 4.030936951838482579e-02
-9.466889091165707759e-01 -3.193386057417677004e-01 4.246132638744576360e-02
-9.651912438118157578e-01 -2.591779773042493518e-01 3.510895825111011448e-02
-9.647374495096435743e-01 -2.592598812986574575e-01 4.545291478699511195e-02
-9.650311904802046925e-01 -2.574165447610994861e-01 4.951286583925503665e-02
-9.583947976460901463e-01 -2.787239086493297768e-01 6.158242112932943435e-02
-9.472625739940315759e-01 -3.160285297987728836e-01 5.309975765884464294e-02
-9.465539694126833270e-01 -3.176600346296752364e-01 5.592571312166250141e-02
-9.463054042068084204e-01 -3.187684653858810502e-01 5.378426763022157997e-02
-9.466036293865016660e-01 -3.150135432720171935e-01 6.861513235075261674e-02
-9.686298758893925331e-01 -2.428863924750394865e-01 5.255819522168989066e-02
-9.689819415642333400e-01 -2.421221897904067832e-01 4.950598078522205903e-02
-9.810626100484644008e-01 -1.867983470616091379e-01 5.121066978614316478e-02
-9.798394932771323784e-01 -1.911159842724857449e-01 5.821724804533297964e-02
-9.780027173728341738e-01 -2.016044600049294588e-01 5.353808473856069144e-02
-9.792408405869467147e-01 -1.961959591630773325e-01 5.093644799797320682e-02
-9.645245437896868834e-01 -2.554177332332200900e-01 6.673968817203089487e-02
-9.647793393386535632e-01 -2.545770018122773815e-01 6.626746210277567606e-02
-9.577702586529953654e-01 -2.805110707939236780e-01 6.316384093625644625e-02
-9.464063605375483412e-01 -3.128010910835867242e-01 8.043928238733814851e-02
-9.461812172054517855e-01 -3.133784561953487091e-01 8.083964003030660872e-02
-9.472002049223855469e-01 -3.088116168564460362e-01 8.629691239840843464e-02
-9.481855257709183027e-01 -3.049719225171174664e-01 8.908611112143537125e-02
-9.653388710679724483e-01 -2.489073238511290143e-01 7.852393353928326103e-02
-9.629143102023940415e-01 -2.599481960159035765e-01 7.227009475242950065e-02
-9.640097529866600290e-01 -2.525862576415136562e-01 8.297818145304021453e-02
-9.655392163142040296e-01 -2.503582735081837929e-01 7.109681178051670269e-02
-9.643136901605139366e-01 -2.558709227679460407e-01 6.803806178083102174e-02
-9.786580845311518839e-01 -1.967180394051692149e-01 5.941688778792782871e-02
-9.889006043138416358e-01 -1.418285547467999230e-01 4.427477663583374162e-02
-9.899150173627800919e-01 -1.337365921261571833e-01 4.672025605803817316e-02
-9.925011595149535459e-01 -1.147025758628896219e-01 4.224650816210016868e-02
-9.910731074584646638e-01 -1.257061191595388039e-01 4.440796413336340481e-02
-9.966224203176128338e-01 -7.756529270022359535e-02 2.696992192409958591e-02
-9.969794724981354550e-01 -7.323949529503835654e-02 2.584391120298715552e-02
-9.998389435794002855e-01 -1.700183126629640010e-02 5.746706502062362033e-03
-9.987849177364024333e-01 -4.481005618269900959e-02 2.051211756964891469e-02
-9.993112708728155713e-01 -3.402871363228866797e-02 1.479968091176302354e-02
-9.989571482215228171e-01 -4.140573302007529571e-02 1.924009589875035411e-02
-9.967365681418641765e-01 -7.694110539654192005e-02 2.441884577815546867e-02
-9.966814516932887003e-01 -7.796481667019000694e-02 2.340023957446017017e-02
-9.897825948152972897e-01 -1.363958025309978117e-01 4.155237721986326099e-02
-9.902500084325378538e-01 -1.332338319269120164e-01 4.066530252475940299e-02
-9.899563542491631729e-01 -1.353257415937301478e-01 4.090672736619605648e-02
-9.897659187481331333e-01 -1.374828600044674942e-01 3.823466084138854582e-02
-9.897048488084344564e-01 -1.386092674011532577e-01 3.566206998464009625e-02
-9.904233027603897010e-01 -1.342841738013922370e-01 3.208491881988957684e-02
-9.899108413946643426e-01 -1.383835349374771817e-01 3.043884602799175332e-02
-9.842641966679223087e-01 -1.717432007884729106e-01 4.157239637764369167e-02
-9.934804482155445982e-01 -1.117391255794082799e-01 2.260457538176328593e-02
-9.897258301673556025e-01 -1.398920932319805965e-01 2.954629165756321105e-02
-9.968980727981475720e-01 -7.683690228960218804e-02 1.703886433649215784e-02
-9.968848531292578974e-01 -7.707473546441979961e-02 1.673543410095742340e-02
-9.966432782066119156e-01 -7.945004505324146371e-02 1.974503346707103674e-02
-9.953832201756397380e-01 -9.310169129823592238e-02 2.333066801833999851e-02
-9.967916078577371275e-01 -7.658067621789363399e-02 2.327854235980859193e-02
-9.998690713375023575e-01 -1.517226612820884307e-02 5.625168727735870532e-03
-9.998634350924342495e-01 -1.582221355836540416e-02 4.771658335542486827e-03
-9.990379207161802499e-01 -4.079259072899842770e-02 1.609961219121287465e-02
-9.995343195840172834e-01 -2.967427911131215179e-02 7.112041404515065911e-03
-9.998351801738996070e-01 -1.760309547350788137e-02 4.443367684092898798e-03
-9.998359134966092743e-01 -1.765208036287485224e-02 4.068186483360037436e-03
-9.991034158184932679e-01 -4.133278903890909295e-02 9.163244517305671466e-03
-9.990502068953943660e-01 -4.182631500795223889e-02 1.221652467460069766e-02
-9.997356674826217704e-01 -2.236089709547603444e-02 5.346535716009766584e-03
-9.994007027602552773e-01 -3.264075739935400067e-02 1.152459451365972325e-02
-1.000000000000000000e+00 0.000000000000000000e+00 0.000000000000000000e+00
8.108932796364620721e-02 -5.296916164185481168e-01 -8.443052246588966803e-01
1.000000000000000000e+00 0.000000000000000000e+00 0.000000000000000000e+00
9.996902966351376429e-01 -2.206850993927107069e-02 -1.150181214464895442e-02
-7.732580765923836863e-02 -5.447087785892726908e-01 -8.350527324652193828e-01
-8.328029228061781253e-02 -7.494061269042254780e-01 -6.568522283406388329e-01
1.526739120177396658e-01 -8.963471059975069988e-01 -4.162361615226305434e-01
9.630147695778136507e-02 -9.875378164848254148e-01 -1.244792615182679502e-01
-9.987463182373932380e-01 -4.184913920234877016e-02 -2.746709586530925173e-02
-9.994778012207214957e-01 -3.005535707140426921e-02 1.186593352005307044e-02
-2.201114383861848545e-01 -9.131949153731925284e-01 3.429664724548344701e-01
-9.998351608331020879e-01 -1.712929116145286285e-02 6.019846023862444710e-03
-9.988530608676526867e-01 -4.515357051873794547e-02 1.592852362055935736e-02
-9.998354966410127886e-01 -1.678004445542784911e-02 6.885474906864877398e-03
-9.994862522139154049e-01 -2.963241445868640064e-02 1.221276581000831432e-02
-9.994199922142696924e-01 -3.076995695991750421e-02 1.459071318044052011e-02
-9.998343427620363100e-01 -1.701295139223717168e-02 6.468888508249817995e-03
-9.987518843466461904e-01 -4.672471308268951601e-02 1.764864587905493401e-02
-9.995814325358018948e-01 -2.571368459638872714e-02 1.325768283493246671e-02
-9.994549933693496202e-01 -2.963850184976636257e-02 1.453531689282108394e-02
-1.000000000000000000e+00 0.000000000000000000e+00 0.000000000000000000e+00
-1.000000000000000000e+00 -0.000000000000000000e+00 0.000000000000000000e+00
-1.000000000000000000e+00 0.000000000000000000e+00 0.000000000000000000e+00
-1.000000000000000000e+00 0.000000000000000000e+00 0.000000000000000000e+00
-1.000000000000000000e+00 0.000000000000000000e+00 -0.000000000000000000e+00
-1.000000000000000000e+00 0.000000000000000000e+00 -0.000000000000000000e+00
-1.000000000000000000e+00 0.000000000000000000e+00 0.000000000000000000e+00
-9.999810672506938003e-01 -5.322766521358306829e-03 -3.087603718473054450e-03
-1.000000000000000000e+00 0.000000000000000000e+00 0.000000000000000000e+00
-1.000000000000000000e+00 0.000000000000000000e+00 0.000000000000000000e+00
-1.000000000000000000e+00 0.000000000000000000e+00 -0.000000000000000000e+00
-1.000000000000000000e+00 -0.000000000000000000e+00 0.000000000000000000e+00
-1.000000000000000000e+00 0.000000000000000000e+00 0.000000000000000000e+00
-9.993984212671157552e-01 -3.099873285881410076e-02 1.555230304309774061e-02
-9.994376103052571292e-01 -3.042472634459518141e-02 1.409961468174180527e-02
-1.986299107613735682e-01 -8.783081844294337026e-01 4.348803188409433584e-01
-9.998330214348601919e-01 -1.659985310184776061e-02 7.640296161502670158e-03
-9.995024452781688939e-01 -2.887128986003055856e-02 1.270080724910882183e-02
-9.998349645860290513e-01 -1.667220650292891571e-02 7.216725128323197777e-03
-9.965949611980862155e-01 -7.534745176028763425e-02 3.348499406922865462e-02
-9.968483612632272894e-01 -7.245378352226038154e-02 3.230779936992900225e-02
-9.938923304849242024e-01 -1.006943581078607458e-01 4.515176240737534680e-02
-9.938958419663276311e-01 -1.007402054790393908e-01 4.497183921172989013e-02
-9.968337130308053684e-01 -7.144226111939853963e-02 3.490776262331637264e-02
-9.995066490052930686e-01 -2.758237751197974499e-02 1.502235151354545245e-02
-9.998343609966999779e-01 -1.633154578426287279e-02 8.033130312465348172e-03
-9.988013402046512779e-01 -4.450810613184343068e-02 2.036937146671828971e-02
-9.990033701761621421e-01 -3.975584707155269820e-02 2.029135284531946928e-02
-9.967527312615306334e-01 -7.151998191507190350e-02 3.699844469091376903e-02
-9.972549216030074382e-01 -6.804673511997523516e-02 2.919354685699356716e-02
-9.968542936686477507e-01 -7.030937391292485517e-02 3.658017406128474813e-02
-9.966019619839223687e-01 -7.388790798531734427e-02 3.640201125418383865e-02
-9.896937517860530109e-01 -1.282354255186800851e-01 6.373345524674731144e-02
-9.903481985175760505e-01 -1.251368726359921857e-01 5.959201959889585953e-02
-9.833735837579378192e-01 -1.646825268587306379e-01 7.652489865719185047e-02
-9.843783322189831875e-01 -1.589651705935094250e-01 7.569262576994814640e-02
-9.853418482695716074e-01 -1.540097630018816555e-01 7.336507990051437111e-02
-9.895341660455791999e-01 -1.289871314521764956e-01 6.468735694259891700e-02
-9.897683874051135255e-01 -1.260850975828707587e-01 6.679137265395286571e-02
-9.977429625192802964e-01 -5.527419735707225779e-02 3.812799299440088746e-02
-9.966934059747846186e-01 -6.994742949312869607e-02 4.134744966363638335e-02
-9.967590968530012363e-01 -6.916578560237988949e-02 4.107793742137761522e-02
-9.968549701706350685e-01 -6.835471224656491929e-02 4.009740340460460351e-02
-9.963418677107892529e-01 -7.395590085115712198e-02 4.281830655070414243e-02
-9.901273040267434267e-01 -1.215907284625041551e-01 6.973963415942339983e-02
-9.871016685065638896e-01 -1.415655111151644940e-01 7.476297274894792844e-02
-9.788646512069878458e-01 -1.791856782293087536e-01 9.857224424210211944e-02
-9.792718507563030750e-01 -1.735510593237894750e-01 1.044350138790405558e-01
-9.787721389835374319e-01 -1.761072477187836938e-01 1.048395786452128164e-01
-9.901747126939750565e-01 -1.191707693658211886e-01 7.315986652640991961e-02
-9.899505619420954083e-01 -1.196003217389740442e-01 7.545626515050450622e-02
-9.873292680067508043e-01 -1.308802957534745959e-01 8.972883996094344061e-02
-9.916856593724382440e-01 -1.045741307145192783e-01 7.499202744528885023e-02
-9.899731187151102896e-01 -1.179137841124488079e-01 7.777894148007394315e-02
-9.898043275188402879e-01 -1.193328552082342092e-01 7.776286319848899065e-02
-9.851776842377981680e-01 -1.342345650849370575e-01 1.067989326552809259e-01
-9.793947071809099292e-01 -1.680216874584137265e-01 1.120478473226818594e-01
-9.767756801546251255e-01 -1.867176405998405009e-01 1.050989692970295403e-01
-9.648117877530756337e-01 -2.253442529943749106e-01 1.354923682541608609e-01
-9.653120470099827433e-01 -2.271677472689794808e-01 1.287146708737345324e-01
-9.648147955605425041e-01 -2.256624888119419803e-01 1.349401771551703155e-01
-9.606787847598792229e-01 -2.371350113997348630e-01 1.444411952343566119e-01
-9.646304252150079694e-01 -2.213204677698113465e-01 1.431970435995967017e-01
-9.644983005592560055e-01 -2.215233712539408650e-01 1.437721259723035716e-01
-9.703083043976604705e-01 -1.990399348155148795e-01 1.374223372147800326e-01
-9.901232304438877252e-01 -1.136679715548611219e-01 8.207058412100677602e-02
-9.898571169829716299e-01 -1.152197769146232620e-01 8.311011349952511507e-02
-9.898894085493827877e-01 -1.157842064410296995e-01 8.193275523607290722e-02
-9.969072434204113708e-01 -6.484699704656281261e-02 4.439386207528748379e-02
-9.966291331084552452e-01 -6.676010283589908778e-02 4.768081069811103828e-02
-9.969136102104151353e-01 -6.369703432095352724e-02 4.589053928591138587e-02
-9.967227444997401875e-01 -6.373732413042536293e-02 4.981289099819904281e-02
-9.899191982466838402e-01 -1.116108343155443189e-01 8.719519829687344403e-02
-9.792354669299636605e-01 -1.648242724090289157e-01 1.180290622316826910e-01
-9.788344596040005063e-01 -1.630859151235458659e-01 1.236369078392843268e-01
-9.792184059242172722e-01 -1.648429447153340610e-01 1.181444754392357577e-01
-9.796176207830468163e-01 -1.589441010352357075e-01 1.228254444220078234e-01
-9.836956837411516830e-01 -1.488718808573193664e-01 1.008958119994678715e-01
-9.792998469849820697e-01 -1.596563512324286616e-01 1.244253157775294660e-01
-9.796237683093698134e-01 -1.570635254128313063e-01 1.251731662467751305e-01
-9.649318563809813343e-01 -2.069621716212095841e-01 1.614718924735395744e-01
-9.642488017548254131e-01 -2.096800848403886364e-01 1.620447787980559551e-01
-9.604177072177803032e-01 -2.240706969395410697e-01 1.654996992008449797e-01
-9.611215592356294746e-01 -2.124754453114298391e-01 1.763505982756559953e-01
-9.795870876247732006e-01 -1.525014424112783595e-01 1.309673540287589477e-01
-9.787725270801359567e-01 -1.558912010886858435e-01 1.330498916057118175e-01
-9.792506631303288245e-01 -1.543029295604095019e-01 1.313725416054906947e-01
-9.907559589703589520e-01 -9.937893588316851212e-02 9.233881560564634328e-02
-9.906902394848469129e-01 -1.088072278761478828e-01 8.181586980143051857e-02
-9.901085105791707086e-01 -1.076198310374242156e-01 9.001727193251525538e-02
-9.968031485598687347e-01 -6.098941730781447940e-02 5.161176220190093894e-02
-9.967887940627875309e-01 -5.890430284446495496e-02 5.424373823089016083e-02
-9.899084962456057291e-01 -1.041445397690791558e-01 9.609934389500376928e-02
-9.894416444604731131e-01 -1.097097344999202057e-01 9.470483811987562284e-02
-9.792527459752251584e-01 -1.489938163787870029e-01 1.373495619973547355e-01
-9.743343828093421477e-01 -1.621710268140899858e-01 1.561187642072597026e-01
-9.792331585790815529e-01 -1.434385014044540219e-01 1.432753204640626055e-01
-9.643710297855384583e-01 -1.876032141502485262e-01 1.865302949948783595e-01
-9.647889968160077157e-01 -1.841434810860583526e-01 1.878120603056949167e-01
-9.461021348957633359e-01 -2.293253918745800091e-01 2.286932770923732761e-01
-9.647981678088091151e-01 -1.859776383576277059e-01 1.859484160289745502e-01
-9.584831363274641802e-01 -2.091150479968502951e-01 1.938581287363069505e-01
-9.647242270735528757e-01 -1.787771316434929869e-01 1.932508807189798061e-01
-9.859491381780350894e-01 -1.205999802788774583e-01 1.155852139450569555e-01
-9.787634703810398351e-01 -1.383691491851573863e-01 1.512482978464181615e-01
-9.884781644141515944e-01 -1.086063242257869210e-01 1.054304738422095350e-01
-9.917373792580482794e-01 -9.216584560808478710e-02 8.923243516639420281e-02
-9.902263772706519918e-01 -9.913869772938460612e-02 9.809811603676295289e-02
-9.901798343507458577e-01 -9.850492007729555466e-02 9.920018329466388785e-02
-9.895158472651273129e-01 -1.025214361926081730e-01 1.017238572419585096e-01
-9.897449850231487822e-01 -1.020534308983005733e-01 9.994979671521496412e-02
-9.945928784975669457e-01 -7.073527430365596225e-02 7.603635322074940583e-02
-9.969305640270125224e-01 -5.488128539189440769e-02 5.583453252706519626e-02
-9.968645709604002647e-01 -5.714870202021074541e-02 5.472707758817803303e-02
-9.965801593166380146e-01 -5.828589536940499694e-02 5.857252305826522731e-02
-9.993938160376236723e-01 -2.449731532622502483e-02 2.473624885798099415e-02
-9.988717000235868282e-01 -3.408254865132359646e-02 3.307123779690772369e-02
-9.986172314197970801e-01 -3.697820733664091558e-02 3.736625875877918473e-02
-9.987889557277699337e-01 -3.609119866273553107e-02 3.343721422782806874e-02
-9.997774626075576210e-01 -1.389263676125009755e-02 1.587513482820248484e-02
-9.968594460544577540e-01 -5.388259702447881910e-02 5.803370184554287187e-02
-9.981628904926926893e-01 -2.520518100593416647e-02 5.509576112307393997e-02
-9.953642210478850227e-01 -7.224513286198856743e-02 6.348785896130795803e-02
-9.967889330710900664e-01 -5.435384438019600500e-02 5.880036146225198213e-02
-9.990891164028322668e-01 -3.406840441767894356e-02 2.569593948158678184e-02
-9.967219534607629772e-01 -5.269709748023845147e-02 6.138699704757380471e-02
-9.926338360724689114e-01 -7.151873289508477172e-02 9.779129986423291954e-02
-9.914376974700028766e-01 -8.611908795045952747e-02 9.815699020426356391e-02
-9.817717760851568665e-01 -1.168295363208476240e-01 1.499167739969488322e-01
-9.794626140259264924e-01 -1.324507581026345138e-01 1.520190264524035051e-01
-9.768522854654753118e-01 -1.435624964306869977e-01 1.585856929217344113e-01
-9.794873909024570668e-01 -1.295448802406877209e-01 1.543456350744098760e-01
-9.792314402689169528e-01 -1.312242554947682105e-01 1.545509015137283004e-01
-9.788669288585404304e-01 -1.269718918423440313e-01 1.603049414990865285e-01
-9.848361697910891221e-01 -9.945573664874654551e-02 1.421487781124850802e-01
-9.898267394022182142e-01 -8.782592123161189757e-02 1.119358455732206159e-01
-9.880544200632537244e-01 -1.030595436460013392e-01 1.145739650049073105e-01
-9.895576634607745614e-01 -8.949250978298967096e-02 1.129899171554434589e-01
-9.949141775978822544e-01 -5.472868790934436872e-02 8.456092439449354459e-02
-9.968138673369291158e-01 -4.848219111489524003e-02 6.333712204934618950e-02
-9.960027230124944841e-01 -6.188818397063140103e-02 6.440829478035768607e-02
-9.967897004063704935e-01 -4.919683454306184728e-02 6.316616685157168398e-02
-9.966640576853902367e-01 -5.038095503905405670e-02 6.420681807600879532e-02
-9.998350947747295381e-01 -1.112904454568809133e-02 1.435017854619853074e-02
-9.988731012704975543e-01 -2.430148707058393809e-02 4.076720844522574438e-02
-9.998376535033632884e-01 -1.206331247733164955e-02 1.338443607189170222e-02
-9.990111441898460454e-01 -2.602901020125585746e-02 3.604475568564183274e-02
-9.998355613409983800e-01 -1.177369520287007039e-02 1.379240295236772509e-02
-1.789238249725592644e-01 -6.150899886871507016e-01 7.678870819814784809e-01
-1.890621704691535232e-01 -5.962863070927775233e-01 7.801910892026071576e-01
-9.998376661646954933e-01 -1.050631228823280250e-02 1.463757904972358415e-02
-9.993145398007765579e-01 -2.289978098208251406e-02 2.908694851191622605e-02
-9.998363767723484896e-01 -1.053844469925376351e-02 1.470241021271814080e-02
-9.965607290070521707e-01 -4.856417874708266608e-02 6.714338346817268210e-02
-9.958996126317385400e-01 -6.098851057674425230e-02 6.681588985850245299e-02
-9.966347431351462172e-01 -4.819878676278754881e-02 6.630283350307399071e-02
-9.930904920136061076e-01 -5.717823319107659397e-02 1.024788969560106455e-01
-9.896645841296942692e-01 -8.463282677402611531e-02 1.157639648234150831e-01
-9.880298018026331119e-01 -8.810778968892096774e-02 1.266259378878687170e-01
-9.899171758028745272e-01 -8.273435641566952159e-02 1.149739593079485006e-01
-9.900598580662539616e-01 -8.227792756651372552e-02 1.140693652177859341e-01
-9.899075126718845929e-01 -7.785135824154999773e-02 1.184157184486431813e-01
-9.901691014652650447e-01 -7.591506090240794646e-02 1.174821434587114133e-01
-9.896258104988869819e-01 -7.930201054270674677e-02 1.197996090073139008e-01
-9.969207705691718324e-01 -4.346994293300278367e-02 6.526362899173128451e-02
-9.966265341428200975e-01 -4.499039905425047947e-02 6.863975113161072117e-02
-9.998379330733202508e-01 -9.868695333187019886e-03 1.505710596666481535e-02
-9.989271457585934266e-01 -2.444046968639625519e-02 3.933472903298034645e-02
-9.986911270048171030e-01 -2.531435187409627335e-02 4.444340705934467922e-02
-9.968334215621439398e-01 -4.274774234654352828e-02 6.705043013271926033e-02
-9.978343353205382238e-01 -1.693829172436507255e-02 6.355889810939011064e-02
-9.966898063968231414e-01 -4.071625125297502479e-02 7.036772490686206416e-02
-9.955169195505121360e-01 -4.415653886183430743e-02 8.364366661261596336e-02
-9.968688695611023221e-01 -4.086776065560115967e-02 6.769256265622076996e-02
-9.988808714375626563e-01 -1.111705078843372094e-02 4.597190291801019069e-02
-9.966656245716009055e-01 -3.955848339173301947e-02 7.136357046173097407e-02
-9.969494258320478197e-01 -3.712241667389495209e-02 6.865688977400388748e-02
-9.967983767997589117e-01 -3.549607669519776881e-02 7.164512927348624938e-02
-9.968813594036883829e-01 -3.726291653825251210e-02 6.956313912207889860e-02
-9.989484251318349051e-01 -3.267351900899152783e-02 3.216341216655271840e-02
-9.998368490329552216e-01 -7.990004083420204975e-03 1.619985032641885897e-02
-9.998586638910632596e-01 -9.553028800622438005e-03 1.383444551517153814e-02
-9.996285980559342921e-01 -5.011423410308972655e-03 2.678715334128959485e-02
-9.998337683638470752e-01 -8.991402080894874901e-03 1.586159916177112481e-02
-9.988179380900229498e-01 -1.242898299941717910e-02 4.699198794683320801e-02
-9.990886790763846559e-01 -2.264425115513755277e-02 3.618078538434400804e-02
-1.732089219000232105e-01 -4.107781720889343569e-01 8.951312544590908082e-01
-9.994287876217348154e-01 -1.470771679084720979e-02 3.042665837303717633e-02
-9.994311504869214380e-01 -1.454813825154778646e-02 3.042576391485251469e-02
-1.000000000000000000e+00 0.000000000000000000e+00 0.000000000000000000e+00
-9.995434509044907045e-01 -1.068279266136629678e-02 2.826247856958925830e-02
-9.994515977165039367e-01 -1.687838674640777803e-02 2.848901336947816387e-02
-1.000000000000000000e+00 0.000000000000000000e+00 0.000000000000000000e+00
-1.000000000000000000e+00 0.000000000000000000e+00 -0.000000000000000000e+00
-1.000000000000000000e+00 0.000000000000000000e+00 -0.000000000000000000e+00
-9.970520130994557917e-01 -6.898694539352108468e-02 -3.358696978880592460e-02
-1.000000000000000000e+00 0.000000000000000000e+00 0.000000000000000000e+00
-9.344274733540013089e-02 -9.868249436246717687e-01 -1.320794594574640213e-01
5.349600566875602203e-02 -9.976119067242543714e-01 4.368822426565584227e-02
1.000000000000000000e+00 0.000000000000000000e+00 0.000000000000000000e+00
1.000000000000000000e+00 0.000000000000000000e+00 0.000000000000000000e+00
1.000000000000000000e+00 0.000000000000000000e+00 0.000000000000000000e+00
1.216216485801422664e-01 -9.040783301312242948e-01 4.096956767941120070e-01
4.909160616797635102e-02 -9.495870403845011465e-01 3.096360233203693246e-01
-5.329165876675796137e-02 -8.459148124778368416e-01 5.306487813389130226e-01
-4.998100229554060941e-02 -5.851900405548442485e-01 8.093543821126520932e-01
-1.000000000000000000e+00 -0.000000000000000000e+00 0.000000000000000000e+00
-5.769328043914648263e-02 -6.626476433469575822e-01 7.467058230380242412e-01
-9.993881945902030051e-01 -2.057681899694279240e-02 2.828128415934156106e-02
-1.000000000000000000e+00 0.000000000000000000e+00 0.000000000000000000e+00
-1.000000000000000000e+00 -0.000000000000000000e+00 0.000000000000000000e+00
-1.000000000000000000e+00 0.000000000000000000e+00 0.000000000000000000e+00
-9.992385111822565946e-01 -2.358808466030777595e-02 3.108054105587066199e-02
-1.000000000000000000e+00 0.000000000000000000e+00 0.000000000000000000e+00
-9.993393185960097735e-01 1.294024451034789594e-02 3.396286766566346260e-02
-1.000000000000000000e+00 0.000000000000000000e+00 0.000000000000000000e+00
-9.993966153257791696e-01 -2.250403732239726964e-02 2.645701380671335035e-02
-9.994866246416012068e-01 -2.063425954492475317e-02 2.450947766828209806e-02
-1.000000000000000000e+00 0.000000000000000000e+00 -0.000000000000000000e+00
-1.000000000000000000e+00 0.000000000000000000e+00 0.000000000000000000e+00
-1.000000000000000000e+00 0.000000000000000000e+00 0.000000000000000000e+00
-1.000000000000000000e+00 0.000000000000000000e+00 0.000000000000000000e+00
-1.000000000000000000e+00 0.000000000000000000e+00 0.000000000000000000e+00
-1.000000000000000000e+00 0.000000000000000000e+00 -0.000000000000000000e+00
-1.000000000000000000e+00 0.000000000000000000e+00 0.000000000000000000e+00
-1.000000000000000000e+00 0.000000000000000000e+00 0.000000000000000000e+00
-1.000000000000000000e+00 0.000000000000000000e+00 0.000000000000000000e+00
-1.000000000000000000e+00 0.000000000000000000e+00 0.000000000000000000e+00
-1.000000000000000000e+00 -0.000000000000000000e+00 0.000000000000000000e+00
-1.000000000000000000e+00 0.000000000000000000e+00 0.000000000000000000e+00
-1.000000000000000000e+00 0.000000000000000000e+00 0.000000000000000000e+00
-9.999999340349019494e-01 -3.944650734684959203e-05 3.610736278089507175e-04
-1.000000000000000000e+00 0.000000000000000000e+00 -0.000000000000000000e+00
-1.000000000000000000e+00 0.000000000000000000e+00 0.000000000000000000e+00
-1.000000000000000000e+00 -0.000000000000000000e+00 0.000000000000000000e+00
-1.000000000000000000e+00 0.000000000000000000e+00 0.000000000000000000e+00
-1.000000000000000000e+00 -0.000000000000000000e+00 0.000000000000000000e+00
-1.000000000000000000e+00 0.000000000000000000e+00 0.000000000000000000e+00
-1.000000000000000000e+00 0.000000000000000000e+00 -0.000000000000000000e+00
-1.000000000000000000e+00 0.000000000000000000e+00 -0.000000000000000000e+00
-1.000000000000000000e+00 0.000000000000000000e+00 0.000000000000000000e+00
-1.000000000000000000e+00 0.000000000000000000e+00 0.000000000000000000e+00
-1.000000000000000000e+00 0.000000000000000000e+00 -0.000000000000000000e+00
-1.000000000000000000e+00 0.000000000000000000e+00 0.000000000000000000e+00
-1.000000000000000000e+00 0.000000000000000000e+00 0.000000000000000000e+00
-1.000000000000000000e+00 0.000000000000000000e+00 0.000000000000000000e+00
-1.000000000000000000e+00 0.000000000000000000e+00 0.000000000000000000e+00
-1.000000000000000000e+00 0.000000000000000000e+00 -0.000000000000000000e+00
-1.000000000000000000e+00 -0.000000000000000000e+00 0.000000000000000000e+00
-1.000000000000000000e+00 0.000000000000000000e+00 0.000000000000000000e+00
-1.000000000000000000e+00 0.000000000000000000e+00 0.000000000000000000e+00
-9.066411469594750638e-01 -3.940764760930254296e-01 1.506836475205951542e-01
-1.000000000000000000e+00 0.000000000000000000e+00 0.000000000000000000e+00
-1.000000000000000000e+00 0.000000000000000000e+00 0.000000000000000000e+00
-9.998862287838180540e-01 -1.405797155182432999e-02 5.468356638169791055e-03
-1.000000000000000000e+00 0.000000000000000000e+00 0.000000000000000000e+00
-1.000000000000000000e+00 0.000000000000000000e+00 -0.000000000000000000e+00
-1.000000000000000000e+00 0.000000000000000000e+00 0.000000000000000000e+00
-9.999999767996009536e-01 2.008266304455416152e-04 -7.790675458081164904e-05
-1.000000000000000000e+00 0.000000000000000000e+00 -0.000000000000000000e+00
-1.000000000000000000e+00 -0.000000000000000000e+00 0.000000000000000000e+00
-1.000000000000000000e+00 0.000000000000000000e+00 0.000000000000000000e+00
-1.000000000000000000e+00 0.000000000000000000e+00 -0.000000000000000000e+00
-1.000000000000000000e+00 0.000000000000000000e+00 -0.000000000000000000e+00
-1.000000000000000000e+00 -0.000000000000000000e+00 0.000000000000000000e+00
-1.000000000000000000e+00 0.000000000000000000e+00 0.000000000000000000e+00
-9.947432675957740278e-01 -9.537749274054824200e-02 3.726882680483997734e-02
-1.000000000000000000e+00 0.000000000000000000e+00 0.000000000000000000e+00
-9.999888800016358825e-01 4.672033753019924109e-03 -6.418517622188038389e-04
-9.980552537959042070e-01 3.407551867955927599e-02 -5.219740795396302091e-02
-1.000000000000000000e+00 0.000000000000000000e+00 0.000000000000000000e+00
-9.978143332477777960e-01 -2.542151108058626069e-02 6.099428776264483043e-02
-1.000000000000000000e+00 0.000000000000000000e+00 0.000000000000000000e+00
-1.000000000000000000e+00 0.000000000000000000e+00 0.000000000000000000e+00
-9.994391429963719320e-01 -1.795830950094591538e-02 2.826479376442894015e-02
-1.000000000000000000e+00 -0.000000000000000000e+00 0.000000000000000000e+00
-1.000000000000000000e+00 0.000000000000000000e+00 0.000000000000000000e+00
-1.000000000000000000e+00 -0.000000000000000000e+00 0.000000000000000000e+00
-1.000000000000000000e+00 0.000000000000000000e+00 -0.000000000000000000e+00
-1.000000000000000000e+00 0.000000000000000000e+00 0.000000000000000000e+00
-1.000000000000000000e+00 0.000000000000000000e+00 -0.000000000000000000e+00
-1.000000000000000000e+00 -0.000000000000000000e+00 0.000000000000000000e+00
-1.000000000000000000e+00 0.000000000000000000e+00 0.000000000000000000e+00
-1.000000000000000000e+00 0.000000000000000000e+00 0.000000000000000000e+00
-1.000000000000000000e+00 0.000000000000000000e+00 -0.000000000000000000e+00
-1.000000000000000000e+00 -0.000000000000000000e+00 0.000000000000000000e+00
-1.000000000000000000e+00 0.000000000000000000e+00 0.000000000000000000e+00
-1.000000000000000000e+00 0.000000000000000000e+00 0.000000000000000000e+00
-1.000000000000000000e+00 0.000000000000000000e+00 0.000000000000000000e+00
-1.000000000000000000e+00 0.000000000000000000e+00 0.000000000000000000e+00
-1.000000000000000000e+00 0.000000000000000000e+00 0.000000000000000000e+00
-1.000000000000000000e+00 0.000000000000000000e+00 0.000000000000000000e+00
-1.000000000000000000e+00 0.000000000000000000e+00 0.000000000000000000e+00
-1.000000000000000000e+00 0.000000000000000000e+00 0.000000000000000000e+00
-1.000000000000000000e+00 0.000000000000000000e+00 -0.000000000000000000e+00
-1.000000000000000000e+00 -0.000000000000000000e+00 0.000000000000000000e+00
-1.000000000000000000e+00 0.000000000000000000e+00 0.000000000000000000e+00
-1.000000000000000000e+00 0.000000000000000000e+00 -0.000000000000000000e+00
-1.000000000000000000e+00 0.000000000000000000e+00 -0.000000000000000000e+00
-1.000000000000000000e+00 0.000000000000000000e+00 0.000000000000000000e+00
-1.000000000000000000e+00 0.000000000000000000e+00 0.000000000000000000e+00
-1.000000000000000000e+00 0.000000000000000000e+00 -0.000000000000000000e+00
-1.000000000000000000e+00 -0.000000000000000000e+00 0.000000000000000000e+00
-1.000000000000000000e+00 0.000000000000000000e+00 -0.000000000000000000e+00
-1.000000000000000000e+00 0.000000000000000000e+00 0.000000000000000000e+00
-1.000000000000000000e+00 0.000000000000000000e+00 0.000000000000000000e+00
-1.000000000000000000e+00 0.000000000000000000e+00 0.000000000000000000e+00
-1.000000000000000000e+00 0.000000000000000000e+00 0.000000000000000000e+00
-1.000000000000000000e+00 0.000000000000000000e+00 0.000000000000000000e+00
-1.000000000000000000e+00 0.000000000000000000e+00 0.000000000000000000e+00
-1.000000000000000000e+00 -0.000000000000000000e+00 0.000000000000000000e+00
-9.999991771499228133e-01 -1.260657836016739386e-04 1.276638905596825038e-03
-1.000000000000000000e+00 0.000000000000000000e+00 0.000000000000000000e+00
-1.000000000000000000e+00 0.000000000000000000e+00 0.000000000000000000e+00
-1.000000000000000000e+00 0.000000000000000000e+00 -0.000000000000000000e+00
-1.000000000000000000e+00 0.000000000000000000e+00 -0.000000000000000000e+00
-1.000000000000000000e+00 0.000000000000000000e+00 0.000000000000000000e+00
-1.000000000000000000e+00 0.000000000000000000e+00 0.000000000000000000e+00
-1.000000000000000000e+00 0.000000000000000000e+00 0.000000000000000000e+00
-1.000000000000000000e+00 0.000000000000000000e+00 -0.000000000000000000e+00
-1.000000000000000000e+00 0.000000000000000000e+00 -0.000000000000000000e+00
-9.994541118593365248e-01 -1.427731909494490969e-02 2.979322820585638201e-02
-1.000000000000000000e+00 0.000000000000000000e+00 0.000000000000000000e+00
-1.000000000000000000e+00 0.000000000000000000e+00 0.000000000000000000e+00
-1.000000000000000000e+00 -0.000000000000000000e+00 0.000000000000000000e+00
-1.000000000000000000e+00 0.000000000000000000e+00 0.000000000000000000e+00
-1.000000000000000000e+00 0.000000000000000000e+00 -0.000000000000000000e+00
-1.000000000000000000e+00 0.000000000000000000e+00 0.000000000000000000e+00
-9.999999841310299731e-01 8.564439702116470512e-05 1.562145228040314631e-04
-1.000000000000000000e+00 0.000000000000000000e+00 -0.000000000000000000e+00
-9.993468479504836743e-01 -7.613086145636184347e-03 3.532588867632020790e-02
-9.992355125955102446e-01 -1.624448085647691581e-02 3.555991014740692707e-02
-1.000000000000000000e+00 0.000000000000000000e+00 0.000000000000000000e+00
-1.000000000000000000e+00 0.000000000000000000e+00 -0.000000000000000000e+00
-1.000000000000000000e+00 0.000000000000000000e+00 0.000000000000000000e+00
-1.000000000000000000e+00 0.000000000000000000e+00 0.000000000000000000e+00
