3.345734354291295398e-01 -2.543028383521829250e-01 -4.378427350515757821e-01 1.055786384839856777e-04 -1.601278795160289425e-04 -9.999999816061065916e-01
2.647993992218352077e-01 -1.834142268666514586e-01 -5.243868607544779348e-01 1.055786384839856777e-04 -1.601278795160289425e-04 -9.999999816061065916e-01
2.448299742752949593e-01 -2.808814988045090777e-01 -4.538274970140809272e-01 1.055786384839856777e-04 -1.601278795160289425e-04 -9.999999816061065916e-01
3.289772621414288611e-01 -2.590562587127790417e-01 -5.345559488384680202e-01 7.265406356645038829e-05 -5.597279777857844713e-05 -9.999999957942165008e-01
3.003008350407038729e-01 -2.941912278111166734e-01 -5.329501534510643346e-01 7.265406356645038829e-05 -5.597279777857844713e-05 -9.999999957942165008e-01
2.508634055675897923e-01 -3.307605265905397274e-01 -6.370580654384612185e-01 1.872347472114858176e-04 -1.660080354374288299e-04 -9.999999686922401709e-01
3.753354537214342312e-01 -3.192649803397574204e-01 -5.408746974908221761e-01 1.872347472114858176e-04 -1.660080354374288299e-04 -9.999999686922401709e-01
2.885897849365831602e-01 -2.782056345829496125e-01 -4.332284801660081230e-01 1.872347472114858176e-04 -1.660080354374288299e-04 -9.999999686922401709e-01
3.400317861537117126e-01 -1.809700396521124466e-01 -4.423943636381934552e-01 1.872347472114858176e-04 -1.660080354374288299e-04 -9.999999686922401709e-01
4.644614479054328116e-01 -2.408036524130747480e-01 -4.247089036677717533e-01 6.230490346853305125e-05 2.180887664078403950e-07 -9.999999980590256188e-01
3.556707657709264336e-01 -3.177107023584818113e-01 -4.878516341980546067e-01 6.230490346853305125e-05 2.180887664078403950e-07 -9.999999980590256188e-01
3.981416976653706086e-01 -3.018320244342523329e-01 -4.283494534191567005e-01 6.230490346853305125e-05 2.180887664078403950e-07 -9.999999980590256188e-01
2.781853026566395437e-01 -1.987038636340832665e-01 -5.185014037686128674e-01 1.079067850477465160e-04 -5.601029533336791008e-05 -9.999999926094861324e-01
4.936087635126951700e-01 -3.035560132004287981e-01 -4.682698816396796415e-01 1.079067850477465160e-04 -5.601029533336791008e-05 -9.999999926094861324e-01
3.851400949299194076e-01 -1.729963901817294925e-01 -5.055946531677272260e-01 1.079067850477465160e-04 -5.601029533336791008e-05 -9.999999926094861324e-01
5.015878141446915572e-01 -2.582013951572931787e-01 -5.528127776516287284e-01 3.737258457211525641e-05 -1.455036358895085219e-05 -9.999999991957884138e-01
3.740315540685843487e-01 -2.586768453425734582e-01 -6.226912345634240120e-01 2.002636970870177785e-05 7.009923813787660955e-08 -9.999999997994698520e-01
4.374147606248134368e-01 -3.303825548084610153e-01 -5.182064429922201843e-01 2.002636970870177785e-05 7.009923813787660955e-08 -9.999999997994698520e-01
4.909108051937355888e-01 -3.461547591086657216e-01 -3.406522041556963032e-01 9.999999897488208722e-01 -8.687902766956323434e-05 1.138173658418226001e-04
5.457711206387432235e-01 -3.946030031309841757e-01 -5.881157574720594639e-01 9.999999897488208722e-01 -8.687902766956323434e-05 1.138173658418226001e-04
4.920856489371986942e-01 -3.706146211237342780e-01 -3.972077304177012991e-01 9.999999897488208722e-01 -8.687902766956323434e-05 1.138173658418226001e-04
3.887976005622075792e-01 -2.825919346399829446e-01 -4.392647768014279475e-01 9.999999918580489977e-01 -7.361821775095108540e-05 1.042317605181436311e-04
5.589680346005229117e-01 -2.650948701265562479e-01 -3.750996197662656018e-01 9.999999918580489977e-01 -7.361821775095108540e-05 1.042317605181436311e-04
-4.849733132289051341e-01 -2.132793410311658588e-01 -4.835618119848391072e-01 -6.127727976404789563e-05 -8.411646913431239012e-05 -9.999999945847574123e-01
-4.477140011527082075e-01 -3.109931575979849594e-01 -4.875109750203175940e-01 -6.127727976404789563e-05 -8.411646913431239012e-05 -9.999999945847574123e-01
-2.667310877915508027e-01 -1.598786964234832353e-01 -4.707730179809792581e-01 -7.447075396094162292e-05 -6.380422256797961815e-05 -9.999999951915639063e-01
-3.384570084615163843e-01 -2.426214358047626973e-01 -5.404982188395371923e-01 -7.447075396094162292e-05 -6.380422256797961815e-05 -9.999999951915639063e-01
-3.422372055335829999e-01 -2.725098191254187174e-01 -4.609636727118020527e-01 -1.427551204296123252e-04 -2.868432651953679285e-05 -9.999999893990925148e-01
-3.671201862274898198e-01 -2.850006860343080595e-01 -4.538285493576695306e-01 -1.427551204296123252e-04 -2.868432651953679285e-05 -9.999999893990925148e-01
-4.020486605206258779e-01 -2.835764974092762070e-01 -5.083708550979938456e-01 -1.036082190620854216e-04 -8.943285283235838357e-05 -9.999999906335507172e-01
-3.835553103883010961e-01 -1.777824264129353460e-01 -4.143080805007168799e-01 -1.036082190620854216e-04 -8.943285283235838357e-05 -9.999999906335507172e-01
-2.906642036276013696e-01 -2.187638685174519149e-01 -4.886850380834442120e-01 -1.036082190620854216e-04 -8.943285283235838357e-05 -9.999999906335507172e-01
-3.107057024096004372e-01 -2.414053253195712068e-01 -4.814584790764295241e-01 -1.036082190620854216e-04 -8.943285283235838357e-05 -9.999999906335507172e-01
-3.023523561125123216e-01 -2.707150676901782238e-01 -4.461869640802522685e-01 -3.361497471842733796e-04 -4.558650748631388680e-04 -9.999998395951775754e-01
-2.898886247255578197e-01 -3.459969095022432661e-01 -4.690076671044653422e-01 -2.779613366242497056e-04 -1.799965840981859993e-04 -9.999999451693610819e-01
-3.037366167840291897e-01 -2.136395965365024130e-01 -5.634244406876882660e-01 -1.410012330239843864e-04 -2.886896091922473676e-05 -9.999999896426177148e-01
-3.571383237376732911e-01 -1.870728131739011202e-01 -4.988416536943772739e-01 -1.410012330239843864e-04 -2.886896091922473676e-05 -9.999999896426177148e-01
-3.293872657450267472e-01 -2.750963277727803691e-01 -5.907744888198221966e-01 -1.410012330239843864e-04 -2.886896091922473676e-05 -9.999999896426177148e-01
-1.658040073343139964e-01 -3.174146974734468052e-01 -4.279377176733435983e-01 -1.886214832273376074e-03 -4.086446738631626979e-04 -9.999981375998342470e-01
2.094992542544957537e-01 -2.320050279655337666e-01 -3.707642988794908057e-01 1.437429808638716043e-04 -7.774293489915916474e-04 -9.999996874707325345e-01
2.368741570861722101e-01 -1.893422237472627834e-01 -5.022003673861877848e-01 1.115114167626927695e-03 -3.192462538311503523e-04 -9.999993273008849215e-01
3.475515804767655981e-01 -1.620959408867408413e-01 -5.011440603460436405e-01 2.623107767533080776e-04 -1.538974676827351300e-04 -9.999999537543118322e-01
2.954806727596430704e-01 -1.645156065149579738e-01 -4.984873894859576104e-01 2.623107767533080776e-04 -1.538974676827351300e-04 -9.999999537543118322e-01
3.463594884140045460e-01 -1.219761970667097989e-01 -4.737248065668088759e-01 2.623107767533080776e-04 -1.538974676827351300e-04 -9.999999537543118322e-01
4.007982808540834774e-01 -2.564316653168831617e-01 -5.501986858886135368e-01 1.858808888705938038e-04 -9.956015813552529297e-05 -9.999999777680347313e-01
3.193513332858080589e-01 -1.597555978761507900e-01 -4.125876110681874209e-01 1.858808888705938038e-04 -9.956015813552529297e-05 -9.999999777680347313e-01
3.141410280110031317e-01 -2.453372493683056432e-01 -4.748176085309596117e-01 1.858808888705938038e-04 -9.956015813552529297e-05 -9.999999777680347313e-01
4.835313232270982975e-01 -2.023941782933736111e-01 -4.511886427256425747e-01 1.080283105935062938e-04 -5.450381486565269296e-05 -9.999999926796091509e-01
4.188367335529503688e-01 -2.695496285016506510e-01 -5.816873664330644011e-01 1.080283105935062938e-04 -5.450381486565269296e-05 -9.999999926796091509e-01
4.678493399541345799e-01 -2.846517302918525338e-01 -4.975039468005396648e-01 1.080283105935062938e-04 -5.450381486565269296e-05 -9.999999926796091509e-01
4.572649705758312089e-01 -3.502123289644046844e-01 -6.202082220132834056e-01 1.080283105935062938e-04 -5.450381486565269296e-05 -9.999999926796091509e-01
4.697148228187498775e-01 -9.436374321270238341e-02 -4.650602865196673541e-01 1.453017496448302305e-04 -9.941036476058578888e-05 -9.999999845024902800e-01
4.591153583450814368e-01 -2.232776494336137507e-01 -4.154491424452050330e-01 1.453017496448302305e-04 -9.941036476058578888e-05 -9.999999845024902800e-01
4.202161545932592279e-01 -1.394605531835258205e-01 -3.929170582722314453e-01 1.453017496448302305e-04 -9.941036476058578888e-05 -9.999999845024902800e-01
4.678374071067934459e-01 -9.472802338737651429e-02 -5.034852884436217257e-01 1.453017496448302305e-04 -9.941036476058578888e-05 -9.999999845024902800e-01
5.354948878275949120e-01 -2.254649610802353654e-01 -4.804095620075425344e-01 8.768992725029801160e-06 -5.904334289291947237e-05 -9.999999982184941683e-01
5.655445462770335441e-01 -1.654723464244544640e-01 -4.568303632439444928e-01 4.046732934864458085e-06 -5.495612451928455928e-05 -9.999999984817240506e-01
5.072835024205277765e-01 -1.680018744473675274e-01 -5.194370631957770934e-01 4.046732934864458085e-06 -5.495612451928455928e-05 -9.999999984817240506e-01
4.379860378924046449e-01 -2.581482463942683658e-01 -3.910759549130297663e-01 9.999999920022119015e-01 -2.899567080967296550e-05 1.231049432846903675e-04
5.397997815577677549e-01 -3.236344459833302434e-01 -4.005018553198058107e-01 9.999999920022119015e-01 -2.899567080967296550e-05 1.231049432846903675e-04
4.467154434117904804e-01 -2.014373689189385419e-01 -4.896432486185181010e-01 9.999999919139072047e-01 -2.973291855034357786e-05 1.236452149319185352e-04
5.564827540549392992e-01 -2.601994381752068541e-01 -3.665380594423187088e-01 9.999999919139072047e-01 -2.973291855034357786e-05 1.236452149319185352e-04
4.252074391505307194e-01 -3.269376046654785539e-01 -5.955942121495302333e-01 9.999999919139072047e-01 -2.973291855034357786e-05 1.236452149319185352e-04
4.071933827259519578e-01 -1.537507976807351018e-01 -4.242400089771558580e-01 9.999999919139072047e-01 -2.973291855034357786e-05 1.236452149319185352e-04
-3.174025276686021635e-01 -1.314534634892815246e-01 -4.118598225788678846e-01 -7.591258383628735420e-05 -6.930185530132488799e-05 -9.999999947172661940e-01
-4.955999064366935491e-01 -1.291513156978529586e-01 -5.379201350412127214e-01 -7.591258383628735420e-05 -6.930185530132488799e-05 -9.999999947172661940e-01
-4.793272659937668490e-01 -2.702192475906035063e-01 -5.025259203419030207e-01 -7.591258383628735420e-05 -6.930185530132488799e-05 -9.999999947172661940e-01
-5.371675700609105375e-01 -9.384136691981792566e-02 -4.920595536217084454e-01 -8.992681829157305731e-05 -4.242826171873722554e-05 -9.999999950565049422e-01
-4.654526318049020950e-01 -8.605598678068064611e-02 -5.595475258791984263e-01 -8.992681829157305731e-05 -4.242826171873722554e-05 -9.999999950565049422e-01
-3.453559096999766487e-01 -4.411116399948752931e-02 -4.134432671265625969e-01 -2.382778708028622278e-04 1.405922576060909574e-04 -9.999999617287358422e-01
-2.387176675249588764e-01 -3.959992827047544017e-02 -4.937066604756636390e-01 -2.382778708028622278e-04 1.405922576060909574e-04 -9.999999617287358422e-01
-3.571431956483030468e-01 -1.720114788211114243e-01 -5.108809186226951349e-01 -2.570601089122980529e-04 -2.197602334538537928e-04 -9.999999428127686052e-01
-3.277994520155483871e-01 -1.486498568609063986e-01 -5.825037524614344875e-01 -2.570601089122980529e-04 -2.197602334538537928e-04 -9.999999428127686052e-01
-4.141882829516773667e-01 -2.160285500520125468e-01 -5.801846123278512346e-01 -1.035010734853105394e-04 -6.079009373888515625e-05 -9.999999927960461221e-01
-3.490520121169253254e-01 -2.274822781374108704e-01 -5.240786860359248900e-01 -1.035010734853105394e-04 -6.079009373888515625e-05 -9.999999927960461221e-01
-4.277005848199531557e-01 -7.990349675804896135e-02 -5.095142478804918218e-01 -1.035010734853105394e-04 -6.079009373888515625e-05 -9.999999927960461221e-01
-3.565712998521887722e-01 -1.388197069875863610e-01 -5.200261051884713659e-01 -4.758847369332903639e-04 -2.128128297041853155e-04 -9.999998641221992113e-01
2.933650986311601705e-01 -8.110476967853853802e-02 -3.960825729762496028e-01 3.019977039771386566e-04 -8.728897888644693911e-05 -9.999999505890092566e-01
3.627329902650975879e-01 -1.056987913352535058e-01 -4.543155307765849305e-01 2.578616040965346396e-04 -1.106258445361495694e-04 -9.999999606346571257e-01
3.084294905572514400e-01 -6.952386807874050278e-02 -5.189077752273363320e-01 2.578616040965346396e-04 -1.106258445361495694e-04 -9.999999606346571257e-01
4.030961706503717878e-01 -1.618088018959534247e-01 -5.511836419279958488e-01 1.633073659262678163e-04 -4.185790456479795285e-05 -9.999999857893099309e-01
4.457281964693827203e-01 -1.578096273037375152e-01 -4.730954712348213742e-01 1.633073659262678163e-04 -4.185790456479795285e-05 -9.999999857893099309e-01
4.340652647466441971e-01 -1.214995115578886981e-01 -4.217090954042877482e-01 1.633073659262678163e-04 -4.185790456479795285e-05 -9.999999857893099309e-01
3.502764267185648484e-01 -6.106137361753327664e-02 -5.020069325054281606e-01 1.750948516983446776e-04 -6.166104995908807296e-05 -9.999999827698538013e-01
5.392205153027809228e-01 -1.055482431516857889e-01 -5.179621683048029057e-01 1.750948516983446776e-04 -6.166104995908807296e-05 -9.999999827698538013e-01
3.938537458303964511e-01 -5.331546847986370907e-02 -5.094680628558083679e-01 1.750948516983446776e-04 -6.166104995908807296e-05 -9.999999827698538013e-01
4.598168700117558627e-01 -2.025609589494017371e-01 -5.083204228540680880e-01 1.119124516193807324e-05 -2.922042619286498066e-05 -9.999999995104613681e-01
4.043814263492261363e-01 -1.685390849883550979e-01 -5.016786781897980552e-01 2.451159785782573201e-05 -4.174437544020091995e-05 -9.999999988282943786e-01
4.900240466852711640e-01 -6.082494167707853949e-02 -5.427149776755650912e-01 2.451159785782573201e-05 -4.174437544020091995e-05 -9.999999988282943786e-01
4.898411835585110286e-01 -2.396319951545638760e-01 -4.634555613105647009e-01 9.999999918875777105e-01 -2.861613443368564796e-05 1.241207523552819401e-04
4.245756372837097281e-01 -8.084669186278699293e-02 -5.140254119660314647e-01 9.999999918875777105e-01 -2.861613443368564796e-05 1.241207523552819401e-04
4.162087104688845240e-01 -1.521676249797761504e-01 -4.794615439661607526e-01 9.999999918875777105e-01 -2.861613443368564796e-05 1.241207523552819401e-04
4.901047360846180756e-01 -1.804932425063116019e-01 -5.032141846617300684e-01 9.999999918148958500e-01 -2.921645913740857992e-05 1.245656721691802986e-04
-5.728206090731594591e-01 -1.599109030321934632e-01 -3.820412396182030212e-01 -8.365869690207847589e-05 -1.894599471764227264e-05 -9.999999963211358978e-01
-3.539836086872340526e-01 -9.146870114093816340e-02 -4.676757918380943790e-01 -8.365869690207847589e-05 -1.894599471764227264e-05 -9.999999963211358978e-01
-3.694619095297128619e-01 -2.044633007295952598e-01 -5.342251556984825012e-01 -8.365869690207847589e-05 -1.894599471764227264e-05 -9.999999963211358978e-01
-4.218839782475599653e-01 -4.023746427619743354e-02 -4.286279735524375911e-01 -8.365869690207847589e-05 -1.894599471764227264e-05 -9.999999963211358978e-01
-5.749936708998720780e-01 -4.715950540100184024e-02 -4.541089264803539471e-01 -9.574759476552081340e-05 -1.006714684148848826e-08 -9.999999954161989946e-01
-3.726805332459760534e-01 3.935009836717170972e-02 -5.632806253689539577e-01 -9.574759476552081340e-05 -1.006714684148848826e-08 -9.999999954161989946e-01
-3.890098306180624355e-01 -1.730983804440756058e-01 -4.439134796456499221e-01 -4.858661161874268397e-05 2.409908115318736108e-04 -9.999999697813846122e-01
-2.921500957360652073e-01 -3.246461171123282696e-02 -4.598906727571888675e-01 -4.858661161874268397e-05 2.409908115318736108e-04 -9.999999697813846122e-01
-4.468418666805265005e-01 -6.532737463746458861e-02 -4.521372277271704099e-01 -4.858661161874268397e-05 2.409908115318736108e-04 -9.999999697813846122e-01
-2.657834573311037563e-01 -7.735589958911801012e-02 -4.284679257448648082e-01 -4.858661161874268397e-05 2.409908115318736108e-04 -9.999999697813846122e-01
-4.000828931504939456e-01 -8.875991379515640878e-02 -5.003480496089299789e-01 -1.256939210082986429e-04 -2.846561626761133975e-05 -9.999999916953734580e-01
-4.228614772449374448e-01 -8.987400356586096317e-02 -3.924643797866180783e-01 -1.256939210082986429e-04 -2.846561626761133975e-05 -9.999999916953734580e-01
-4.013528267533484906e-01 -7.210628037604199791e-02 -5.326875969712991932e-01 -1.256939210082986429e-04 -2.846561626761133975e-05 -9.999999916953734580e-01
2.826706884348573201e-01 -3.350465082989935450e-02 -5.376977204145403366e-01 5.107624094386368574e-04 -1.068854176992362873e-04 -9.999998638486250480e-01
2.972778110023932552e-01 -8.527765025693248568e-02 -4.116050904313410808e-01 3.716645872333512583e-04 -2.162715207572833275e-04 -9.999999075460276332e-01
3.544184912279823574e-01 -2.235452941748474961e-02 -4.236733731135545744e-01 1.692628957438318030e-04 -7.472870489483429538e-05 -9.999999828828461945e-01
4.203296812966447193e-01 -6.459113993038120838e-02 -4.325930759508570533e-01 1.692628957438318030e-04 -7.472870489483429538e-05 -9.999999828828461945e-01
4.156298776491627045e-01 -1.006759311717179556e-01 -5.617706270026151527e-01 1.692628957438318030e-04 -7.472870489483429538e-05 -9.999999828828461945e-01
3.899860571572663637e-01 -1.312015149954583529e-02 -4.803763180974506830e-01 1.885004112849768612e-04 -1.057728277121204586e-04 -9.999999766398516288e-01
4.053901301178971517e-01 -7.029876881358708418e-02 -5.230838741858220287e-01 2.891042102952516397e-05 -2.927279280391488766e-05 -9.999999991536455690e-01
5.571873509193148166e-01 -2.162197297564545928e-01 -5.174069619338341752e-01 2.891042102952516397e-05 -2.927279280391488766e-05 -9.999999991536455690e-01
5.551604414380053587e-01 -9.741550125748170419e-03 -5.155225663565150551e-01 2.891042102952516397e-05 -2.927279280391488766e-05 -9.999999991536455690e-01
4.715374540689907246e-01 8.160698909717864491e-02 -4.383626642882604840e-01 7.265662978793845117e-05 -7.356732949136178881e-05 -9.999999946544312346e-01
3.508014611551939499e-01 -1.422050599134878079e-01 -4.133019125723640386e-01 7.265662978793845117e-05 -7.356732949136178881e-05 -9.999999946544312346e-01
4.950596725546008714e-01 -1.924465702119597665e-01 -4.306125385566839658e-01 9.999999913344185254e-01 -1.451005544011055255e-05 1.308457898998823313e-04
5.048336893794908020e-01 -7.968354404116770318e-02 -3.853732201936220236e-01 9.999999913344185254e-01 -1.451005544011055255e-05 1.308457898998823313e-04
4.416791876802237948e-01 -2.220506347699949812e-01 -4.690827964157728291e-01 9.999999913344185254e-01 -1.451005544011055255e-05 1.308457898998823313e-04
4.809722108846567479e-01 3.553229985175709871e-02 -4.759252143318073447e-01 9.999999927954046353e-01 3.513855947938762749e-09 1.200382884032458566e-04
-3.286617545699375698e-01 -2.803663038603818047e-02 -5.233326806749886151e-01 -8.168939160255578563e-05 5.162326922484235416e-05 -9.999999953309407497e-01
-4.871604472693927268e-01 -7.470753471433763671e-04 -4.304167553431543225e-01 -8.168939160255578563e-05 5.162326922484235416e-05 -9.999999953309407497e-01
-4.017945208212507224e-01 8.632071483162150061e-02 -5.395610205175016549e-01 -8.168939160255578563e-05 5.162326922484235416e-05 -9.999999953309407497e-01
-5.821661823441998118e-01 -1.335295364211561420e-01 -4.715549349030777604e-01 -5.480107548730506575e-05 1.474646968801962863e-05 -9.999999983896917799e-01
-5.503238062614990156e-01 -8.358069759864221460e-02 -4.338929286004474806e-01 -5.480107548730506575e-05 1.474646968801962863e-05 -9.999999983896917799e-01
-4.323708712164701096e-01 4.236328279211440395e-02 -5.643395097468597577e-01 -5.480107548730506575e-05 1.474646968801962863e-05 -9.999999983896917799e-01
-3.422496158805218291e-01 4.986416963269184321e-02 -4.504863843488882136e-01 6.368414713780884960e-05 8.081693806815668836e-05 -9.999999947064760475e-01
-4.200029601869428308e-01 5.211399102652647039e-03 -5.479152677548919659e-01 6.368414713780884960e-05 8.081693806815668836e-05 -9.999999947064760475e-01
-3.203307764171203775e-01 -4.172239695417613581e-03 -4.958310301216895533e-01 6.368414713780884960e-05 8.081693806815668836e-05 -9.999999947064760475e-01
-3.847305463927572222e-01 2.984830939965756047e-02 -5.006657568192008911e-01 5.739828822770381110e-05 6.122404818688583254e-05 -9.999999964785262208e-01
-4.020530336789249204e-01 -3.792989709580613100e-02 -5.452239867867584300e-01 5.739828822770381110e-05 6.122404818688583254e-05 -9.999999964785262208e-01
-3.658257865074631687e-01 -2.879385050201056437e-02 -5.500675481014442036e-01 5.739828822770381110e-05 6.122404818688583254e-05 -9.999999964785262208e-01
3.669353047534557599e-01 -1.933485664275517990e-02 -3.378702283488029812e-01 5.393299132530666616e-04 6.536008192651942628e-05 -9.999998524256412669e-01
3.006472290648795065e-01 9.616480004729391351e-02 -4.461528739335884897e-01 5.393299132530666616e-04 6.536008192651942628e-05 -9.999998524256412669e-01
3.473869531977111236e-01 9.694966527440779247e-02 -5.214882847806265875e-01 4.412448682387484539e-04 -1.700812896113464538e-05 -9.999999025068402325e-01
3.090758500843474588e-01 -5.384375087236151214e-02 -4.318207970271719098e-01 4.412448682387484539e-04 -1.700812896113464538e-05 -9.999999025068402325e-01
4.509629949774320856e-01 -6.899510316435385204e-02 -4.268833590700772396e-01 2.314876868661315458e-04 -2.502975434216168357e-07 -9.999999732066938707e-01
4.512028702981122352e-01 2.136715053758883598e-03 -5.286272724016288782e-01 2.314876868661315458e-04 -2.502975434216168357e-07 -9.999999732066938707e-01
3.720311672579806883e-01 -4.352681235414770922e-02 -3.829361105675201382e-01 2.314876868661315458e-04 -2.502975434216168357e-07 -9.999999732066938707e-01
4.291954012298651588e-01 3.691426797794616216e-02 -4.439877280934121373e-01 1.920016848251889820e-04 6.195848672886685175e-05 -9.999999796482492709e-01
3.666707569146516743e-01 -4.804389341930993124e-02 -4.717820333508882524e-01 1.920016848251889820e-04 6.195848672886685175e-05 -9.999999796482492709e-01
4.340372390797828661e-01 3.607102285626413718e-02 -3.832636696574649449e-01 1.920016848251889820e-04 6.195848672886685175e-05 -9.999999796482492709e-01
5.662898618182343746e-01 -6.448813274440943349e-03 -3.980071125273699773e-01 1.000077977270066913e-04 0.000000000000000000e+00 -9.999999949992202097e-01
4.795914234969217427e-01 3.297565837027382346e-02 -5.726343081061811002e-01 1.000077977270066913e-04 0.000000000000000000e+00 -9.999999949992202097e-01
5.155207335094813548e-01 5.411975609029666401e-02 -4.698704524323745191e-01 1.001146721886918040e-04 -1.082496302439672877e-07 -9.999999949885203243e-01
4.916812026346021880e-01 -9.309843780436938276e-02 -4.685851376639674770e-01 1.001146721886918040e-04 -1.082496302439672877e-07 -9.999999949885203243e-01
4.391483139669221658e-01 -6.979492653976995808e-02 -4.287616818565401777e-01 9.999999928017553330e-01 -1.212877345373553808e-07 1.199853110951714307e-04
4.775496287869936407e-01 -1.120655538939232532e-01 -4.365035454092813239e-01 9.999999928017553330e-01 -1.212877345373553808e-07 1.199853110951714307e-04
4.912248134753917084e-01 -7.539630726579552022e-02 -3.970830433514099256e-01 9.999999928125992144e-01 0.000000000000000000e+00 1.198949609478950967e-04
-4.025019314213055255e-01 5.436941115704027605e-02 -4.616221407862890480e-01 -5.301072183530504558e-05 2.199798400717703690e-05 -9.999999983529760383e-01
-5.053267237778538146e-01 -1.940022953672542599e-02 -5.666212339174641066e-01 -5.301072183530504558e-05 2.199798400717703690e-05 -9.999999983529760383e-01
-4.629250254863662706e-01 8.094493772578877089e-03 -6.013323577065913250e-01 -5.301072183530504558e-05 2.199798400717703690e-05 -9.999999983529760383e-01
-4.683296866669873215e-01 1.016520050082689586e-01 -5.143918606508199876e-01 -2.471626532887271881e-05 -1.368458496175061285e-05 -9.999999996009191205e-01
-4.743349100522145090e-01 -5.078783034172786037e-03 -4.945350520074202061e-01 -2.471626532887271881e-05 -1.368458496175061285e-05 -9.999999996009191205e-01
-4.301871374740139919e-01 6.580831082164459445e-02 -5.014274948822392552e-01 -2.471626532887271881e-05 -1.368458496175061285e-05 -9.999999996009191205e-01
-4.861688410771676794e-01 4.452568446134595043e-02 -4.905331417280947570e-01 -2.471626532887271881e-05 -1.368458496175061285e-05 -9.999999996009191205e-01
-5.581088523941314383e-01 2.610065932695030538e-02 -3.513380834590512647e-01 -2.471626532887271881e-05 -1.368458496175061285e-05 -9.999999996009191205e-01
-4.652377028354185429e-01 -1.519162774233262514e-02 -4.717305419077787443e-01 -3.216319426899734294e-05 -2.697909575938727987e-04 -9.999999630891834856e-01
-3.486931610370961332e-01 1.546170395940085762e-02 -4.704147763036601870e-01 -3.216319426899734294e-05 -2.697909575938727987e-04 -9.999999630891834856e-01
-4.555827099650570089e-01 1.414490576591494533e-02 -4.685254460939354826e-01 1.126150914621348544e-04 -8.732415711314928919e-06 -9.999999936207929485e-01
-5.795359572138322202e-01 6.522398593997710825e-02 -5.805516260493815972e-01 1.126150914621348544e-04 -8.732415711314928919e-06 -9.999999936207929485e-01
-3.193245802701520919e-01 -2.005417215654251017e-02 -5.386375383961373720e-01 1.126150914621348544e-04 -8.732415711314928919e-06 -9.999999936207929485e-01
-4.461738653228251028e-01 3.423649208968894408e-02 -4.323032299336138085e-01 1.126150914621348544e-04 -8.732415711314928919e-06 -9.999999936207929485e-01
3.655647466818063296e-01 9.544497109597219198e-02 -5.845534821243698609e-01 1.574508404447743542e-04 6.924092272853222131e-05 -9.999999852074635820e-01
2.935557392093744444e-01 1.101803557667818539e-01 -4.469445403191160127e-01 3.518192886906763590e-04 3.187828939168026524e-04 -9.999998873003210775e-01
3.695635271619506779e-01 4.858984793972731531e-03 -4.921948585874499349e-01 1.910215538504466380e-04 5.942681725921427900e-05 -9.999999799896094332e-01
4.244730966769161840e-01 3.017901975118723878e-02 -5.186032009806104126e-01 1.839588022331308534e-04 7.048931710565465062e-05 -9.999999805952074494e-01
3.556363025048860371e-01 3.480593385223246933e-02 -5.867771500597842582e-01 1.839588022331308534e-04 7.048931710565465062e-05 -9.999999805952074494e-01
4.222698211949577063e-01 1.316586125261124396e-01 -4.972606935487662860e-01 1.839588022331308534e-04 7.048931710565465062e-05 -9.999999805952074494e-01
4.193491333594890902e-01 9.436793403775380062e-03 -4.941754242862461677e-01 1.055421372365190376e-04 1.490444883580035401e-05 -9.999999943193572660e-01
3.541917174842358351e-01 1.121170023961486489e-01 -4.261362170722042264e-01 1.055421372365190376e-04 1.490444883580035401e-05 -9.999999943193572660e-01
3.731688500132376296e-01 3.622821451850783553e-02 -4.967274827251880187e-01 6.080193620847544530e-05 5.971547293750308403e-05 -9.999999963685933801e-01
5.073574127606418349e-01 -7.901964856903564982e-02 -5.160577812910366324e-01 6.080193620847544530e-05 5.971547293750308403e-05 -9.999999963685933801e-01
5.397354436549760548e-01 1.435430920573096403e-01 -4.747381442961389753e-01 9.999999919247912761e-01 1.500511515137324012e-05 1.261953407748845279e-04
4.902996028963870767e-01 3.615672401819030463e-02 -5.074102829072970611e-01 9.999999919247912761e-01 1.500511515137324012e-05 1.261953407748845279e-04
5.298675888568793457e-01 9.205220558965919453e-02 -5.383698156486146358e-01 9.999999919247912761e-01 1.500511515137324012e-05 1.261953407748845279e-04
5.405510152359679354e-01 1.159645176472253736e-01 -5.293180376952859589e-01 9.999999905657075416e-01 -2.047319327650758703e-09 1.373629671634033237e-04
3.875414737502888007e-01 4.934207312683261404e-02 -4.094390674227709748e-01 9.999999905657075416e-01 -2.047319327650758703e-09 1.373629671634033237e-04
3.819189224688303574e-01 1.543877970976373915e-01 -4.745520229064029705e-01 9.999999905657075416e-01 -2.047319327650758703e-09 1.373629671634033237e-04
-4.532687559894510998e-01 6.411314351928618094e-02 -4.881606890718393488e-01 -2.051021963831979817e-05 5.144111972168646704e-05 -9.999999984665711716e-01
-4.348406968889566016e-01 1.517961143447357220e-01 -5.009760345229554712e-01 -2.051021963831979817e-05 5.144111972168646704e-05 -9.999999984665711716e-01
-3.920205020103838534e-01 1.318029725437977473e-01 -5.837663856850455746e-01 -2.051021963831979817e-05 5.144111972168646704e-05 -9.999999984665711716e-01
-4.185290537081193252e-01 8.017829397027281813e-02 -3.771240036724113898e-01 -2.051021963831979817e-05 5.144111972168646704e-05 -9.999999984665711716e-01
-5.449079389021846964e-01 6.548198795180232290e-02 -4.747660839297324076e-01 2.572609775311020984e-05 -1.118506609200650388e-09 -9.999999996690839277e-01
-3.496120557577541144e-01 1.352627479314812697e-01 -3.804830607951454335e-01 2.572609775311020984e-05 -1.118506609200650388e-09 -9.999999996690839277e-01
-4.554977888739599745e-01 1.541696317323690557e-01 -4.306130778540790405e-01 2.572609775311020984e-05 -1.118506609200650388e-09 -9.999999996690839277e-01
-3.684531253873586376e-01 1.206833829185259555e-01 -4.372120175821463395e-01 2.572609775311020984e-05 -1.118506609200650388e-09 -9.999999996690839277e-01
-2.531904923678851005e-01 1.470924998772610293e-01 -4.577905145333009962e-01 -9.655023774422181321e-05 -2.184210560461028391e-05 -9.999999951004869825e-01
-4.336108217795982545e-01 1.923718196337199093e-01 -4.507580153472763862e-01 -1.553231277031113134e-04 4.038706183530878300e-05 -9.999999871218056002e-01
-3.996847711399530434e-01 8.668017177742201596e-02 -5.418250941869507953e-01 -1.553231277031113134e-04 4.038706183530878300e-05 -9.999999871218056002e-01
-4.488677460608702097e-01 1.103308982938229765e-01 -4.912138120999577917e-01 -1.553231277031113134e-04 4.038706183530878300e-05 -9.999999871218056002e-01
-3.116990167298795966e-01 1.216281212468055262e-01 -5.187535357448010975e-01 -5.713062384236611800e-04 2.353658306230400692e-04 -9.999998091060356975e-01
2.216639978403507349e-01 1.023008795317224412e-01 -4.768759998542433376e-01 1.200260719695692260e-04 4.058601693534383438e-05 -9.999999919732586173e-01
2.701146213696556941e-01 1.369332251304238579e-01 -3.722669289252474867e-01 1.200260719695692260e-04 4.058601693534383438e-05 -9.999999919732586173e-01
2.855440525520029915e-01 1.931312040735106983e-01 -4.722849704513080726e-01 1.200260719695692260e-04 4.058601693534383438e-05 -9.999999919732586173e-01
3.950423520725259707e-01 1.438140770366386212e-01 -4.478879647714792411e-01 1.200260719695692260e-04 4.058601693534383438e-05 -9.999999919732586173e-01
3.137692514444826997e-01 1.475867770767791409e-01 -4.450256824370047992e-01 1.390822803016960869e-04 9.971601238249697011e-05 -9.999999853564178753e-01
3.042628178364901181e-01 1.341400574650955246e-01 -5.096896450206092055e-01 1.746077414489153570e-04 4.222447614243583021e-05 -9.999999838646149719e-01
5.467102236463786680e-01 1.709070317746292922e-01 -5.464067765271961585e-01 1.746077414489153570e-04 4.222447614243583021e-05 -9.999999838646149719e-01
4.092137596994094850e-01 1.296342556896966647e-01 -4.634600818178607473e-01 1.685809308027220782e-04 5.128075044244392145e-05 -9.999999844753770795e-01
4.394533943914683549e-01 2.385027140195774553e-01 -5.576357984416533409e-01 1.685809308027220782e-04 5.128075044244392145e-05 -9.999999844753770795e-01
2.973843494719277114e-01 1.480308409188284824e-01 -5.067103966713667473e-01 1.685809308027220782e-04 5.128075044244392145e-05 -9.999999844753770795e-01
5.026891426039626909e-01 7.523025132292367190e-02 -4.544830682936708000e-01 5.027032820914989242e-05 2.939276309708705498e-05 -9.999999983044798313e-01
5.099627607000752905e-01 1.125670151028924648e-01 -4.995761180413574865e-01 3.630369798941754703e-05 4.314255505126611296e-05 -9.999999984103806749e-01
4.035360487391948525e-01 5.416192963118397763e-02 -3.677326043594631444e-01 9.999999896091538165e-01 1.442949258643739731e-05 1.434345916919452593e-04
5.551147471344450857e-01 3.006654826355263654e-02 -5.102219300989541129e-01 9.999999896091538165e-01 1.442949258643739731e-05 1.434345916919452593e-04
4.668677819239480109e-01 -8.733858964446145068e-03 -5.242590211097383213e-01 9.999999908106994573e-01 2.938739560167550081e-05 1.323441795718362202e-04
4.205413170399410205e-01 1.126818824568260186e-01 -3.843301088139531307e-01 9.999999908106994573e-01 2.938739560167550081e-05 1.323441795718362202e-04
4.575911490186493347e-01 1.432342395063068430e-01 -4.437402239346935895e-01 9.999999908106994573e-01 2.938739560167550081e-05 1.323441795718362202e-04
-4.862104817145854740e-01 2.204995274269526961e-01 -4.745540671446485947e-01 2.522182040363871543e-05 7.357008632278836985e-05 -9.999999969756511176e-01
-4.462417355886002523e-01 1.898602689188571002e-01 -3.994149127522736986e-01 2.522182040363871543e-05 7.357008632278836985e-05 -9.999999969756511176e-01
-4.658021288372878321e-01 2.042003280645867114e-01 -4.400770695337799521e-01 4.469860683121144737e-07 1.020850347118988513e-04 -9.999999947892229679e-01
-4.591424765492990723e-01 2.003844044725453521e-01 -4.720818695277081978e-01 4.469860683121144737e-07 1.020850347118988513e-04 -9.999999947892229679e-01
-4.295647460386466387e-01 2.039165188781848215e-01 -4.882031747594540727e-01 4.469860683121144737e-07 1.020850347118988513e-04 -9.999999947892229679e-01
-4.803433485627549571e-01 1.797786930705845831e-01 -4.595523336835199424e-01 4.469860683121144737e-07 1.020850347118988513e-04 -9.999999947892229679e-01
-3.125949745342020969e-01 2.070411845512682147e-01 -4.641736736320524193e-01 -1.521291633331030985e-04 1.410367091143250218e-04 -9.999999784826818505e-01
-3.781498116592625358e-01 8.938673010719155876e-02 -5.107586462632179858e-01 -1.521291633331030985e-04 1.410367091143250218e-04 -9.999999784826818505e-01
-2.987718750737613504e-01 1.843550442937933742e-01 -5.845194600598745405e-01 -1.521291633331030985e-04 1.410367091143250218e-04 -9.999999784826818505e-01
-4.164507748222083250e-01 2.171679785520631289e-01 -5.206249348295123314e-01 -1.028954976602690699e-04 7.536713798810068066e-05 -9.999999918661554021e-01
-4.526545650850133384e-01 2.538850190190274358e-01 -4.608417951222915088e-01 -1.028954976602690699e-04 7.536713798810068066e-05 -9.999999918661554021e-01
-4.856492544588221216e-01 2.283365574596276371e-01 -4.621662330791230788e-01 -1.028954976602690699e-04 7.536713798810068066e-05 -9.999999918661554021e-01
-4.015663325401585548e-01 1.793059376381520853e-01 -5.440592374586834534e-01 -1.028954976602690699e-04 7.536713798810068066e-05 -9.999999918661554021e-01
-3.607823815567965942e-01 1.637450630762540826e-01 -4.568272699490491529e-01 -2.607825314541448365e-04 1.460689549098638670e-04 -9.999999553281647691e-01
-2.401697725571672049e-01 1.915214210044513532e-01 -4.234124641347917217e-01 -2.607825314541448365e-04 1.460689549098638670e-04 -9.999999553281647691e-01
-2.561345899604149934e-01 3.171930064870528421e-01 -5.467669973782349757e-01 -7.345909879574415990e-01 6.784645037324562589e-01 7.873854633002424358e-03
-2.825562121291957940e-01 2.130163965740128063e-01 -4.611665125001982446e-01 -7.345909879574415990e-01 6.784645037324562589e-01 7.873854633002424358e-03
3.048569829746488047e-01 2.173978376458321482e-01 -4.081743283584529647e-01 1.724127447192507466e-04 2.245899633749797526e-04 -9.999999599165960706e-01
3.545336750649602520e-01 2.829300654570496842e-01 -4.331171337874234473e-01 1.724127447192507466e-04 2.245899633749797526e-04 -9.999999599165960706e-01
2.791382110921384885e-01 8.155431556816543359e-02 -5.141091843052241206e-01 1.929685818972633519e-04 -3.067564444790886957e-05 -9.999999809110653448e-01
3.519546359386074297e-01 2.349296673904980592e-01 -4.591790304810116630e-01 2.034759001484398079e-04 2.238130549255671665e-04 -9.999999542526362140e-01
3.602704140712386649e-01 1.709161356101547569e-01 -4.584538797696162682e-01 2.034759001484398079e-04 2.238130549255671665e-04 -9.999999542526362140e-01
2.548948910487253694e-01 2.016331721315918202e-01 -4.921528502596949073e-01 1.087038413412118608e-04 1.275073947045841862e-04 -9.999999859626695908e-01
3.857573612654550677e-01 2.368941897791183582e-01 -5.536338191540054465e-01 1.087038413412118608e-04 1.275073947045841862e-04 -9.999999859626695908e-01
3.913202380457775909e-01 1.636959853654479657e-01 -5.091323814419204119e-01 1.087038413412118608e-04 1.275073947045841862e-04 -9.999999859626695908e-01
4.142394156667275618e-01 2.927219126055153886e-01 -5.072440526309922593e-01 1.766223299659779662e-04 7.790991401939465150e-05 -9.999999813672987292e-01
5.204738297148473469e-01 2.126529747224000233e-01 -4.988332352597020236e-01 1.766223299659779662e-04 7.790991401939465150e-05 -9.999999813672987292e-01
3.522177913835534691e-01 1.801198517009860445e-01 -4.548588668569123472e-01 1.766223299659779662e-04 7.790991401939465150e-05 -9.999999813672987292e-01
3.188125664880618881e-01 2.305315566749506773e-01 -4.819394576344690484e-01 1.766223299659779662e-04 7.790991401939465150e-05 -9.999999813672987292e-01
2.586554667500888249e-01 1.774478596086831172e-01 -4.594643201674759592e-01 1.609843351034538042e-04 1.104106005421825332e-04 -9.999999809467713385e-01
4.216003257794765369e-01 2.978763603311196384e-01 -5.011597004161372215e-01 1.609843351034538042e-04 1.104106005421825332e-04 -9.999999809467713385e-01
4.241691186809795622e-01 2.055208995769023939e-01 -4.683724361185529483e-01 1.609843351034538042e-04 1.104106005421825332e-04 -9.999999809467713385e-01
5.258056070778330815e-01 1.898651017185643552e-01 -4.951102856207044156e-01 3.657268346977679503e-05 4.387771356258658207e-05 -9.999999983685925464e-01
4.730578480858931290e-01 9.823278146537239852e-02 -4.762243806375578425e-01 3.657268346977679503e-05 4.387771356258658207e-05 -9.999999983685925464e-01
4.149342249988468567e-01 3.395946070288944907e-01 -4.855901391954402513e-01 4.326246044411574924e-06 7.581882789628285847e-05 -9.999999971163944235e-01
4.391667040637639574e-01 1.631594018908205102e-01 -3.320521321370769607e-01 9.999999908614841670e-01 2.878912996660853543e-05 1.320917013710052798e-04
3.871134524376201869e-01 1.623741107927310356e-01 -5.076392900429056443e-01 9.999999908614841670e-01 2.878912996660853543e-05 1.320917013710052798e-04
5.507117217306677359e-01 1.329014435144155182e-01 -3.761249769072967375e-01 9.999999908614841670e-01 2.878912996660853543e-05 1.320917013710052798e-04
4.957917312313585567e-01 1.726012871859951558e-01 -4.744764870438086257e-01 9.999999909323683545e-01 2.983034103718432302e-05 1.313217941559058572e-04
4.773327295283974481e-01 2.207455085695603780e-01 -4.592050209269617489e-01 9.999999909323683545e-01 2.983034103718432302e-05 1.313217941559058572e-04
4.904439268608325464e-01 2.058192758981014225e-01 -5.623697702160355139e-01 9.999999909323683545e-01 2.983034103718432302e-05 1.313217941559058572e-04
-3.605199188611741268e-01 2.739082817365096068e-01 -5.326539194780013364e-01 1.894428003108961378e-07 4.326594544363567961e-05 -9.999999990640110470e-01
-4.611441663503451638e-01 2.664559258117665252e-01 -4.961160776380029169e-01 1.894428003108961378e-07 4.326594544363567961e-05 -9.999999990640110470e-01
-3.395389476422396857e-01 3.354287997633105256e-01 -4.692470180130974278e-01 1.894428003108961378e-07 4.326594544363567961e-05 -9.999999990640110470e-01
-4.034004342390702935e-01 3.456209392584260742e-01 -4.436467724147705183e-01 1.894428003108961378e-07 4.326594544363567961e-05 -9.999999990640110470e-01
-4.608152174617945462e-01 4.181075172244755889e-01 -5.217122254983038721e-01 1.284241609341304450e-05 2.877404225473178341e-05 -9.999999995035634415e-01
-3.289886882083955522e-01 1.602781467824920258e-01 -4.794716962438535512e-01 -1.011496380156730524e-04 1.219449601945715820e-04 -9.999999874490885787e-01
-4.069199898462352305e-01 2.966543012555919456e-01 -3.611105783375612166e-01 -1.011496380156730524e-04 1.219449601945715820e-04 -9.999999874490885787e-01
-4.399038117227547229e-01 1.960040110189965046e-01 -5.248109597458328057e-01 -1.011496380156730524e-04 1.219449601945715820e-04 -9.999999874490885787e-01
-3.993963333732366561e-01 1.278368904313604559e-01 -4.581036235287889169e-01 -1.011496380156730524e-04 1.219449601945715820e-04 -9.999999874490885787e-01
-3.531060904566249992e-01 2.492710562212508973e-01 -4.861203148403676066e-01 -3.586001029299357493e-05 4.323245849953949834e-05 -9.999999984225070859e-01
-4.362976142920698686e-01 2.724530885497821742e-01 -5.674376968305339108e-01 -3.586001029299357493e-05 4.323245849953949834e-05 -9.999999984225070859e-01
-4.227944257769877812e-01 2.044909063189758180e-01 -5.496523702777758036e-01 -3.586001029299357493e-05 4.323245849953949834e-05 -9.999999984225070859e-01
-2.062531546123584358e-01 2.023998604018698855e-01 -5.510108607951973436e-01 -2.531165851493924891e-04 1.913762356044120569e-04 -9.999999496535640908e-01
-2.515052988634114972e-01 3.135891111965251055e-01 -4.749428322047019591e-01 -2.531165851493924891e-04 1.913762356044120569e-04 -9.999999496535640908e-01
-2.545226611264336247e-01 2.912950527600878803e-01 -5.017244989243418996e-01 -2.531165851493924891e-04 1.913762356044120569e-04 -9.999999496535640908e-01
-3.717402688851000891e-01 1.945844370312049265e-01 -4.185271699663032363e-01 -2.531165851493924891e-04 1.913762356044120569e-04 -9.999999496535640908e-01
-4.255031575113237263e-01 2.328137374884717559e-01 -5.377700056356807812e-01 -1.749776741779491597e-04 1.188821720879287234e-04 -9.999999776249210992e-01
-3.414334444105868727e-01 2.760789983170073847e-01 -6.150002041741808867e-01 -1.749776741779491597e-04 1.188821720879287234e-04 -9.999999776249210992e-01
-1.987740488012464113e-01 3.475284135786240736e-01 -5.704848417320412812e-01 -1.749776741779491597e-04 1.188821720879287234e-04 -9.999999776249210992e-01
-3.264653285909872582e-01 2.378710800964355665e-01 -5.043736198811975546e-01 -1.570502188208085822e-04 1.899172679026005261e-04 -9.999999696333295995e-01
-2.463978639628781886e-01 3.626750480605202553e-01 -5.200061973099288082e-01 -1.570502188208085822e-04 1.899172679026005261e-04 -9.999999696333295995e-01
-9.720808220593842031e-02 2.931970403486764409e-01 -5.373411500558091802e-01 -6.007755798443481076e-04 1.696994433400202942e-03 -9.999983796379849910e-01
2.572220832550530800e-01 2.903892031272453655e-01 -4.133397504257819710e-01 2.156199458598598333e-05 5.171471582936122951e-04 -9.999998660469395784e-01
2.254610664955733479e-01 3.443178968876809409e-01 -4.164735141619524406e-01 2.156199458598598333e-05 5.171471582936122951e-04 -9.999998660469395784e-01
2.417452990817332004e-01 3.132060563467430336e-01 -5.035022344628364843e-01 2.013089491628019386e-06 4.828233797363034051e-05 -9.999999988323816646e-01
1.624852837796630922e-01 3.398255740432876149e-01 -4.997450237921342020e-01 2.013089491628019386e-06 4.828233797363034051e-05 -9.999999988323816646e-01
2.846605241475930193e-01 3.419809714346857543e-01 -6.778029141340421448e-01 2.013089491628019386e-06 4.828233797363034051e-05 -9.999999988323816646e-01
3.014294776186231539e-01 3.078854013441677528e-01 -4.130713002289440605e-01 5.020964694788228951e-05 1.014326617003487573e-04 -9.999999935952031960e-01
2.475694839960643490e-01 3.924161984520753155e-01 -6.246303009905895820e-01 5.020964694788228951e-05 1.014326617003487573e-04 -9.999999935952031960e-01
2.506347894408253452e-01 2.891984583301854261e-01 -5.874253260525521547e-01 5.020964694788228951e-05 1.014326617003487573e-04 -9.999999935952031960e-01
2.878830045497750012e-01 3.295276378712631016e-01 -5.553016888367564574e-01 1.106346320124439783e-04 4.833378106832071798e-05 -9.999999927119118670e-01
4.183864364065396080e-01 3.026769874620230394e-01 -5.281844412855566384e-01 1.106346320124439783e-04 4.833378106832071798e-05 -9.999999927119118670e-01
3.304907239456574275e-01 2.924388060842521009e-01 -3.879025897524668864e-01 6.964251822639781081e-05 1.000540493562509668e-04 -9.999999925695534087e-01
3.046906306649067586e-01 2.213776351882821292e-01 -4.333025591632631568e-01 6.964251822639781081e-05 1.000540493562509668e-04 -9.999999925695534087e-01
2.830974591861390444e-01 2.570198260772277310e-01 -5.336939057641292283e-01 6.964251822639781081e-05 1.000540493562509668e-04 -9.999999925695534087e-01
3.984357817395473012e-01 2.350866347965184511e-01 -4.792892679146622537e-01 1.243787923461201600e-04 -1.342849218936554277e-06 -9.999999922640562255e-01
4.071731998700008903e-01 2.738148416885465286e-01 -5.507044369851502585e-01 1.243787923461201600e-04 -1.342849218936554277e-06 -9.999999922640562255e-01
4.134563579243784037e-01 2.660354684394091174e-01 -3.833095057259571781e-01 1.243787923461201600e-04 -1.342849218936554277e-06 -9.999999922640562255e-01
3.614141570152815675e-01 4.024921278909847633e-01 -5.538164003252817880e-01 9.403380733379351254e-05 4.396553898235999454e-05 -9.999999946123372396e-01
4.273766684990303877e-01 2.889454116420595020e-01 -5.064716468424504958e-01 9.403380733379351254e-05 4.396553898235999454e-05 -9.999999946123372396e-01
4.799254085170489015e-01 3.622707715059048095e-01 -4.978775560753246898e-01 8.534544420574029962e-06 8.883271084438065139e-05 -9.999999960179555281e-01
4.196861522738329908e-01 2.611636945149159450e-01 -3.532107681672187471e-01 8.534544420574029962e-06 8.883271084438065139e-05 -9.999999960179555281e-01
4.252958046811187165e-01 2.890873904981878795e-01 -5.249432581834968525e-01 1.008954884522707658e-04 -1.089312939181148715e-06 -9.999999949094569018e-01
4.287172800251476401e-01 2.411378310910126666e-01 -3.735328567216999462e-01 1.008954884522707658e-04 -1.089312939181148715e-06 -9.999999949094569018e-01
4.793149971550655364e-01 2.987887209292044988e-01 -3.862049061119384730e-01 9.999999896075781880e-01 4.406080907111736193e-05 1.372715872362758899e-04
3.636173840907696020e-01 1.284938313590443248e-01 -4.713917202739544288e-01 9.999999896075781880e-01 4.406080907111736193e-05 1.372715872362758899e-04
5.517848847339763552e-01 2.389730653142655981e-01 -3.826560779995540895e-01 9.999999896075781880e-01 4.406080907111736193e-05 1.372715872362758899e-04
5.640260921234845348e-01 1.410782032912888950e-01 -4.390424239615521307e-01 9.999999902747129799e-01 5.891706677120580471e-05 1.264094674657764445e-04
5.168029047034486956e-01 2.461163132674627219e-01 -5.584622156666076975e-01 9.999999902747129799e-01 5.891706677120580471e-05 1.264094674657764445e-04
-4.491118973564329764e-01 4.782874037600191031e-01 -5.274909669963024905e-01 -9.999992473953904781e-01 8.446299921735472664e-04 -8.898364056192997274e-04
-4.360293223451028877e-01 2.386354483798899251e-01 -4.913444030846076949e-01 -9.999992473953904781e-01 8.446299921735472664e-04 -8.898364056192997274e-04
-4.403338936726565178e-01 3.566682234769316118e-01 -5.316227348154706212e-01 1.340660611056010141e-05 8.057138527019207664e-05 -9.999999966642573179e-01
-4.594252664137478681e-01 3.251955346835398997e-01 -5.403402668526162689e-01 1.340660611056010141e-05 8.057138527019207664e-05 -9.999999966642573179e-01
-4.265473832110466823e-01 3.409859215020613066e-01 -3.558330347292587570e-01 1.340660611056010141e-05 8.057138527019207664e-05 -9.999999966642573179e-01
-4.168063151414839740e-01 3.259734898609538689e-01 -4.066719751009255646e-01 1.340660611056010141e-05 8.057138527019207664e-05 -9.999999966642573179e-01
-3.638264860607303697e-01 3.923385245482683970e-01 -4.279830180084738811e-01 1.340660611056010141e-05 8.057138527019207664e-05 -9.999999966642573179e-01
-4.184373906663622078e-01 4.153958347178586252e-01 -5.954753302284445660e-01 2.221392603792317073e-04 -1.428809340574465833e-04 -9.999999651195932149e-01
-4.260921287882302178e-01 3.778395595161876952e-01 -4.897958997246570356e-01 2.221392603792317073e-04 -1.428809340574465833e-04 -9.999999651195932149e-01
-4.316188884159831707e-01 2.716230078813071658e-01 -5.497436334253960055e-01 2.221392603792317073e-04 -1.428809340574465833e-04 -9.999999651195932149e-01
-3.655215933521314131e-01 3.533529727010261690e-01 -5.248339117555732569e-01 -3.602433981352923665e-05 2.451482946065113375e-05 -9.999999990506350800e-01
-5.027804307633663150e-01 3.264334154907480023e-01 -4.398233681966556841e-01 -3.602433981352923665e-05 2.451482946065113375e-05 -9.999999990506350800e-01
