2.882506940806097706e-01 7.790705155834449780e-01 -3.745925530256663527e-01 7.337905066187963010e-01 6.271992323817948689e-01 -2.610988611538118120e-01
3.634941593539983140e-01 7.777868639344883706e-01 -2.558933119726337635e-01 7.982316963470136306e-01 5.598865045943878238e-01 -2.221559382957102036e-01
-4.034527695886649945e-01 2.080211628917330302e-01 5.075249169661856519e-02 -8.419036731835710663e-01 -3.221418189601116255e-01 4.329236116881146068e-01
4.006370755443474652e-01 -8.559126549056180755e-01 2.878911786192355216e-01 6.356806171597777499e-01 -6.727661473231046907e-01 3.785444016009095747e-01
2.786317801193730626e-01 9.865031923798328606e-02 6.847000164656652510e-02 9.763945423887544495e-01 -1.335124018066926876e-01 1.697885041964361796e-01
1.917481742069813699e-01 -8.101055593678060385e-01 3.085447900958800949e-01 8.274930434208831453e-01 -4.020122972300979591e-01 3.919711417513073726e-01
2.495911747362244970e-01 -8.547682825777813687e-01 2.414499827589734471e-01 9.327373381030399369e-01 1.869329345536234477e-01 3.083133731897239049e-01
2.668646992500702253e-01 -8.759724440614564678e-01 1.761463303214208242e-01 7.547724647407020315e-01 5.915014618320425521e-01 2.836274794863899440e-01
-4.587723592305421594e-01 9.897601808668032852e-02 6.461166115624564221e-02 -8.468707691097843160e-01 -3.202533655123729339e-01 4.245558647638737471e-01
-5.221557704647301623e-01 -8.575163132543508482e-01 1.321966596369034685e-01 -8.625140299935020183e-01 -1.986510181558550359e-01 4.654109163416887407e-01
2.742689648400171154e-01 -9.053240141051749346e-01 1.753502756518395544e-01 3.677339281462569387e-01 9.297329031681660361e-01 1.919601147678970388e-02
-4.552075399855672888e-01 -8.379319506962477071e-01 8.361859874748341082e-02 -8.581768633866034834e-01 -1.962616367792373306e-01 4.743562385767323142e-01
1.598925822623946669e-01 -7.538668100479962719e-01 2.396768400955024969e-01 7.318199135290964774e-01 5.946094415633450536e-01 3.329853242501728539e-01
9.986746489464497917e-03 -2.956223945185296742e-01 -8.728747523911387085e-02 8.271672293545169197e-01 1.459930215880155535e-01 5.426604945355553156e-01
2.092442316018507109e-01 9.380441460026905931e-02 -4.400906276324351718e-01 9.257072031031475801e-01 -3.781904360636772489e-01 6.178041187402885312e-03
2.455800696097557717e-02 4.091426714317517588e-01 2.717606579930128552e-01 4.720263382309939498e-02 7.844245887918249727e-01 6.184254003992226689e-01
-2.372140763946051223e-02 4.398465627284771085e-01 2.074809086278499026e-01 2.313407223913734601e-01 7.759877779487539540e-01 5.867916484047746017e-01
-1.776558303642434000e-01 3.431618554716167058e-01 1.832337023534774401e-01 -4.896360146571475391e-02 4.653416022879329761e-01 8.837758533200632538e-01
-2.418107299910500774e-01 4.136266737074932864e-01 1.393731808231878366e-01 1.716679531030117917e-02 5.193558454471214336e-01 8.543856312805594433e-01
-1.582986837315346618e-01 2.785490041761468638e-01 3.185168419676056573e-01 1.696129042578119750e-01 6.415700913827639962e-01 7.480770552238200644e-01
1.186952624062391493e-02 4.400469430516777969e-01 1.942388516915519170e-01 -4.097901019272447987e-01 5.563175117442574757e-01 7.228989545497602753e-01
-1.018197281976549046e-01 4.068138244126291436e-01 2.311821398453611509e-01 1.640693260997100333e-01 6.725960557610053403e-01 7.215925456986966857e-01
9.111826948689451255e-02 3.407290668974038983e-01 3.236184768325340300e-01 6.439887383540537913e-01 6.530236838041749703e-01 3.985455723803477124e-01
-1.084863571191876375e-01 3.244623738029778770e-01 1.590724568801428762e-01 -1.713988379978231280e-01 4.336709518278146214e-01 8.846196605738273488e-01
-1.597287291804896092e-01 3.184017969805452708e-01 3.041778422905267454e-01 1.528220285319836502e-01 7.175666060377623445e-01 6.795171767474437186e-01
2.164055974265813656e-02 4.528659041739614977e-01 3.076260055972038221e-01 -5.542935416299590301e-01 4.286078060600391204e-01 7.134802157675549372e-01
-2.200398509686586346e-01 3.419973428150719919e-01 1.742475116174090344e-01 -3.333412990018563282e-01 2.950213045532280587e-01 8.954585463545849944e-01
-5.923210611266448156e-02 3.997886173764552686e-01 2.820965787246820233e-01 2.905848047779846510e-01 6.633924561553818933e-01 6.895439944980089608e-01
-6.495800172126868499e-02 2.515810676388810507e-01 2.142158065265665212e-01 4.144389209275707864e-01 5.437672310972747614e-01 7.297654275211959973e-01
1.474727884076985907e-01 3.515880525280730140e-01 2.275494663616828006e-01 -5.674296700001929539e-01 3.846759867081513962e-01 7.280439237117374285e-01
5.025406909743998507e-02 2.930876675936520126e-01 1.955896699716197784e-01 -5.914133827009507849e-01 3.955257328701949904e-01 7.027016475003554641e-01
4.889442124120837313e-02 1.666960616209728907e-01 2.155945392753766676e-01 4.475935862082003336e-01 4.202183383312131371e-01 7.893519682090091028e-01
-4.969851595890598106e-02 2.316979991245067538e-01 2.253187765612090498e-01 9.354253303044152146e-02 5.034011097591696293e-01 8.589744566676503768e-01
1.090982621758529447e-02 1.654360045589264028e-01 2.585342209018497983e-01 -4.148312947109635274e-01 3.502865046573752639e-01 8.397704219507521328e-01
1.541760479026596520e-01 2.394504534238239002e-01 3.172210660115642455e-01 9.392421038146280265e-01 6.574645665257529414e-02 3.369000947751459307e-01
2.077940038177004678e-01 3.308204140817719296e-01 1.791340355221225367e-01 9.185557433559403684e-01 -1.972129088962163157e-01 3.425819827610737112e-01
-1.991460618357887014e-01 2.543311575937602376e-01 2.850271283995964300e-01 -5.115734678995739193e-01 1.078250246448760191e-01 8.524472716840235664e-01
2.387010332545048130e-01 2.690644075772583577e-01 2.588862748780159651e-01 4.924257297078866169e-01 -7.502825926845396731e-01 4.411268885890097802e-01
-9.625166153771419486e-02 2.912135907393703094e-01 1.633497338789534070e-01 -5.535823361913704277e-01 9.153906556034363540e-02 8.277482688192367988e-01
1.437328725712266608e-01 3.916204579798775454e-01 1.863335468667305372e-01 5.223537056546160295e-01 -2.543002495380095040e-02 8.523496465768845010e-01
-1.912674684765924560e-01 2.907750072341958036e-01 2.898778248819775527e-01 -5.744280684625728828e-01 6.523678201200844295e-02 8.159513198929672084e-01
2.162387735634569985e-01 2.495688355311476425e-01 2.373847762349480806e-01 5.097103375987184215e-01 1.962136715839149226e-01 8.376727086568834801e-01
-3.217081519913815857e-01 2.303161176291562418e-01 2.613101750690199343e-01 -5.895923222973555866e-01 1.226637977568832726e-04 8.077009833110294634e-01
1.342616191706986484e-01 1.997575487222101598e-01 2.208202658993626000e-01 5.983345805585006394e-01 2.176736624048370428e-01 7.711121231073650995e-01
-1.705362718939129330e-01 2.542781878303095877e-01 1.813139771628264896e-01 -6.014960937291680132e-01 -4.512871937984339749e-02 7.976000551126406490e-01
-2.347571706208649855e-01 2.729994167572201147e-01 2.509090154916782112e-01 -5.869372518520753479e-01 -4.075307998190147440e-02 8.086061147804425309e-01
-3.036390283203573293e-01 2.527907018166500319e-01 2.445551847402236967e-01 -5.914528118899055054e-01 -5.829773987640163302e-02 8.042294105743879040e-01
1.570690226559924851e-01 2.116282229427869366e-01 1.019257317841952837e-01 6.100581447810469182e-01 -1.375355104559475294e-01 7.803288046393834776e-01
-2.063947187808377326e-01 1.651014814042870149e-01 3.312118036183921976e-01 -5.920142724823517222e-01 -7.212283750145651040e-02 8.026938379531328716e-01
1.932285425119425193e-01 1.834915845851268767e-01 1.755927202323139258e-01 5.523037890270615646e-01 -3.294187977129361400e-01 7.657961741480004969e-01
1.766928868759322924e-01 2.052976311715574709e-01 3.587038987413067037e-01 4.005650066467135728e-01 -4.418562605236038832e-01 8.026896788212836142e-01
-1.969219974211930124e-01 1.715520127644923620e-01 2.698392133164291828e-01 -5.792535250143689973e-01 -8.650735740432111132e-02 8.105441572631000291e-01
-2.082839974996527344e-01 8.427176626057089615e-02 2.883021002779238007e-01 -5.658608927763679741e-01 -1.129353998074269089e-01 8.167294812217006372e-01
2.506459575968728731e-02 1.664303726541770945e-01 2.604227477577895633e-01 3.521383588796985209e-01 -9.353593406121725462e-02 9.312623718613397550e-01
3.281690996451448739e-02 1.747260652147393234e-01 1.774231420827029615e-01 2.020551865112432954e-01 -2.538197916537921969e-02 9.790451760452911767e-01
8.123881295589849283e-02 1.236350913433258564e-01 2.536419217270343696e-01 3.799686337899983446e-01 -5.746798546541197206e-02 9.232124717432652616e-01
2.483151351036957249e-02 1.519501177487957155e-01 1.882783949724904371e-01 2.779752847957282502e-01 -4.333130702588993549e-02 9.596104099446616242e-01
-1.750549945616257375e-01 1.006914456609024899e-01 1.715258280772236632e-01 -5.240906559180324997e-01 -1.902461610760664001e-01 8.301417846218955843e-01
1.039053494726029370e-01 1.020331244765448064e-01 1.721966640413469529e-01 3.353429490137398994e-01 -7.966163914657564682e-02 9.387220727112199903e-01
4.401855311371591362e-02 1.670999424140890977e-01 2.608341754872670060e-01 4.191867609225313207e-01 -7.966881531219525969e-02 9.043977771611493299e-01
-2.097948284342232017e-01 9.547515018870794679e-02 2.063430729658554397e-01 -4.714757564243438615e-01 -2.759283236949862106e-01 8.376002455151071446e-01
5.068641634770718052e-02 -2.914398374046704709e-02 2.032286845312947232e-01 4.392137145002886767e-01 -3.916396346328854944e-02 8.975285493847564577e-01
-2.940817995513737015e-01 1.349525335819940219e-01 2.294640847670659789e-01 -4.383689349847000871e-01 -3.480847162568302400e-01 8.286553609002850207e-01
8.243161452651065479e-02 7.132106955097951284e-02 2.191487205109833580e-01 4.359074198540462963e-01 1.131236275220255244e-01 8.928537205009823285e-01
-2.732273027745103500e-01 1.326446429806405480e-01 2.035048893730505570e-01 -3.644072289737148584e-01 -4.108795473056395253e-01 8.356945429267870207e-01
7.538719865679852083e-02 1.128630720911851792e-01 3.660798049702277401e-01 4.653058148408252825e-01 1.583612935134452726e-01 8.708686464628659918e-01
-2.055359777318665204e-01 -9.411452724160833394e-02 2.214411620716902340e-01 -3.715425489873980247e-01 -4.220275266466661512e-01 8.269515711602732910e-01
-2.072173526593868442e-01 1.046411254210222880e-02 3.225318963019748741e-01 -2.806673428015404315e-01 -4.906565742492492443e-01 8.249133098882048820e-01
-7.406387297245364820e-02 -8.860869001008478407e-02 1.792251628690182952e-01 -2.436525758421369814e-01 -4.932087976194199919e-01 8.350919136456164127e-01
6.983802589375415204e-02 8.302526243519073312e-02 4.369383880054539260e-01 5.169171104490282165e-01 1.502670397698515348e-01 8.427434471319447118e-01
-9.381123291914243711e-02 1.796171818274307913e-02 1.663976749732361815e-01 -1.802069959744438399e-01 -5.068003621744946452e-01 8.430176934689258550e-01
-1.499872163704379369e-01 1.110963957429636148e-02 2.622824901079553461e-01 -1.558731586053155593e-01 -4.670249232106031267e-01 8.703971964146784979e-01
-7.715229133208832690e-02 1.159672492021799062e-01 1.730923002253725862e-01 -2.445673916160394368e-01 -3.994693757084763486e-01 8.835219345489996323e-01
4.501452357383738112e-02 8.799637897856318891e-02 2.078598712538313742e-01 5.663033466514798553e-01 2.779537477336915807e-02 8.237280720678041845e-01
9.481130796080705636e-04 -7.868189556026643217e-02 3.367127205450551886e-01 -3.381695495549788544e-01 -4.616669153217762833e-01 8.200640310677321798e-01
8.728286079056157831e-02 -3.294164684094780249e-02 1.346753918795167149e-01 5.378266955833641561e-01 -1.319754380192886267e-01 8.326613532988643707e-01
-3.808003940108514035e-02 -7.601150587167403161e-02 1.805005699957570875e-01 -3.628683343261130956e-01 -5.068617347126057604e-01 7.819320647137577573e-01
-1.419889452629795323e-03 1.269640293396712138e-02 2.590541859857529161e-01 -3.557702929166035588e-01 -5.909146998488791214e-01 7.240492498307991021e-01
-1.758498906811345464e-03 -5.957063378037960599e-02 1.263829069280698325e-01 3.750573028163662337e-01 -3.938683051586659989e-01 8.391661205003170254e-01
1.410903515844408665e-02 1.138981541102413592e-02 3.550205899552175692e-01 -2.973529564023966176e-01 -6.686246316737683992e-01 6.815587437909309543e-01
4.257541113615682243e-02 -1.520364697086108441e-01 1.587110775208814828e-01 2.520985617368438625e-01 -6.082524540094510490e-01 7.526455124171639310e-01
6.481109751025271315e-02 -1.836499150367443614e-02 3.066507175004604679e-01 -2.145198152247514978e-01 -7.541108269812331066e-01 6.207238593010736549e-01
1.085526612589146761e-01 -1.853779129438581919e-02 2.340290393298204985e-01 -1.070283945002274140e-01 -7.424044976541942509e-01 6.613474764702191866e-01
-5.129182189392706981e-01 -3.861964500317163207e-01 2.536944213121717917e-01 -2.392354765813087605e-02 7.844786069607651013e-01 6.196942625911153746e-01
-4.102068173925424999e-01 -4.005597883372689072e-01 1.807893201382431425e-01 -2.745163372136486674e-02 7.843804762843286094e-01 6.196722329021995268e-01
-4.401027217084967358e-01 -4.490696827219605169e-01 2.323706417953972370e-01 2.316325799054985354e-02 7.923441347941616586e-01 6.096345097979234406e-01
-4.096659240557462001e-01 -4.802080888188073327e-01 1.989384919021790210e-01 5.115231756331904689e-02 7.872521985461228278e-01 6.145058309668000041e-01
-5.369723868074396389e-01 -3.954568964983837254e-01 1.623871504835806279e-01 6.010659809038411405e-02 7.848534924411768587e-01 6.167594281961876757e-01
-3.192866351017912829e-01 -3.762657426084021206e-01 1.204074721531348535e-01 1.056880102472428223e-01 7.645310954640238688e-01 6.358633882828594874e-01
-5.131754428402853785e-01 -3.239652663483629791e-01 2.272216050194380277e-01 -2.767616600189702347e-01 6.280754148442027063e-01 7.272717901938906548e-01
-3.051695147904234240e-01 -4.048024687508414154e-01 1.979465551840737803e-01 1.454859090921515052e-01 7.382835745813388639e-01 6.586130986846759905e-01
-2.532438748607674928e-01 -4.271185770427281536e-01 2.784468539108972962e-01 1.528452062754665775e-01 7.278970064721183020e-01 6.684342083462958550e-01
-3.846639009902530493e-01 -4.307363934220675983e-01 2.962920334743669448e-01 1.296566740663451511e-01 7.300469926962660505e-01 6.709847504416114328e-01
-2.452247962660828728e-01 -3.663545130682087647e-01 1.606165609660820948e-01 8.664849009861649853e-02 7.384752782283504624e-01 6.686899899125080537e-01
-4.765213196399846196e-01 -4.459003132748258769e-01 2.555011831156346336e-01 -7.116482749733520352e-01 3.288228435229249846e-02 7.017659781602605396e-01
-1.979587666659113343e-01 -4.500782703933636220e-01 2.921243237953575766e-01 7.410355458524693628e-02 7.272417552814781638e-01 6.823694692561693698e-01
-1.644867391655244204e-01 -4.766173527520761177e-01 3.415094726866823582e-01 1.277452465394116610e-01 6.963341065297286026e-01 7.062577178835141023e-01
-1.223407969331356676e-01 -3.671095600717943497e-01 1.934127698815681362e-01 1.767013498475497046e-01 6.813322060510637046e-01 7.103260223021853337e-01
-1.416583932140284274e-01 -5.791703369252052536e-01 2.726629784250467758e-01 2.053899816468074124e-01 6.696121819231594108e-01 7.137467907172891923e-01
-1.194715641632426439e-01 -5.805626944584908466e-01 2.883792109867490128e-01 2.296805857537131956e-01 6.660638604033161103e-01 7.096518599936614269e-01
-1.053623314568389868e-01 -3.906710521060089425e-01 2.215310563307841540e-01 2.559376110422968975e-01 6.648138158287083543e-01 7.017966440053942101e-01
-5.757318976755231299e-01 -4.051709085137377708e-01 1.116855175369895620e-01 -7.447433459600496519e-01 -3.296614883697066012e-01 5.802418907094691880e-01
-9.223463078897417566e-02 -5.706988654318477794e-01 8.534005211651790601e-02 2.787266506845137437e-01 6.499469833970040744e-01 7.070221870431843136e-01
-5.846267032008851255e-02 -4.547386194857404584e-01 2.516849435318298522e-01 3.060652440735039947e-01 6.496569899917817859e-01 6.958950076879731883e-01
3.607928368141955638e-02 -5.069122501714793394e-01 2.580191827511422176e-01 3.196718230382166737e-01 6.373160729635384270e-01 7.011691298807705142e-01
-5.846216635919716520e-01 -5.616978885627330609e-01 2.289929484952225036e-01 -7.405473972604266208e-01 -3.314378564814629557e-01 5.845840398965583828e-01
-5.596471515097972693e-02 -3.784886836034236368e-01 3.076279826536958417e-01 3.371566600988369355e-01 6.287182762008295400e-01 7.007415470214785058e-01
-1.569670862677321199e-01 -5.050054655471823972e-01 3.016730200828094399e-01 3.438938692247531792e-01 6.223338992315076146e-01 7.031625164760534341e-01
6.811075430470764358e-02 -4.762519057411864765e-01 1.872333523693735513e-01 3.619734833670952834e-01 6.096600941528840245e-01 7.051877529683762136e-01
6.846535896828398471e-02 -4.437592415971694515e-01 1.840415944682358418e-01 3.709308822466975686e-01 5.981754007722326349e-01 7.103495410758463580e-01
-5.550544500255634173e-01 -5.706626893402236833e-01 1.781678085389638011e-01 -7.325998662598088851e-01 -3.237703982901391497e-01 5.987237803421162630e-01
2.726234978182119628e-03 -5.575030133500243901e-01 2.199947508881705815e-01 4.024609373229673381e-01 5.508043594708856849e-01 7.311906396535626795e-01
-4.464426954409463355e-01 -6.746331112865741053e-01 2.285624831955985203e-01 -7.295867434706168053e-01 -3.299391082149152332e-01 5.990353650848060374e-01
4.048047335120267404e-02 -5.529385589604363105e-01 2.702930974956420651e-01 4.168322412746027772e-01 5.231299478328508279e-01 7.433612448294505404e-01
1.839336210261432458e-01 -5.635110070702162854e-01 3.146212704291194706e-01 4.268837641002494188e-01 4.993331150527278162e-01 7.539474067594781337e-01
-4.558527122554369426e-01 -6.059178771298697752e-01 2.723377216171549708e-01 -7.260735913487158522e-01 -3.277892752512646668e-01 6.044595362604749944e-01
1.176072061721424866e-01 -5.568038811897549900e-01 2.606018817407761978e-01 4.303041437541690883e-01 4.552956659720290289e-01 7.794512174697514340e-01
8.788288985818640264e-02 -5.701141138516725437e-01 1.890300540916886041e-01 4.309010357362211274e-01 4.174718019237829703e-01 8.000259945776523329e-01
-4.674485365256404457e-01 -5.975532683751764162e-01 2.848342535215229732e-01 -7.181882379972215347e-01 -3.052652200099659763e-01 6.253149608435042417e-01
8.008622054426894898e-02 -5.658273157900930439e-01 2.430428544077628261e-01 3.748166705924765307e-01 4.389617782887361708e-01 8.165935467829521510e-01
3.147409755527921238e-01 -6.195594516291479392e-01 2.677425607194712232e-01 3.776114065411214638e-01 4.270666818016468080e-01 8.215982442440872280e-01
-4.754186380702347670e-01 -6.708944252072481795e-01 1.968612388012689340e-01 -7.202892332093911998e-01 -2.926135870612052159e-01 6.289361725881267295e-01
1.823632682027424290e-01 -6.968266317011831967e-01 2.322726740582390648e-01 2.469172764029572975e-01 4.885068597588348438e-01 8.368948001883553811e-01
1.966613027401341862e-01 -5.934633857483804231e-01 9.616320060083721755e-02 3.522624868429815592e-01 2.896687951770751668e-01 8.899455766864959871e-01
-4.209951370103560686e-01 -5.609499921585251458e-01 1.063992003219123433e-01 -7.268957312514211511e-01 -2.675480724706271740e-01 6.324876479471468471e-01
2.687647633289231286e-01 -7.132902057748754521e-01 2.062400464136743827e-01 3.703980953293370959e-01 1.523137651665455450e-01 9.163000425172913577e-01
-5.571015753294666917e-01 -7.866909841522056190e-01 2.171505942196761962e-01 -7.175934316187337902e-01 -2.575796329461069178e-01 6.470799020128801260e-01
1.804031974414422590e-01 -7.121419226786147583e-01 3.498985266851025178e-01 4.283097921479710468e-01 -2.724158694144054871e-01 8.615917339676346653e-01
-4.804356676764026668e-01 -7.254277792736653074e-01 1.813280494849560942e-01 -7.235135012655743436e-01 -2.427456870730342053e-01 6.462219006609650762e-01
-5.628901177234990616e-01 -6.917416296532495901e-01 2.523712967495806425e-01 -7.142696443054429301e-01 -2.293748274818037391e-01 6.612155955068428348e-01
1.306873337416097347e-01 -6.157358325312175529e-01 1.544269881914963616e-01 3.489184589878771003e-01 -6.929879123682242126e-01 6.308911651696000877e-01
-4.075524628691579720e-01 -7.416191593454404263e-01 1.907083914540696479e-01 -7.143413159288671821e-01 -2.097353581434805436e-01 6.676283126871123130e-01
4.131100499523221448e-02 -7.077215612008325163e-01 2.395515678148248673e-01 5.763077973766443929e-01 -2.112947102469495408e-01 7.894452913942410222e-01
-4.300314420858726838e-01 -6.929533100216489494e-01 2.330395930576519836e-01 -7.227000724826075917e-01 -1.922207569510316627e-01 6.638944086455362825e-01
4.393012797806856995e-02 -7.896448931664716842e-01 2.871125620960250369e-01 6.041961906119092118e-01 1.006354304830993189e-02 7.967720429027190798e-01
2.560489427198277546e-01 -7.782355369619786689e-01 2.387142222597877506e-01 5.930555211079268085e-01 6.555165928588282953e-02 8.024887094833625945e-01
-3.909667444685107074e-01 -8.574122438079306852e-01 3.258816316078324005e-01 -7.262257803324011496e-01 -1.575485423403889251e-01 6.691596018791133860e-01
1.438863819563612756e-02 -8.729172267374131211e-01 2.483973454256374613e-01 5.921204392279341144e-01 5.480008537007213798e-01 5.908370755054213053e-01
-4.286177783920039897e-01 -8.490664292572502880e-01 1.497317091292630353e-01 -7.373251547959209784e-01 -1.300755256801755522e-01 6.628966538791676300e-01
-3.750753853598903231e-01 -7.796966560334964713e-01 2.539541042817677341e-01 -7.421302503688331775e-01 -1.242982281684709561e-01 6.586293661549506018e-01
1.917281097935650824e-01 -8.772652450994250506e-01 2.878646903090353870e-01 2.366809788922623892e-01 9.651831247792905799e-01 1.113716744593746810e-01
1.261629757528963669e-01 -6.664994830492463329e-01 1.940808693185258615e-01 2.847681106728859879e-01 9.534590321665732393e-01 9.911103431897273774e-02
1.092593074969743228e-01 -7.843214756221428274e-01 1.026664322102472937e-01 2.791569434604888045e-01 9.558459808069103003e-01 9.181427935279461161e-02
1.500245249383345691e-01 -7.944550603673042888e-01 2.857767616217679052e-01 5.166186550154330259e-01 8.069700809430924160e-01 2.861895416550786497e-01
-4.423685607654367913e-01 -8.837633161338412924e-01 3.197043877874284901e-01 -7.467159716422788751e-01 -1.290296568444832814e-01 6.525079350850242488e-01
2.230443099996611278e-01 -8.310361303930149379e-01 2.200246417878162497e-01 6.721120261075583802e-01 5.946954869919925946e-01 4.411379626748864191e-01
3.269891491645130488e-01 -7.640224618230246900e-01 1.855438343639759236e-01 8.446504825149449003e-01 2.859983320130036200e-01 4.525157637840373503e-01
1.785746263182562132e-01 -7.469647079320691496e-01 1.483596813529969860e-01 8.609972967762795637e-01 2.420890633206322640e-02 5.080330538440823718e-01
-5.150120148597870928e-01 -8.989049026146436194e-01 2.114773097287804549e-01 -8.503474446660814756e-01 -2.120293451735288937e-01 4.816147632030707837e-01
2.221995839109046356e-01 -7.205509071339191163e-01 1.943808113136707427e-01 8.566400081902614261e-01 -2.102122878808865974e-02 5.154861824608177878e-01
1.003754326806913511e-01 -7.450141913918711944e-01 2.098884061478629715e-01 5.947644948272235998e-01 -6.469119151233666543e-01 4.772422547976401530e-01
-3.254325646223086288e-01 -7.126997617242524230e-01 1.415358744071809338e-01 -8.377424003029727562e-01 -2.321209510519240127e-01 4.942747564031206298e-01
3.234793779739972841e-01 -6.965625755123702190e-01 1.109058455265528459e-01 3.661446255222513546e-01 -8.733354879151716821e-01 3.212837355814003315e-01
7.902460489307736036e-02 2.552391051860783411e-01 -4.152686269131616315e-01 5.206532821117256793e-01 -7.460073204801107027e-02 8.505027281579928822e-01
-5.441170997097265483e-01 -6.523476524148368316e-01 2.560386358682252839e-01 -8.343118793400818856e-01 -2.380234321794463814e-01 4.972610317786192446e-01
2.365149137894851927e-01 2.423836400788809964e-01 -5.540044163950726963e-01 6.714585619780251147e-01 -8.736368473285441305e-02 7.358743004999571680e-01
2.276402159345922160e-01 2.713364023850602380e-01 -3.803914608305783984e-01 7.965484707978853773e-01 -4.296263272951863360e-02 6.030462219917298583e-01
2.098092789510065947e-01 3.298201353403186209e-01 -4.001396827993747296e-01 7.672004583852536364e-01 -2.604129008232774489e-01 5.861642924456100801e-01
3.235055246264662565e-01 3.595215938470565642e-01 -4.387475611047170765e-01 9.656659597151227015e-01 -7.862407299579481090e-03 2.596679356388209015e-01
2.311615469108936893e-01 2.621940508872773190e-01 -4.226589265056300282e-01 9.810372916808762778e-01 8.547453667292580215e-02 1.739538327028186671e-01
-4.694136108712675115e-02 7.204050986802645884e-01 2.683183215170903413e-01 1.128620901040543328e-01 6.361797955577057628e-01 7.632413879903918730e-01
-1.454813308831096053e-01 6.830272831700286984e-01 1.414185125373647323e-01 -7.572099866808737478e-02 6.337586018483670758e-01 7.698157993597628534e-01
-1.152129713855280513e-01 6.001508553693821746e-01 1.360282727180292806e-01 4.611321095186561581e-02 6.472904591537976815e-01 7.608473127140389369e-01
-1.556353554043318488e-01 7.492837401517145057e-01 1.013655139323286491e-01 1.546933674229502564e-01 6.050595059519733310e-01 7.810076544647319707e-01
-1.432500511624411887e-01 7.703141591089055495e-01 1.588295549967694564e-01 -1.862766886139125833e-01 5.935690575314064299e-01 7.829283295553389754e-01
4.947197284832109687e-03 6.847471975179687531e-01 2.571955607045388337e-02 1.991228536634781776e-01 5.834640377650405219e-01 7.873498623762046345e-01
3.388849402420473361e-02 7.225800178686284658e-01 1.224311785725942237e-01 2.299508256701254250e-01 5.538454093435133396e-01 8.002361403502993298e-01
-1.554854127732091806e-01 8.644244145174426741e-01 9.217171580326237457e-02 -2.580438968878155936e-01 5.461185651134181640e-01 7.969741903709376407e-01
2.661286863592874502e-02 7.865992913426459454e-01 3.444704237545725967e-04 2.714975576039210248e-01 5.412147361347970920e-01 7.958490344315606313e-01
-1.469523782101864184e-01 7.516304469421120071e-01 2.067650270035266691e-01 -3.209438415639203623e-01 5.045473847111898724e-01 8.015154316314138105e-01
-1.733957734894439953e-02 6.905518563744936777e-01 1.453770092150955540e-01 2.913574870186560473e-01 5.090808261533124046e-01 8.099058755196399950e-01
-2.613901960625031329e-01 7.551704500061320324e-01 1.713731642688959278e-01 -3.663314098316954870e-01 4.344549005891744087e-01 8.228306250527948063e-01
-9.990603667531216744e-03 7.744661713696819882e-01 1.140554806284491129e-01 3.468147558326424296e-01 4.573833351929860180e-01 8.188528621336589319e-01
-2.096929147791694870e-01 7.126331599129950289e-01 1.699250836354561089e-01 -3.983845178535715958e-01 3.689385222271504006e-01 8.397464752837155988e-01
1.674762408573191030e-01 6.788943969063165884e-01 6.775949632814592949e-02 3.807445616563738255e-01 4.020853024642231932e-01 8.326830058980128069e-01
-2.912757711534095795e-01 7.245061687895679725e-01 1.932581997767672810e-01 -4.353751133918119520e-01 3.160515725321304537e-01 8.429471597550074469e-01
2.151341647459691087e-02 6.389489585701798591e-01 1.547882588019980632e-01 3.958556853773964601e-01 3.502443183956264749e-01 8.488976344565785093e-01
8.600417124010065195e-02 6.233718728628644401e-01 1.121031496265996602e-01 4.217537455817571557e-01 2.702161565951958777e-01 8.655096803633562930e-01
-2.617985659706520973e-01 5.647437805036332747e-01 2.518857893313307117e-01 -4.509292274361248465e-01 2.330131044010632924e-01 8.616076398345355880e-01
-2.901211392225601648e-01 5.253308681735843200e-01 1.408215971778687403e-01 -4.563275873398387472e-01 2.243265887775210965e-01 8.610706792128290932e-01
1.572111663125232983e-01 7.332054631737878747e-01 1.157985492152707185e-01 4.263108173399769441e-01 2.307916638145166011e-01 8.746395228507846120e-01
-2.502454824413963830e-01 6.635032982059980711e-01 1.720915119161186280e-01 -4.673442248061223658e-01 2.038570434054465808e-01 8.602509409436029930e-01
9.434770394886785039e-02 6.668449739880136784e-01 9.840640376746392914e-02 4.430047172017846369e-01 1.984125244977151536e-01 8.742878763081475268e-01
-3.247199492934235709e-01 6.055786631358613947e-01 1.319968885988213325e-01 -4.767683595687488007e-01 1.819557655158018372e-01 8.599907154787675978e-01
-2.669774124900675116e-01 6.510165811039789752e-01 6.858738551003128181e-02 -4.855302370970615011e-01 1.670879581509268075e-01 8.581037251436596236e-01
-3.814036500333560509e-02 6.360895545956281039e-01 1.799452163279963157e-01 4.640270419846334593e-01 1.647754576529343318e-01 8.703608176281014686e-01
-2.492860380636935380e-01 6.397590157934109900e-01 1.510381706411811076e-01 -4.898808212392162242e-01 1.637870242007627708e-01 8.562654913550177271e-01
-3.198705061122181226e-01 6.118345013003287924e-01 8.027332666970508901e-02 -5.085787711189958538e-01 1.551903292638131815e-01 8.469141605086558666e-01
-2.923254868960218356e-01 5.240571121469632665e-01 1.564864164296837223e-01 -5.364144867869550248e-01 1.395730359470624404e-01 8.323333863312271097e-01
-2.980814574668463335e-01 4.418032122138172424e-01 1.850094328685879530e-01 -5.464354709972649715e-01 1.300259271733351096e-01 8.273460789166233731e-01
2.065933474481197740e-02 5.328385675499333063e-01 2.029791910624987317e-01 5.163297132240961540e-01 -1.132821298017555947e-02 8.563149530590939973e-01
1.633310885383605915e-01 5.250219390903274608e-01 7.104684139434103152e-03 5.305723364368426509e-01 -5.446499785119017500e-02 8.458880303072150442e-01
-2.565639104165298723e-01 4.625529528273093494e-01 1.765145637211306129e-01 -5.851099978183291750e-01 1.042976030982454422e-01 8.042190624705408686e-01
-1.683966562475616713e-02 4.303964598806548914e-01 8.928029775217005692e-02 5.541678545933215183e-01 -1.098193134869439175e-01 8.251289034573273673e-01
-3.346767720269755997e-01 4.182637945760783182e-01 1.763077090011208881e-01 -5.971313431226717983e-01 9.207470197652029009e-02 7.968415202011307485e-01
-2.680205607865177031e-01 6.683952543120130763e-01 1.861533377114796550e-01 -5.986059213976999693e-01 9.176106622731930451e-02 7.957706061374950623e-01
8.376126399687319757e-02 5.982663549560969241e-01 1.927629816393785500e-01 5.404993450887132234e-01 -6.493236822912391848e-02 8.388350526264561902e-01
9.693156171799391374e-02 4.400379816132491406e-01 8.572129712558589076e-02 5.582219538891558530e-01 -2.347447414046498204e-02 8.293595114665303081e-01
-2.968352350771227832e-01 4.616329160740180182e-01 1.676729833228339239e-01 -5.884988830956450201e-01 8.572737332966513801e-02 8.039402229377348164e-01
-2.113770578391798716e-01 5.462153401490281723e-01 6.763609676033395524e-02 -5.588741178485079342e-01 9.655729234224384727e-02 8.236118076464096216e-01
-3.448582450408523292e-01 5.277485340544904036e-01 1.661891591961300874e-01 -5.338015307291504863e-01 1.205440837958155487e-01 8.369737449006648955e-01
1.222093405051134785e-01 4.508741125380670289e-01 2.873853105575769895e-01 6.668995644446672477e-01 4.373448546663624148e-01 6.033029496367238176e-01
-2.735219227860666846e-01 3.750424048282769429e-01 5.685567890919265843e-02 -5.019803498593451430e-01 1.387314940227714899e-01 8.536798585660195782e-01
2.137220206145740709e-01 4.268176589526682663e-01 4.193704920769343591e-02 8.118844700074067111e-01 4.771882777267614228e-01 3.363553997796963624e-01
-2.555024904128365693e-01 4.486288285557151756e-01 1.797582815156645586e-01 -5.102772025587283267e-01 1.795973273851397545e-01 8.410481416333748239e-01
6.653868302903404031e-02 3.840478801012974230e-01 1.188875985125583956e-01 8.530098627809495904e-01 5.111613172855847820e-01 1.053009102965932059e-01
1.182572524358543042e-01 2.792762308075211197e-01 1.046668407043569587e-01 8.510771148805206243e-01 5.148261610255362442e-01 1.030619641301168121e-01
-2.295768760519372731e-01 4.233051819179816100e-01 1.531442457706163329e-01 -5.766715745830265361e-01 1.364890405089642378e-01 8.054940328077392353e-01
2.013074373780149862e-01 4.154081791819839720e-01 7.356940399126575547e-02 8.579299584591277839e-01 4.981449075494672196e-01 1.257292227799567397e-01
-3.531611494327255851e-01 3.307246614931462769e-01 1.587080037533820653e-01 -5.869925537513154268e-01 1.257761746578555662e-01 7.997625245839825592e-01
1.475544297384684400e-01 3.587083959105203945e-01 2.433819743393672574e-01 8.416658565477033171e-01 4.863235229167572893e-01 2.347083658067079526e-01
-3.146362126900164036e-01 2.852762144165069125e-01 2.059925501234517453e-01 -6.832869829329301092e-01 -2.699072331586130358e-02 7.296508752885179083e-01
1.669672499959774514e-01 3.840987968068390601e-01 1.411126535652216241e-01 5.079254925426854861e-01 3.539739759947032050e-01 7.853114785508814588e-01
2.288714824271405601e-01 3.052453370363372165e-01 1.697000834107872391e-01 5.065539797299611902e-01 2.991686857383614173e-01 8.086415541470273194e-01
1.601322711442540458e-01 3.378517672135545880e-01 1.917360015390749406e-01 4.242155737783582792e-01 3.028058883174668536e-01 8.534340870648230437e-01
1.266056152746169727e-01 2.089583080441268503e-01 2.367702113608041170e-01 4.280616337930173709e-01 2.724146789244394906e-01 8.617154288864434797e-01
-3.218277702392967621e-01 2.021663326415445161e-01 2.433826510107973129e-01 -7.114082806023925842e-01 -1.304653531420104096e-01 6.905628500867085906e-01
2.119239082600013757e-01 2.285271413546971775e-01 1.200266665211870004e-01 4.155137163991905469e-01 2.562047796126084021e-01 8.727585361300042033e-01
-2.765162554693607055e-01 1.434933022414073278e-01 2.349193405270901813e-01 -7.065293745712323270e-01 -1.255452359729717637e-01 6.964586395418426168e-01
2.556726687488592442e-01 2.737308067582788773e-01 1.083261736134378539e-01 4.475460883469173923e-01 1.993895171987254133e-01 8.717490001351493323e-01
-3.407616435450764314e-01 3.067435003769859447e-01 1.057762350715656940e-01 -7.182985167117472702e-01 -1.369058804732591339e-01 6.821319672772605536e-01
2.584789178317292158e-01 2.699004024721884942e-01 7.682705136891471165e-02 4.713284449867763959e-01 1.771718801029897317e-01 8.639789475717096767e-01
1.291278887627461680e-01 1.642346394770673179e-01 1.629390422053005050e-01 5.283599755400039122e-01 1.045408655982374424e-01 8.425597567338105609e-01
1.940958310224690231e-01 1.772699433296804905e-01 2.270439941646816284e-01 5.479904202561519666e-01 3.622245870005559587e-02 8.356999657731287723e-01
1.398767319522259966e-01 6.809346912177008382e-02 1.868229444761920488e-01 5.875257994452456334e-01 -1.729307987741230887e-02 8.090206328484943477e-01
-3.559842383284277378e-01 1.292392871463398374e-01 9.521549564598819071e-02 -7.668453522669950173e-01 -1.505416991033390328e-01 6.239274016563050029e-01
2.841959023339118429e-01 1.839627562032224994e-01 1.195274822405875265e-01 5.415040851979537884e-01 -1.711446437256214925e-01 8.230934555917434059e-01
2.177441594096864441e-01 1.726876802053201043e-01 1.459848595591749509e-01 4.875754366898727432e-01 -1.970520812853795156e-01 8.505531557743937210e-01
-3.311485894463376267e-01 1.606722621997939693e-01 2.249528061222696440e-01 -7.844659906400262006e-01 -1.774763548334052643e-01 5.942350149597459552e-01
2.618369082682614479e-01 1.069278513971933520e-01 8.948192749393243939e-02 3.810793636802601858e-01 -2.237215699374290323e-01 8.970658714507983023e-01
-3.827831501799834890e-01 2.831954163485581044e-02 1.410469083094380571e-01 -7.894918321577754083e-01 -2.067298542638302261e-01 5.778974081203468449e-01
1.488293897283511358e-01 1.867211582520210689e-01 1.243261228933685569e-01 4.169521464807269262e-01 -2.011427540298603989e-01 8.863929715687041133e-01
2.177059301617063902e-01 6.277022230412240833e-02 2.429735110955179300e-01 5.625694352637852225e-01 -1.653423872892155477e-01 8.100478538163586872e-01
-2.504104981149983256e-01 1.104321131429125136e-01 2.408032622484944651e-01 -7.799821606788540640e-01 -2.500726591915953811e-01 5.736649668121543977e-01
1.787260186787341110e-01 1.644680535857764858e-02 1.911936583862631767e-01 8.020330778230757574e-01 -5.024365602637657913e-02 5.951625972007542620e-01
-4.629499175201136629e-01 1.051133615750148576e-01 9.750921398761797088e-02 -7.129318332307288397e-01 -3.801200673418355658e-01 5.892681355463832427e-01
2.882622702439805451e-01 7.604678312062172763e-02 2.209486178499015518e-01 8.525509210492248080e-01 -1.775116947366313369e-01 4.915755539587455258e-01
-2.758348936381505578e-01 2.672261346058697751e-03 9.351665318140719996e-02 -6.037202268517483095e-01 -5.039275034194888869e-01 6.177207775261203127e-01
2.137434255236791147e-01 1.048946486844105908e-01 1.598601962405274135e-01 8.810321345551805905e-01 -2.732089339415929019e-01 3.861855205670461921e-01
-2.166353925702917405e-01 -8.002639494525559671e-02 1.356860647976675660e-01 -5.543521925130840966e-01 -5.548748957478428778e-01 6.203285393440776119e-01
-1.825117458392058190e-01 -4.476824523806230416e-02 1.831633004946947862e-01 -5.277766628206086441e-01 -5.770725054536695042e-01 6.232488408584215822e-01
-1.992513278472089477e-01 5.233823042428965844e-02 9.446927457922137117e-02 -4.957676610766720837e-01 -5.963465640946735702e-01 6.313360450053867590e-01
8.616497323876259884e-02 -1.049002794230162183e-01 1.879638064735180691e-01 7.988447627159350750e-01 -5.496244791043366495e-01 2.444585385103330843e-01
-9.135642034330578032e-02 -5.351038667124483061e-02 8.918578024956236305e-02 -4.045372518909869930e-01 -6.700624842159444983e-01 6.223872420598333122e-01
2.252674425779514211e-01 -8.189794156317858898e-02 6.588377148942221873e-02 6.544095211397715772e-01 -7.312454370558233441e-01 1.924273614293263990e-01
1.220499608481498133e-01 -8.173888803356620103e-02 2.036009254898343834e-01 5.441522729483909693e-01 -8.111820340589723788e-01 2.142008670968628681e-01
-1.318945540745138922e-01 -5.526917907617082820e-02 1.402247380220488504e-01 -3.271704237844845764e-01 -7.307011510904877216e-01 5.991955787518103982e-01
-1.292877202549716498e-01 2.878770276832712249e-03 1.459565072701885791e-01 -2.857186759035659218e-01 -7.643694887743207600e-01 5.780174070655625940e-01
9.168038651741694522e-02 -3.418629129559881685e-02 1.250432809215135388e-01 3.163987651624921571e-01 -8.752939349353229259e-01 3.657216822518032373e-01
-1.085750969743556060e-01 -1.140277313865946246e-01 1.359801532982778116e-01 -2.605922018940365348e-01 -7.905090676446419051e-01 5.542446375776824974e-01
-6.619138532208997117e-02 5.484756081258447546e-02 1.460653542225137380e-01 -2.008491369164309981e-01 -8.198990362213399719e-01 5.361205038079056573e-01
5.889647258000111490e-02 -4.948540710563652245e-02 1.044343198921039439e-01 2.488898490600169600e-01 -8.331499456650168778e-01 4.938775263901581947e-01
-5.756395399352225162e-02 4.797301160891051519e-02 8.687461145819391772e-02 -1.590027757008873610e-01 -8.407256415690921303e-01 5.175891352488491970e-01
1.114854677863712229e-02 -1.082946143355063007e-01 1.748737782825163511e-01 -8.229286101163010847e-02 -8.525169211859581209e-01 5.161809606311873466e-01
-7.580404796190466643e-02 -1.081351079174606988e-02 2.304194482724672977e-01 1.281211535856657535e-01 -8.517785836217894868e-01 5.079943055656590545e-01
-1.256415145831534137e-02 -9.021967734488825497e-02 4.557597751402542308e-02 4.674159947119129604e-02 -8.677941189580786752e-01 4.947207191746134103e-01
-4.239636486852549901e-01 -3.914528352647064779e-01 1.408866009573085942e-01 -4.707890343155041873e-02 8.234077954113192543e-01 5.654937482479834854e-01
-3.979675788289738780e-01 -3.321798698024232555e-01 1.141097124701806742e-01 -3.419500078238636026e-02 8.107114196780563775e-01 5.844464867933445440e-01
-4.253062349776816076e-01 -3.043033643528512688e-01 1.591929145544781488e-01 -1.962894316609601481e-02 7.988471612038383629e-01 6.012137037915477045e-01
-3.410298990938690489e-01 -4.516901705769577058e-01 1.335058763369581791e-01 6.782287900969533045e-02 7.558039887542360447e-01 6.512759688995308771e-01
-2.161732805349480535e-01 -3.541876073264846880e-01 1.080088392462587171e-01 8.346065508170953662e-02 7.529277248037558046e-01 6.527895221854985719e-01
-4.046195545888585654e-01 -3.175312734026197181e-01 2.250234556730686397e-01 -5.051090123487276401e-02 8.695326745639813115e-01 4.912856365924513358e-01
-4.959257816871492919e-01 -4.477458599641522818e-01 1.478316038778614838e-01 -6.261140237605082592e-02 8.569643491112370892e-01 5.115583218410759692e-01
-3.760657585549534998e-01 -4.375798014774396894e-01 2.536142209670392833e-01 -3.666580448004818499e-02 8.356944364930765090e-01 5.479693673886800731e-01
-2.503768998280340718e-01 -4.491556533857154476e-01 1.546150283511693591e-01 1.085295688415613552e-01 7.409259544298771871e-01 6.627594305170164679e-01
-4.744260220012859186e-01 -4.177580205195245977e-01 1.470732270848273404e-01 -5.422617890722276207e-02 8.670876379931278244e-01 4.951954660137957154e-01
-3.813011094908054233e-01 -3.804306942091320032e-01 1.542895105765957064e-01 1.205381232004269776e-01 7.350539441367808235e-01 6.672078087554736969e-01
-5.653051247675752178e-01 -3.376250903835274486e-01 1.933643568150126280e-01 -1.647719191070513289e-01 7.863085669876088701e-01 5.954570111734956983e-01
-6.499135870339821652e-01 -3.290664198417108666e-01 1.108419651926318555e-01 -1.327890196388518615e-02 8.503923472147065787e-01 5.259814888009798350e-01
-2.183349154724393837e-01 -3.771524836842405914e-01 4.319347573280876706e-02 6.763304375637071986e-02 7.533607843845144814e-01 6.541202488409894045e-01
-1.592597178558077531e-01 -4.809078298739702939e-01 1.884066477523856364e-01 8.987826104223142765e-02 7.497737819785854629e-01 6.555617240577374938e-01
-3.069914875395570730e-01 -3.614345390761954380e-01 2.106650613547920992e-01 1.391395798024316344e-01 7.453195127904771455e-01 6.520268408479581446e-01
-3.098525560301423204e-02 -3.387514781702030131e-01 2.386578609397248529e-01 2.876298133908481991e-01 7.373158829358005262e-01 6.112563940110129490e-01
-4.506756070771987810e-01 -3.773125811363940985e-01 2.940322124773639412e-01 -8.275728607485202115e-01 -2.696396701709441457e-01 4.923592270107415292e-01
-1.040286035596725556e-01 -4.322211289891493280e-01 1.901082873598715917e-01 3.331704907672863314e-01 7.497590964567302230e-01 5.717155948216501304e-01
-5.887514981170449690e-01 -4.655682571079491350e-01 5.577791662126518890e-02 -8.249975595426698449e-01 -3.522520909229074904e-01 4.419247573841940113e-01
-7.296703628451854939e-01 -5.829586478659477544e-01 1.373348303327280306e-01 -8.249998630393663435e-01 -3.521926892846160007e-01 4.419677992789710075e-01
-5.973836504365325623e-02 -4.707224538506470379e-01 1.804095133820881602e-01 3.691715222462971235e-01 7.165097186893419900e-01 5.918836120269521661e-01
1.001823248353737178e-01 -4.380461856749652272e-01 1.141961805256989371e-01 3.728456874390216336e-01 7.135166631307279239e-01 5.931947949813068943e-01
1.088400443801931794e-01 -4.262598569982404273e-01 1.645748575569505878e-01 3.943767813296364944e-01 7.046473920193290219e-01 5.898635497031785579e-01
-6.584156636738417445e-01 -4.830800383505459150e-01 1.570841010813639471e-01 -8.212276188679178412e-01 -3.561427750709009743e-01 4.458110830534919855e-01
3.383498342328807029e-02 -4.517002423921478993e-01 6.237654768744602118e-02 4.675940219004630638e-01 6.680006618170405419e-01 5.789049546298122850e-01
-2.062450617760156965e-02 2.575227375253051343e-01 1.916438994432380638e-01 2.435997452505425098e-01 -4.914000870343346317e-02 9.686301789942832752e-01
1.772210531871628580e-01 -6.008883046512224491e-01 1.911152434463593841e-01 5.045896201774899836e-01 6.536910411186031000e-01 5.639834554048664961e-01
2.143437640317560899e-01 -5.867293977500563917e-01 1.641388290546453299e-01 4.786487166025943374e-01 6.722732128375104033e-01 5.647513907869733396e-01
-2.210206381314478927e-02 1.612823396728030323e-01 2.106040255243462889e-01 -7.716985832780107191e-02 9.404878794826421196e-02 9.925722333669875219e-01
1.491763279536760800e-01 -6.229434749196532950e-01 1.727423520621232944e-01 4.398909053691702487e-01 6.935564242744876040e-01 5.705045816828104854e-01
6.645315989663018452e-02 1.444492994652454843e-01 1.790875661198109148e-01 2.452475334591317502e-01 5.537803788326590287e-02 9.678775337057944350e-01
3.200104782367536038e-01 -5.372718831847334009e-01 1.049767502960891052e-01 4.216587789275789144e-01 6.925852456964841641e-01 5.852602426244617462e-01
-5.939701683484070044e-02 2.996781973764550688e-01 2.736315878461359485e-01 2.997585584411588955e-01 2.934075099781957921e-02 9.535638033043003503e-01
-2.339983371666641832e-01 1.732063502870142269e-01 2.448268962004698790e-01 -4.481420427791523720e-01 -7.386649935247804888e-02 8.909054101121727243e-01
2.452745243260809893e-01 -5.778536648526588770e-01 2.421165813028616220e-01 4.366029855485645261e-01 6.757878729269837237e-01 5.938758993383238538e-01
2.911091698292512242e-01 -5.973016453264453629e-01 1.067670083427514210e-01 4.953689761684114679e-01 6.206974033396666091e-01 6.077370409455514766e-01
-3.714901469299312087e-01 -5.442110925898331342e-01 2.573287602774009808e-01 -8.260149343248711640e-01 -3.123564691885660216e-01 4.691830819928731744e-01
3.050921244238133934e-01 -5.274120936221498024e-01 1.656453103337698352e-01 5.183109268669306990e-01 5.621450363482869417e-01 6.444740035093162733e-01
3.045135090889931617e-01 -7.331320936934524468e-01 1.582259187148416513e-01 5.880453558438879513e-01 4.548837373431749986e-01 6.687925275981637663e-01
-5.728279234532923647e-01 -5.790915601843895644e-01 1.383858186630294029e-01 -8.346675636231946083e-01 -2.958713432087372031e-01 4.645322448476292831e-01
3.177852418664908751e-01 -7.246207561429283128e-01 1.855231271376668600e-01 6.764298464075773065e-01 -1.941039834590732316e-01 7.104690749739506206e-01
2.824046765515731416e-01 -7.603575924180177026e-01 1.973374837163683060e-01 6.194575753444837574e-01 -4.955361735164657833e-01 6.088646919349096631e-01
2.542761453115635617e-01 -8.143153410540168169e-01 1.367995227428814575e-01 5.435824229433622312e-01 -6.180782187906169733e-01 5.678886025653638869e-01
-4.669646067888189589e-01 -7.572069428801613267e-01 9.433147392556620603e-02 -8.392794011138909882e-01 -2.498929031587258931e-01 4.828701935477195395e-01
2.149487060000409289e-01 -6.949347553999296601e-01 1.244429099482509959e-01 4.296779669916131472e-01 -7.870120926645064463e-01 4.427062351964204945e-01
2.053610596048915105e-01 -7.114602432793897258e-01 1.773770023511845595e-01 3.221591138379744645e-01 -8.975848480111108252e-01 3.009234886013424370e-01
-4.430762420763154630e-01 -8.091435163913412998e-01 2.693121146548521638e-01 -8.467187256786405936e-01 -2.396002445074175702e-01 4.750359169758901490e-01
2.495809520172458384e-01 -7.756785559639505223e-01 1.617547046925970067e-01 8.142562263037642634e-01 -4.018704426166108679e-01 4.189116198873961694e-01
8.887579555328244119e-02 -7.342364146918053391e-01 1.266169031331739470e-01 9.037402185163982971e-01 6.523353151402726258e-02 4.230817932765968403e-01
-5.207469344737687411e-01 -7.949924449101880564e-01 9.836842345426725920e-02 -8.609420694929503792e-01 -2.059695290909563659e-01 4.651400929432393805e-01
4.869914809848115145e-02 1.953581929421311369e-01 2.507161475783454829e-01 -2.152565078324776213e-02 1.866428924092682351e-01 9.821919756704695637e-01
2.137319246940379835e-01 -8.623062442744900968e-01 2.446390881574770360e-01 4.050576844182445235e-01 9.137701247737113341e-01 3.086148675559430288e-02
-1.008116160954005136e-01 1.885322663397084320e-01 2.480355916757228385e-01 -4.899291498717672222e-01 -3.887012087178063485e-02 8.708952530639610945e-01
4.346017334625030398e-02 2.540479875231641538e-01 2.130596918096446246e-01 -7.041003708784794590e-02 2.465957103378390303e-01 9.665572835172597799e-01
2.611375305211128262e-01 -8.419241831519024277e-01 1.363268550181792604e-01 4.839217190967158855e-01 8.746781059309362005e-01 2.753145095248085011e-02
1.454186811230325210e-03 2.442250488463945102e-01 1.927797392684831579e-01 2.011557734926441854e-01 1.913403879233137317e-01 9.606899659827472515e-01
2.417919738448925382e-01 -8.404704550988018052e-01 1.998213690542009480e-01 9.250729369291376125e-01 2.390782206609138594e-01 2.950960280432647354e-01
1.969682414368904566e-01 -8.667437354404927685e-01 1.163876990584955806e-01 9.504274071849123651e-01 5.911171321040317034e-02 3.052761848443074078e-01
