-4.807025049552489382e-02 -5.431468826235175129e-02 -1.692533568237327146e-01 0.000000000000000000e+00 0.000000000000000000e+00 -1.000000000000000000e+00
5.761921075925865304e-02 -1.020094248343288434e-01 -2.801557022355187776e-01 0.000000000000000000e+00 0.000000000000000000e+00 -1.000000000000000000e+00
2.137731148137685805e-02 -6.804523330783765478e-02 -1.057251338231345594e-01 0.000000000000000000e+00 0.000000000000000000e+00 -1.000000000000000000e+00
8.508197519303362794e-03 -3.068032288116151821e-02 -2.013038858806602549e-01 0.000000000000000000e+00 0.000000000000000000e+00 -1.000000000000000000e+00
2.555797609560407635e-02 -1.089023713270004246e-01 -1.589003067129264313e-01 0.000000000000000000e+00 0.000000000000000000e+00 -1.000000000000000000e+00
2.572604144218954003e-02 -1.691305595386837224e-01 -1.649483921706499101e-01 0.000000000000000000e+00 0.000000000000000000e+00 -1.000000000000000000e+00
7.584478566015150081e-02 -2.319327117385536902e-02 -1.598379128911195379e-01 0.000000000000000000e+00 0.000000000000000000e+00 -1.000000000000000000e+00
1.028725221603564305e-01 6.563985713368611363e-02 -1.258695898093810384e-01 0.000000000000000000e+00 0.000000000000000000e+00 -1.000000000000000000e+00
1.503524126762104673e-01 -3.290379072979311703e-02 -2.181277509548118221e-01 0.000000000000000000e+00 0.000000000000000000e+00 -1.000000000000000000e+00
9.210656478398129843e-02 1.552037419030750237e-02 -1.798184600957407897e-01 0.000000000000000000e+00 0.000000000000000000e+00 -1.000000000000000000e+00
1.415624115792167015e-01 -1.296284122610122935e-01 -2.214168427120077332e-01 0.000000000000000000e+00 0.000000000000000000e+00 -1.000000000000000000e+00
1.478155957686698441e-01 -1.129452099659895292e-01 -1.264752581693387723e-01 0.000000000000000000e+00 0.000000000000000000e+00 -1.000000000000000000e+00
2.475330883624130007e-01 -9.702459230066962093e-02 -2.111882194214617647e-01 0.000000000000000000e+00 0.000000000000000000e+00 -1.000000000000000000e+00
1.630715113979041009e-01 -5.928753908188215405e-02 -1.660253787288818172e-01 0.000000000000000000e+00 0.000000000000000000e+00 -1.000000000000000000e+00
2.161383283849807602e-01 -3.238522312792556368e-02 -2.199541125738139757e-01 0.000000000000000000e+00 0.000000000000000000e+00 -1.000000000000000000e+00
2.019889388285681098e-01 -3.181552952126979333e-02 -2.100796092543834592e-01 0.000000000000000000e+00 0.000000000000000000e+00 -1.000000000000000000e+00
2.278065066903604829e-01 -8.660032433759407011e-02 -8.874525295185531348e-02 0.000000000000000000e+00 0.000000000000000000e+00 -1.000000000000000000e+00
4.697883780784073426e-02 -1.219259586904114651e-01 -1.478246159132584059e-01 0.000000000000000000e+00 0.000000000000000000e+00 -1.000000000000000000e+00
2.935520881268041116e-01 -2.499642076663897983e-02 -1.613515403220921740e-01 0.000000000000000000e+00 0.000000000000000000e+00 -1.000000000000000000e+00
2.177228457093948188e-01 4.550203263763661493e-02 -2.337868389295272575e-01 0.000000000000000000e+00 0.000000000000000000e+00 -1.000000000000000000e+00
1.504171524081159839e-01 3.258685870873473910e-03 -8.743512869424663325e-02 0.000000000000000000e+00 0.000000000000000000e+00 -1.000000000000000000e+00
-1.103202332895619475e-01 4.881488897708931296e-03 -1.575184349942526374e-01 0.000000000000000000e+00 0.000000000000000000e+00 -1.000000000000000000e+00
1.462973732633086887e-01 6.776928120560442304e-02 -1.522931703724014485e-01 0.000000000000000000e+00 0.000000000000000000e+00 -1.000000000000000000e+00
1.923290311548632725e-01 -3.267689447193724422e-02 -2.234643201008537361e-01 9.534485145303162393e-03 -1.322538875562416895e-03 -9.999536711687880830e-01
1.431658245757835290e-01 3.763126514578054443e-02 -1.707643256589758129e-01 0.000000000000000000e+00 0.000000000000000000e+00 -1.000000000000000000e+00
3.714663429263784233e-01 -4.046817220710156177e-02 -9.573503162640342734e-02 0.000000000000000000e+00 0.000000000000000000e+00 -1.000000000000000000e+00
2.236403996578266162e-01 -1.000158910978169585e-01 -1.555203481870109372e-01 0.000000000000000000e+00 0.000000000000000000e+00 -1.000000000000000000e+00
3.828489333523763527e-01 7.724166975566518212e-02 -3.056018067887649181e-01 0.000000000000000000e+00 0.000000000000000000e+00 -1.000000000000000000e+00
2.008148470322297097e-01 3.604200126642388702e-02 -1.016874518798973892e-01 0.000000000000000000e+00 0.000000000000000000e+00 -1.000000000000000000e+00
1.937916846724287434e-01 8.318395612916888726e-02 -1.171823932735678309e-01 0.000000000000000000e+00 0.000000000000000000e+00 -1.000000000000000000e+00
1.025841346655068237e-01 -1.386015395355315316e-02 -9.161095349739106775e-02 0.000000000000000000e+00 0.000000000000000000e+00 -1.000000000000000000e+00
1.126221244482132344e-01 -1.043436534612079275e-02 -2.333156001561448867e-01 0.000000000000000000e+00 0.000000000000000000e+00 -1.000000000000000000e+00
2.424182844836801631e-01 -2.586164738326941423e-02 -1.662481473306408053e-01 0.000000000000000000e+00 0.000000000000000000e+00 -1.000000000000000000e+00
1.846112361764910836e-01 -4.566712583296894667e-02 -2.491661480769700177e-01 0.000000000000000000e+00 0.000000000000000000e+00 -1.000000000000000000e+00
2.673198570582362432e-01 6.773066490166783360e-03 -1.674392928650207668e-01 0.000000000000000000e+00 0.000000000000000000e+00 -1.000000000000000000e+00
1.608463875585125491e-01 1.097525308421164192e-01 -8.558449349303329234e-02 0.000000000000000000e+00 0.000000000000000000e+00 -1.000000000000000000e+00
1.387840824030016351e-01 -3.737293384036056987e-02 -1.119031797606123979e-01 0.000000000000000000e+00 0.000000000000000000e+00 -1.000000000000000000e+00
3.421985484236093611e-01 -1.763713101109725678e-01 -1.315694504024350620e-01 7.108075372419549350e-03 -6.808041995360778094e-03 -9.999515617412121360e-01
3.068315174726230499e-01 -3.537885282117698982e-02 -1.641306188084961648e-01 0.000000000000000000e+00 0.000000000000000000e+00 -1.000000000000000000e+00
3.103192225919509384e-01 6.485720984285170410e-02 -1.081084366861941315e-01 0.000000000000000000e+00 0.000000000000000000e+00 -1.000000000000000000e+00
8.090054309081806672e-02 3.193965600669112365e-02 -1.602047942765743305e-01 0.000000000000000000e+00 0.000000000000000000e+00 -1.000000000000000000e+00
1.718417251922099709e-01 -4.910338884261228332e-02 -5.695669388012407353e-02 0.000000000000000000e+00 0.000000000000000000e+00 -1.000000000000000000e+00
2.566482965905984015e-01 -1.766048079834665607e-01 8.822232132842357244e-02 9.072885727681175849e-01 4.205068937835604315e-01 -1.182372569699297179e-03
2.660341454381546233e-01 -1.008769860991882844e-01 1.297841479276003185e-01 9.112704647040636985e-01 4.117380698579350407e-01 7.609335562453333097e-03
2.663650236555922812e-01 2.637498827994920469e-02 -3.199906188734127910e-02 0.000000000000000000e+00 0.000000000000000000e+00 -1.000000000000000000e+00
1.967851144965404864e-01 -1.742723319378091523e-02 -1.778190691402596058e-01 0.000000000000000000e+00 0.000000000000000000e+00 -1.000000000000000000e+00
9.267638100254926847e-02 1.402293135325992091e-01 -1.035547198859860796e-01 0.000000000000000000e+00 0.000000000000000000e+00 -1.000000000000000000e+00
1.820557751783685452e-01 1.625781482315818705e-01 -9.619963387399806110e-02 0.000000000000000000e+00 0.000000000000000000e+00 -1.000000000000000000e+00
1.358321506995099626e-01 7.939087662408539359e-02 -8.652542149564326768e-02 0.000000000000000000e+00 0.000000000000000000e+00 -1.000000000000000000e+00
1.626791956693967867e-01 1.864389508535838902e-01 -1.667486007181067098e-01 0.000000000000000000e+00 0.000000000000000000e+00 -1.000000000000000000e+00
1.631430928368395039e-01 9.281003606617919954e-02 -2.604726374943032718e-01 0.000000000000000000e+00 0.000000000000000000e+00 -1.000000000000000000e+00
-2.207786041831427126e-01 -4.070599543771006301e-01 -1.510742146090582327e-01 0.000000000000000000e+00 0.000000000000000000e+00 -1.000000000000000000e+00
2.019082914090832848e-01 1.548939904699936920e-01 -1.385989135515885706e-01 0.000000000000000000e+00 0.000000000000000000e+00 -1.000000000000000000e+00
8.461749428484383051e-02 2.724300046080107007e-01 -1.081421010094613944e-01 0.000000000000000000e+00 0.000000000000000000e+00 -1.000000000000000000e+00
1.268172474854815379e-01 1.882603576708742343e-01 -1.862241900116020366e-01 0.000000000000000000e+00 0.000000000000000000e+00 -1.000000000000000000e+00
1.817308502704288176e-01 2.621971938581287853e-01 -1.953253464609289725e-01 0.000000000000000000e+00 0.000000000000000000e+00 -1.000000000000000000e+00
2.194808869103147542e-01 2.506955910608552052e-01 -1.616241544556419329e-01 0.000000000000000000e+00 0.000000000000000000e+00 -1.000000000000000000e+00
1.490304374017694666e-01 1.639970984117186115e-01 -1.011278967404768692e-01 0.000000000000000000e+00 0.000000000000000000e+00 -1.000000000000000000e+00
1.872738433448395412e-01 3.169062966504695433e-01 -1.753124758163253083e-01 0.000000000000000000e+00 0.000000000000000000e+00 -1.000000000000000000e+00
1.665632445893552305e-01 9.137219900878576495e-02 -2.504166434001531272e-01 0.000000000000000000e+00 0.000000000000000000e+00 -1.000000000000000000e+00
1.475293720774011885e-01 7.181718694459168773e-02 -2.014626303602537472e-01 0.000000000000000000e+00 0.000000000000000000e+00 -1.000000000000000000e+00
9.174773807648378687e-02 1.960922170472908371e-02 -1.510260027024565299e-01 0.000000000000000000e+00 0.000000000000000000e+00 -1.000000000000000000e+00
3.198812464382227994e-01 -1.800152072074383824e-01 5.269112462298275457e-02 9.501366055668397648e-01 3.118258849838128066e-01 -2.246823532312830322e-03
-2.699807184212071887e-02 -2.596448018218567855e-01 -2.162784062064031232e-01 0.000000000000000000e+00 0.000000000000000000e+00 -1.000000000000000000e+00
1.739116359541747481e-01 -1.180744949507115948e-01 7.418335290218097677e-03 9.408593070890397536e-01 3.385842383810556688e-01 1.201989117474119156e-02
4.773106444530647585e-02 1.208736876966848423e-01 -8.333593520635224072e-02 0.000000000000000000e+00 0.000000000000000000e+00 -1.000000000000000000e+00
1.965988531870820621e-01 -1.069165192129024888e-01 1.195472232544639718e-01 9.469744474207936191e-01 3.211855182829828625e-01 8.902739880181935808e-03
2.015306169145847370e-01 -8.792747796974767494e-02 2.365100189355846261e-01 9.404685734857000101e-01 3.398611157685557105e-01 3.644759844573415997e-03
3.047245312501877801e-01 -9.695849320159444229e-02 2.155120726365968298e-01 9.452018513576301295e-01 3.264861414412308371e-01 -5.095458025525666408e-04
3.379914304922420620e-01 9.305889990267927903e-02 -1.153247213197433618e-01 0.000000000000000000e+00 0.000000000000000000e+00 -1.000000000000000000e+00
2.907773609940437765e-01 3.039227055947524292e-02 -1.187922679785986535e-01 0.000000000000000000e+00 0.000000000000000000e+00 -1.000000000000000000e+00
3.117066342813457069e-01 -4.779474516119122662e-02 -1.140290687994690161e-01 0.000000000000000000e+00 0.000000000000000000e+00 -1.000000000000000000e+00
2.474686907644290668e-01 -2.309248453909955312e-01 1.262579764003264327e-01 9.532392412316922359e-01 3.017463547352682296e-01 -1.685486220664917517e-02
1.386285001652247106e-01 -7.903293499226235475e-03 -2.540200705412197224e-01 0.000000000000000000e+00 0.000000000000000000e+00 -1.000000000000000000e+00
5.018169289796634014e-03 2.529039380668091086e-03 -2.074599380771882939e-01 0.000000000000000000e+00 0.000000000000000000e+00 -1.000000000000000000e+00
4.788382162296100919e-03 8.915354919921147925e-02 -1.160621756090547685e-01 0.000000000000000000e+00 0.000000000000000000e+00 -1.000000000000000000e+00
-1.473738368107632701e-01 5.943282111641193244e-02 -1.356355892433958044e-01 0.000000000000000000e+00 0.000000000000000000e+00 -1.000000000000000000e+00
5.712487315634991181e-02 9.146423370384973439e-02 -1.270980342388762230e-01 0.000000000000000000e+00 0.000000000000000000e+00 -1.000000000000000000e+00
2.697694884526734560e-01 3.439980162817725673e-01 -1.169891517488041571e-01 0.000000000000000000e+00 0.000000000000000000e+00 -1.000000000000000000e+00
1.139272277203869921e-01 3.544416476028142138e-01 -1.500529819092439876e-01 2.431747189472341624e-03 1.048402735473269454e-02 -9.999420842108965868e-01
1.828306677290516269e-01 3.244648244908162060e-01 -2.408442185137165126e-01 0.000000000000000000e+00 0.000000000000000000e+00 -1.000000000000000000e+00
2.511393069529819777e-01 3.281195519848530417e-01 -1.107108250225088825e-01 0.000000000000000000e+00 0.000000000000000000e+00 -1.000000000000000000e+00
2.380439917136729921e-01 1.802459408012768161e-01 -1.183998607369167178e-01 0.000000000000000000e+00 0.000000000000000000e+00 -1.000000000000000000e+00
8.056134293024819204e-02 2.420742361494552519e-01 -9.200098404469950197e-02 0.000000000000000000e+00 0.000000000000000000e+00 -1.000000000000000000e+00
2.452377594484611012e-01 2.944189788239654493e-01 -1.822832019366529277e-01 0.000000000000000000e+00 0.000000000000000000e+00 -1.000000000000000000e+00
1.781203495792024472e-01 1.811834722135268194e-01 -3.056855172946362775e-02 0.000000000000000000e+00 0.000000000000000000e+00 -1.000000000000000000e+00
1.447018426639687383e-01 1.313142932726356071e-01 -1.302869601852790493e-01 0.000000000000000000e+00 0.000000000000000000e+00 -1.000000000000000000e+00
2.623420120234634112e-01 1.900667978929261315e-01 -2.151396587872319022e-01 0.000000000000000000e+00 0.000000000000000000e+00 -1.000000000000000000e+00
1.112012439488445359e-01 1.812666262075983137e-01 -1.431636166225860873e-01 0.000000000000000000e+00 0.000000000000000000e+00 -1.000000000000000000e+00
8.284966734282220302e-02 1.614938316511067562e-01 -1.328558511706323664e-01 0.000000000000000000e+00 0.000000000000000000e+00 -1.000000000000000000e+00
8.425795993073945112e-02 1.806339313676036396e-01 -1.790776959612804531e-01 0.000000000000000000e+00 0.000000000000000000e+00 -1.000000000000000000e+00
4.933745279451675486e-02 1.559558010275553797e-02 -1.793383703266099860e-01 0.000000000000000000e+00 0.000000000000000000e+00 -1.000000000000000000e+00
2.530042441407567844e-01 -1.405794997655364642e-01 9.429091350030491259e-03 9.644195734914999818e-01 2.637006782366418389e-01 -1.889017109526396759e-02
1.891809714587834312e-01 1.687078919165804214e-01 -7.495787574450578361e-02 0.000000000000000000e+00 0.000000000000000000e+00 -1.000000000000000000e+00
2.782661875380357808e-01 -6.251828288629532326e-02 1.129766255763501037e-01 9.713445288131260513e-01 2.376154485626559842e-01 -5.357699989160316645e-03
3.032773390038565609e-01 -1.090663637742165237e-01 1.920462840766588505e-02 9.674992618047761894e-01 2.528500043773924122e-01 3.471842963869748930e-03
7.010349045882795227e-02 8.687411067596775838e-02 -7.258101801936545083e-02 0.000000000000000000e+00 0.000000000000000000e+00 -1.000000000000000000e+00
1.632285709904637838e-01 -1.197491541375170360e-01 6.990700068646231446e-02 9.604038621549552124e-01 2.777308753972119182e-01 2.213554627616564144e-02
1.225371264320311709e-01 -8.415592899386642456e-02 -2.102973849144915974e-01 0.000000000000000000e+00 0.000000000000000000e+00 -1.000000000000000000e+00
1.317532846529440582e-01 -5.739136736253133697e-03 -1.998394839463268347e-01 0.000000000000000000e+00 0.000000000000000000e+00 -1.000000000000000000e+00
-2.132939905778272194e-02 5.676700265295276521e-02 -2.481692352002470847e-01 0.000000000000000000e+00 0.000000000000000000e+00 -1.000000000000000000e+00
1.440280882745279267e-01 2.006231515145803779e-01 -9.097445002171462847e-02 0.000000000000000000e+00 0.000000000000000000e+00 -1.000000000000000000e+00
1.151973253048777096e-01 -1.016215566123673808e-02 -1.483289938133665331e-01 0.000000000000000000e+00 0.000000000000000000e+00 -1.000000000000000000e+00
1.924374926575431466e-01 -7.314762919170697542e-02 -2.410666443753808619e-01 0.000000000000000000e+00 0.000000000000000000e+00 -1.000000000000000000e+00
1.373963233723123900e-01 1.042400507257915110e-01 -2.010791989386574441e-01 0.000000000000000000e+00 0.000000000000000000e+00 -1.000000000000000000e+00
3.610734453971709002e-01 1.666987107028734816e-01 -2.395193603636938118e-01 0.000000000000000000e+00 0.000000000000000000e+00 -1.000000000000000000e+00
2.596922824635370386e-01 5.569678778229025101e-02 -1.930496279025350759e-01 0.000000000000000000e+00 0.000000000000000000e+00 -1.000000000000000000e+00
2.010889324699347280e-01 -8.250066717828491436e-02 2.528794940661152069e-01 9.713047709523229267e-01 2.378249312845775176e-01 -2.518726809566938004e-03
1.719370816854561834e-01 -1.695220426312732120e-01 2.120037501205116470e-01 9.694080573407176660e-01 2.453080965745741138e-01 -8.482695199948354914e-03
2.932768203608799307e-01 4.060636341523911341e-02 -1.560194364485828489e-01 0.000000000000000000e+00 0.000000000000000000e+00 -1.000000000000000000e+00
3.984915317467521700e-01 3.577007320007348501e-02 -1.892297600236287347e-01 0.000000000000000000e+00 0.000000000000000000e+00 -1.000000000000000000e+00
2.605121819414131235e-01 2.751477095333942913e-01 -1.978356612522524927e-01 0.000000000000000000e+00 0.000000000000000000e+00 -1.000000000000000000e+00
1.989847345814753365e-01 -1.071328720738378426e-01 3.294424411381294271e-02 9.939531129821548294e-01 1.097949539344368064e-01 1.509067135300730042e-03
2.934458760516283626e-01 -5.884133968207749810e-02 1.090938992681087794e-01 9.899335415900409885e-01 1.415256758963745476e-01 1.437462024828084712e-03
1.661520653329682795e-01 1.736799068603618323e-01 -1.403817644946066256e-01 0.000000000000000000e+00 0.000000000000000000e+00 -1.000000000000000000e+00
1.679279582855475184e-02 1.635104861431365131e-01 -4.822907692737687935e-02 0.000000000000000000e+00 0.000000000000000000e+00 -1.000000000000000000e+00
1.851421789064744416e-01 1.807924377914493230e-01 -1.286049989718402453e-01 0.000000000000000000e+00 0.000000000000000000e+00 -1.000000000000000000e+00
1.387772503684199799e-01 1.878951601323795573e-01 -1.541193602780482896e-01 0.000000000000000000e+00 0.000000000000000000e+00 -1.000000000000000000e+00
1.653949420419572047e-01 1.785602721208353894e-01 -1.481303819593865478e-01 0.000000000000000000e+00 0.000000000000000000e+00 -1.000000000000000000e+00
2.258723970434037276e-01 1.922543509295643049e-01 -2.586800828179554035e-01 0.000000000000000000e+00 0.000000000000000000e+00 -1.000000000000000000e+00
2.179039976143929969e-01 7.911125971662479051e-02 -1.539306520465414663e-01 0.000000000000000000e+00 0.000000000000000000e+00 -1.000000000000000000e+00
2.624514598471098248e-01 6.887391531368225461e-02 -8.570131156594881783e-02 0.000000000000000000e+00 0.000000000000000000e+00 -1.000000000000000000e+00
1.721543136694368425e-01 -1.889223811451403168e-01 -2.855610367366841207e-02 9.897165040979621908e-01 1.424802187678064769e-01 1.267394082304643121e-02
1.229733077097552307e-01 -1.262641470227547635e-01 1.048999957916814663e-01 9.892812423324581772e-01 1.460102299595592013e-01 1.906912768078487938e-03
1.827200286533278151e-01 1.561260867666441343e-01 -1.390901118330918340e-01 0.000000000000000000e+00 0.000000000000000000e+00 -1.000000000000000000e+00
1.828955037585536236e-01 2.719388509830139022e-01 -2.124107279997807796e-01 0.000000000000000000e+00 0.000000000000000000e+00 -1.000000000000000000e+00
2.193543509319169360e-01 3.383018304610198590e-01 -1.495901322884012896e-01 0.000000000000000000e+00 0.000000000000000000e+00 -1.000000000000000000e+00
4.904354167098692319e-01 1.280878835499572876e-01 -1.289038783723324144e-01 0.000000000000000000e+00 0.000000000000000000e+00 -1.000000000000000000e+00
3.428688458268862593e-01 1.473713169998414063e-01 -8.217792782001732965e-02 0.000000000000000000e+00 0.000000000000000000e+00 -1.000000000000000000e+00
2.648663176614671766e-01 9.326006570162631570e-02 -1.059875656426834123e-01 0.000000000000000000e+00 0.000000000000000000e+00 -1.000000000000000000e+00
4.148484247058989993e-01 6.068663881819775369e-02 -1.731260939824229017e-01 0.000000000000000000e+00 0.000000000000000000e+00 -1.000000000000000000e+00
3.632610574334458886e-01 6.751436107464485470e-02 -1.949040004372844526e-01 0.000000000000000000e+00 0.000000000000000000e+00 -1.000000000000000000e+00
3.224497962075518753e-01 1.774700769699966985e-01 -1.800113720515132132e-01 0.000000000000000000e+00 0.000000000000000000e+00 -1.000000000000000000e+00
2.181229163497310219e-01 -2.932331242327890219e-02 -2.557644330044703262e-01 0.000000000000000000e+00 0.000000000000000000e+00 -1.000000000000000000e+00
3.235988342162336440e-01 1.907220331271156089e-01 -1.242725468634704872e-01 0.000000000000000000e+00 0.000000000000000000e+00 -1.000000000000000000e+00
3.749209776731250443e-01 3.070753142099554300e-01 -1.400273272360162136e-01 0.000000000000000000e+00 0.000000000000000000e+00 -1.000000000000000000e+00
2.513831060036683662e-01 1.485372991823618039e-01 -2.445372314819966864e-01 0.000000000000000000e+00 0.000000000000000000e+00 -1.000000000000000000e+00
3.910422954884408275e-01 3.419693648577672995e-01 -1.470476755922223711e-01 0.000000000000000000e+00 0.000000000000000000e+00 -1.000000000000000000e+00
2.562526558187177006e-01 1.961267731395977543e-01 -1.166682086720950973e-01 0.000000000000000000e+00 0.000000000000000000e+00 -1.000000000000000000e+00
2.228951126540264782e-01 2.745853010841974307e-01 -1.961352602454679295e-01 0.000000000000000000e+00 0.000000000000000000e+00 -1.000000000000000000e+00
2.926173907763237048e-01 2.247888028674068506e-01 -2.539569639248234201e-01 0.000000000000000000e+00 0.000000000000000000e+00 -1.000000000000000000e+00
2.874050558644609121e-01 9.101638305268802687e-02 -8.929012642602988936e-02 0.000000000000000000e+00 0.000000000000000000e+00 -1.000000000000000000e+00
2.253822717323716862e-01 3.134419784473481685e-01 -6.954434104260942551e-02 0.000000000000000000e+00 0.000000000000000000e+00 -1.000000000000000000e+00
3.144911482943167358e-01 2.364060307248128934e-01 -1.803663411742168488e-01 0.000000000000000000e+00 0.000000000000000000e+00 -1.000000000000000000e+00
3.026933003788723209e-01 1.983463042651417985e-01 -1.894597509358487419e-01 0.000000000000000000e+00 0.000000000000000000e+00 -1.000000000000000000e+00
4.111136847761665547e-01 2.343137951969597732e-01 -8.509312324188134102e-02 0.000000000000000000e+00 0.000000000000000000e+00 -1.000000000000000000e+00
2.306179529497683900e-01 1.327184691063513777e-01 -1.855481885811667009e-01 0.000000000000000000e+00 0.000000000000000000e+00 -1.000000000000000000e+00
3.258870020780977872e-01 1.204569242688791481e-01 -1.559479681147789287e-01 0.000000000000000000e+00 0.000000000000000000e+00 -1.000000000000000000e+00
3.605614388680054572e-01 2.035203530713885212e-01 -2.036282251696995838e-01 0.000000000000000000e+00 0.000000000000000000e+00 -1.000000000000000000e+00
3.470364258759707221e-01 1.152216471089954619e-01 -1.592761224476826332e-01 0.000000000000000000e+00 0.000000000000000000e+00 -1.000000000000000000e+00
4.827572881172509378e-01 7.883071520099588225e-02 -1.686017915914787835e-01 7.649929945978586020e-03 -9.571175946080791308e-03 -9.999249327638703999e-01
4.376068213763144588e-01 2.276447253691807893e-01 -1.125877279983705515e-01 0.000000000000000000e+00 0.000000000000000000e+00 -1.000000000000000000e+00
3.830173607520134804e-01 -5.818677546634204445e-03 -2.413575624195009039e-01 0.000000000000000000e+00 0.000000000000000000e+00 -1.000000000000000000e+00
2.146651162160772286e-01 1.560018817756044507e-01 -1.929730933771132417e-01 0.000000000000000000e+00 0.000000000000000000e+00 -1.000000000000000000e+00
4.663691736789188358e-01 1.230961667907339852e-01 -1.598170945142325661e-01 0.000000000000000000e+00 0.000000000000000000e+00 -1.000000000000000000e+00
2.688398182144216553e-01 3.290631897712403137e-02 -8.758080487968968042e-02 0.000000000000000000e+00 0.000000000000000000e+00 -1.000000000000000000e+00
4.062686552060247314e-01 1.317931309105393189e-01 -8.361141304358937765e-02 3.121678971746705798e-03 -9.504030099816219643e-03 -9.999499630142796303e-01
2.848675411503359678e-01 8.605514666107107191e-02 -1.231560454228866341e-01 0.000000000000000000e+00 0.000000000000000000e+00 -1.000000000000000000e+00
3.631046011854805466e-01 1.048405861691384389e-01 -1.422258612804699063e-01 0.000000000000000000e+00 0.000000000000000000e+00 -1.000000000000000000e+00
4.460471475899585592e-01 2.145655139557672841e-01 -2.350011722105611600e-01 0.000000000000000000e+00 0.000000000000000000e+00 -1.000000000000000000e+00
3.852722478328448608e-01 8.264784750154820225e-02 -1.031524053181417377e-01 0.000000000000000000e+00 0.000000000000000000e+00 -1.000000000000000000e+00
3.423245921108792333e-01 2.164973394636964810e-01 -1.559678176378410941e-01 0.000000000000000000e+00 0.000000000000000000e+00 -1.000000000000000000e+00
-1.637905227173105382e-01 -2.894741939907315154e-02 3.205757004535575438e-02 3.554690500826278993e-05 -1.225009307340094449e-04 9.999999918649699060e-01
3.587224586217936939e-01 2.160934280270875585e-01 -2.495718220435180768e-01 0.000000000000000000e+00 0.000000000000000000e+00 -1.000000000000000000e+00
3.819819061690788997e-01 9.987126487510350481e-02 -7.578299699964544112e-02 0.000000000000000000e+00 0.000000000000000000e+00 -1.000000000000000000e+00
5.849964544891268492e-01 3.644183306937408273e-02 -1.576537590296987479e-01 0.000000000000000000e+00 0.000000000000000000e+00 -1.000000000000000000e+00
3.617738001571834117e-01 -2.751892363245987683e-03 -1.290454046045243219e-01 2.231084222110681775e-03 -1.168665631622336880e-02 -9.999292196587417081e-01
2.785287219658854063e-01 1.978947278496462348e-02 -1.011804605094943910e-01 0.000000000000000000e+00 0.000000000000000000e+00 -1.000000000000000000e+00
-1.000588375106657157e-01 3.905829510746439831e-02 8.053164145109814598e-02 -3.606412732790610474e-05 -4.171818178467110653e-05 9.999999984794860630e-01
3.807334969368558752e-01 4.539514068974809247e-02 -2.030417757311776539e-01 0.000000000000000000e+00 0.000000000000000000e+00 -1.000000000000000000e+00
4.144028587790992701e-01 1.401765368282486268e-01 -1.561186769134429442e-01 0.000000000000000000e+00 0.000000000000000000e+00 -1.000000000000000000e+00
4.081306189098782844e-01 9.986027242262182635e-02 -2.027266627111548869e-01 0.000000000000000000e+00 0.000000000000000000e+00 -1.000000000000000000e+00
4.435775556335253000e-01 2.164204770480378237e-02 -2.764064520458300311e-01 0.000000000000000000e+00 0.000000000000000000e+00 -1.000000000000000000e+00
5.223698165351875478e-01 1.310766130797578199e-01 -2.245460543431241907e-01 -1.581851708403788541e-03 -8.727878466330876370e-03 -9.999606601675136153e-01
5.946299379843524857e-01 7.503310852854229440e-02 -1.533100584431641988e-01 -1.816688854593424135e-03 -8.783641028648680668e-03 -9.999597728368303517e-01
3.551611096260369749e-01 1.223117159832837614e-01 -1.864084331690619711e-01 0.000000000000000000e+00 0.000000000000000000e+00 -1.000000000000000000e+00
-1.649528708320232018e-01 3.965965856791299482e-02 1.350266368846080312e-01 8.106735488392049680e-05 -5.466660878289593563e-05 9.999999952198228570e-01
3.644065109377226386e-01 2.105736558071583109e-01 -1.112566396957053172e-01 0.000000000000000000e+00 0.000000000000000000e+00 -1.000000000000000000e+00
3.881617225802932447e-01 2.676922574989628045e-01 -1.979559809499356615e-01 0.000000000000000000e+00 0.000000000000000000e+00 -1.000000000000000000e+00
3.520371232114258842e-01 1.321768432532255400e-01 -1.752850869726676475e-01 0.000000000000000000e+00 0.000000000000000000e+00 -1.000000000000000000e+00
2.755772791684528156e-01 -1.295126132564526356e-01 5.190829295003562827e-02 9.809342489567710599e-01 1.929851387551307085e-01 2.290710464634186996e-02
5.422721105569201505e-01 2.477074628237844467e-01 -1.772296271876803442e-01 0.000000000000000000e+00 0.000000000000000000e+00 -1.000000000000000000e+00
1.943199291096521231e-01 -1.133537853073016688e-01 1.885761836215147369e-01 9.889855610211745196e-01 1.479389521944951824e-01 -4.650431724877415914e-03
5.708450298675052936e-01 6.668039149516180597e-02 -1.598554944527670885e-01 0.000000000000000000e+00 0.000000000000000000e+00 -1.000000000000000000e+00
6.552529296785135626e-01 1.016473820951649953e-01 -1.848558997429207429e-01 0.000000000000000000e+00 0.000000000000000000e+00 -1.000000000000000000e+00
4.627416048129497916e-01 9.699299893349665191e-02 -1.477637510732370540e-01 0.000000000000000000e+00 0.000000000000000000e+00 -1.000000000000000000e+00
4.763246426317154780e-01 9.786883640745674962e-03 -1.596531631237894655e-01 0.000000000000000000e+00 0.000000000000000000e+00 -1.000000000000000000e+00
5.195349497171681818e-01 3.180379847593513554e-01 -5.521297708440064955e-02 0.000000000000000000e+00 0.000000000000000000e+00 -1.000000000000000000e+00
5.304214886520468575e-01 2.115737375227535189e-01 -1.383697855303880619e-01 0.000000000000000000e+00 0.000000000000000000e+00 -1.000000000000000000e+00
5.000667890493574186e-01 1.181152121116694348e-01 -1.586314688305814347e-01 0.000000000000000000e+00 0.000000000000000000e+00 -1.000000000000000000e+00
4.532693840046990164e-01 2.434437864269774210e-01 -8.016888576497475938e-02 0.000000000000000000e+00 0.000000000000000000e+00 -1.000000000000000000e+00
4.682002252660512065e-01 7.788103209472389821e-02 -7.538674461888615619e-02 0.000000000000000000e+00 0.000000000000000000e+00 -1.000000000000000000e+00
4.881930412954694765e-01 1.037064715361987188e-01 -1.408179269665495725e-01 0.000000000000000000e+00 0.000000000000000000e+00 -1.000000000000000000e+00
6.251645714700869716e-01 9.076822702016998368e-02 -2.167462225534472764e-01 0.000000000000000000e+00 0.000000000000000000e+00 -1.000000000000000000e+00
5.858477656487982577e-01 9.953602018659429840e-02 -2.452941904395191941e-01 0.000000000000000000e+00 0.000000000000000000e+00 -1.000000000000000000e+00
5.476297232453797292e-01 1.509540697335222392e-01 -1.557326349360349804e-01 0.000000000000000000e+00 0.000000000000000000e+00 -1.000000000000000000e+00
3.907881496313341252e-01 1.840261898328935941e-01 -8.330020950160976767e-02 0.000000000000000000e+00 0.000000000000000000e+00 -1.000000000000000000e+00
4.861785067667835913e-01 1.469138033775281849e-01 -1.493089086672305665e-01 0.000000000000000000e+00 0.000000000000000000e+00 -1.000000000000000000e+00
-8.713908401092958222e-02 -8.105982758910987296e-03 -2.555833569468138333e-02 8.021186146654436181e-05 -5.498908451541085579e-05 9.999999952711290385e-01
4.934975087869724053e-01 1.672747613698881697e-01 -1.162293597967819225e-01 0.000000000000000000e+00 0.000000000000000000e+00 -1.000000000000000000e+00
1.303584952145301137e-02 -6.985455009696443784e-02 8.172057044700793693e-02 1.579153158663353475e-04 -2.083937303929512411e-05 9.999999873142366713e-01
3.882169885146434796e-01 1.181658221788799285e-01 -9.168538219829791558e-02 0.000000000000000000e+00 0.000000000000000000e+00 -1.000000000000000000e+00
4.278036032825482393e-01 2.809553232871505601e-01 -1.494621375364643401e-01 0.000000000000000000e+00 0.000000000000000000e+00 -1.000000000000000000e+00
5.421482601682208191e-01 2.150982853975711151e-01 -1.497346225502024231e-01 0.000000000000000000e+00 0.000000000000000000e+00 -1.000000000000000000e+00
5.255573446735091192e-01 5.698589792296074319e-02 -2.305049544593394395e-01 0.000000000000000000e+00 0.000000000000000000e+00 -1.000000000000000000e+00
4.486261023178115814e-01 2.554124417794513824e-01 -9.029969105202322044e-02 0.000000000000000000e+00 0.000000000000000000e+00 -1.000000000000000000e+00
6.041500300439521798e-01 2.433263135136794209e-01 -1.825199797991928496e-01 0.000000000000000000e+00 0.000000000000000000e+00 -1.000000000000000000e+00
5.661344696769664564e-01 2.939044990473865804e-01 -1.523063859379548135e-01 0.000000000000000000e+00 0.000000000000000000e+00 -1.000000000000000000e+00
5.944450339361528890e-01 2.894658978012181749e-01 -1.428810472747255034e-01 0.000000000000000000e+00 0.000000000000000000e+00 -1.000000000000000000e+00
6.506874371766409038e-01 3.604139113085827462e-01 -1.811834646011423466e-01 0.000000000000000000e+00 0.000000000000000000e+00 -1.000000000000000000e+00
1.239493114919638650e-01 -7.788450055193671395e-02 1.965408917063596606e-01 9.829227629187949900e-01 1.835480315178134314e-01 -1.315151177691014847e-02
6.180459290458617527e-01 3.625364690281784874e-01 -2.014745557865861292e-01 0.000000000000000000e+00 0.000000000000000000e+00 -1.000000000000000000e+00
6.096257170290887428e-01 2.894911038046640295e-01 -2.385783363262189150e-01 0.000000000000000000e+00 0.000000000000000000e+00 -1.000000000000000000e+00
4.645050001149493846e-01 2.323731990641404455e-01 -7.604096416631878075e-02 4.239089800174583034e-01 9.056723755651879815e-01 -7.663210728367814140e-03
7.012241406848829239e-01 2.142760973735818308e-01 -1.335968626234747547e-01 5.224917357194558409e-01 8.526431810321096760e-01 -1.411362573925145462e-03
7.088716947431465965e-01 3.002451538209110482e-01 -1.812968423005866803e-01 5.574196266413233847e-01 8.298562499940870252e-01 -2.493920970678775370e-02
6.396893952571368613e-01 3.465069269116413664e-01 -5.780502616218263778e-03 5.468397588984977853e-01 8.372157311689347736e-01 6.008125423020104633e-03
6.890163060152377783e-01 3.295108310327173884e-01 -1.330423435032720980e-01 4.407014240953799900e-01 8.974979245997445343e-01 -1.672513496074697070e-02
7.075172263768083614e-01 2.670182715952547081e-01 -1.424940224301514957e-01 0.000000000000000000e+00 0.000000000000000000e+00 -1.000000000000000000e+00
2.367115592760265785e-01 -1.571416872619756377e-01 2.796900999018475664e-01 9.878725892037107936e-01 1.551113816589841099e-01 6.943110239467670253e-03
1.862483437592444280e-01 -1.224531642618854749e-01 1.826360542152874189e-01 9.919490864995209600e-01 1.261060191417871790e-01 -1.158799935178345814e-02
5.453515688328306465e-01 1.314192181138732485e-01 -1.042542599331921227e-01 0.000000000000000000e+00 0.000000000000000000e+00 -1.000000000000000000e+00
4.719898919853774411e-01 -3.584893127018962122e-02 -8.216599532827624508e-02 0.000000000000000000e+00 0.000000000000000000e+00 -1.000000000000000000e+00
6.001638281201807645e-01 1.254606346492875280e-01 -1.590452424525785613e-01 0.000000000000000000e+00 0.000000000000000000e+00 -1.000000000000000000e+00
7.542786554460991777e-01 2.871748230629879162e-01 -1.412183918251614656e-01 0.000000000000000000e+00 0.000000000000000000e+00 -1.000000000000000000e+00
2.304037351481776075e-01 -1.000009847703959842e-01 9.238329355095885320e-02 9.984510089574688552e-01 5.562933742347624111e-02 9.795558368587190499e-04
5.923619515852915907e-01 1.530014887237679810e-01 -1.295519792239876455e-01 0.000000000000000000e+00 0.000000000000000000e+00 -1.000000000000000000e+00
7.159405450829680051e-01 4.287992905958444567e-02 -1.528988041844067391e-01 0.000000000000000000e+00 0.000000000000000000e+00 -1.000000000000000000e+00
5.938424051518721436e-01 1.037201528548987867e-01 -2.142754739896368943e-01 0.000000000000000000e+00 0.000000000000000000e+00 -1.000000000000000000e+00
4.170848990464359196e-01 6.212360579606264477e-02 -1.794762362143076939e-01 -5.639283060097454066e-03 -1.048328506159184118e-02 -9.999291471003759479e-01
6.669874727058687780e-01 1.450491591686983717e-02 -1.715690059322731165e-01 0.000000000000000000e+00 0.000000000000000000e+00 -1.000000000000000000e+00
6.448650218173984650e-01 1.789091954431916154e-01 -2.110695381395525372e-01 0.000000000000000000e+00 0.000000000000000000e+00 -1.000000000000000000e+00
6.920919314274027734e-01 2.481724146805037723e-01 -1.058062786836729274e-01 0.000000000000000000e+00 0.000000000000000000e+00 -1.000000000000000000e+00
6.648434496984177988e-01 1.306265893163506830e-01 -1.400843137665665483e-01 0.000000000000000000e+00 0.000000000000000000e+00 -1.000000000000000000e+00
6.561453183933200206e-01 2.137158226471417843e-01 -1.777417789431689488e-01 0.000000000000000000e+00 0.000000000000000000e+00 -1.000000000000000000e+00
5.955894994731346648e-01 2.298875464600022012e-01 -1.633077649604422477e-01 0.000000000000000000e+00 0.000000000000000000e+00 -1.000000000000000000e+00
7.747818530211812993e-01 1.183487999128416540e-01 -1.655044144118556770e-01 0.000000000000000000e+00 0.000000000000000000e+00 -1.000000000000000000e+00
7.584299188214416176e-01 1.766845557823989998e-01 -1.638485827030783659e-01 0.000000000000000000e+00 0.000000000000000000e+00 -1.000000000000000000e+00
7.197629354335506324e-01 1.652572170505652027e-01 -3.689717035161071967e-02 0.000000000000000000e+00 0.000000000000000000e+00 -1.000000000000000000e+00
-3.207039301460187231e-01 -2.236174206589703894e-01 -5.535216924657705012e-02 7.918903794097697244e-04 -5.239549417021245690e-05 9.999996850821200045e-01
6.090699310305208725e-01 3.483830651601412254e-01 -1.456760587670467566e-01 0.000000000000000000e+00 0.000000000000000000e+00 -1.000000000000000000e+00
6.219048972430286648e-01 4.427188880509080188e-02 -8.747589174321371286e-02 0.000000000000000000e+00 0.000000000000000000e+00 -1.000000000000000000e+00
6.140458301150629739e-01 2.058915760942260365e-01 -1.358101285359341048e-01 0.000000000000000000e+00 0.000000000000000000e+00 -1.000000000000000000e+00
7.142600836129282538e-01 2.551143509531302866e-01 -1.109975618849800838e-01 0.000000000000000000e+00 0.000000000000000000e+00 -1.000000000000000000e+00
7.918389210391351130e-01 3.128840395742681080e-02 -1.826790319505957327e-01 0.000000000000000000e+00 0.000000000000000000e+00 -1.000000000000000000e+00
7.330412636537759763e-01 1.490078725116585900e-01 -1.463565123443615335e-01 0.000000000000000000e+00 0.000000000000000000e+00 -1.000000000000000000e+00
7.594222861887606202e-01 2.183317946518034125e-01 -6.910674841716700489e-02 0.000000000000000000e+00 0.000000000000000000e+00 -1.000000000000000000e+00
4.859398105514415311e-01 9.148905935145720814e-02 -1.799353129500422810e-01 0.000000000000000000e+00 0.000000000000000000e+00 -1.000000000000000000e+00
5.752521048276918458e-01 1.244754049794320194e-01 -5.525526427068973290e-02 0.000000000000000000e+00 0.000000000000000000e+00 -1.000000000000000000e+00
5.185547749420045260e-01 1.134778850354654367e-01 -1.026112341286047613e-01 0.000000000000000000e+00 0.000000000000000000e+00 -1.000000000000000000e+00
6.323126771476792474e-01 2.468597320410076401e-02 -2.208272890284113665e-01 0.000000000000000000e+00 0.000000000000000000e+00 -1.000000000000000000e+00
6.910716964347690672e-01 1.582800297454948213e-01 -1.970140711290339075e-01 0.000000000000000000e+00 0.000000000000000000e+00 -1.000000000000000000e+00
5.586090616057908242e-01 9.992424426617507738e-02 -1.304127671397264931e-02 0.000000000000000000e+00 0.000000000000000000e+00 -1.000000000000000000e+00
6.838093604211272769e-01 -1.307838303112707212e-02 -1.796872595789615890e-01 0.000000000000000000e+00 0.000000000000000000e+00 -1.000000000000000000e+00
5.692985985127309023e-01 1.646968244575786056e-01 -1.990521567273347836e-01 0.000000000000000000e+00 0.000000000000000000e+00 -1.000000000000000000e+00
6.421329857623930826e-01 9.899180450392983110e-02 -1.745396848201442586e-01 0.000000000000000000e+00 0.000000000000000000e+00 -1.000000000000000000e+00
5.545939969642625922e-01 1.556306262130876805e-01 -1.721376935349515913e-01 0.000000000000000000e+00 0.000000000000000000e+00 -1.000000000000000000e+00
7.090983548600504616e-01 3.822849279961179625e-02 -1.584372457482706720e-01 0.000000000000000000e+00 0.000000000000000000e+00 -1.000000000000000000e+00
6.111866564424290882e-01 6.501052803178578032e-02 -1.857932406519023638e-01 0.000000000000000000e+00 0.000000000000000000e+00 -1.000000000000000000e+00
3.347205400611330539e-01 -7.153751819740289397e-02 1.480056134162072434e-01 9.979407916360850672e-01 6.411343571538703767e-02 -1.908860789249196234e-03
3.236166333823621288e-01 -8.226553832810241940e-02 2.447173680654801953e-01 9.996479946029963592e-01 2.638233919917358505e-02 -2.803402323511424658e-03
2.554910090235346654e-01 1.496352989515570275e-02 1.844508778194193233e-01 9.996110979365246951e-01 2.260276176052234548e-02 -1.633303532515141543e-02
7.218060511742027119e-01 2.042693286927602936e-01 -1.738731846443360429e-01 0.000000000000000000e+00 0.000000000000000000e+00 -1.000000000000000000e+00
6.944226829451679572e-01 2.650690523733724713e-01 -2.371098427675451537e-01 0.000000000000000000e+00 0.000000000000000000e+00 -1.000000000000000000e+00
6.483165859089614624e-01 2.327952759534562821e-01 -7.283833063961143994e-02 0.000000000000000000e+00 0.000000000000000000e+00 -1.000000000000000000e+00
5.921797745338739372e-01 2.812260714722277788e-01 -1.946944085776573519e-01 5.627560207640074606e-03 9.283574435331662378e-03 -9.999410711696029574e-01
7.377226043573771319e-01 2.751231176343741924e-01 -1.815653073045911947e-01 0.000000000000000000e+00 0.000000000000000000e+00 -1.000000000000000000e+00
6.800211656854465714e-01 1.657937688469258708e-01 -1.944979949034104927e-01 0.000000000000000000e+00 0.000000000000000000e+00 -1.000000000000000000e+00
7.604575678390242954e-01 2.370678481085955192e-01 -2.385549540693169823e-01 0.000000000000000000e+00 0.000000000000000000e+00 -1.000000000000000000e+00
6.576781065816440508e-01 1.421395562081634867e-01 -1.287917908186037574e-01 0.000000000000000000e+00 0.000000000000000000e+00 -1.000000000000000000e+00
4.422669304360286879e-02 -1.116605236694814679e-01 2.335072227217218840e-02 1.076328732459415425e-04 -1.284916619397798718e-04 9.999999859525285917e-01
6.746693327555325359e-01 2.650686614377261718e-01 -1.824054769441789126e-01 0.000000000000000000e+00 0.000000000000000000e+00 -1.000000000000000000e+00
7.681504784437188649e-01 2.124513177050128820e-01 -3.397705934664209115e-01 0.000000000000000000e+00 0.000000000000000000e+00 -1.000000000000000000e+00
6.855139882019657405e-01 2.641880016696641076e-01 -1.236268577872409180e-01 6.184507020513014819e-01 7.858111179580907768e-01 4.428998273625822484e-03
6.331656940932184341e-01 2.637123442741422519e-01 -9.943686988667818638e-02 6.222107941408093756e-01 7.828481877338934192e-01 -1.562887207084427297e-03
7.307075357766291690e-01 3.014744162833239427e-01 -1.933600559822089282e-01 5.878136359883627815e-01 8.089360660716523599e-01 -9.877770733300733630e-03
7.178548594346366718e-01 2.285120620664952140e-01 -3.642485749405836859e-02 6.238251989919560980e-01 7.814628873280649035e-01 1.256490475612596740e-02
7.421935760601291454e-01 3.035671327752719750e-01 1.525645510404780025e-03 6.267250769397763044e-01 7.790796022932253706e-01 1.583196846451293688e-02
7.145900555837437773e-01 1.465752572346324112e-01 -9.720360601512917365e-02 6.182821947526657702e-01 7.859429690115358191e-01 4.558191873838701551e-03
7.322568699487066457e-01 2.565219314935698880e-01 -1.119235263631048194e-01 6.619318223080299379e-01 7.495638675254193695e-01 -5.206883005538624504e-04
6.092392493634128936e-01 2.262509027634206082e-01 -1.233401272402493837e-01 6.778746583986759999e-01 7.351774933609970253e-01 -2.750126418168556390e-05
7.659576722916396907e-01 2.560909913168760710e-01 -1.069319817305304510e-01 7.011584809020046105e-01 7.129630291478437076e-01 7.778414203699590170e-03
7.596201726232707507e-01 1.443478672932647644e-01 -6.177443903533417352e-02 7.014843204819101175e-01 7.124734939779421294e-01 1.735708779998002341e-02
8.662970324011565193e-01 1.818313878537687334e-01 -1.476423404189511346e-01 7.052157401205542131e-01 7.089709469728071589e-01 5.563832734726170855e-03
7.417291142415370908e-01 2.045323165822032496e-01 -1.611736558990546353e-01 7.217853350767579057e-01 6.920521705267040913e-01 -9.472240358533225504e-03
6.767385599441678723e-01 2.653605222216106618e-01 -2.371278285931259777e-01 7.298514650558469707e-01 6.835900250368694975e-01 -4.638601720971943614e-03
8.614481844549302103e-01 1.960602526768176757e-01 -1.590733061245493685e-01 7.336591069101904283e-01 6.792519362939756222e-01 -1.900320732472558782e-02
8.672350223813607428e-01 7.781977981456400517e-02 -1.333157390121535724e-01 7.326715154357543724e-01 6.805803106471171038e-01 -1.700361299486807592e-03
7.642072716092405127e-01 2.269714137072140758e-01 -5.756106569167097203e-02 7.593144326628060714e-01 6.506566562678033350e-01 9.354571308317525050e-03
6.778733462047449310e-01 1.452780197560636644e-01 -6.756607102197101367e-02 7.869378776298616707e-01 6.168847187493924356e-01 1.349149824489727367e-02
8.034838516193171243e-01 1.574409309764168707e-01 -3.167162368731051697e-02 8.291949860075454870e-01 5.588418865545253800e-01 1.146390038884975357e-02
8.500349090304932798e-01 5.726274676065608304e-02 -2.197189690699364872e-01 8.303619975603795389e-01 5.572132126794202556e-01 3.519747578363605425e-03
8.275393564229249765e-01 2.855039191001798038e-01 -1.300303469779388599e-01 8.287437011101511652e-01 5.595741062784420627e-01 7.790857008787770849e-03
7.739693067634614287e-01 1.578603097722111326e-01 -1.350354585721426082e-01 8.492346106762495017e-01 5.273332611345156185e-01 2.683668628568018980e-02
8.810155957148141370e-01 1.093568837214639877e-01 -1.188091042938830555e-01 8.445807884642431151e-01 5.354216481775064818e-01 -2.636364921650618219e-03
9.142008620999682034e-01 1.730793318304492956e-01 -1.323898059536427751e-01 8.703650004567421439e-01 4.922356413435403089e-01 -1.299382049471483822e-02
7.732825832878161831e-01 1.667599756516104648e-01 -1.324416594024870886e-01 8.806253180904723976e-01 4.737865196172034721e-01 5.038151156083333151e-03
9.119505516520449717e-01 1.133474810924096909e-01 -1.719264899304966121e-01 8.891806756292787162e-01 4.575480025995494193e-01 -2.747981918089787822e-03
9.359241574425146704e-01 1.662598979621716100e-01 -1.934103728952633883e-01 8.890372696190017576e-01 4.576338029106720162e-01 -1.356597441786918865e-02
8.785758024438397040e-01 9.589461949183467060e-02 -1.319594525995412548e-01 8.839040463771054013e-01 4.676675916523143073e-01 8.127215415821353395e-04
8.762467079284531613e-01 -1.108227191595284600e-03 -1.144200923426117456e-01 9.271226361325692888e-01 3.747577538826840082e-01 -4.934322662061533952e-04
8.290626867876390582e-01 5.711724953114925146e-02 -2.255969053839725347e-01 9.536920510372840498e-01 3.005744712397750984e-01 1.124540026980633267e-02
9.164217354497070644e-01 3.805094601628893763e-02 -1.243350636216162125e-01 9.556628010468676271e-01 2.941258324445950034e-01 -1.409274224659877624e-02
8.820297588401538880e-01 1.388300496821920915e-01 -1.179660825992415035e-01 9.562906461540842118e-01 2.924093514610305866e-01 2.229631436731297541e-03
8.817560063894909206e-01 6.756664564467484979e-02 -1.044535196065557309e-01 9.689420508199843018e-01 2.470376666926488440e-01 -1.112175291105878434e-02
9.087734394765812906e-01 1.033798633087120999e-01 -1.133742859635605837e-01 9.687965726970657609e-01 2.470078315074449304e-01 2.050199757117772068e-02
9.363616934949638981e-01 -1.112063155904403355e-01 -8.669950194124924348e-02 9.790194401087486398e-01 2.031751129707728698e-01 -1.551803333113374421e-02
9.317132279699359421e-01 4.392221472885696892e-02 -1.135022850929722493e-01 9.798321315749323190e-01 1.998217287920562302e-01 5.202267569761226699e-04
1.043518492629354810e+00 3.126240290916313530e-02 -3.464073028701863954e-02 9.796789495122604219e-01 2.005682012221303712e-01 -1.246010061352225903e-03
9.186450561582155672e-01 5.744290037913438174e-02 -1.268534860871132763e-01 9.716598697186039635e-01 2.355913372915324211e-01 1.933440900604460264e-02
8.230121927879966437e-01 -1.186298353838751707e-01 -8.567944846060988884e-02 9.797623221990006126e-01 2.001643930650580661e-01 -8.802339786215997316e-05
9.312067188259474104e-01 4.827890435669624641e-02 -1.900596409357172556e-01 1.159475328290566348e-02 2.733231033979318519e-03 -9.999290430547674857e-01
8.714370740342531896e-01 5.037309474162846024e-02 -1.560898844619847681e-01 1.013104333135669659e-02 1.898005412197352340e-03 -9.999468783572822428e-01
7.458218059990987525e-01 -5.223928321044289669e-02 -6.800874391353349535e-02 0.000000000000000000e+00 0.000000000000000000e+00 -1.000000000000000000e+00
8.551942350975796359e-01 1.834367018053532222e-02 -1.539489516927609047e-01 0.000000000000000000e+00 0.000000000000000000e+00 -1.000000000000000000e+00
