6.184174459147205871e-01 -4.772056122554044211e-02 -3.517752122930232761e-01 0.000000000000000000e+00 0.000000000000000000e+00 1.000000000000000000e+00
5.701464961199973480e-01 3.093452688087675040e-02 -2.413093852221799840e-01 0.000000000000000000e+00 0.000000000000000000e+00 1.000000000000000000e+00
6.181002895739029501e-01 -3.241293927911761408e-01 -4.670764323021902031e-01 8.292794798249392141e-01 2.930933625619260865e-04 -5.588340168937099284e-01
8.046481195790236018e-01 -2.728034403045794809e-01 -4.685656277069705222e-01 0.000000000000000000e+00 1.000000000000000000e+00 0.000000000000000000e+00
7.805936282458758591e-01 -2.038917585644705877e-01 -4.607060993430187046e-01 0.000000000000000000e+00 1.000000000000000000e+00 0.000000000000000000e+00
7.066203946650865264e-01 -1.465319818729108881e-01 -4.451580688848169598e-01 0.000000000000000000e+00 1.000000000000000000e+00 0.000000000000000000e+00
7.435673262396855776e-01 -1.950938755322821905e-01 -4.755198174365017905e-01 0.000000000000000000e+00 1.000000000000000000e+00 0.000000000000000000e+00
-3.611259191783169342e-01 -2.488005084447201809e-01 5.117257787021388671e-01 -5.392155072862344634e-01 -2.435434036456464793e-03 8.421642983189816523e-01
-3.204518507538618444e-01 -2.601213548994774083e-01 5.270627381610273332e-01 -5.392155072862344634e-01 -2.435434036456464793e-03 8.421642983189816523e-01
-3.923139233645608348e-01 -2.972625089919508357e-01 3.918136402104596683e-01 0.000000000000000000e+00 -1.000000000000000000e+00 0.000000000000000000e+00
-3.575883342252103025e-01 -1.779473051805670891e-01 4.348895247697782684e-01 0.000000000000000000e+00 -1.000000000000000000e+00 0.000000000000000000e+00
-3.233627509731991645e-01 -2.567237016913628267e-01 4.532787099242863160e-01 0.000000000000000000e+00 -1.000000000000000000e+00 0.000000000000000000e+00
-2.903551484699166685e-01 -1.917767108150062183e-01 4.138158908983798900e-01 0.000000000000000000e+00 -1.000000000000000000e+00 0.000000000000000000e+00
-2.922077185259019383e-01 -1.697321431396435765e-01 2.944410946595070189e-01 0.000000000000000000e+00 -1.000000000000000000e+00 0.000000000000000000e+00
-4.050708685596905445e-01 -2.702973664831721523e-01 4.611242815896088310e-01 0.000000000000000000e+00 -1.000000000000000000e+00 0.000000000000000000e+00
-3.773120981607425706e-01 -2.871289232437749805e-01 4.240176376193567354e-01 0.000000000000000000e+00 -1.000000000000000000e+00 0.000000000000000000e+00
-3.821896023528381092e-01 -2.777972028987703568e-01 4.039863955911975335e-01 0.000000000000000000e+00 -1.000000000000000000e+00 0.000000000000000000e+00
-3.685164238557292471e-01 -2.469098462084285961e-01 5.515339085035826372e-01 -4.253624392571137664e-05 -9.999999984880143522e-01 -3.485167598291061367e-05
-3.845831722141138664e-01 -1.134004595462614062e-01 3.414851793662934121e-01 5.129047477987545012e-01 6.915355007814214319e-03 -8.584176708051924898e-01
-3.309388361549003843e-01 -2.515282446611532552e-01 3.754952493984669015e-01 5.129047477987545012e-01 6.915355007814214319e-03 -8.584176708051924898e-01
-3.760880926926750134e-01 -2.299838254934674642e-01 4.191125349237802000e-01 4.264165165629653087e-01 5.317935181129614976e-03 -9.045112901272794881e-01
-3.606954064450567654e-01 -1.607422354437191003e-01 4.046592861134767349e-01 4.264165165629653087e-01 5.317935181129614976e-03 -9.045112901272794881e-01
-2.093375519931330309e-01 -4.389012726224513633e-02 3.156021422235080198e-01 2.640311154900666923e-01 3.435848698833509750e-03 -9.645080429922756604e-01
-4.197836089129500792e-01 -1.958282993332353256e-02 4.838516412327061866e-01 2.640311154900666923e-01 3.435848698833509750e-03 -9.645080429922756604e-01
-2.024773231470013424e-01 -2.534236539857851606e-02 5.557628102174765328e-01 2.640311154900666923e-01 3.435848698833509750e-03 -9.645080429922756604e-01
-3.298853584865036326e-01 2.164227984562154539e-02 4.494334908312128674e-01 3.345044822449765864e-01 -4.627798582512760057e-03 -9.423827963403723640e-01
-3.123631795609324024e-01 -6.278821776772910979e-02 3.781338146554523161e-01 3.345044822449765864e-01 -4.627798582512760057e-03 -9.423827963403723640e-01
-2.396162049611644806e-01 2.855807069264875570e-02 4.164160187801069779e-01 3.345044822449765864e-01 -4.627798582512760057e-03 -9.423827963403723640e-01
-2.086435159999017463e-01 1.914469851846934412e-01 4.296558175997183815e-01 -8.945168424558658932e-03 9.820930225691751891e-01 1.881841624122443102e-01
-2.305728423684503814e-01 9.824815189071006705e-02 4.405921241138064937e-01 -8.945168424558658932e-03 9.820930225691751891e-01 1.881841624122443102e-01
-2.959013527980736136e-01 1.983200787340862192e-02 4.072803022428729824e-01 2.816087943932343157e-02 -9.652552499071803682e-01 -2.597869654078711621e-01
-9.217537936863703929e-02 3.601976080072781528e-02 4.117663945458890362e-01 2.816087943932343157e-02 -9.652552499071803682e-01 -2.597869654078711621e-01
-3.652298619681135228e-02 7.032668170549960518e-02 3.403313396153491710e-01 -3.682917126004197055e-03 -9.666911974301570787e-01 -2.559190593380877843e-01
-1.782023268940199356e-01 7.144555844314681714e-02 3.799730476425832171e-01 2.625287814671719080e-02 9.812602788363270490e-01 1.908901557625942991e-01
-1.115993989749298337e-02 1.932500337765087894e-01 4.400009615923836104e-01 2.625287814671719080e-02 9.812602788363270490e-01 1.908901557625942991e-01
-1.048612455154036283e-01 9.198448483686944011e-02 4.585817360229212936e-01 2.625287814671719080e-02 9.812602788363270490e-01 1.908901557625942991e-01
-1.186162791745330042e-02 1.227531646172178997e-01 4.327770286852289372e-01 2.625287814671719080e-02 9.812602788363270490e-01 1.908901557625942991e-01
-1.986933467007801629e-02 8.139444360530773137e-02 4.993479299217104539e-01 7.622818878749751392e-02 8.445231679300129191e-01 5.300659223753519944e-01
-3.393691471783588653e-01 -1.390495426149732650e-01 5.641982372636027421e-01 -1.830687863209670141e-01 -1.416270608526131900e-03 -9.830990863857679285e-01
-3.856704028114220639e-01 -1.628864359542766538e-01 6.602040737905924273e-01 0.000000000000000000e+00 -1.000000000000000000e+00 0.000000000000000000e+00
-4.023645666487223327e-01 -2.535876534141831007e-01 5.796863473126416810e-01 0.000000000000000000e+00 -1.000000000000000000e+00 0.000000000000000000e+00
-3.522399608005012950e-01 -1.273296785257261032e-01 5.535425485281413316e-01 0.000000000000000000e+00 1.000000000000000000e+00 0.000000000000000000e+00
-4.340836208300493659e-01 -1.704866097210374631e-01 5.951556205797547960e-01 0.000000000000000000e+00 1.000000000000000000e+00 0.000000000000000000e+00
-4.127972329737900070e-01 -1.012220318652414380e-01 5.977562898417339010e-01 0.000000000000000000e+00 1.000000000000000000e+00 0.000000000000000000e+00
-3.612120052456025548e-02 9.012092570031694783e-02 1.830785590526706752e-01 -4.950824168760875055e-01 -1.989569307516590030e-02 -8.686181910927209815e-01
1.960049421319694923e-02 9.637211528562925067e-02 1.474593901262545026e-01 -4.950824168760875055e-01 -1.989569307516590030e-02 -8.686181910927209815e-01
2.924470647463692230e-04 2.436509754804055405e-01 3.750146589579778089e-02 -6.526290090608658501e-01 -2.355137644891469942e-02 -7.573115007707158508e-01
4.112019922480238121e-02 1.590145910576406529e-01 2.351211376185352586e-01 -6.814540391944804432e-01 -1.814319976426113576e-02 -7.316359865177777255e-01
-1.123655271163859770e-01 1.187445153418097005e-01 1.568692975939419698e-01 -6.815260883315784612e-01 1.377570089807999588e-02 -7.316641449382524920e-01
3.425543624583637231e-02 5.758525926638917436e-02 1.067642509889675101e-01 -5.320872431402103864e-01 1.752603341128049566e-02 -8.465081239068631414e-01
7.111947702740960275e-02 1.544461713368325551e-01 8.586404266505491545e-02 7.568398270768550429e-01 6.045677885382474415e-01 2.483772638794646825e-01
7.701860194285774230e-02 2.396888127797124901e-01 1.654564523581323054e-01 4.948959390974104200e-01 1.361243890298686476e-01 -8.582238403680809702e-01
-2.100457754398557531e-03 2.041804287467749723e-01 9.971227539846851118e-02 3.348166917540216780e-01 7.268386881280959610e-02 -9.394758315876436949e-01
1.252312689662015144e-01 1.612922250022219006e-01 -8.556901095242941402e-02 4.298637297408196001e-01 9.021289872846665059e-01 -3.715459802034815073e-02
2.675902282582053870e-01 2.322055137506381095e-01 -1.891945878013480409e-01 -2.088029975943339958e-03 4.286175014158895569e-01 9.034836343901418987e-01
3.479282751982101241e-01 1.391846309725080499e-01 -8.758172482448534080e-02 -2.088029975943339958e-03 4.286175014158895569e-01 9.034836343901418987e-01
1.938025116016073301e-01 1.424658438289628792e-01 -1.641690476674001198e-01 -2.088029975943339958e-03 4.286175014158895569e-01 9.034836343901418987e-01
1.125724844024644788e-01 7.736122037004009022e-02 -1.094572010842554954e-01 5.137174702739371462e-03 9.358277490111789332e-01 3.524202514282392951e-01
1.349964116838069939e-01 1.201082594886303812e-01 -8.309884030058245497e-02 5.137174702739371462e-03 9.358277490111789332e-01 3.524202514282392951e-01
3.966035645917121433e-01 4.406759359005871235e-02 -3.071012217408173317e-01 0.000000000000000000e+00 9.239646000870154197e-01 -3.824779964730539716e-01
3.605994995088566135e-01 1.160843391045537909e-01 -3.855974947964176391e-01 0.000000000000000000e+00 9.239646000870154197e-01 -3.824779964730539716e-01
3.758403084904362035e-01 1.772285119141713827e-01 -3.067621634724149171e-01 -1.362468860600982712e-01 9.153618276146383570e-01 -3.788792823379443786e-01
3.815879222334472853e-01 1.446188239512237739e-01 -1.605678944778696771e-01 -1.362468860600982712e-01 9.153618276146383570e-01 -3.788792823379443786e-01
3.523980960932349138e-01 1.261324129784266446e-01 -3.985540724513914612e-01 -1.364444571733594291e-01 3.790626871434130685e-01 -9.152564609563169640e-01
4.535337050330072173e-01 9.434540090699845838e-02 -3.660581419343618692e-01 -1.473546953717595476e-01 6.994089457129275544e-01 -6.993666566320037026e-01
4.467960661264277489e-01 8.778281666420181817e-02 -3.196221298752412454e-01 -1.473546953717595476e-01 6.994089457129275544e-01 -6.993666566320037026e-01
4.503431508449932119e-01 1.046058573172934103e-01 -3.094942049972429499e-01 8.015766022384775147e-03 1.757429423542845037e-01 -9.844034567735593377e-01
4.305986935508563929e-01 1.316000183658657119e-01 -3.256752313865857174e-01 1.376212553431221779e-02 5.330694251859856569e-01 -8.459595686749222798e-01
5.459981321986155933e-01 2.164964893941024454e-02 -3.193105287734943620e-01 0.000000000000000000e+00 0.000000000000000000e+00 1.000000000000000000e+00
5.581161253247372001e-01 -1.356333702561335064e-01 -3.966676605751633389e-01 -9.562564539858195989e-01 -2.894720590710389008e-01 -4.218437184122703076e-02
6.036414375502633378e-01 -1.429788280462916950e-01 -3.965625429663838242e-01 -9.562564539858195989e-01 -2.894720590710389008e-01 -4.218437184122703076e-02
6.877280820738936873e-01 -1.181719361704181015e-01 -4.043192568180169477e-01 -9.165244293593934888e-01 -3.969434097168706987e-01 -4.918231257050374033e-02
7.043073923196631059e-01 -7.273406851640663862e-02 -3.929127490314448523e-01 9.802757908870688430e-01 1.486713765727101051e-03 -1.976288528603826755e-01
6.064048444465429677e-01 -9.059004313501531347e-02 -2.948132970906618966e-01 -7.213856859920780851e-01 -3.985416581886011000e-01 5.663631685888650402e-01
6.698038201285355653e-01 -2.003608215742030407e-01 -2.576882014119618591e-01 -7.999540608293943533e-01 -1.155887010994475078e-01 5.888231931069838332e-01
5.216984733284240061e-01 -1.261983476638325885e-01 -2.521656918287554228e-01 -8.728461701573322351e-01 -4.042966874088823048e-01 2.732832812154482038e-01
7.051558674098568069e-01 -2.210147553999439740e-01 -4.486635658862205278e-01 -5.554693204833558440e-01 -1.289712707398558717e-03 8.315360308747247187e-01
-2.999038200053992798e-01 -1.603008770271933670e-01 6.224232604000166091e-01 -1.887752905282933935e-01 -4.429167572454511224e-03 9.820103218197726580e-01
-3.582641150907758809e-01 -8.626420633772129143e-02 5.806387118270843750e-01 -1.887752905282933935e-01 -4.429167572454511224e-03 9.820103218197726580e-01
-3.775226191098534079e-01 -2.176507291284536794e-01 4.804116608675504385e-01 -1.236124809438428920e-05 9.999999997524222639e-01 1.850283879013260344e-05
-4.000216910059977704e-01 -1.544476583528952840e-01 3.980910461036664127e-01 5.295594036660797865e-01 9.345226578802118961e-03 -8.482213771940770863e-01
-4.548984198082033359e-01 1.964874550739972858e-02 3.875056473497557885e-01 4.573766488099584859e-01 -9.783331680411984713e-03 -8.892192572951862495e-01
-3.665240337548097971e-01 -2.641094936594589049e-01 5.127274511993372696e-01 4.573766488099584859e-01 -9.783331680411984713e-03 -8.892192572951862495e-01
-4.309577479782376042e-01 -2.206147981111893919e-01 3.348121777161963131e-01 5.295584078088028113e-01 -9.544318018117958075e-03 -8.482197820804315835e-01
-4.692480098512986642e-01 -2.207172143574707146e-01 4.127065715770910082e-01 5.295584078088028113e-01 -9.544318018117958075e-03 -8.482197820804315835e-01
-4.344194151738875465e-01 -1.040310983257059368e-01 5.120262757128254405e-01 5.482101014239577630e-01 0.000000000000000000e+00 -8.363406511085863526e-01
-4.743450157624404806e-01 -7.644641749835821842e-02 4.409177634308932281e-01 5.482101014239577630e-01 0.000000000000000000e+00 -8.363406511085863526e-01
-4.123431618219742800e-01 -3.560490445215722111e-02 3.948399484950299021e-01 5.482101014239577630e-01 0.000000000000000000e+00 -8.363406511085863526e-01
-4.369970304405010331e-01 -1.251726535937404128e-01 3.723041056612462762e-01 4.573985389593109852e-01 0.000000000000000000e+00 -8.892618155289744308e-01
-4.183196989304632241e-01 -7.896146854438447493e-02 3.813266999196772700e-01 4.573985389593109852e-01 0.000000000000000000e+00 -8.892618155289744308e-01
-2.908117640647532864e-01 -2.110538251425249090e-01 4.683556604674652402e-01 4.573985389593109852e-01 0.000000000000000000e+00 -8.892618155289744308e-01
-3.538900101038204293e-01 -1.099079941155619855e-01 3.974561042609314754e-01 -5.063620102438711745e-01 5.886879699075205086e-03 8.623009099085969797e-01
-3.731926578015528073e-01 -7.539242684701398522e-02 3.900840731012180096e-01 -5.063620102438711745e-01 5.886879699075205086e-03 8.623009099085969797e-01
-4.676997867108584894e-01 -1.165195235368206850e-01 4.636044056695185489e-01 -5.063620102438711745e-01 5.886879699075205086e-03 8.623009099085969797e-01
-4.354139412738984305e-01 -9.160321685958511262e-02 4.910493700420381358e-01 -4.861307126726995276e-01 -4.643428570604514818e-03 8.738737716440760916e-01
-4.380705042189012577e-01 7.845178955793508102e-03 4.018981604764791937e-01 -4.861307126726995276e-01 -4.643428570604514818e-03 8.738737716440760916e-01
-4.042730424829570346e-01 -1.548902745391086133e-01 4.184706528998370367e-01 -5.623993362390090622e-01 -4.971417904023952596e-03 8.268508158077523262e-01
-4.414472086262069550e-01 -1.222821586919962122e-01 4.014048215327477576e-01 -5.623993362390090622e-01 -4.971417904023952596e-03 8.268508158077523262e-01
-3.504598306017446263e-01 -1.641847248427530381e-03 5.152177974937247606e-01 -4.015019830503539500e-01 1.057443237913791544e-02 9.157971057971804330e-01
-3.253175629916216782e-01 1.134282465402907114e-01 4.186123263959761198e-01 2.845008113188132182e-01 -5.791864686849441668e-01 -7.639386905054628141e-01
-2.936479193469496707e-01 7.204697267773729763e-02 3.302639050049929192e-01 -1.284018491806229907e-02 9.847779187108213206e-01 1.733423793273099200e-01
-1.468314722260075367e-01 2.152248051888543401e-01 3.746934655035906725e-01 -1.284018491806229907e-02 9.847779187108213206e-01 1.733423793273099200e-01
-6.446489167719161861e-02 3.908416656255972454e-02 1.671686619744484625e-01 0.000000000000000000e+00 -1.000000000000000000e+00 0.000000000000000000e+00
-1.667164274369780375e-01 2.229212713357455605e-02 3.262709084056710229e-01 0.000000000000000000e+00 -1.000000000000000000e+00 0.000000000000000000e+00
-1.043944588623492431e-02 4.891555705212394939e-02 1.549867858314959435e-01 0.000000000000000000e+00 -1.000000000000000000e+00 0.000000000000000000e+00
-8.279143272516666097e-02 7.982906756437041507e-02 3.423802745332708564e-01 0.000000000000000000e+00 -1.000000000000000000e+00 0.000000000000000000e+00
-1.183832506368442672e-01 9.781602275865677876e-02 2.689749780741044760e-01 0.000000000000000000e+00 -1.000000000000000000e+00 0.000000000000000000e+00
-1.432731390284841255e-01 1.102427647399123189e-01 5.340580859857848584e-01 0.000000000000000000e+00 -1.000000000000000000e+00 0.000000000000000000e+00
-1.237654955829516901e-01 5.264526121292097821e-02 3.112986420557670164e-01 0.000000000000000000e+00 -1.000000000000000000e+00 0.000000000000000000e+00
-1.784198177451653822e-01 6.002819636156973143e-02 3.968678119006665006e-01 0.000000000000000000e+00 -1.000000000000000000e+00 0.000000000000000000e+00
-2.326089565855498087e-01 -4.460871031166231682e-02 4.454931584251585197e-01 0.000000000000000000e+00 -1.000000000000000000e+00 0.000000000000000000e+00
-1.011339226486406701e-01 1.052665912493469524e-01 2.736227308464870278e-01 0.000000000000000000e+00 -1.000000000000000000e+00 0.000000000000000000e+00
-2.483330695122951404e-01 6.633612996657430039e-02 3.325296352117210752e-01 0.000000000000000000e+00 -1.000000000000000000e+00 0.000000000000000000e+00
-1.778097830443348959e-01 3.444967463193317897e-02 3.756128369559855185e-01 0.000000000000000000e+00 -1.000000000000000000e+00 0.000000000000000000e+00
-1.980993239586006927e-01 1.013202302961191542e-01 2.495406261510891288e-01 0.000000000000000000e+00 -1.000000000000000000e+00 0.000000000000000000e+00
-2.419353963606145630e-01 2.928189190903512928e-03 3.382173527007595881e-01 0.000000000000000000e+00 -1.000000000000000000e+00 0.000000000000000000e+00
-1.659205252228053151e-01 7.609094541303017267e-02 2.682364712917600924e-01 0.000000000000000000e+00 -1.000000000000000000e+00 0.000000000000000000e+00
-9.478115787699595285e-02 -4.779436533753789185e-03 2.793557755967444600e-01 0.000000000000000000e+00 -1.000000000000000000e+00 0.000000000000000000e+00
-1.717587947858121578e-01 1.388659434441512075e-01 3.171601801052937875e-01 0.000000000000000000e+00 -1.000000000000000000e+00 0.000000000000000000e+00
-1.356509013671272912e-01 1.263095338322253736e-01 1.980713221575056693e-01 0.000000000000000000e+00 -1.000000000000000000e+00 0.000000000000000000e+00
-2.986604337950259369e-01 1.421012926346864602e-01 2.901649218362459814e-01 0.000000000000000000e+00 -1.000000000000000000e+00 0.000000000000000000e+00
-1.923431682510773344e-01 9.784636472102281601e-02 4.513287105244570552e-01 0.000000000000000000e+00 -1.000000000000000000e+00 0.000000000000000000e+00
-1.272341421913707471e-01 6.342260684392532488e-02 3.581411554357003535e-01 0.000000000000000000e+00 -1.000000000000000000e+00 0.000000000000000000e+00
-1.247695408666658901e-01 1.021233081845233509e-01 3.303220108515050324e-01 0.000000000000000000e+00 -1.000000000000000000e+00 0.000000000000000000e+00
-1.600819147767870987e-01 1.101575510621208426e-01 4.723609720333926676e-01 0.000000000000000000e+00 -1.000000000000000000e+00 0.000000000000000000e+00
-1.754250718362079242e-01 1.317610847343498315e-01 3.395503019406745926e-01 0.000000000000000000e+00 -1.000000000000000000e+00 0.000000000000000000e+00
-1.856157115819456194e-01 3.940807093685479850e-02 4.407066583394504966e-01 0.000000000000000000e+00 -1.000000000000000000e+00 0.000000000000000000e+00
-1.512615455118296592e-01 4.816362880795901913e-02 3.474787295381073227e-01 0.000000000000000000e+00 -1.000000000000000000e+00 0.000000000000000000e+00
-1.244026750277205662e-01 -2.039119371085819366e-02 3.266301047592427564e-01 0.000000000000000000e+00 -1.000000000000000000e+00 0.000000000000000000e+00
-1.655448658525857375e-01 8.238491125052151143e-02 2.817410849796274652e-01 0.000000000000000000e+00 -1.000000000000000000e+00 0.000000000000000000e+00
-1.354603974447084191e-01 5.962856818864233077e-02 3.492772312993627226e-01 0.000000000000000000e+00 -1.000000000000000000e+00 0.000000000000000000e+00
-8.016257426486109172e-02 7.976484496841092231e-02 2.686389721451392099e-01 0.000000000000000000e+00 -1.000000000000000000e+00 0.000000000000000000e+00
-5.121660144668876979e-02 1.649214899072792284e-01 3.173800147336466315e-01 0.000000000000000000e+00 -1.000000000000000000e+00 0.000000000000000000e+00
-1.200148778191231780e-02 9.637299897117707070e-02 3.671484459370029096e-01 0.000000000000000000e+00 -1.000000000000000000e+00 0.000000000000000000e+00
-4.051828343430075030e-02 1.363866932003073851e-01 2.289734624503186322e-01 0.000000000000000000e+00 -1.000000000000000000e+00 0.000000000000000000e+00
-1.452888340634499176e-01 8.533366705736360192e-02 3.997364190728557309e-01 0.000000000000000000e+00 -1.000000000000000000e+00 0.000000000000000000e+00
-4.111073807014559156e-03 -1.015034331664509126e-02 3.913432373460540847e-01 0.000000000000000000e+00 -1.000000000000000000e+00 0.000000000000000000e+00
-1.417052105252668281e-02 1.384602928183023551e-01 4.482155293479456182e-01 0.000000000000000000e+00 -1.000000000000000000e+00 0.000000000000000000e+00
-1.517288803468944125e-01 1.403833276417676135e-01 4.281187463415861982e-01 0.000000000000000000e+00 -1.000000000000000000e+00 0.000000000000000000e+00
-1.967237986258688343e-01 -1.178060863917788914e-02 3.163692222622924710e-01 0.000000000000000000e+00 -1.000000000000000000e+00 0.000000000000000000e+00
5.639762732932516315e-03 5.391329257681831688e-02 3.687334514388326823e-02 0.000000000000000000e+00 1.000000000000000000e+00 0.000000000000000000e+00
-1.358392633742397104e-01 1.025928168595799939e-01 1.696662198961927104e-01 -4.666185517355154744e-01 -6.949797855135147334e-03 -8.844313582670070284e-01
-1.334321335666717456e-01 1.847250710573047072e-01 2.224701454749092311e-01 -4.666185517355154744e-01 -6.949797855135147334e-03 -8.844313582670070284e-01
-1.268453974341615664e-01 1.366026471227731187e-01 1.419439040092713988e-01 -4.666185517355154744e-01 -6.949797855135147334e-03 -8.844313582670070284e-01
-7.411968686084723090e-02 2.123846719302083796e-01 1.187893675871158350e-01 -4.666185517355154744e-01 -6.949797855135147334e-03 -8.844313582670070284e-01
2.890670377763105911e-02 8.035982924666512650e-02 7.531526541693121801e-02 -9.436405820225945984e-01 -2.329034948929501261e-02 -3.301514979228860613e-01
-1.284447857294397088e-01 1.235160430783900642e-01 -4.288565333701770121e-02 0.000000000000000000e+00 1.000000000000000000e+00 0.000000000000000000e+00
-7.507780219877937394e-03 1.304453558189478390e-01 -7.361501886334798073e-02 0.000000000000000000e+00 1.000000000000000000e+00 0.000000000000000000e+00
6.205145749616522433e-02 8.148837944815114087e-02 -2.377422872796575160e-04 0.000000000000000000e+00 1.000000000000000000e+00 0.000000000000000000e+00
2.697494450292867718e-01 1.624588174650953010e-01 -1.583061396256649767e-01 0.000000000000000000e+00 1.000000000000000000e+00 0.000000000000000000e+00
1.883703151024314348e-01 1.287843381079287197e-01 -1.124302485714434863e-01 0.000000000000000000e+00 1.000000000000000000e+00 0.000000000000000000e+00
9.741065662900255662e-02 6.653907715611639961e-02 -1.513065319329694736e-01 0.000000000000000000e+00 1.000000000000000000e+00 0.000000000000000000e+00
2.489585202576543449e-02 1.541960215759918262e-01 -5.888633499950654548e-02 0.000000000000000000e+00 1.000000000000000000e+00 0.000000000000000000e+00
6.537455512034281990e-02 1.152350072712191448e-01 -1.148951997552724036e-01 0.000000000000000000e+00 1.000000000000000000e+00 0.000000000000000000e+00
3.870601872501267526e-01 2.116045972061870173e-01 -1.693279137070340667e-01 3.307128031407107621e-02 9.668275600114525359e-01 -2.532800024097623948e-01
1.797155289918187515e-01 1.672648026705575164e-01 -1.047593621868924130e-01 2.156647474084409100e-01 3.401820719062381149e-01 9.152949659420357431e-01
2.367740082248145639e-01 1.800212587825741339e-01 -9.022059339628490937e-02 2.156647474084409100e-01 3.401820719062381149e-01 9.152949659420357431e-01
3.904965809605585036e-01 3.194942577916838611e-02 -2.524300232146522438e-01 0.000000000000000000e+00 0.000000000000000000e+00 -1.000000000000000000e+00
3.623535521142510207e-01 6.835032042248262441e-02 -4.352512981823185578e-01 0.000000000000000000e+00 0.000000000000000000e+00 -1.000000000000000000e+00
4.471513000545641603e-01 1.945140623506542432e-01 -2.895449847304206736e-01 0.000000000000000000e+00 0.000000000000000000e+00 -1.000000000000000000e+00
4.223603700447072229e-01 -5.466614941462675376e-02 -3.291750270810125389e-01 0.000000000000000000e+00 0.000000000000000000e+00 -1.000000000000000000e+00
4.764037227601871649e-01 1.701736527058145959e-02 -2.757068382649267568e-01 0.000000000000000000e+00 0.000000000000000000e+00 1.000000000000000000e+00
4.851588947103456784e-01 -8.033035410156255662e-02 -2.502781103423129538e-01 0.000000000000000000e+00 0.000000000000000000e+00 1.000000000000000000e+00
3.948509115971582384e-01 1.188528593108734988e-01 -3.647069716090603486e-01 0.000000000000000000e+00 0.000000000000000000e+00 1.000000000000000000e+00
5.468990004914281444e-01 2.071074742996010382e-02 -2.171868435281595899e-01 0.000000000000000000e+00 0.000000000000000000e+00 1.000000000000000000e+00
4.072453054310344878e-01 5.879858902741742777e-02 -2.843388673710312009e-01 0.000000000000000000e+00 0.000000000000000000e+00 1.000000000000000000e+00
5.651134805686833795e-01 -2.506947501395950101e-02 -2.359966442830904176e-01 0.000000000000000000e+00 0.000000000000000000e+00 1.000000000000000000e+00
4.403273685530404435e-01 2.555492685197617575e-02 -3.948096335741320684e-01 0.000000000000000000e+00 0.000000000000000000e+00 1.000000000000000000e+00
6.162699980344545914e-01 -1.940525722963948665e-02 -3.217744517395580983e-01 0.000000000000000000e+00 0.000000000000000000e+00 1.000000000000000000e+00
4.697715044530456074e-01 4.765704811355157139e-02 -2.595807981627315519e-01 0.000000000000000000e+00 0.000000000000000000e+00 1.000000000000000000e+00
4.556770184504417287e-01 -4.265057116863125303e-02 -3.681639509292461976e-01 0.000000000000000000e+00 0.000000000000000000e+00 1.000000000000000000e+00
7.756478325365120385e-01 -1.073355851658462923e-01 -3.591375089502726881e-01 -1.837116339956152700e-01 -1.170144388001665217e-03 9.829794841688062057e-01
7.638676768060305156e-01 -1.759899506438462879e-01 -3.472761358462286840e-01 -1.837116339956152700e-01 -1.170144388001665217e-03 9.829794841688062057e-01
7.681676677854899493e-01 -1.131343515687850132e-01 -5.020514564045645001e-01 7.936382495312980234e-01 -2.345916015464726180e-05 -6.083899475916452193e-01
7.774771882669904155e-01 -8.406777610845851678e-02 -4.711437867824694314e-01 7.936382495312980234e-01 -2.345916015464726180e-05 -6.083899475916452193e-01
7.171697435057322600e-01 -2.448871088583388922e-01 -4.527287354109831297e-01 7.936382495312980234e-01 -2.345916015464726180e-05 -6.083899475916452193e-01
7.938475987407445089e-01 -1.519027130671213310e-01 -4.649370875878720555e-01 7.936382495312980234e-01 -2.345916015464726180e-05 -6.083899475916452193e-01
7.506836877644170736e-01 -1.731899840417577274e-01 -5.697894951902350291e-01 7.936382495312980234e-01 -2.345916015464726180e-05 -6.083899475916452193e-01
7.018749885106772002e-01 -9.726779902790745613e-02 -4.480165368741418908e-01 7.936382495312980234e-01 -2.345916015464726180e-05 -6.083899475916452193e-01
7.765176902985645446e-01 -1.947378201061017999e-01 -4.989045818907065777e-01 7.936382495312980234e-01 -2.345916015464726180e-05 -6.083899475916452193e-01
8.700268776019670636e-01 -1.447664121030632634e-01 -4.889248882399595542e-01 7.936382495312980234e-01 -2.345916015464726180e-05 -6.083899475916452193e-01
8.480377692261125144e-01 -2.562981348094687251e-01 -4.937857815302954534e-01 7.936382495312980234e-01 -2.345916015464726180e-05 -6.083899475916452193e-01
8.937288649614655300e-01 -2.171170207236409189e-01 -5.107456042358801129e-01 7.936382495312980234e-01 -2.345916015464726180e-05 -6.083899475916452193e-01
6.560939983474967097e-01 -1.827458702531852552e-01 -6.458674299061202273e-01 7.936382495312980234e-01 -2.345916015464726180e-05 -6.083899475916452193e-01
7.154121588114341623e-01 -2.000773935921839886e-01 -5.289131652877093748e-01 7.936382495312980234e-01 -2.345916015464726180e-05 -6.083899475916452193e-01
6.867613384088083750e-01 -1.866902694754459247e-01 -5.382242733645012933e-01 7.936382495312980234e-01 -2.345916015464726180e-05 -6.083899475916452193e-01
8.388278387955857562e-01 -2.021297151702690920e-01 -3.497841177381499356e-01 7.936382495312980234e-01 -2.345916015464726180e-05 -6.083899475916452193e-01
7.426686049545053736e-01 -2.501884533457360837e-01 -4.170320602598144855e-01 7.936382495312980234e-01 -2.345916015464726180e-05 -6.083899475916452193e-01
7.921237490064207964e-01 -2.094850663006498914e-01 -5.806170224810214275e-01 7.936382495312980234e-01 -2.345916015464726180e-05 -6.083899475916452193e-01
7.711231336118137270e-01 -2.504813553148941829e-01 -4.883053955189435302e-01 7.936382495312980234e-01 -2.345916015464726180e-05 -6.083899475916452193e-01
8.575092371058035123e-01 -2.867055786585692156e-01 -5.035561203011748033e-01 7.936382495312980234e-01 -2.345916015464726180e-05 -6.083899475916452193e-01
-2.891960131483335972e-01 -1.330111001053183861e-01 4.227177455774782100e-01 -3.279956354048902225e-05 9.999999993037352874e-01 1.779657955282879669e-05
-3.855949196318156358e-01 -9.773778041537253825e-02 4.944869715484582207e-01 -3.279956354048902225e-05 9.999999993037352874e-01 1.779657955282879669e-05
-4.242322349179384888e-01 -1.817303089803661842e-01 4.549436850781771180e-01 3.625791666195389931e-04 9.999999171682190102e-01 1.849321573690702056e-04
-3.747091656265812976e-01 -1.920881501951328119e-01 4.774559174375574977e-01 5.357970389406739864e-01 -2.138269178170240647e-03 8.443441009845022993e-01
-4.279024773707433837e-01 -1.181066804270877874e-01 5.336080912262659570e-01 1.942463981767432457e-01 5.330987655669677111e-03 9.809382841779481499e-01
-3.888582085873932281e-01 -2.111533438605241453e-01 5.873448953956745822e-01 1.942463981767432457e-01 5.330987655669677111e-03 9.809382841779481499e-01
-4.529818528475341721e-01 -9.760176271793846725e-02 4.782174647454087713e-01 0.000000000000000000e+00 1.000000000000000000e+00 0.000000000000000000e+00
-3.600244968779410248e-01 -1.451245433435657817e-01 4.688561029255113866e-01 0.000000000000000000e+00 1.000000000000000000e+00 0.000000000000000000e+00
-3.427138538534140744e-01 5.893336396142861977e-02 3.492150603984153778e-01 -5.495616952666656507e-01 3.641001063183921249e-03 8.354452023962350982e-01
-4.347549516338549136e-01 3.075592251494558421e-02 3.972097347631866060e-01 -5.495616952666656507e-01 3.641001063183921249e-03 8.354452023962350982e-01
-4.639939584786311744e-01 9.433686193953648436e-04 4.902127441619547055e-01 -5.495616952666656507e-01 3.641001063183921249e-03 8.354452023962350982e-01
-4.478913822851172122e-01 -3.298930631458939222e-02 3.990561916073910864e-01 -5.495616952666656507e-01 3.641001063183921249e-03 8.354452023962350982e-01
-4.411422805446900686e-01 4.084685876317069309e-02 3.500854181042489244e-01 -5.063645910973029185e-01 -4.945904478798644061e-03 8.623053049307698448e-01
-4.205403798431625040e-01 -1.312890157134302127e-01 4.782904214565468770e-01 -5.063645910973029185e-01 -4.945904478798644061e-03 8.623053049307698448e-01
-5.053669762958146183e-01 -1.244344183458430120e-01 3.685787067754163759e-01 -5.063645910973029185e-01 -4.945904478798644061e-03 8.623053049307698448e-01
-4.250606539486938562e-01 -1.241287155058580505e-01 4.671869169640112118e-01 -5.063645910973029185e-01 -4.945904478798644061e-03 8.623053049307698448e-01
-4.822440340278437154e-01 1.751367715735468455e-01 4.320852971617956673e-01 -5.063645910973029185e-01 -4.945904478798644061e-03 8.623053049307698448e-01
-4.313014271316876758e-01 -2.631143309436531630e-02 3.694455749960930957e-01 5.312421962152789057e-01 -8.187730864653653198e-03 -8.471804353404622789e-01
-3.347074464738167832e-01 -4.299698365786845666e-02 3.986179085890478868e-01 5.153059689058827608e-01 1.198203033589483393e-02 -8.569225107085232107e-01
-3.882560954024895650e-01 -1.138564546579061421e-02 3.939430697034544959e-01 5.153059689058827608e-01 1.198203033589483393e-02 -8.569225107085232107e-01
-3.282756833572197941e-01 8.206471224568169520e-02 4.174603944171382808e-01 5.153059689058827608e-01 1.198203033589483393e-02 -8.569225107085232107e-01
-3.453857134759736325e-01 -6.196992247602652049e-02 3.456547212140784198e-01 5.443092052974350947e-01 4.961201150947164643e-03 -8.388699991724668514e-01
-4.397874455615102818e-01 6.446660682930532849e-02 4.324917107237570835e-01 5.443092052974350947e-01 4.961201150947164643e-03 -8.388699991724668514e-01
-3.404360893189831705e-01 -6.512471579952520961e-02 4.298002892318779633e-01 5.443092052974350947e-01 4.961201150947164643e-03 -8.388699991724668514e-01
-2.947089655158069976e-01 -7.543681553949271867e-02 3.371694674243756462e-01 5.443092052974350947e-01 4.961201150947164643e-03 -8.388699991724668514e-01
-3.498378391949750754e-01 1.154709794942204715e-02 5.020985906944348542e-01 -3.972992080638519385e-01 1.948423171433436296e-01 8.967663077536135452e-01
-4.800537925311035292e-01 1.399859944646150434e-01 4.330823665034043701e-01 -4.745557871996862187e-01 1.948040877975797946e-01 8.583986091628055259e-01
-3.816286500100166679e-01 7.665509212460137889e-02 4.874991923377975378e-01 4.281625828227311192e-01 -6.194031824801691372e-03 -9.036804947769545571e-01
-2.982192470166999954e-01 -7.173542615743425110e-02 3.036103696209238034e-01 4.281625828227311192e-01 -6.194031824801691372e-03 -9.036804947769545571e-01
-3.279092791857874944e-01 3.807532968836332965e-02 4.389879457896990744e-01 4.281625828227311192e-01 -6.194031824801691372e-03 -9.036804947769545571e-01
-2.985205569712865437e-01 7.342175505589489115e-02 4.828467514333243948e-01 4.281625828227311192e-01 -6.194031824801691372e-03 -9.036804947769545571e-01
-3.807933672386110135e-01 1.543924573752324947e-01 4.493638177375017806e-01 -3.075096667560933694e-01 1.957392233544450744e-01 9.311949104737177185e-01
-2.471876417351288602e-01 5.485422708734469244e-02 6.046377694230767874e-01 -1.908359029750101299e-01 5.544499482886161568e-01 8.100413032546323056e-01
-1.981269623440065908e-01 7.770251441806928783e-02 5.929791873229334209e-01 -2.249303658080260560e-01 1.940776087298653474e-01 9.548508848648384895e-01
-2.820279797752083262e-01 9.138341585249906696e-02 3.962824903412682787e-01 -1.192882481015761914e-01 8.341716759028806605e-01 5.384495602990463370e-01
-2.718330072732687563e-01 1.453477634711622390e-01 4.496795540993444029e-01 -1.237344311107329842e-01 8.451289953595993998e-01 5.200449709017265221e-01
-2.412272370967253610e-01 1.183602797189328149e-01 5.069650587465082126e-01 -4.470360072496853965e-02 9.793304700263830709e-01 1.972648437003569899e-01
-1.478389550676602326e-01 4.108371586823560129e-02 4.312073060222973986e-01 -4.470360072496853965e-02 9.793304700263830709e-01 1.972648437003569899e-01
-2.800016850359264287e-01 3.223385340731325238e-02 3.958812311872542122e-01 6.141242481909538198e-02 -9.831665584792993462e-01 -1.720814701407725189e-01
-3.112695202438847120e-01 2.121416478709607090e-01 3.033710835496234992e-01 4.578707500872890301e-02 -9.934866332816354451e-01 -1.043448765051089300e-01
-3.815417376728890142e-01 -1.090359652850822342e-01 6.033188565331509823e-01 5.473096243509097958e-01 5.435724052092217110e-03 -8.369125569597430925e-01
-1.175403340870943697e-01 7.822038645185128147e-02 2.734201950772811585e-01 -4.436251161130109338e-02 5.120583123795972025e-01 8.578043205105090330e-01
-1.109663173894272215e-01 5.557308145619922063e-02 1.587139874410816720e-01 -2.809462238902454834e-01 -2.432731924855661282e-02 -9.594151347670052399e-01
-8.923643795248231703e-02 8.147186701393897834e-02 1.568949473968536124e-01 -2.809462238902454834e-01 -2.432731924855661282e-02 -9.594151347670052399e-01
-4.969624716228014660e-02 2.106850168819768276e-01 1.415948779168532956e-01 -1.120120781680210703e-01 2.259820054105206658e-02 -9.934498556428439375e-01
-1.483586238925909129e-01 4.519317341076871386e-02 1.716661771164234573e-01 -1.120120781680210703e-01 2.259820054105206658e-02 -9.934498556428439375e-01
-1.462468175234870327e-01 -1.504105802791620705e-02 2.221193003468668603e-01 -1.120120781680210703e-01 2.259820054105206658e-02 -9.934498556428439375e-01
6.219053946302888214e-02 2.024675092937910370e-01 1.907072545684355691e-01 -6.077507138281996113e-08 3.490668397219646307e-02 9.993905760082300027e-01
-9.136805486459630143e-02 1.079121719199103296e-01 1.525900979639389088e-01 -6.077507138281996113e-08 3.490668397219646307e-02 9.993905760082300027e-01
-1.244624613572192229e-01 1.182516258094604561e-01 1.751445783789358224e-01 -6.077507138281996113e-08 3.490668397219646307e-02 9.993905760082300027e-01
2.054505056288902232e-03 2.255278895584316712e-01 2.588366561504752972e-01 -6.077507138281996113e-08 3.490668397219646307e-02 9.993905760082300027e-01
1.504696187793655437e-03 2.309604620161022082e-01 1.005205407275193419e-01 -6.077507138281996113e-08 3.490668397219646307e-02 9.993905760082300027e-01
7.897916761482917658e-02 3.272225847669382182e-01 2.184923281231735404e-01 -6.077507138281996113e-08 3.490668397219646307e-02 9.993905760082300027e-01
-3.669050013921976161e-02 1.001438470887461851e-01 2.786821660890865804e-01 -6.077507138281996113e-08 3.490668397219646307e-02 9.993905760082300027e-01
7.167914823341428598e-02 2.891445231308283903e-01 2.301154377927236983e-01 -6.077507138281996113e-08 3.490668397219646307e-02 9.993905760082300027e-01
-2.662519924648304448e-03 2.356882942853374407e-01 2.853087420610846414e-01 -6.077507138281996113e-08 3.490668397219646307e-02 9.993905760082300027e-01
-3.151586116200755239e-02 1.111253404990073523e-01 2.293984346195710733e-01 -6.077507138281996113e-08 3.490668397219646307e-02 9.993905760082300027e-01
-4.001787360968621365e-02 1.710850523633822284e-01 2.380729410114814371e-01 -6.077507138281996113e-08 3.490668397219646307e-02 9.993905760082300027e-01
-1.455210083988251468e-01 7.479138946737240445e-02 2.346926868831040736e-01 -6.077507138281996113e-08 3.490668397219646307e-02 9.993905760082300027e-01
-3.776371153966587291e-02 1.682903220403347000e-01 2.538344932142532762e-01 -6.528100803859393508e-01 0.000000000000000000e+00 -7.575216161579175767e-01
-7.871298532518557212e-02 2.233436083309871811e-01 2.124468281745361120e-01 -6.528100803859393508e-01 0.000000000000000000e+00 -7.575216161579175767e-01
-2.051531879898417232e-01 1.943389864942619005e-01 1.246917530566326870e-01 -4.549103277412060442e-01 0.000000000000000000e+00 -8.905372500431345539e-01
9.910742750514837940e-03 2.594797844897949179e-01 1.469645339574034426e-01 -4.549103277412060442e-01 0.000000000000000000e+00 -8.905372500431345539e-01
1.387063578884932535e-01 1.017014695627091597e-01 1.467732247633664611e-01 -8.277745222377228540e-01 -1.624892403661609697e-02 -5.608255636129313437e-01
-1.644842011430478618e-02 2.934033347499583055e-02 3.307810051822767522e-02 -9.970602162911792465e-01 -1.683661835255558306e-02 -7.474927004216848359e-02
9.780350009663302258e-02 2.043525729756340281e-01 3.376998163547602350e-02 -9.970599920205468480e-01 1.679566966425870278e-02 -7.476147264812280091e-02
3.440816291625157369e-02 9.724585376576344586e-02 6.713637418058311657e-02 -9.935716776687743002e-01 1.626363128531930352e-02 -1.120304227960980531e-01
-6.460209850079057237e-02 1.577885691960232983e-01 -4.300148277750281967e-02 0.000000000000000000e+00 1.000000000000000000e+00 0.000000000000000000e+00
6.354190473459721267e-02 1.240598169891032332e-01 -5.527072469771522611e-02 7.159684521008485847e-01 6.710738700007057300e-01 -1.924812629805582320e-01
2.433381762744160626e-01 9.781269946631769574e-02 -1.263394017751079124e-01 4.350267407354970035e-07 4.069794495862169015e-01 9.134373145510921166e-01
9.263041173032393605e-03 3.002726513646580830e-02 -6.809191603473363497e-02 4.350267407354970035e-07 4.069794495862169015e-01 9.134373145510921166e-01
1.511979275041376025e-01 2.045258537149578781e-01 -2.283796571738236358e-01 4.350267407354970035e-07 4.069794495862169015e-01 9.134373145510921166e-01
1.179405832524628855e-01 1.172599898512149408e-01 -1.549425423449596884e-01 4.064346380218133317e-06 3.499276607177181225e-02 9.993875656151257614e-01
1.575763702495583951e-01 2.368224343840900914e-01 -1.802175652275256335e-01 4.064346380218133317e-06 3.499276607177181225e-02 9.993875656151257614e-01
1.074598070502912756e-01 2.674186572147308483e-01 -1.363211427868047110e-01 4.064346380218133317e-06 3.499276607177181225e-02 9.993875656151257614e-01
5.922359308425382413e-02 1.269038597784064026e-01 -1.679177417679433848e-01 4.064346380218133317e-06 3.499276607177181225e-02 9.993875656151257614e-01
1.288951053305587846e-01 1.402084522172968306e-01 -1.613626438822512721e-01 4.064346380218133317e-06 3.499276607177181225e-02 9.993875656151257614e-01
3.753346970428627083e-01 9.136847082675468579e-02 -2.097062372743242475e-01 4.064346380218133317e-06 3.499276607177181225e-02 9.993875656151257614e-01
2.603004964821354350e-01 2.202248122499211314e-01 -2.273215251867319042e-01 4.064346380218133317e-06 3.499276607177181225e-02 9.993875656151257614e-01
1.405029781998629046e-01 3.001275882379346727e-01 -1.040460089678890837e-01 4.064346380218133317e-06 3.499276607177181225e-02 9.993875656151257614e-01
2.295020334714210075e-01 2.733905577091846895e-01 -1.025271099301204858e-01 4.064346380218133317e-06 3.499276607177181225e-02 9.993875656151257614e-01
1.540985744391369372e-01 2.850228899682413219e-01 -2.481707750641138910e-01 4.064346380218133317e-06 3.499276607177181225e-02 9.993875656151257614e-01
1.794443286843585561e-01 1.173031878269045203e-01 -9.434362187439665481e-02 4.064346380218133317e-06 3.499276607177181225e-02 9.993875656151257614e-01
2.549888074229579860e-01 2.283713330706020617e-01 -5.728982778335953152e-02 4.064346380218133317e-06 3.499276607177181225e-02 9.993875656151257614e-01
1.702452561693832966e-01 1.081960378809762729e-01 -1.493032562589236834e-01 4.064346380218133317e-06 3.499276607177181225e-02 9.993875656151257614e-01
1.776986849662688384e-01 2.619222460785946005e-01 -6.740924691891937715e-02 4.064346380218133317e-06 3.499276607177181225e-02 9.993875656151257614e-01
1.235883664703946727e-01 2.234410858933538468e-01 -2.127738486566457810e-01 4.064346380218133317e-06 3.499276607177181225e-02 9.993875656151257614e-01
1.895246842642675233e-01 1.690453525473322727e-01 -9.712348415345120611e-02 4.064346380218133317e-06 3.499276607177181225e-02 9.993875656151257614e-01
1.913342693139254147e-01 2.871010415804926552e-01 -1.923234770435930385e-01 4.064346380218133317e-06 3.499276607177181225e-02 9.993875656151257614e-01
2.583764890586718876e-01 2.062180141642066533e-01 -1.380359054553008114e-01 4.064346380218133317e-06 3.499276607177181225e-02 9.993875656151257614e-01
2.153070894436618365e-01 2.479647343645084157e-01 -1.592296661032624738e-01 4.064346380218133317e-06 3.499276607177181225e-02 9.993875656151257614e-01
5.730899821056528037e-02 2.516087031083481529e-01 -2.188075299693592601e-01 4.064346380218133317e-06 3.499276607177181225e-02 9.993875656151257614e-01
1.672556506353108652e-01 1.762739699872281629e-01 -1.042030473502471438e-01 4.064346380218133317e-06 3.499276607177181225e-02 9.993875656151257614e-01
1.837683064275063838e-01 1.822758836089534429e-01 -1.555749100379105465e-01 4.064346380218133317e-06 3.499276607177181225e-02 9.993875656151257614e-01
1.130714965810063755e-01 3.090397253326996330e-01 -1.455681093386921310e-01 4.064346380218133317e-06 3.499276607177181225e-02 9.993875656151257614e-01
1.924814371006964286e-01 2.644747453718964136e-01 -1.848069197167699351e-01 4.064346380218133317e-06 3.499276607177181225e-02 9.993875656151257614e-01
1.242161879212304032e-01 1.574720914455041421e-01 -7.924889964943483689e-02 4.064346380218133317e-06 3.499276607177181225e-02 9.993875656151257614e-01
2.872845405276134856e-01 2.801125952468103142e-01 -2.001652201671768050e-01 4.064346380218133317e-06 3.499276607177181225e-02 9.993875656151257614e-01
1.401685883494804274e-01 6.864484648632179775e-02 -1.402363690720087042e-01 0.000000000000000000e+00 -1.000000000000000000e+00 0.000000000000000000e+00
2.128364405573417439e-01 6.161408907011466790e-02 -3.035694377546289124e-01 0.000000000000000000e+00 -1.000000000000000000e+00 0.000000000000000000e+00
5.900320386976923293e-02 1.186002033158210789e-02 -1.726985745287366592e-01 0.000000000000000000e+00 -1.000000000000000000e+00 0.000000000000000000e+00
2.223265405835221087e-01 7.478433487276610336e-02 -2.362164885222043931e-01 0.000000000000000000e+00 -1.000000000000000000e+00 0.000000000000000000e+00
1.521740619440923314e-01 1.018924475989402695e-01 -2.651693184617529564e-01 0.000000000000000000e+00 -1.000000000000000000e+00 0.000000000000000000e+00
3.055552830417933574e-01 4.886961585137527403e-02 -2.863359259147028046e-01 0.000000000000000000e+00 -1.000000000000000000e+00 0.000000000000000000e+00
1.977903976620167814e-01 4.541151223542370247e-02 -2.048522501552010877e-01 0.000000000000000000e+00 -1.000000000000000000e+00 0.000000000000000000e+00
1.887640078510868236e-01 1.156673312573071877e-01 -3.417155772145346049e-01 0.000000000000000000e+00 -1.000000000000000000e+00 0.000000000000000000e+00
1.968492067202038398e-01 1.129893731298712012e-01 -9.814009878490173588e-02 0.000000000000000000e+00 -1.000000000000000000e+00 0.000000000000000000e+00
3.704726795860702193e-02 7.049991583910715509e-02 -1.493767909628070378e-01 0.000000000000000000e+00 -1.000000000000000000e+00 0.000000000000000000e+00
3.218055472844795206e-01 4.406715581813844956e-02 -2.293610333864889161e-01 0.000000000000000000e+00 -1.000000000000000000e+00 0.000000000000000000e+00
2.580654485492573924e-01 3.731087965943820361e-02 -2.022237410059846696e-01 0.000000000000000000e+00 -1.000000000000000000e+00 0.000000000000000000e+00
2.064606188301156831e-01 1.124520182037511001e-01 -2.519671438858439583e-01 0.000000000000000000e+00 -1.000000000000000000e+00 0.000000000000000000e+00
1.613319038856461107e-01 1.125585255384637662e-01 -1.446533235070665557e-01 0.000000000000000000e+00 -1.000000000000000000e+00 0.000000000000000000e+00
1.381075506749587789e-01 7.329723317646467950e-02 -2.846460990733666319e-01 0.000000000000000000e+00 -1.000000000000000000e+00 0.000000000000000000e+00
2.451358939910483481e-01 3.854820951049958005e-02 -9.122104547377589412e-02 0.000000000000000000e+00 -1.000000000000000000e+00 0.000000000000000000e+00
4.933041342161378212e-02 1.180145128729409576e-02 -9.021465742478237959e-02 0.000000000000000000e+00 -1.000000000000000000e+00 0.000000000000000000e+00
3.246344062368415329e-01 3.088562485361710797e-02 -2.644613267646391819e-01 0.000000000000000000e+00 -1.000000000000000000e+00 0.000000000000000000e+00
4.039602970706422380e-01 8.773775864292668314e-02 -3.365759435876080619e-01 0.000000000000000000e+00 -9.237957760897520521e-01 3.828855756994938297e-01
3.041185714561918663e-01 1.325292377441547598e-01 -3.479037018879196363e-01 0.000000000000000000e+00 -9.237957760897520521e-01 3.828855756994938297e-01
3.076534071842038087e-01 5.482663098742144442e-02 -2.778755163956564411e-01 0.000000000000000000e+00 -3.831883481922940815e-01 9.236702278463136961e-01
3.002690871503026493e-01 1.328784121559953291e-01 -2.426650286013817270e-01 0.000000000000000000e+00 -3.831883481922940815e-01 9.236702278463136961e-01
2.956987794402212155e-01 1.289990793851170103e-01 -2.090294919085435854e-01 0.000000000000000000e+00 -3.831883481922940815e-01 9.236702278463136961e-01
3.028820180054869193e-01 5.251633660583584357e-02 -3.147047256477352173e-01 0.000000000000000000e+00 -9.237957760897519410e-01 3.828855756994938297e-01
4.310297470420801358e-01 1.012431640131682964e-01 -2.572187578058827140e-01 0.000000000000000000e+00 -9.237957760897519410e-01 3.828855756994938297e-01
