3.694440121798378551e-01 -4.529039584459678552e-02 -3.031557535157419769e-01 8.827868675235904794e-01 3.518755198514387228e-01 -3.112410079940727825e-01
2.822881467190324067e-01 -4.976239667494950641e-02 -3.224931137661934399e-01 8.958513638003027246e-01 3.250340122087540529e-01 -3.029904699567583237e-01
3.798663330985975750e-01 -1.784636735466872959e-01 -1.835420000121115169e-01 9.722210819502242751e-01 1.826855079467998022e-01 -1.463289889179689440e-01
-3.618629306893537123e-01 -1.922332412780053401e-01 1.781983164566144640e-01 -4.402381924244440081e-01 3.164333240121015578e-01 8.402739347293302075e-01
4.398890926010730063e-01 -2.158603398971724319e-02 1.020125441552962586e-01 9.988524074640603434e-01 -2.036367562230993744e-02 4.334961151383190381e-02
4.495189073781374334e-01 -2.437011129183458968e-01 2.766089494690320838e-01 9.532323371543633961e-01 -1.546645753143092439e-01 2.596670571059688792e-01
1.838430687026749444e-01 6.992935932048578440e-01 1.560838697550642751e-01 -1.003750035513901150e-02 9.919197377920409009e-01 1.264692941594496023e-01
6.899474069228299367e-02 -1.920444758513810413e-02 -6.503275387266349572e-01 7.114770155932367279e-01 4.291059877895071484e-01 -5.564786676286276323e-01
2.008981298115439795e-01 2.088898377095679132e-02 -4.715002851592827726e-01 4.860431096259814066e-01 5.794058988192147819e-01 -6.542559896543586051e-01
4.693844151306413859e-01 -3.476865619065377944e-03 -5.549835638093766205e-02 7.290813349976650315e-01 1.540514370565376212e-01 -6.668647251870786219e-01
3.349699164305824928e-01 -6.694301593119802996e-03 -1.817135464921570964e-04 9.945446175673781086e-01 -3.749328517025377061e-02 9.734093298761599400e-02
1.569717337154963865e-01 4.449233407939291035e-02 -4.537280711436505465e-01 4.818761834855543325e-01 7.800603205612800517e-01 -3.991255943625131586e-01
1.860004947183115653e-01 2.132658131538790400e-02 -4.683995481201092548e-01 5.986635620368403465e-01 7.994407909530930612e-01 -4.996359924640374900e-02
2.664819163156903481e-01 -4.572335525860710126e-02 -1.418456707049867149e-01 9.329943790412774662e-01 2.653265330601011218e-01 -2.431528727605088147e-01
3.163111050782944633e-01 -7.788391957359336315e-02 -1.408614884858160332e-01 9.420280513408127998e-01 2.591859226262042126e-01 -2.130863862367426975e-01
3.320148305806496225e-01 -9.241972814559559768e-02 -9.705393097641346056e-02 9.808757743671908669e-01 8.553147908971203695e-02 -1.748344398117552267e-01
-2.365200452644390383e-01 5.765326042712014543e-01 1.068408010684248066e-01 -4.137102258102604568e-01 7.914854123785219908e-01 -4.498829748412624396e-01
4.457213722101152631e-02 2.239571334862235086e-02 -4.106910631366813003e-01 -1.148984039788884109e-02 8.499641786852193404e-01 -5.267151777949744540e-01
3.527974347196565774e-01 4.599761825225504586e-01 5.478357646799781461e-02 7.306553686223682398e-01 -2.033908247775494116e-01 -6.517475774405452338e-01
3.698360729188535645e-01 -2.821214362825386762e-02 -4.407547296377481438e-02 9.843493995722174539e-01 8.619279652797616487e-02 -1.537109670404219197e-01
-2.848721467245938777e-01 4.391738621178998825e-01 2.226664367454825044e-01 -9.260023781732840131e-01 -3.674242973201330420e-01 8.671206003912534932e-02
2.596557438902895587e-01 -2.772016199333694753e-02 -5.028725080677751702e-01 6.940645035579036115e-01 3.153670360426458208e-01 -6.471615698406365524e-01
2.576184610231320171e-01 -5.668015477564992272e-02 -2.694907061892192202e-01 8.984035584072452840e-01 3.265795854288986999e-01 -2.936270093541940018e-01
1.496690424721499879e-01 -1.200456670550240079e-01 -6.204082064207598890e-01 9.293235001866053668e-01 6.283385253762022518e-03 3.692131512699261542e-01
3.956182799436581965e-02 6.161128046215331722e-01 1.419809263782746689e-02 8.481520773830149296e-02 9.902661215115919902e-01 1.103602696748138684e-01
2.639308813339792947e-01 2.506209593387029866e-01 -6.231598616024090764e-03 7.358279505025172584e-01 5.243963638146764694e-01 -4.284456568541810673e-01
1.037028575697321320e-02 4.016583576502991693e-01 6.648374661723965851e-01 -1.672908558196468387e-01 -8.702895245390850354e-01 4.632600922124238130e-01
3.299064985640938752e-01 -1.422281352637740082e-01 -1.818367737567581077e-01 9.897815469171644676e-01 3.415240307400427278e-02 -1.384416943934733968e-01
3.361393818075695816e-01 -1.424002876681029206e-01 3.692804994289332343e-03 9.297275717903316083e-01 3.299536962024876008e-01 -1.635151387950680713e-01
4.950919716414146632e-01 -9.811483669568023258e-02 1.015227958247169604e-03 9.543794782351429085e-01 -1.776052575116580240e-02 2.980677360075367210e-01
4.651075078197694501e-01 -9.232220319582379320e-02 3.339296634054698121e-01 9.638129964505230962e-01 -1.078211900743538537e-01 2.438013511939878808e-01
1.402637286254405230e-02 1.446588480309376756e-01 -7.528451722826876580e-01 9.516998777735833359e-01 2.523632937486108285e-01 1.748716975788217054e-01
8.153908122794345514e-02 8.010212359829091966e-01 1.078618270481272456e-01 1.256205616960689719e-01 9.748734106758759621e-01 1.839600707663192336e-01
2.120489755759170092e-01 6.102014471074872215e-02 -4.669116727931228450e-01 8.871304069717136365e-01 4.282027496782557785e-01 1.721686562478282612e-01
4.588627795788482455e-01 -4.672780595495022726e-02 -1.804006225238287686e-01 9.602543356783057593e-01 1.915590822939783056e-01 -2.030190355649060252e-01
3.820009869207560693e-01 -4.096361024601231915e-02 6.348421155347896971e-02 9.421447887674548882e-01 1.442013694170703741e-01 -3.026039690033319740e-01
6.703226979518653317e-02 7.374028108411555538e-01 3.530239555847063393e-01 2.543468860843170476e-01 9.434173369143699084e-01 2.127707450487725249e-01
3.733997079594685853e-01 -1.770401111702426811e-01 3.181401400955593539e-01 9.195382421815965213e-01 -1.911693911355102915e-01 3.433710603100642578e-01
6.550621680983134687e-02 -3.870139750763577913e-02 -6.292282663467868575e-01 8.573849885111035629e-01 4.410206023441076706e-01 -2.653145487602500685e-01
2.427087306256760224e-01 5.195635969420814293e-01 8.305042306583584888e-02 3.145145633815809583e-01 -3.102099624054457938e-01 -8.971345320771603182e-01
2.659569746225762255e-01 -1.801988736469925523e-02 -2.369717659517344144e-01 8.778971835201057061e-01 3.524845105604045847e-01 -3.241160362932659078e-01
2.533583456670765455e-02 6.692723028276865715e-01 4.586727769718937919e-01 -4.140861985407632423e-02 9.245226059120079665e-01 3.788710563759792871e-01
7.996462812943103127e-02 8.175228032066081396e-02 -5.340328005649367382e-01 4.113967967576772633e-01 7.377810485410100094e-01 -5.351932361598477073e-01
1.339092001610322491e-01 1.845348841410152790e-02 -4.230637954638813980e-01 9.584980325150249669e-01 2.682041660771515290e-01 9.668529859128338622e-02
-3.247788348263812575e-01 -2.099719817785133946e-01 -3.435760271486832385e-01 4.907021285062395906e-04 -2.675235467745435969e-01 9.635511979820219342e-01
2.858665265025454039e-01 6.733766771989085909e-01 2.597404432038525335e-01 3.102017620698602207e-01 -3.498680427666180925e-01 -8.839497833358009871e-01
2.123367196973182935e-01 -2.398449718227668725e-02 -2.887761234361490015e-01 8.207383723306749257e-01 4.345969632220056389e-01 -3.708288065161673419e-01
3.006713309428608039e-01 7.686522430169388798e-02 -2.867562313820860020e-01 8.720427774323326053e-01 3.533127869573340907e-01 -3.386908160853268068e-01
-2.200720242765630275e-01 -1.665584908378492934e-01 -3.978628169975155227e-01 -4.501701698622894710e-01 -2.236681427830849167e-01 8.644763617763778774e-01
5.043421874199620625e-01 -9.551719464008674720e-02 3.659149689928824223e-02 9.775803567336073252e-01 7.825743600958466606e-02 -1.954799729839323541e-01
1.886258396306537410e-01 7.364549577930185054e-01 3.139900761419598396e-01 6.346425971199323168e-01 5.662628388212166408e-01 5.259041464858439374e-01
-4.942777205379763616e-01 -1.509187468616878525e-01 2.137987196597287143e-01 -9.858176429033383981e-01 -1.660603302134797121e-01 2.423925885615819259e-02
3.376388666935252747e-01 8.526728987841485086e-02 -2.222644464484645199e-01 9.159432087338001960e-01 3.151202178415438704e-01 -2.484900132438489506e-01
3.516554288815865181e-01 -1.177681239917540701e-01 -1.409352602071410887e-01 9.865688263741219100e-01 4.826436928495039108e-02 -1.560528804101780631e-01
4.325309847172116307e-01 -9.324177073338851818e-02 1.541800584790119777e-01 9.610879824763620682e-01 1.134662017545762097e-01 -2.518636754256271537e-01
6.955662167587514655e-02 7.329020665555955327e-01 1.240109440909530902e-01 5.115083769954668035e-03 9.998033231042932067e-01 -1.916118544449947267e-02
1.161009878964134046e-01 7.019227824170141961e-02 -4.527018199240248064e-01 9.440747186885152242e-01 -5.600221468238851530e-02 3.249410369341932392e-01
1.626219572381537026e-01 6.718595058083410843e-01 3.631370910184865131e-01 2.426769523898200387e-01 7.958504754480011378e-01 5.547340962190620006e-01
3.398481929911600918e-01 6.305506921300794987e-02 -2.398619320687060130e-01 8.890289024472171064e-01 3.767299128794341923e-01 -2.601964322494653703e-01
2.138145327764035541e-01 -5.663109089444779559e-02 -1.725312991471234236e-01 8.716726276012325414e-01 3.934466213018218972e-01 -2.922098329573180608e-01
3.259008915933447326e-01 3.292262109920660040e-02 -2.599472001645061758e-01 9.087783370351391055e-01 3.228053558633903752e-01 -2.644213235757607583e-01
3.968374424371328146e-01 8.564834551104408278e-02 -5.988361719299810371e-02 9.706676187550296042e-01 1.194220988863852612e-01 -2.086689631881341045e-01
5.332337691827685466e-01 -1.438915826596772474e-01 2.769982421868165401e-02 8.045771564540952214e-01 9.248856188748494356e-02 -5.866016239597595661e-01
-1.600346212086075082e-01 -5.821552025955463172e-01 1.986725800030086919e-01 9.529080868106838409e-01 3.016049239994526010e-01 3.163301930083246838e-02
4.917109232075462799e-01 -2.352680864833483487e-01 6.214995513970621166e-02 9.987089385512669670e-01 -9.304092662901582503e-03 4.993886179641802286e-02
1.028577355070834920e-01 5.343246465394750899e-01 4.196894400603068953e-01 2.954551452885648688e-01 7.275706702005164672e-01 6.191503670244284940e-01
3.111890042351181385e-01 5.166364154233621386e-01 2.016085402616040467e-01 6.506665126369853835e-01 -7.528518688555072558e-01 -9.923282165490454609e-02
5.639850087088972563e-02 8.288362900444612436e-01 2.826179598012294458e-01 3.901482968122776951e-01 6.024856313951020281e-01 6.962724829094740775e-01
3.791009813125933992e-01 3.109233029305810692e-04 -3.145874451390435755e-01 8.385976748608423570e-01 4.377303549207755551e-01 -3.242623568947233248e-01
-3.269464422278253735e-01 -1.858229439494904212e-01 -4.421249172846713482e-01 -9.393030730404701156e-01 8.980387277705841054e-02 3.311268660362235439e-01
3.365635216297868659e-01 -1.538842173083519449e-01 -1.515883966527538373e-01 9.803282467814199430e-01 6.312368868624206042e-02 -1.870078300208571354e-01
-4.090882403881851981e-01 5.346507954088783876e-01 3.731872637550520677e-01 -9.451009736145621343e-01 3.266577504444370117e-01 8.880526301212283979e-03
1.214615504309274757e-01 7.441177464404550301e-01 3.602647509902269229e-01 2.714670785506549944e-01 9.599643442603038590e-01 -6.909473939495816563e-02
4.665391741160596628e-01 -2.395742199280532225e-01 1.411870618342128403e-01 9.857386141427668669e-01 1.300604930158854589e-01 -1.067878866930244558e-01
4.556732468281403103e-01 -2.344063409150173583e-01 2.283152840386428184e-01 9.684089772897119808e-01 -6.033680637437384593e-03 2.492942987768864971e-01
1.804595234167506446e-01 -7.772831230315586648e-01 1.689639132506555730e-01 -1.687518075129094963e-01 -9.223368180102757830e-01 -3.475882932490758637e-01
4.213477054006529721e-01 1.191299960761568917e-02 -1.835733620977218206e-01 9.143404726356274548e-01 3.175638001660849863e-01 -2.512662590252263128e-01
3.106525437561647451e-01 4.925668944171845975e-02 -2.080634542465187586e-01 9.378987720579734511e-01 2.514386684697741403e-01 -2.390072998263700899e-01
4.000940246067603567e-01 -1.044082137330124838e-01 8.700079132538258986e-02 9.753192434064333893e-01 2.102543996750105837e-02 -2.197960516371374184e-01
1.192306317486807599e-01 7.307857453926748237e-01 2.761707358104618093e-01 1.964341105626223050e-01 9.750996831404865617e-01 1.029283641509679686e-01
8.608182802082180174e-02 7.948471371292421817e-02 -6.112646328012881769e-01 7.655721259932798395e-01 2.417903974956586988e-01 5.961851420330944729e-01
1.870958218377445081e-01 6.982913879169876104e-02 -5.456430824525149159e-01 8.267047960467323042e-01 5.271716787694820106e-01 -1.965940011716957592e-01
3.923724790443850474e-01 -6.011658035233957698e-03 -1.585280964890646294e-01 9.023654286854894124e-01 3.452880574690549986e-01 -2.579007376540432550e-01
-1.308116805864434351e-02 1.047044181126930429e-01 -5.856974872546412136e-01 8.813192714268879291e-01 4.598652940699161640e-01 -1.086289699922114299e-01
-1.870993962142897954e-02 -2.346175192477494356e-02 -6.046699449552731531e-01 7.896867471062407606e-01 5.636453741265485817e-01 2.422782154270312349e-01
1.869228885323196698e-01 -4.296351363700077197e-01 1.466201810885636725e-03 -7.613828721092450458e-01 -2.532601158189932145e-01 -5.967875968835372191e-01
2.481244755721780382e-01 -4.547708051866256040e-02 -5.232185648458283211e-02 9.585585580034412523e-01 1.554479612143194744e-01 -2.387497062462585751e-01
-1.011697401849956102e-01 -5.147784094630943885e-01 3.082421704385535643e-01 9.896579915126387794e-01 -1.420032373840710571e-01 2.030124152885278907e-02
1.580152464149042202e-01 6.376953681398424001e-01 3.980065259417556733e-01 3.524870475109818657e-01 6.653332834273369967e-01 6.580915614872976382e-01
4.667255015999540735e-01 -4.622934336112403259e-02 2.070384387826710859e-01 9.917494980045058472e-01 1.258084517415778425e-01 2.460013573534878401e-02
7.495871508324529475e-02 -5.304408699634674540e-02 -7.311924299665379934e-01 5.405306290092874999e-01 5.396813819435860582e-01 -6.454228420859345894e-01
2.221945855752311683e-01 -7.160496650754666348e-01 6.168026289271610202e-02 -9.309983843578031326e-01 2.761024174996364877e-01 -2.387665457596956087e-01
2.469787982477282540e-01 7.541693635515864247e-02 -6.168924367562792499e-01 3.691727722050248128e-01 6.821613790648136666e-01 -6.311634631177952537e-01
1.849772687312110642e-01 1.508383470170368210e-02 -3.842235580368859593e-01 9.231782428707452359e-01 3.709656181391428054e-01 1.006302243301030741e-01
2.604049800403568371e-01 5.736515522919380383e-02 -3.524631603611163566e-01 7.653556732131706619e-01 5.448084444190361975e-01 -3.426579232560139077e-01
4.024073494197457634e-01 6.632781796440331834e-02 -3.381353981741834214e-01 7.089413203946042241e-01 5.670197724016657892e-01 -4.193933499028306144e-01
-2.166080116336820405e-01 1.569845661996184527e-02 -3.860798627927069515e-01 -3.780660523361347169e-01 6.661822363686654702e-01 -6.428586843294680220e-01
4.304777825645777489e-01 -8.179210911587057875e-02 -6.221063064464989883e-02 9.892630490054893366e-01 -1.040125132420689630e-01 -1.026645847477657553e-01
4.456923466038704706e-01 -8.338725304029155627e-02 3.438107178346504894e-02 9.673815140679737912e-01 1.605531315176660090e-01 -1.959482028481648874e-01
3.419041634314358702e-01 -9.358528091342740995e-02 3.030429290968367217e-01 9.440422843144308240e-01 2.581327242460947080e-02 3.288127740723045811e-01
1.843299949372209090e-01 6.218858488487369884e-01 1.455602366325130514e-01 3.222215135569957978e-01 -3.169543801712184083e-01 -8.920275876290585382e-01
1.698630630518225756e-02 7.125979382606911772e-02 -6.793865405108719946e-01 7.674638393972201822e-01 3.907091588064131038e-01 5.082770980896766932e-01
1.660913419454345397e-01 -6.330052466022327573e-02 -4.103293098294217289e-01 7.896626689122004938e-01 6.117852992249446231e-01 -4.638552553011844604e-02
2.428127191956300501e-01 -4.783526096125200605e-02 -3.070937833205684697e-01 8.709341678015842803e-01 4.088997006339329388e-01 -2.725338697799631338e-01
2.883492041329162592e-01 6.061789055444125746e-02 -2.615537050633259808e-01 8.709341678015842803e-01 4.088997006339329388e-01 -2.725338697799631338e-01
3.934935364315249595e-01 -1.021086247045214085e-01 -3.282339884555818960e-02 9.886185102943423342e-01 6.343756459406772741e-02 -1.364152355925421223e-01
1.671384312712739517e-01 6.429687421455477780e-01 5.844351032638502863e-01 -1.666532610088207120e-02 8.164053330633548322e-01 5.772387712651185776e-01
4.870186121523311096e-01 -1.670070220393663485e-01 8.703151965805629164e-02 9.715496594177266410e-01 9.221553085538747307e-02 2.181457200000916918e-01
-4.456892541791038775e-01 -3.662905216514342199e-01 -5.031187376733895489e-01 -7.735896431985209709e-01 -5.805105467531639363e-01 2.540995258640353915e-01
1.456983394728534609e-01 3.774222701025705534e-02 -5.301671978280727560e-01 6.733903349163733454e-01 7.316145110556077080e-01 1.062340061095251864e-01
1.965233267505014370e-01 7.268923047589206377e-01 2.540570878173507574e-01 7.908133520923550375e-01 6.116428724894289459e-01 2.252196006862602559e-02
2.701802279216332092e-01 -8.549601842069289720e-03 -1.673044867662522028e-01 9.423455949149415201e-01 2.125741542552360142e-01 -2.584511727330255915e-01
3.690516352517471677e-01 2.648313994841982807e-02 -4.376892728546900174e-02 9.642392990137803599e-01 1.348609466150062774e-01 -2.281558662746103749e-01
3.762269131084376439e-01 4.136551524048843326e-02 4.359413234391235070e-03 9.806448833986095570e-01 -8.837701987573033657e-02 -1.747143812684351927e-01
4.166308453387805311e-01 -6.845000801596984319e-02 1.901167265814356910e-01 9.660535007173163269e-01 2.004249003394049378e-01 -1.630045799226447767e-01
4.198062550384006053e-02 5.362172850147995939e-01 5.925665023673274412e-01 -2.291344368690240944e-03 9.821106621051072239e-01 1.882907249984764886e-01
-1.021569464763977114e-01 -3.391208273725521138e-01 2.045980569898946388e-01 9.125618309426369867e-01 7.557568167733499931e-02 4.018945397061624014e-01
2.805827390739009664e-01 1.283914697063067711e-01 -3.050102101797318999e-01 8.567046728431318980e-01 4.595227162715441738e-01 -2.342989047331722752e-01
2.697801377804351919e-01 1.521776536389995160e-01 -2.496495505970608153e-01 8.963587579152482165e-01 3.505894343610291841e-01 -2.713448463174615854e-01
2.359803414904632080e-01 -5.343497512427358709e-01 1.418632158965508691e-03 -3.244429676322423406e-01 2.071073713296046198e-02 -9.456785004013747997e-01
4.541501242062106480e-01 -3.101704084385764268e-03 -2.155939881415622206e-02 8.040200567303578127e-01 1.574226333833842473e-01 -5.733845680465710082e-01
2.313010583545936361e-01 1.664641978567190511e-02 -3.205088636175058570e-01 4.100062557030378363e-01 5.746454068373657575e-01 -7.082919784136295638e-01
1.411108708475711238e-01 7.549219048259320219e-01 2.052128767679043120e-01 1.987237455426669464e-01 8.579934519574839991e-01 -4.736624424160880142e-01
2.504407588253461658e-01 -6.157287886617762718e-03 -3.376624150095947630e-01 7.887477676203142885e-01 5.110756186462006578e-01 -3.415825977701058558e-01
3.544575154342757273e-01 6.663523722462559584e-02 -2.938634768509611472e-01 8.913746152607709972e-01 3.730486047395174531e-01 -2.574607421930802387e-01
3.874143171349634374e-01 8.426335731294083697e-02 1.012386905627939704e-01 9.786599957800199423e-01 3.269208245108919803e-02 2.028690227828355841e-01
1.300299230723182542e-01 7.582073652335642455e-01 3.326163024990912986e-01 -1.593797885757252952e-01 8.910259284971684401e-01 4.250539703841338390e-01
2.424985989551860510e-01 8.330156954027174987e-03 -4.851673009482502796e-01 8.401462596589447385e-01 3.086544018750834173e-01 -4.459671765771777152e-01
4.732255810057463263e-02 7.907646757235567980e-01 3.438568460246511083e-01 5.193549903112751887e-01 7.403059483367933069e-01 4.268694143364414328e-01
2.565510228052506059e-01 1.029390320186208962e-01 -2.738236928657402647e-01 8.529293548880075848e-01 4.468508071785232683e-01 -2.698812177500120590e-01
-3.444160347212899542e-01 -4.574282437060523954e-01 -5.914021421001810497e-01 -6.985650940837797584e-01 -6.974062972194652321e-01 1.600976762053555602e-01
4.387019343517812309e-01 -1.302842582267205729e-01 1.454242919815655066e-01 9.559208572746412669e-01 8.926428503865160846e-02 -2.797270134324768565e-01
4.771633256176919802e-01 -7.135863941066322713e-02 1.567249344731454219e-01 9.789724269893432806e-01 2.026045989944528503e-01 -2.375633938324376790e-02
4.767248374262069155e-01 -3.203645380054530312e-02 2.142898691720299675e-01 9.775520972707129053e-01 1.860614478221614965e-01 9.885866050049378628e-02
-6.785595853778765563e-02 5.437401283349578840e-01 5.740167484149936161e-01 -1.261132567809078453e-01 -6.967151002087441647e-01 7.061752725812708853e-01
-4.089973972204030139e-01 -3.044580098215207697e-01 -5.198258853243047373e-01 -9.053826255770165421e-01 -3.389160185420427851e-01 2.557698842297064790e-01
1.558864853547336886e-02 -7.171899599191769448e-02 -6.775674667761489856e-01 3.280902424227431502e-01 8.921783253337324249e-01 3.104426333989619979e-01
2.174345819091056536e-02 -2.830934050630414152e-03 -5.373853711208802508e-01 2.855029479429861961e-01 8.666192497513706128e-01 -4.092177203839489352e-01
-2.791941264849069348e-01 1.454100274613296384e-01 1.087053986836345881e-01 6.328299290933894761e-02 2.234118883173904224e-01 9.726676672774182686e-01
2.249465639783753967e-01 -6.069674651295204476e-02 -2.907620603605127751e-01 7.866767315314103781e-01 5.725989774944597599e-01 -2.308032301319811186e-01
4.138362821084908827e-01 1.445883717012515224e-01 -1.796346929421757110e-01 8.521081642927805788e-01 4.276412318950665870e-01 -3.017194941147449128e-01
-1.133203648288126641e-02 5.680830027844977481e-01 1.160913190753282420e-01 1.804172700394426343e-01 2.669680331353964028e-02 -9.832277911879592214e-01
2.743150412055150311e-01 -7.949263225583733661e-01 1.053483200858003066e-01 -9.005003194607118511e-01 4.028651566425158620e-02 -4.329851860130897179e-01
6.785828910230264077e-02 7.436965741948968756e-01 2.237550370404208511e-01 4.534799444281554792e-01 8.855914609813425598e-01 1.004176490382465287e-01
4.076107390262137531e-01 -2.179065637660423660e-01 3.847776090810536842e-01 1.986143829829895291e-01 -2.930039503700764270e-01 9.352545171982951100e-01
-2.995593226705804968e-01 -4.712777675108948960e-01 -7.959685458761363019e-01 -8.434552423769670071e-01 1.926015342780037498e-01 -5.014856958085351923e-01
-3.958369179696504814e-01 2.125232592644018537e-01 8.200376221405412946e-02 -6.413939374677933847e-01 -7.671828873648957048e-01 -6.650888213013284728e-03
2.165885030633972197e-01 4.532746044938623653e-01 7.106554994334080000e-02 2.942906704739224333e-01 6.574278448543554587e-01 -6.936725669090330060e-01
1.195997867728114117e-01 2.066160538209242392e-01 -5.161752794852746407e-01 5.091267008959409202e-01 7.949781600493921463e-01 -3.298480369492868824e-01
1.930496557850565620e-01 6.745665127464460786e-01 4.228150102744775429e-01 -4.771213719802885889e-02 9.683351368129092807e-01 2.450522694804533053e-01
2.316477536736693543e-01 -3.173615560817772963e-01 -8.047520857955019480e-01 1.657715320965932049e-01 8.164664965244730066e-01 -5.530843147291385486e-01
3.944319488170471288e-01 1.289955398739612291e-01 -1.877537519936772481e-01 8.709143137548522873e-01 4.278525534578410672e-01 -2.417652799649276096e-01
3.590189884053183178e-01 -1.977093681192395452e-02 -1.843297172902686742e-01 9.110861229440986309e-01 2.717265200785979884e-01 -3.099786684026273331e-01
4.175573784575391523e-01 3.086779239721504364e-02 -1.230217200458745275e-01 9.479218371327957637e-01 2.004219870450777152e-01 -2.475383158133061534e-01
5.224152505930194090e-01 3.334675230634878695e-02 -4.431589292420208548e-02 8.960531340483514073e-01 2.422670124994925622e-01 -3.720154238962380400e-01
4.055568482965712374e-01 -4.971300200323721524e-02 1.444916485996668443e-01 9.989611927201130781e-01 -1.183455540277637309e-02 4.400543986404031882e-02
4.417724384859028630e-01 -4.348446101387315466e-02 1.866543106649882211e-01 9.607817760885226654e-01 1.216001504081424406e-01 2.492223548498429253e-01
-1.786245719123117914e-01 -5.902467657856727001e-01 3.260359208035530920e-01 9.997526587441771806e-01 8.422580653989229782e-03 -2.058352421418763525e-02
2.529410813523896295e-01 -5.959884467728422397e-01 -1.016131365111390683e-01 -5.221757967190712169e-01 -1.637474017815017668e-01 -8.369702657386406397e-01
3.244236024402143426e-01 -5.802709462914594774e-01 9.951897651496870167e-02 -5.081304264868573561e-01 4.684392317779733500e-02 -8.600053002973859773e-01
2.166620276254342670e-02 4.188526930567106343e-01 -5.226525250316455679e-02 3.645812321854762228e-01 7.704914168086892667e-01 -5.228991315371049886e-01
2.171117865454259555e-01 -6.038260815197160625e-01 -2.077916389738872216e-03 -7.699178465114677739e-01 -9.197617417791771610e-02 -6.314799228849142798e-01
2.675080773553847879e-01 2.194369709884846920e-02 -3.245338089320972119e-01 8.752962855789599983e-01 4.805680084498877846e-01 -5.395184617957393680e-02
2.513981742693179866e-01 1.930523926064973625e-02 -2.553128407921554932e-01 8.358338711150392619e-01 4.809854930548250751e-01 -2.646406910655551559e-01
1.482230056857022360e-01 7.600175355604622818e-02 -5.379740892029661881e-01 2.013868146789741520e-01 5.718807117788216043e-01 -7.952331748416969770e-01
3.175473192931809185e-01 -4.536469608079994331e-01 -2.738799935377707329e-02 -8.375287845577124024e-01 -2.035783426192676604e-01 -5.070516674399887513e-01
4.456600626626889827e-01 1.727942236309072677e-03 -9.312988592529705678e-02 9.718756002294610674e-01 2.353589391066140679e-01 -7.999216288739743885e-03
3.839758486731041365e-01 -1.075856663985981787e-01 4.627061118727543443e-05 9.793502533497682183e-01 1.874448727124652103e-01 7.574629335850345535e-02
-2.319825398882584544e-01 -1.833570432413546003e-01 -7.348342983188176358e-01 -6.000277136349999596e-01 -5.612472629596874096e-01 -5.700598676369122986e-01
4.901279550804318874e-01 -1.958046068206932000e-01 2.883368036228922682e-01 7.356674518264617602e-01 7.064501895274345744e-02 6.736487820966703399e-01
9.888905799083783088e-02 1.124431506601381026e-01 -7.477388850478855487e-01 4.207682172999105408e-01 4.146756147720566110e-01 8.068446206201490556e-01
3.732065907624331630e-02 -3.563856811155898321e-03 -5.496061747243966567e-01 7.808967510033863746e-02 8.914933767757637906e-01 4.462528003359413908e-01
3.578816830222047440e-01 -5.637804260144133051e-02 -1.064285122288152613e-01 9.110416097797663371e-01 2.725133132051675289e-01 -3.094182919218479433e-01
3.512722938292321406e-01 -7.988662353883967115e-02 3.590882857957834046e-02 7.291034094141585209e-01 1.756941893718716730e-01 -6.614678905295485745e-01
-1.385176424506333881e-01 -6.058723790946602961e-01 3.080467256898868356e-01 9.926878005766827107e-01 9.911193583475634561e-02 -6.890395316173936191e-02
1.191265824949222923e-01 7.541113136340449330e-01 1.118229470402302833e-01 1.789472736203098768e-01 9.752925585983808210e-01 1.295465105916862314e-01
1.867330349837941286e-02 4.335350848383019984e-01 6.200271694404034806e-01 3.254184588864106331e-02 9.836192278841654479e-01 1.772970467963813357e-01
1.510971179071076698e-01 8.768756690109108520e-02 -3.552998403085566026e-01 6.096449137974487842e-01 7.850289927223443875e-01 -1.098296848135444093e-01
3.083243055065750804e-01 -5.876335121867719558e-01 1.096829743229635612e-01 -7.739943647758654732e-01 5.575913373317723659e-02 -6.307326234630091788e-01
2.395059679515377238e-01 -6.274254185567278430e-01 -1.556033730519568170e-02 -9.524561683886580976e-01 5.727510145997110474e-02 -2.992437301785049186e-01
1.474919811069615172e-01 6.460298691689517758e-01 5.322385836521559277e-01 1.087026914647626491e-01 9.052317725754325251e-01 4.107787272830194514e-01
4.452162354074212236e-01 -8.178508090840053146e-02 1.160513854559663272e-01 9.629535742298699352e-01 2.150117827280457750e-01 -1.627585548167161666e-01
4.208887593433809915e-01 -1.562342636608028967e-01 1.246196691019748337e-01 9.682746592419015919e-01 2.478411774061881068e-01 3.192076208197273252e-02
2.314848814633950758e-01 7.364773529527171014e-01 2.104770204525180100e-01 4.310708098465094729e-01 8.986124097060855798e-01 -8.169268033610262159e-02
-2.011269042512770500e-01 -7.771408677704393086e-02 -5.745728825521252414e-01 1.128352067492345706e-01 9.339686517232104190e-01 -3.390734046134937785e-01
1.007927739454041738e-01 5.495278541406680706e-01 1.110273466282756388e-01 2.742913895545647796e-01 8.650393700775200756e-01 -4.200846603151717762e-01
3.150870432432605339e-01 2.448947994142170598e-02 -8.611408361580616400e-02 8.816088659094482027e-01 3.576276457228199090e-01 -3.080069391500939724e-01
5.115759280101770390e-01 -6.635103202867248529e-02 1.207209985617432313e-01 9.559115533511751694e-01 2.455260374952402680e-01 1.610902451473374131e-01
-1.588811827567807311e-01 -6.446676824103501069e-01 3.308838819777171758e-01 9.967620894200496240e-01 6.062779431555954945e-02 -5.281673647062378602e-02
-1.172509845658495919e-01 -1.614454081438828487e-02 -5.987373054118527715e-01 1.496765079326590475e-01 8.566248947503865008e-01 -4.937516913054311729e-01
3.241046954180585304e-01 -7.310052314737007784e-01 2.550299610711911219e-02 -1.745042599381862666e-02 2.674135213734474270e-01 -9.634238377885856464e-01
2.653421337802202573e-01 -7.155062982059580134e-01 9.008360525307090860e-02 -9.250323855932642836e-01 1.120391577571688974e-01 -3.629907887711457670e-01
2.138606139956504004e-01 2.461382783798837098e-02 -2.859481796694091083e-01 6.705059555684834693e-01 6.393591946681835836e-01 -3.763530041602520804e-01
3.651227432292675906e-02 -3.202476985920842123e-02 -6.579681780502367738e-01 7.155924985884400957e-01 6.506121728303224661e-01 2.542266243511091539e-01
8.684780683835426063e-02 -1.749796282891756538e-02 -5.895769399738519656e-01 3.916564145110226769e-01 4.419029379813382841e-01 8.070483544223553407e-01
1.888495366897451899e-01 6.012846346131794917e-01 3.817607168604814083e-01 1.468214242774484868e-01 7.577451405350388303e-01 6.358189768862485547e-01
9.230617378859926059e-02 -5.859781194030025397e-02 -5.573612878200510101e-01 1.592810405645797567e-01 9.171660461283132060e-01 -3.652889184549971135e-01
-9.106945477015659929e-02 1.686874865328896189e-01 -5.841211546915826558e-01 5.331022095398185376e-03 5.968483915769249304e-01 -8.023363245394389276e-01
1.693689414053089759e-01 7.656764985147280766e-01 5.354349357767245188e-01 1.041775232677296381e-01 9.274764875220987692e-01 3.590743777262199732e-01
3.420741818249035671e-01 -2.020558086082271942e-03 -2.395617626712645831e-01 8.314830246474949060e-01 4.714008055079200177e-01 -2.939681280165206689e-01
3.559672052905468731e-01 4.319694766911515160e-02 -1.138717434095208730e-01 9.660701783798515407e-01 6.971668282662708827e-02 -2.486925704173193197e-01
3.548907784468597337e-01 -2.889391188615479666e-02 -9.278328495878873650e-02 8.447597600575917909e-01 9.159067452342947724e-02 -5.272495577312352744e-01
4.414892702969298588e-01 1.124263699499246927e-01 -1.303173873082770495e-02 8.699382968239137703e-01 3.023118840415330855e-01 -3.896342958292642322e-01
4.481123528164880909e-01 -6.426697598799642475e-02 2.103252326833654762e-01 9.497594798878080669e-01 3.078152065297377060e-01 -5.662798771186478702e-02
2.037952468742830203e-01 6.992143889771762488e-01 1.243650583175316821e-01 3.123468818211004305e-01 9.366200975105235527e-01 1.586890618663210906e-01
2.475760694105640647e-01 -4.368961415447147889e-01 1.207539853895758658e-01 -9.329903061892076410e-01 8.110100812490164679e-02 3.506447134038860325e-01
-4.257787404947427357e-02 -2.079728410423451190e-01 -9.028961103931454346e-01 -1.547126138928757444e-01 3.932439585150573347e-01 -9.063240017752159927e-01
3.396076495793370342e-01 4.270396783595790946e-02 -2.107396653862795843e-01 8.651495665388045930e-01 4.091444139562117610e-01 -2.900294399645425014e-01
4.041919639169885836e-01 4.899934797221650040e-02 1.004724700826423039e-01 9.654210167664311060e-01 1.970787423436721197e-01 1.706523650639121814e-01
4.918929916688719040e-02 7.647406099065718887e-01 5.606193124922268511e-01 1.063764741424753496e-01 9.293839363115667940e-01 3.534537376730271796e-01
1.811283591178267927e-01 -4.600776566042663052e-01 3.176190003034313203e-01 -8.489141784812688218e-01 1.155368977086771998e-01 5.157479450674788968e-01
1.226789318740054424e-01 7.632224190071305037e-01 2.543810408147992308e-01 8.776626742658145686e-01 3.466847099064748750e-01 -3.309349514899296296e-01
-2.092113797111052886e-01 -3.967085348173267079e-01 2.721280778332680894e-01 7.106599802767823437e-01 8.292857956932853103e-02 6.986309777869980087e-01
1.597512411473756555e-01 5.965100255313637856e-01 8.305036266098547726e-03 2.123172947170758884e-01 9.466177750012441106e-01 -2.425616507523738197e-01
-1.125999528431695790e-01 7.537349431889527329e-01 3.871184680592345551e-01 -9.772618886759572021e-01 2.114338980587313344e-01 -1.596582892275954027e-02
2.982451273027466598e-01 1.031953062656710551e-01 3.172077613231339549e-03 7.521882779202250235e-01 -9.064905345468192432e-02 -6.526833410369660138e-01
1.160232989534025205e-01 6.528681202812827156e-01 5.555732886697414274e-01 1.721195036929464295e-01 8.759523211174763402e-01 4.506466549053697590e-01
8.289140033140313113e-02 -7.714606583835184606e-02 -5.535955479218220843e-01 4.031197807411407985e-01 6.974988006616898994e-01 -5.924439766346847325e-01
2.697638094058673053e-01 1.296092042056058158e-01 -3.554346026231105515e-01 8.489914716394699745e-01 4.963122795949128641e-01 -1.813493926285609237e-01
2.773578649876201618e-01 -3.347816365694840091e-01 -7.540282578437782490e-01 4.589910351211246575e-01 -2.146564483601168249e-01 -8.621193878204218564e-01
2.271123991880618087e-01 6.255242843847312606e-03 -3.441830635907753289e-01 7.500535372913239573e-01 4.841032666933731687e-01 -4.506259184440876697e-01
2.966011248574643711e-01 1.330692768847143159e-01 -3.776315818117491618e-01 7.833042897600444032e-01 5.547932600355366395e-01 -2.804261547406976529e-01
2.037626675795032316e-01 9.704252326129296502e-02 -1.702154301989912688e-01 8.525143324075102891e-01 4.441442450884492965e-01 -2.755997144312534175e-01
-3.185525779180387040e-01 -4.744791890858721661e-01 -7.399020489159041647e-01 -9.351177447972083279e-01 -1.339473908040422490e-01 -3.280440517097853448e-01
2.606909305378899422e-01 6.773950136905605712e-03 9.150729341961363894e-02 9.447127761408922186e-01 3.238118945585540809e-01 -5.161034332930111712e-02
-3.067730378354921461e-01 6.573546251389261741e-01 4.085736136369693128e-01 2.544258591203096831e-01 8.232414457416370457e-01 5.074849793088576089e-01
5.497286006584497509e-01 1.137791107691228931e-01 2.049210041456767106e-01 9.491939494727474891e-01 3.091222071886748912e-01 -5.894325497569023048e-02
5.105754192198759256e-01 -5.074288498027069300e-02 1.108653533795256468e-01 9.149862835829016827e-01 2.163275527905004492e-01 3.405913838587568687e-01
-3.756066922664713648e-01 -2.089936098126181641e-01 1.445774869276559016e-01 -9.673397452937619878e-01 -1.845689624960222264e-01 1.737472741027659418e-01
1.811701809900829185e-01 7.441659418208671495e-01 4.626452139356686533e-01 -1.080512502384962520e-01 8.995972341317683973e-01 4.231426989378053172e-01
2.134456069367397513e-01 -9.097961043193381059e-03 -1.336643523999487271e-01 7.678482703178375335e-01 5.625119058369194569e-01 -3.065768901297387661e-01
3.097394685050030572e-01 8.350533000792029203e-02 -1.707850964512600545e-01 8.297170009831574822e-01 4.864764395978020128e-01 -2.736975922359587976e-01
2.482300002120343962e-01 4.176397814610260939e-02 -1.405361596250300771e-01 8.884163924272138191e-01 2.819657243914160394e-01 -3.622314783878381461e-01
2.021832843155855486e-01 -4.524266583995408264e-01 1.354976100012764695e-01 -7.056326033343869319e-01 1.825968224940206219e-01 6.846466457426219065e-01
4.626674362480285851e-01 -4.772022343652212312e-02 1.590491698040875368e-01 9.359932644283257552e-01 3.517279334592310902e-01 1.428529906249799593e-02
3.844172227794178109e-01 2.010956693814237861e-02 1.193338152922653606e-01 9.280893232787642555e-01 2.713195454942954887e-01 2.550213956685479788e-01
-2.062427927529356803e-02 1.560239562695909799e-01 -6.474450528285962125e-01 4.161515988162945434e-01 6.701880756927195426e-01 -6.145451895523481589e-01
3.296450838512157699e-01 -7.970437592437952246e-01 7.731991661802087301e-02 -8.090831561564859609e-01 1.271865400483954966e-01 -5.737665295696300349e-01
1.752807396912712257e-01 1.318245237533538505e-02 -3.479500638595344753e-01 6.328624781996667892e-01 6.773258079689900013e-01 -3.751197589385706910e-01
1.911826255626676851e-01 1.588602023643993777e-02 -1.036117101641676058e-01 9.200853042917213065e-01 2.121007577082058004e-01 -3.293270432351638188e-01
4.673612776476057662e-01 3.507088029529090850e-02 9.424856163386660657e-03 9.460343242393798313e-01 3.158048280684397913e-01 7.270741316814341437e-02
4.751774512793627281e-01 -1.561680130428438895e-01 2.175696604208050555e-01 9.636440807570482159e-01 2.641313159781022990e-01 4.030798359605201192e-02
2.992550861477959179e-02 6.799098924973720481e-02 -5.621014588034269899e-01 1.111253391321874173e-01 9.492222195491085701e-01 -2.943269218352617678e-01
1.234290157693549717e-01 2.139362477784456651e-03 -4.232249017252155410e-01 5.197262669295115156e-01 8.337383206106453448e-01 -1.864538018085305782e-01
5.875323373784070019e-02 6.812654029697933211e-01 1.836883533510740296e-01 -2.287380660048833059e-01 7.384516894476581550e-01 -6.343248375337712242e-01
2.133827319620320295e-01 -6.440012047554989627e-02 -3.719104340730694513e-01 6.916080421841321879e-01 4.983004557860952199e-01 -5.228527247223653251e-01
3.909609383207188760e-01 -1.818506033162722857e-02 -1.120919507518546299e-01 7.821949427670537025e-01 1.176072418556892984e-01 -6.118329904252819418e-01
2.935564298621772816e-01 -3.757913515390556292e-01 3.038430680424197283e-01 -3.379380634257606042e-01 1.273134767183575211e-01 9.325176373312897837e-01
1.346760278775276931e-01 8.246514663128620692e-02 -4.316697793089231405e-01 3.405235441722911371e-01 7.512017621807065559e-01 -5.654552399270367236e-01
3.516425984834148921e-01 -2.741794886491302763e-03 -1.686958050307564017e-01 8.549103495216622273e-01 4.061255083370110541e-01 -3.227853245715389119e-01
4.704683289485110942e-01 -4.073529299487545219e-02 -6.962095645395055543e-02 9.360331579013709824e-01 3.505404306169545570e-01 3.103761930410857753e-02
3.234204359662369299e-01 -6.353705279153165630e-02 1.632673138022580073e-01 9.395374560504022865e-01 2.987557207682834948e-01 1.673749921181827138e-01
1.901995830688314459e-01 1.884740196298063941e-02 -5.093376554120745414e-01 3.021523250569742650e-02 9.187550064422593810e-01 -3.936702654022913861e-01
2.919098820653917570e-02 4.042205650871744105e-01 6.340831287620946055e-01 1.447763883834704002e-01 9.268258746748029298e-01 3.464586489033358307e-01
4.641926009239928930e-01 -1.946722912909141234e-01 2.068989385112042778e-01 9.949424378282831771e-01 9.695161327012218055e-02 -2.626652037544105478e-02
4.111284401868670058e-03 5.574243866943617842e-02 -5.709819576649779460e-01 6.086278105911642200e-01 7.814225487044196283e-01 1.376625895125286603e-01
2.028491887438812757e-01 1.248843416401639733e-01 -3.307938025901666079e-01 6.177615937975300398e-01 7.060518879737519571e-01 -3.462099720075027531e-01
2.528268592307189033e-01 1.491454881145572869e-02 -1.955059033361865317e-01 8.336480941504326170e-01 4.515304431640258520e-01 -3.180426292424485823e-01
4.038280840629287494e-01 -9.292029880553321491e-03 2.384303392057162962e-01 9.417126899216831104e-01 3.270187939690321066e-01 7.896782909202691714e-02
3.810203847678319544e-01 -6.267586958883783477e-03 2.946212196249312631e-01 9.774223423304168046e-01 2.032124495752566651e-01 5.788147416009150475e-02
5.078289907283383559e-02 3.990460147199632601e-01 6.243472308998642140e-01 4.032157337088242421e-01 8.844640547351080295e-01 2.348199479839526704e-01
1.126252307432791672e-01 6.757405630263083607e-01 1.134748224617877776e-02 5.694174071752005073e-01 7.319185969679706805e-01 -3.742445508197937976e-01
3.347655185204649331e-01 -5.558474787929763572e-01 -9.859996721504390299e-04 -4.030926775090504233e-01 -1.337429681333834608e-01 -9.053337019096645566e-01
-1.409072444204630126e-01 2.961026296244102102e-02 -5.679663325449849642e-01 5.039337379499495562e-01 7.603854414999685618e-01 -4.097130314142928276e-01
3.609446660659556549e-01 1.554965567204235621e-01 -1.881962619063544950e-01 9.636446635162351226e-01 2.670695201516399275e-01 -7.926782616854382083e-03
9.812774781799910029e-02 6.470031142259313750e-01 1.688526939084352141e-01 2.985854407212108486e-01 8.702725877484969175e-01 -3.917554819053015169e-01
-2.435932873696837198e-01 -2.354530715427795851e-01 2.472344387123767140e-01 -5.220312212067507174e-01 2.514593590623900865e-01 8.150163156804410836e-01
3.443102741669952227e-01 1.290808719176926023e-01 7.751004053200657995e-02 9.261667939086569712e-01 3.321446499475482206e-01 1.785917169752848921e-01
4.261646995912554692e-01 -2.376714537090315188e-02 1.045454526099238585e-01 9.255048217779497932e-01 3.787230749589716172e-01 -3.107629222804902773e-03
1.960222407664135025e-01 -1.973826037300160235e-02 -4.220533279451138542e-01 3.346923973834180499e-01 6.270463151132572577e-01 -7.034158925107010241e-01
3.182807561698196563e-01 7.585941066610196737e-02 -2.862885156114851060e-01 8.256337915951321715e-01 5.560620610411745046e-01 9.551872301746379412e-02
3.645977114183363010e-01 -3.930452252492744325e-02 -1.585626866884053965e-01 8.015190078585222588e-01 4.970928885491405214e-01 -3.323641680376539509e-01
3.390299570012894059e-01 1.163677264074221562e-01 -1.020310941866011262e-01 8.431679836306795739e-01 3.649902011703976545e-01 -3.947782978201391235e-01
3.060522120868738871e-01 6.572055358504853562e-01 2.093435346962599364e-01 7.660779954791917534e-01 3.095966909482565921e-01 -5.632711547704827293e-01
3.707557243986283058e-01 1.034426436957446294e-01 -7.821365004639085905e-02 8.678873081148534840e-01 2.960940545493613296e-01 -3.988733273530246648e-01
2.055367619785655464e-01 6.748777436089263837e-01 5.531804085006378768e-01 2.106392129173057237e-01 9.030993639162622211e-01 3.742227423281760945e-01
2.418487905157513107e-01 -3.509988010855494833e-01 9.139941051868302746e-02 -9.667595517431361030e-01 7.350829567190461655e-02 2.448928328490285189e-01
-4.291217236513280020e-01 -4.568863833554369647e-01 -6.546711524918057412e-01 -7.851324720425862935e-01 -5.848694225361650290e-01 2.037026262140728960e-01
1.950095353364365569e-01 1.418866190701546515e-01 -3.357029434482659558e-01 7.670797118010023175e-01 6.049849202426919037e-01 -2.134993255779396581e-01
1.551718281543570943e-01 -3.430357541717793390e-01 3.003107274831677831e-01 -9.136321136302226753e-01 1.227618994077650377e-01 3.875640295452734141e-01
2.896035393061870966e-01 4.528657519299472689e-02 -1.487271827623042053e-01 8.444612807410819544e-01 3.648612273000931272e-01 -3.921242534480636199e-01
-1.882345544150797190e-01 5.688539487898350844e-01 1.198335453530221667e-01 2.781020880856299726e-02 5.630051362283887695e-01 -8.259853563269009546e-01
-4.617051294693956531e-02 -4.938974425155910619e-02 -6.455149864132269100e-01 5.547818513509091831e-01 7.572796531027388145e-01 -3.445934189856983965e-01
2.558272664882593195e-01 -7.848864401282917846e-01 -6.296089404965103664e-02 -8.241460089902631347e-01 1.309221002353443686e-01 -5.510378930122569185e-01
5.002230840883219454e-01 -6.658660461509616213e-02 2.767211709350786419e-01 9.475310848349373094e-01 2.310418197150987396e-01 2.209174524890750724e-01
1.750021173882561065e-01 -5.393418306688529951e-02 -3.830385944126415421e-01 4.565152747317490767e-01 7.847727159242483541e-01 -4.191963600479787222e-01
2.270567812984712330e-01 1.861585026968543000e-01 -2.914478818453006270e-01 7.718148485381132184e-01 6.024084544381580475e-01 2.034843817041469272e-01
1.757007040701573652e-01 1.162311616840594197e-01 -1.999757178742892216e-01 7.931923510949925316e-01 5.465408269848659462e-01 -2.685870782504192200e-01
-1.669026476098266487e-01 -3.963424934637027608e-01 -8.216009357126561330e-01 5.062667823661428507e-02 1.394410783804670151e-01 -9.889353493079405810e-01
3.608129353641441606e-01 -8.953563035513568968e-03 -1.175670474996603904e-01 8.646329555076167628e-01 2.149743567122641141e-01 -4.540879630713766657e-01
3.112231824805322122e-01 8.699418442196976686e-02 4.727858491251697715e-02 8.156981263585004749e-01 3.668085240136332303e-01 -4.473120536786056589e-01
3.069039217647429041e-01 7.260884849469293467e-01 4.750106744693072258e-01 1.812670095604613785e-01 8.471951117824304545e-01 4.994023566393760993e-01
1.454436958324507034e-01 6.904345829912664767e-01 5.178864984290600937e-01 4.651267376512153995e-02 8.030232298020751891e-01 5.941298373061756344e-01
4.173097640671426523e-01 6.628311245333447232e-02 9.343108431451438434e-02 8.863001354627154660e-01 4.163956743985398057e-01 -2.026985747876820509e-01
1.028061701584775667e-01 7.266939859910055699e-02 -4.220307122471499417e-01 6.079848043458073725e-01 5.028211160472894070e-01 -6.144309586451099925e-01
-3.387499941693614125e-01 -3.394238088384824437e-01 2.347852471472227087e-01 -2.483168278305766530e-01 2.318665876005627235e-01 9.405193451336503196e-01
1.421964653092940289e-01 5.722140058869656931e-02 -4.680601034855600973e-01 3.536913828762447976e-01 8.329780805444904068e-01 -4.254996157595281048e-01
2.713444175842105732e-01 1.849734597078538378e-01 -2.741568743466051283e-01 6.411808257929884070e-01 6.870291157780417102e-01 -3.418744546009010454e-01
3.637783236974632128e-01 -1.412786662526625825e-02 1.799782562143021347e-01 9.070175488854901324e-01 4.210731503319699032e-01 -4.070391046065897217e-03
1.925076131822616166e-01 6.315877343968805402e-01 4.458139934685779737e-01 4.097211339785176709e-01 7.347170724240386086e-01 5.406657154471767868e-01
-3.460388271316153230e-01 -2.597087691205345883e-01 3.533370607486360226e-01 -6.834936268533471360e-01 2.267013438063189557e-01 6.938609102458982436e-01
2.029185175340603720e-01 7.703844134320796400e-01 4.332417184285053402e-01 3.232939683035391809e-01 8.576121882166245491e-01 3.999779302422114546e-01
2.646200253464924268e-01 -1.332493374333371117e-02 -1.441826231515400680e-01 8.280133255116700619e-01 4.282313678282560487e-01 -3.619555613373638958e-01
4.080145419145612684e-01 1.179299348301565548e-01 6.421464923145386861e-02 9.126825308890356148e-01 3.806957850552559752e-01 1.485978366301037301e-01
2.880652603612501306e-01 2.114942497979696578e-02 -2.790312152530446954e-01 7.281963565392995941e-01 5.686271586787248200e-01 -3.826136703462770794e-01
-2.243278880414782406e-01 -6.428634743250533079e-01 1.750892471391613525e-01 7.053121430936800662e-01 -6.285537027148211386e-01 -3.278033306848610606e-01
2.675244206314533746e-02 2.066378501019808522e-01 -3.235456429273148582e-01 -9.468246918100631584e-03 9.136198117807773356e-01 -4.064593360004848388e-01
7.145131268445500949e-03 1.628453352690870382e-01 -1.912559366469465116e-01 1.604718045025800011e-01 9.258174879667941948e-01 -3.422145218054613580e-01
-3.487779337400530588e-01 -1.967249147547666110e-01 -2.509358512924632079e-01 -9.842256898862913328e-01 -1.734527740182058575e-01 3.484144878221014791e-02
3.616455004784925320e-01 4.386935547267308277e-01 2.751236934982890792e-01 2.074924390099841809e-01 2.376660610042780619e-01 -9.489266205562993939e-01
3.289298139747902083e-01 5.637713082397168007e-02 7.489272122847379087e-02 8.062942992418355992e-01 3.312819004639289688e-01 -4.900426567505369868e-01
3.695849730265893252e-01 3.125785122893742773e-02 3.180679999620761311e-02 8.254593349479081299e-01 4.479243862769530238e-01 -3.434830862295435439e-01
-1.171475500218089050e-01 -3.258342280110721467e-01 -7.849730882443396451e-01 2.504938076560457930e-02 1.785076394841278169e-01 -9.836196171127661314e-01
4.455684504176034011e-01 -3.790961106517204415e-02 1.067835339038119280e-01 8.918947578450608926e-01 4.519768882662951737e-01 1.551236286376316519e-02
1.011230299472396510e-01 4.534986685979739418e-01 5.166681008602812541e-01 3.773836209373961914e-01 9.260558016549715887e-01 1.501622238695366190e-03
