6.068944988907509774e-01 -3.757388389798862471e-01 5.150052741345875207e-01 1.031536856925713459e-02 -6.320816046940072042e-01 7.748331679650330983e-01
5.452365487311989778e-01 -3.295000332054580650e-01 5.134327874425961280e-01 1.031536856925713459e-02 -6.320816046940072042e-01 7.748331679650330983e-01
4.978343439013319660e-01 -4.502033527508045863e-01 4.651785913156790686e-01 -1.583876841449208817e-01 -5.216406676407251419e-01 8.383342742453916419e-01
5.726813075203229797e-01 -4.313525918656977431e-01 5.685416887542090736e-01 -1.583876841449208817e-01 -5.216406676407251419e-01 8.383342742453916419e-01
6.054937538743937475e-01 -5.154437829930068604e-01 4.217240263663630806e-01 3.795486344555950020e-01 -5.943440412180219790e-01 7.090119849138822872e-01
-6.618765957622355645e-01 -2.388877154210384268e-01 5.429074887006730687e-01 -6.624784376589961665e-01 -3.892351299006106546e-01 6.400143227211015917e-01
-6.232915942701491296e-01 -4.512165707417855609e-01 3.734472385370234959e-01 -6.624784376589961665e-01 -3.892351299006106546e-01 6.400143227211015917e-01
-5.498569874103264032e-01 -3.040905665146957371e-01 5.312199311121402756e-01 -3.742874558845369348e-01 -5.098163120046247387e-01 7.745942346683738489e-01
-6.502532955201888454e-01 -3.430023579563855618e-01 6.052323045272276492e-01 -3.745926469911562973e-01 -5.101655471884272153e-01 7.742166772177487832e-01
-6.890474742252854501e-01 -3.263115477646926776e-01 4.120647657264975283e-01 -3.745926469911562973e-01 -5.101655471884272153e-01 7.742166772177487832e-01
-4.780546336119841366e-01 -3.652753335710263172e-01 5.598449296611647252e-01 7.502160399610958985e-02 -5.923778597864783890e-01 8.021597285881673089e-01
-3.426180209973902491e-01 -3.923722742414035292e-01 4.364961270434630780e-01 5.070023917989627815e-01 -4.714535446943528552e-01 7.215816862318921165e-01
-5.932230421486630600e-01 -3.730673894362336873e-01 5.593971382619585819e-01 4.967378774814005804e-01 -4.536244449002848622e-01 7.399164439747111244e-01
4.827614852370962772e-01 -3.626098108269774078e-01 5.369729756694754386e-01 -7.534119605600899661e-01 -3.547762354673503760e-01 5.536282511149668295e-01
5.497815122967923962e-01 -4.557510766113296308e-01 5.863948912418436299e-01 -2.709699446977714143e-01 -4.826120199759011964e-01 8.328630903367413296e-01
4.899867561247594483e-01 -3.774081865774246980e-01 5.354648578703880002e-01 -5.263677719271413480e-01 -4.950410856840543605e-01 6.912823534281845594e-01
6.085263752601915987e-01 -4.282652114653166531e-01 5.885734361726234765e-01 -1.604331442852980627e-01 -5.766120147898273762e-01 8.011115968544886279e-01
6.018019936946452653e-01 -3.133958844811974842e-01 4.130966118250758434e-01 2.800418521969045282e-01 -5.217030487601210798e-01 8.058551296185448853e-01
5.681595919663137151e-01 -3.860584954969326077e-01 5.850427138073746036e-01 2.800418521969045282e-01 -5.217030487601210798e-01 8.058551296185448853e-01
7.297365319960469332e-01 -3.144784867355238656e-01 4.235786258404508620e-01 6.541074522734702246e-01 -3.779610735807120148e-01 6.552013947924907322e-01
5.603067867447323325e-01 -3.920190273154839367e-01 5.215674644760091017e-01 5.712993830198971335e-01 -4.932613981959801386e-01 6.559803411771053527e-01
5.914587104610682378e-01 -3.483509767594477058e-01 5.826194696230679870e-01 5.712993830198971335e-01 -4.932613981959801386e-01 6.559803411771053527e-01
-7.755192382616409308e-01 -2.851653798517697624e-01 5.565873973922180751e-01 -5.847918547196563344e-01 -3.479846651911931987e-01 7.327517720519806099e-01
-6.214663189470163163e-01 -2.799284729276965145e-01 5.181098781990998159e-01 -6.668949399462260619e-01 -3.889924353918469135e-01 6.355596150496344299e-01
-7.477578903353871986e-01 -3.036625391826590636e-01 4.379762792878592048e-01 -8.639137076060491305e-01 -2.195001506628682930e-01 4.532910650667493213e-01
-5.609902214922848351e-01 -3.799374294246616879e-01 5.555849459398216617e-01 -3.851370717754900586e-01 -4.693542803200618785e-01 7.945917162225124564e-01
-5.758876987187206975e-01 -3.203784616069241253e-01 5.775624665861422979e-01 6.440459837972039026e-01 -3.442896756839903816e-01 6.831320443165467271e-01
-3.141496750884186229e-01 -2.268971144668419371e-01 4.823615560968357863e-01 7.991410363571662678e-01 -2.681376415259332791e-01 5.380295616477820397e-01
-3.462030732803398347e-01 -3.242679741988353515e-01 4.653226517003080098e-01 7.667502162396903076e-01 -3.209361549661901569e-01 5.559623101721067329e-01
-4.058717717564708782e-01 -2.849919421352053450e-01 5.410902738851116611e-01 -5.552556435472434312e-04 -4.682736563892593851e-01 8.835833149301791645e-01
-4.342533036368355637e-01 -2.768944980861822169e-01 5.187851835946529766e-01 -5.552556435472434312e-04 -4.682736563892593851e-01 8.835833149301791645e-01
-4.989282546870934532e-01 -2.281249334491899095e-01 5.639159483766350567e-01 -5.236790069775636505e-03 -4.619770071214631124e-01 8.868764406166512737e-01
-3.603582172457113764e-01 -2.900971189217730895e-01 4.395661710703147040e-01 -1.179625503851432482e-03 -4.685012099074069569e-01 8.834620675495731268e-01
-4.836196202409607792e-01 -2.731782886517633568e-01 5.172481572367194635e-01 -1.179625503851432482e-03 -4.685012099074069569e-01 8.834620675495731268e-01
-2.617361907102215279e-01 -3.578407782788446401e-01 5.351233551770300245e-01 2.127716516252213378e-04 -4.705139069789094908e-01 8.823925532707459496e-01
-3.218690953560609525e-01 -2.424253012121422302e-01 3.665715012192544142e-01 -5.979868161408205107e-04 -4.698511637011377751e-01 8.827454482354776255e-01
-2.327276022496262420e-01 -3.169699157620839980e-01 5.070881616882467746e-01 -4.128095527336500667e-04 -4.707570633157103224e-01 8.822627822404396358e-01
-7.820222837864695964e-02 -3.472268827487132725e-01 4.421491646087770122e-01 2.773826928009005187e-05 -4.714726263712664678e-01 8.818806959068604678e-01
-1.283762057217310015e-01 -4.549022422069622928e-01 5.171775112205946323e-01 -2.075808823001454751e-04 -4.712859069755538921e-01 8.819804707568115187e-01
-2.860221239572501295e-01 -3.230412795837651063e-01 4.928382694975093070e-01 -1.906108903741374284e-05 -4.715548352422780920e-01 8.818367405570618489e-01
-2.083947089505003292e-02 -3.128844830180640413e-01 4.752603649754557624e-01 -7.337696685883929835e-05 -4.715117183048748162e-01 8.818597927771767431e-01
-9.160741799617601322e-02 -3.679851933952134058e-01 5.303961956294970248e-01 -2.124491675343596339e-05 -4.715355073953182985e-01 8.818470756395879739e-01
-1.034781867700619862e-01 -2.774235962985765469e-01 6.577392659529778252e-01 -4.163203277626942592e-06 -4.715490780074164112e-01 8.818398193623506742e-01
-1.958199624508805969e-01 -3.816755965031832232e-01 4.894335196198564830e-01 9.941387667533730347e-06 -4.715234577960275009e-01 8.818535188166153338e-01
6.399094685705834784e-02 -2.430403308132773055e-01 4.928753963215165013e-01 1.182498621611835194e-05 -4.714935418910352616e-01 8.818695140525134590e-01
1.999797654651127091e-02 -3.544773582619318297e-01 5.914444519475915429e-01 5.389096075002896565e-05 -4.714824680965929993e-01 8.818754330251578066e-01
-2.446675125877431634e-02 -2.800997795377336841e-01 4.508228485649677375e-01 -2.167509615473587473e-05 -4.712329880231274082e-01 8.820087700975457468e-01
4.051805695841701610e-02 -3.160303645475380230e-01 5.226563418350129719e-01 1.538763293879875634e-04 -4.713713165132470406e-01 8.819348378937320598e-01
2.418656144252977480e-01 -1.407413135308975549e-01 5.654393727806256154e-01 -5.603937067911908611e-06 -4.709501760015952221e-01 8.821598107444379444e-01
2.670700657735536332e-01 -2.436459707150255838e-01 4.691826240183322727e-01 1.622125377660044003e-04 -4.708863393508632145e-01 8.821938727399075697e-01
3.088385076341733648e-01 -2.028176196901109729e-01 4.145336935707047421e-01 -7.094644133845085996e-05 -4.708128182947488027e-01 8.822331240074577918e-01
2.893609286739732278e-01 -2.179490869005447085e-01 5.159321011390697320e-01 -3.938942042979263342e-04 -4.710533233687735355e-01 8.821046487750698883e-01
3.489461139943718648e-01 -2.544578929101442011e-01 5.094737771005733995e-01 -4.619476015543942833e-04 -4.715327737355222149e-01 8.818484166214157760e-01
5.112220574174437537e-01 -2.659717510830237330e-01 4.248715211930400582e-01 -6.258350734499972109e-04 -4.722355920804006679e-01 8.814721515186593193e-01
4.113070413205274778e-01 -2.727607483456099824e-01 5.315498063798307360e-01 -6.258350734499972109e-04 -4.722355920804006679e-01 8.814721515186593193e-01
3.658930043298649348e-01 -2.462070497785590617e-01 4.942386773556878832e-01 -7.538694223858367627e-01 -3.326778331012917311e-01 5.665742258121824193e-01
5.007037822253586068e-01 -1.951987294827134400e-01 6.543436094991541552e-01 -7.281823916371397143e-01 -3.833756915164566736e-01 5.681315724934620226e-01
5.282456345930377495e-01 -3.318502532441819364e-01 6.064101659811009792e-01 -5.167017997589248290e-01 -4.147749337179421070e-01 7.489866517403128698e-01
5.110816235086691472e-01 -2.595933576726408565e-01 5.501158124891083467e-01 4.973001497055636322e-01 -3.943829816433842561e-01 7.727578048087887508e-01
5.920749890152633421e-01 -3.045191613548384191e-01 6.485490251448714494e-01 6.873969110061246557e-01 -3.684867078840980414e-01 6.258618320779573141e-01
6.192043674749181381e-01 -2.799134000237865627e-01 3.744621139061444781e-01 8.715487771668241068e-01 -2.024460579081310829e-01 4.465627869140813555e-01
-6.672395649707375531e-01 -2.465960701377168385e-01 4.930987717560589290e-01 -8.657823615434508957e-01 -2.025639552723942360e-01 4.575901511884283845e-01
-6.315983228567036978e-01 -3.004070546902095074e-01 4.816882516291300931e-01 -8.751057015293569608e-01 -2.208323093867942122e-01 4.306078288671809084e-01
-3.088000975737901221e-01 -2.293321748141282646e-01 4.145921973796085624e-01 1.855892641169741260e-03 -4.100314213433824961e-01 9.120695089595036720e-01
-4.646990331853592671e-01 -8.385924615163944940e-02 6.015011149237655674e-01 -2.318708702591348869e-03 -4.038961138267487816e-01 9.148019199944884550e-01
-3.850240384496697033e-01 -2.160262310422012555e-01 5.294195681581339574e-01 -2.318708702591348869e-03 -4.038961138267487816e-01 9.148019199944884550e-01
-4.355203344628046369e-01 -2.801520009391029187e-01 3.957371654779770487e-01 5.632052992413568446e-04 -4.116632476013604158e-01 9.113358620037356195e-01
-2.009979535218230084e-01 -2.040575396085155258e-01 5.202803526729138373e-01 4.057721213433776106e-04 -4.128558052776209464e-01 9.107963105972447515e-01
-2.778245550432855704e-01 -2.185541555402628622e-01 5.936889116706300928e-01 4.057721213433776106e-04 -4.128558052776209464e-01 9.107963105972447515e-01
-3.988342978965730978e-01 -2.442273016980523459e-01 6.246000211649520573e-01 -5.703960759315704170e-04 -4.120587391635930352e-01 9.111571050742163225e-01
-2.771511214176869409e-01 -2.895518208991454956e-01 5.391743202350237629e-01 3.593125462454254434e-04 -4.145282398231587284e-01 9.100363780001367031e-01
-2.700327889390572444e-01 -2.072397610393952316e-01 4.632216690338885057e-01 -1.046981799167219160e-03 -4.133967143464283289e-01 9.105504161751231118e-01
-2.755865451737798955e-01 -2.188605710684550232e-01 4.638178394869933996e-01 2.269532532231203765e-04 -4.158379985058063277e-01 9.094386771470114317e-01
-3.055525264756732140e-01 -2.668274821581098077e-01 5.821894268580577458e-01 -8.286406019693475867e-04 -4.149768721098567315e-01 9.098315827496166186e-01
-6.018217641638903825e-02 -2.568010955066398759e-01 5.716288323690402740e-01 7.146716799961659041e-05 -4.164263536352463824e-01 9.091694489425481418e-01
-1.310930159016414076e-01 -2.610929845753136580e-01 3.980343048624939151e-01 3.980855787520835580e-06 -4.165857789424211588e-01 9.090964133506901357e-01
-1.110475968383854706e-01 -3.538278170297403658e-01 4.954119458089787931e-01 -1.077557406909580449e-04 -4.164936644594313675e-01 9.091386120135118709e-01
-1.241232893190643005e-01 -2.702470761123216270e-01 5.334578138454069141e-01 -2.830282656427552849e-05 -4.165978774145227548e-01 9.090908687984190495e-01
-6.516156605805685509e-03 -2.102804114127476420e-01 5.404969342741678950e-01 -2.830282656427552849e-05 -4.165978774145227548e-01 9.090908687984190495e-01
5.714485388410727590e-02 -3.067762413198769078e-01 4.782030958162915568e-01 -1.528259542680676430e-05 -4.165817051282233452e-01 9.090982800109701500e-01
-1.645713167410720740e-02 -2.969572681609136677e-01 5.624719943483901252e-01 1.070267298948030431e-05 -4.166031479990805475e-01 9.090884538716289542e-01
3.017088907921916530e-02 -3.361036256032514657e-01 5.689783132059769155e-01 -4.772860393465571104e-05 -4.164478623097592203e-01 9.091595985852056749e-01
4.129562914287716879e-02 -2.146821250818101157e-01 4.363634349997359552e-01 7.424782429766225479e-05 -4.165481738983897175e-01 9.091136415812808291e-01
7.373305482308049885e-02 -2.844595537698509369e-01 5.649384150935423676e-01 7.424782429766225479e-05 -4.165481738983897175e-01 9.091136415812808291e-01
9.648724755948723253e-02 -2.751464052326408338e-01 4.628032790417760944e-01 -1.335693046545851368e-04 -4.159911828593613747e-01 9.093686369908026146e-01
3.723128001371563134e-02 -1.615095687679606318e-01 4.871804877111090559e-01 2.777572489915729691e-04 -4.163256329947860324e-01 9.092155355923047244e-01
2.061206260745942487e-01 -2.984431897651173005e-01 3.793414069560340218e-01 -2.263155053085685517e-04 -4.150396736803469988e-01 9.098032853604141046e-01
2.639088928388484689e-02 -2.561325170654196182e-01 5.048287472822011734e-01 6.148261374756235076e-04 -4.157096562199940060e-01 9.094971708115836551e-01
2.796099858411850714e-01 -2.918659931933397789e-01 5.102032840078121190e-01 -1.829406524467070739e-04 -4.139390641201897703e-01 9.103045741552764358e-01
3.115111536215535715e-01 -2.429766703041398301e-01 4.598038300086996211e-01 7.594478731187346556e-04 -4.146723100517194505e-01 9.099704932113451550e-01
2.436427665285970379e-01 -1.962022218132126183e-01 5.963441633715285128e-01 1.014943166421097094e-04 -4.135533738086185074e-01 9.104798716668109915e-01
2.679758108124669636e-01 -3.294213313047574254e-01 4.991209241497925331e-01 -7.178644903804749658e-04 -4.138512051876560016e-01 9.103442561115536735e-01
2.737073962538524308e-01 -2.884592603592642246e-01 5.677315734322209151e-01 -7.178644903804749658e-04 -4.138512051876560016e-01 9.103442561115536735e-01
3.527806448074558565e-01 -2.936752686562715819e-01 6.013338128747736100e-01 1.164004298388233993e-03 -4.181464105739554626e-01 9.083788991484281761e-01
3.859935903874064378e-01 -2.514422849272317517e-01 5.410444885016664207e-01 1.781130435864853884e-03 -4.236522376479320839e-01 9.058231665784831632e-01
3.765193720818994505e-01 -3.824967233557671764e-01 5.586342493072704585e-01 -2.913336157650041336e-03 -4.197271999694192068e-01 9.076456302314598323e-01
3.338029457105912146e-01 -2.250118220413306336e-01 5.267564120887254786e-01 -2.913336157650041336e-03 -4.197271999694192068e-01 9.076456302314598323e-01
3.709117273082950805e-01 -1.882942303315194854e-01 3.651853055168930995e-01 -6.216650700312722488e-01 -2.897775904789725021e-01 7.277097558499640018e-01
4.406736827262360268e-01 -3.009400895249029206e-01 4.941396872453295286e-01 -1.869991530450724679e-03 -4.269198125086166584e-01 9.042875520647642995e-01
6.960808861690761518e-01 -3.161552075478801238e-01 5.083991808083261343e-01 8.742064692542739213e-01 -1.893570033584564272e-01 4.471095776127833599e-01
5.456875572203531144e-01 -2.189258547503014907e-01 6.268875880330339045e-01 8.806699979588947791e-01 -2.172630062329665712e-01 4.209716627252888532e-01
7.117795567221307795e-01 -2.288684986503983498e-01 5.131421257800917735e-01 8.806699979588947791e-01 -2.172630062329665712e-01 4.209716627252888532e-01
-6.864576999429525817e-01 -2.291470784787412174e-01 5.009101292736303224e-01 -9.016364536032327459e-01 -1.058763893204808099e-01 4.193350637834180605e-01
-7.219077304788710236e-01 -2.128556610438950281e-01 6.139203963047322743e-01 -9.223352720877533439e-01 -1.958773701625731167e-01 3.330611080882971975e-01
-3.810076370160923598e-01 -2.961373937066978934e-01 6.149783944193080165e-01 9.872962791791672910e-03 -3.679931006983705455e-01 9.297761033948499509e-01
-5.624328871705214228e-01 -1.223863651873864228e-01 4.913227658279238352e-01 4.588957481983659860e-03 -3.537208101931256232e-01 9.353397938212334450e-01
-4.016604698527624362e-01 -1.187195967704342131e-01 5.641066167521343599e-01 -2.717722199885895594e-04 -3.498783227062897683e-01 9.367951139070345157e-01
-3.455980018260396136e-01 -1.784750558455718283e-01 4.708347021020932721e-01 3.703590558832866144e-04 -3.483415023498686591e-01 9.373676229606002774e-01
-3.507026791462726223e-01 -2.285118202280851385e-01 5.326262282583841268e-01 9.782820812350595009e-04 -3.515496967925889060e-01 9.361687100353272006e-01
-1.456349139093957579e-01 -1.828739297919292350e-01 4.693781220136639676e-01 -2.574794021377222516e-03 -3.528404056399246924e-01 9.356799765857987117e-01
-3.024905337836374941e-01 -1.160847214070736960e-01 5.737121134347571427e-01 8.193528899536660706e-04 -3.556903667684374049e-01 9.346034943487939728e-01
-2.813041922541984485e-01 -2.906912198701775418e-01 4.565682230481972192e-01 -1.236479441982361481e-03 -3.564296397958642282e-01 9.343213488910441233e-01
-1.949486668441076098e-01 -3.294753351121671447e-01 4.381234802268988981e-01 3.815521134198877483e-04 -3.578272864202651227e-01 9.337877100878413383e-01
-2.144995312295332468e-01 -1.213689925084026761e-01 6.692476569462246783e-01 -4.328844690604772790e-04 -3.581121762720436141e-01 9.336784681124103979e-01
-1.395557317432847555e-01 -2.078008111785125123e-01 4.782716652051330897e-01 1.330688693706067209e-04 -3.586044901456663103e-01 9.334895831984644232e-01
5.519517943899324153e-02 -2.925305353377312678e-01 5.096657400132436067e-01 -1.264979220715759043e-04 -3.586938426326546359e-01 9.334552540190110825e-01
-1.272084121484658992e-01 -1.896739807797450106e-01 5.914709326098921416e-01 1.724639176229011655e-05 -3.588190623971445059e-01 9.334071352646691189e-01
4.606079395932328319e-02 -2.345500901128326210e-01 5.155045497108035057e-01 -2.652795225808556662e-06 -3.588499308706271096e-01 9.333952684190705007e-01
6.601515431157507774e-02 -1.017250511335752311e-01 3.978749208153192773e-01 1.776525833471528272e-06 -3.588484177341668691e-01 9.333958501549752818e-01
8.251258134063696459e-02 -7.077266312067612142e-02 5.929942921152189239e-01 2.007252086949559429e-04 -3.587184396712843060e-01 9.334457888646719992e-01
2.581223886581276994e-02 -2.720828358959926918e-01 4.905695821734948336e-01 9.568499981099558641e-04 -3.579020886220910525e-01 9.337586301598641558e-01
1.149738263520952569e-01 -2.742667406039855926e-01 6.251750499942518857e-01 9.568499981099558641e-04 -3.579020886220910525e-01 9.337586301598641558e-01
1.168189513422409342e-01 -2.476544888618362472e-01 4.212490668678229300e-01 1.605423563938582166e-03 -3.558217266170864979e-01 9.345524712301689352e-01
3.130549321920588213e-01 -2.295144861728247165e-01 3.571528669656633959e-01 -7.852130780790267427e-04 -3.539323532018888718e-01 9.352706949313633888e-01
2.363088637434936357e-01 -9.568870954311621546e-02 5.441193382414931667e-01 1.339587944504823467e-03 -3.531730418283119954e-01 9.355570576025155072e-01
1.923728509195908598e-01 -3.318280942624130536e-01 4.864446694060445275e-01 -3.519448044111387502e-04 -3.518767273642364746e-01 9.360462835107510315e-01
1.388791441889894174e-01 -3.491623151626480070e-01 5.625437521378922057e-01 -1.765874165525684210e-04 -3.518150397295380372e-01 9.360695201944072563e-01
3.200953642199176330e-01 -8.862138395047115813e-02 4.778354429264408121e-01 7.334969943429471041e-04 -3.525216299921272167e-01 9.358033780500331078e-01
2.990402076731564218e-01 -2.646338486563095671e-01 4.996007348819460070e-01 1.973119972452861467e-03 -3.575210309045020463e-01 9.339030031317795411e-01
4.173218889028817991e-01 -1.828155656358255998e-01 4.039516830557051685e-01 2.923062221489197785e-03 -3.669361124265499430e-01 9.302415520199792676e-01
5.751130180410766179e-01 -2.838204268565850397e-01 5.638348269775890209e-01 -3.830798297378896090e-03 -3.689329602509520689e-01 9.294481135732506338e-01
6.176023168383425466e-01 -1.771287833763340314e-01 4.610074563966937711e-01 9.213026451970844910e-01 -8.689407743500314474e-02 3.790130014387033675e-01
6.773659116338823782e-01 -1.680155828028011555e-01 5.614940081647114001e-01 9.287284221075323698e-01 -1.837751434162415987e-01 3.220096499050813521e-01
-6.479971604511316485e-01 -1.741653306358434961e-01 5.011134672693288161e-01 -9.634939579968008205e-01 -9.067391985270116528e-02 2.519079855070195384e-01
-7.526665099900671230e-01 3.569557303315437635e-02 4.983184713128512300e-01 -9.732086801759056716e-01 1.335504008417386264e-02 2.295354171682927602e-01
-6.864712277009829000e-01 -1.086516456056778879e-01 5.566581340119484134e-01 -9.850626461589072624e-01 -7.763869796918547450e-02 1.537004089781850158e-01
6.186038940577234246e-01 -8.861950811820040741e-02 5.260415648851684001e-01 9.825374598580819407e-01 2.443666712945492467e-02 1.844532170368206048e-01
-5.906586106635774991e-01 -1.085818078842301082e-01 5.317414552602556244e-01 -9.904354259896753776e-01 7.232516029913282386e-03 1.377873639218328006e-01
-6.025266164493086052e-01 -1.463779279439615666e-01 4.697337862643825024e-01 -9.943444540029492407e-01 -3.092629526288111219e-02 1.016005465285004239e-01
-5.736666714893012831e-01 -1.962503470271940650e-02 5.220547935621125957e-01 -9.943444540029492407e-01 -3.092629526288111219e-02 1.016005465285004239e-01
7.175582653442454939e-01 -1.233356855467779289e-01 5.049595932332030523e-01 9.940644130871717499e-01 1.042597385862152485e-03 1.087881226253485933e-01
6.655361011659144399e-01 -1.263722236779631358e-01 4.981739687333225364e-01 9.940644130871717499e-01 1.042597385862152485e-03 1.087881226253485933e-01
-6.832435803431764487e-01 6.372632546563225531e-02 5.110980372226052726e-01 -9.952610549605690471e-01 9.017114746072345949e-03 9.682006052689325071e-02
-7.798727310934165935e-01 2.065798357101647498e-03 5.473297222813987561e-01 -9.969525434671736575e-01 -1.404178485954957374e-02 7.673626490969703839e-02
6.325207878824214980e-01 2.336146470300525663e-02 4.024951056231590996e-01 9.960721234406028080e-01 -3.322309677489648002e-03 8.848325922419054967e-02
5.389290434635021221e-01 -2.248487161771944853e-02 4.700044775140830300e-01 9.960721234406028080e-01 -3.322309677489648002e-03 8.848325922419054967e-02
6.092966205827238246e-01 5.415039538641190642e-02 5.542573894180455873e-01 9.961947348345384645e-01 -6.002555458966934467e-03 8.694837327923840564e-02
-7.350055788664315859e-01 -3.343309140346056862e-05 4.536365121834691205e-01 -9.972509575971197915e-01 5.388830047494274841e-03 7.390188145336117065e-02
-6.776227179687435154e-01 7.011521672442377895e-02 4.784715670100189167e-01 -9.972509575971197915e-01 5.388830047494274841e-03 7.390188145336117065e-02
-7.694888773334324084e-01 1.185004779256306207e-01 5.650518392316781213e-01 -9.959661556699327400e-01 2.072912402626039471e-02 8.730246375194333774e-02
7.090042841626098546e-01 1.286131612708268923e-02 4.467633748075559574e-01 9.963436141429496962e-01 -2.875261785815006865e-03 8.538814570084204969e-02
7.373106903281592128e-01 -4.978360364352181489e-03 6.275300366591379797e-01 9.963436141429496962e-01 -2.875261785815006865e-03 8.538814570084204969e-02
6.232722019795868817e-01 9.493195351903277457e-02 6.081386397706345370e-01 9.944130391115282297e-01 2.416002072285628605e-02 1.027569999739455370e-01
-5.656441006984185282e-01 1.085972127398809606e-01 4.716549872760081308e-01 -9.955328534965476317e-01 -2.881886989264505899e-02 8.991001249656345451e-02
-6.813452669024615549e-01 1.661262047451279866e-01 4.547426773708139747e-01 -9.835825626550946943e-01 6.228515556384093405e-02 1.693691289380231668e-01
7.651584564354441120e-01 4.546830699119194796e-03 3.961178852141540307e-01 9.921644391333477309e-01 -2.588729482859210632e-02 1.222275488000433424e-01
5.658205991883181740e-01 1.456292705431345702e-01 5.669148703914026477e-01 9.792480685132372020e-01 6.686353019826431210e-02 1.913177687579490638e-01
-7.356088378735949895e-01 2.618329887304362003e-01 5.020811077072929729e-01 -9.846275757365285930e-01 4.406835134665007883e-03 1.746113309705374095e-01
-5.431390303800943675e-01 1.085795522198730184e-01 5.457317186719546909e-01 -9.530310787692498620e-01 1.180717010456855398e-01 2.789100864294770110e-01
6.696140895948947680e-01 1.127363605701764693e-01 4.347771169354597287e-01 9.774419418593037756e-01 8.028005913627163023e-03 2.110516557986788500e-01
6.748475983425060720e-01 1.430050753677763187e-01 5.263399308925622577e-01 9.774419418593037756e-01 8.028005913627163023e-03 2.110516557986788500e-01
6.577142911573495843e-01 2.479883257736547331e-01 5.554036466445558817e-01 9.456316873375708587e-01 1.230693561538523939e-01 3.010558843121574624e-01
7.044526590637517627e-01 1.559543098421748708e-01 4.661845923733010100e-01 9.456316873375708587e-01 1.230693561538523939e-01 3.010558843121574624e-01
6.050621606364410265e-01 2.170723505731901870e-01 5.223232443552530135e-01 9.456316873375708587e-01 1.230693561538523939e-01 3.010558843121574624e-01
-7.317562734773449540e-01 1.518457926864333896e-01 4.488224369612666131e-01 -9.571496813348867594e-01 5.515980014482307209e-02 2.842918992312440940e-01
-4.812597286587110279e-01 3.351735112018923157e-01 5.547192679159309581e-01 -3.967922938595646112e-03 3.814665336969809140e-01 9.243741338098786509e-01
-4.669280901432242281e-01 3.190742927644778515e-01 4.989317353128054355e-01 -4.003962630407142086e-03 3.690387248242443796e-01 9.294053947892436662e-01
-5.015045681458740745e-01 2.151782773057460962e-01 5.869450259611358467e-01 4.511216408555214150e-03 3.718431867739821484e-01 9.282845971878908031e-01
-4.244533949584372579e-01 3.965898349491879804e-01 5.371888441995368302e-01 -2.807806370751140222e-03 3.565896561247757779e-01 9.342568883172328587e-01
-3.477837078419649952e-01 2.888001511733713222e-01 4.593688482271256479e-01 5.846039621710491171e-03 3.596308681669925789e-01 9.330763433300601761e-01
-3.924796940872927742e-01 2.716063803598416371e-01 5.586588943165886612e-01 5.846039621710491171e-03 3.596308681669925789e-01 9.330763433300601761e-01
-3.906621108173947698e-01 3.380013501029273670e-01 5.098239976201138779e-01 -8.948509914013203989e-04 3.497455817988903148e-01 9.368442918937270880e-01
-2.372675066995434401e-01 2.607019026290450792e-01 5.205159860572146080e-01 -8.948509914013203989e-04 3.497455817988903148e-01 9.368442918937270880e-01
-3.304397452824516801e-01 1.669830610467472609e-01 6.586416766914510168e-01 3.748263090440041249e-03 3.513654096732246601e-01 9.362309006911553322e-01
-2.879998153700768504e-01 3.210177069191231247e-01 4.894962538754863979e-01 4.977041214378797890e-04 3.500967626425518509e-01 9.367134081872705575e-01
-1.422205060080251604e-01 3.497081214561401641e-01 5.236718524654550011e-01 -7.620453611482411269e-04 3.496520024359219270e-01 9.368793393385391743e-01
-1.699484115454422406e-01 2.114626499565290529e-01 5.074440088240197433e-01 5.516489241664777887e-04 3.565690373477073960e-01 9.342688142544379737e-01
-1.571385287452057578e-01 2.277623236009929109e-01 4.515598435239496222e-01 -1.875141959613663579e-03 3.556913303943163851e-01 9.346016056721455634e-01
-1.423320399556363691e-01 2.681391886107588607e-01 4.873045896319645465e-01 2.257889779521604829e-04 3.582448110247273831e-01 9.336276583270199936e-01
-5.810015627757516427e-02 1.483031124480007068e-01 5.927359644814844675e-01 -9.748199443638315247e-04 3.578238023265405965e-01 9.337886143098195202e-01
-4.391165912236086322e-02 2.063039906721281791e-01 4.945166842773977556e-01 -9.748199443638315247e-04 3.578238023265405965e-01 9.337886143098195202e-01
2.407678103435582917e-03 2.370399372734200705e-01 5.335776906906202210e-01 6.097899158903977157e-05 3.587438295332450733e-01 9.334360508644308219e-01
-1.385212217100102727e-02 1.941102662163751158e-01 6.113378100522389724e-01 -2.376347921758459119e-04 3.586416404559412685e-01 9.334752901179425022e-01
-4.891836280643419715e-02 2.019305953559174527e-01 4.527362456882541575e-01 -2.637993830234479733e-05 3.588197298055600393e-01 9.334068784867421975e-01
5.381330167113613019e-03 1.609084559184641161e-01 6.070540969256521535e-01 3.682128111814354630e-05 3.588182673301658632e-01 9.334074403358754157e-01
7.616694751406558050e-02 2.721913143129841561e-01 5.104882196204323375e-01 3.682128111814354630e-05 3.588182673301658632e-01 9.334074403358754157e-01
5.227089266474736762e-02 1.649829817833172729e-01 5.358479115438167240e-01 -1.450506517901484400e-04 3.585632413925298190e-01 9.335054262736722785e-01
3.374842620699512741e-02 8.378651419170751735e-02 4.578148760206589563e-01 1.259744410885392800e-04 3.586567491547543174e-01 9.334695069557354952e-01
1.261759286995395024e-01 2.290411262385316504e-01 5.448812239189215756e-01 -4.103015082612778601e-04 3.577229092200586158e-01 9.338276885334948485e-01
1.362993346361702496e-01 2.661694886620408207e-01 4.743565265634328565e-01 -9.142868312260637228e-04 3.554484151457319996e-01 9.346954521393466830e-01
3.226763383275318975e-02 2.094712522413063049e-01 5.635257634363185497e-01 1.288563899978774612e-03 3.562596945213778454e-01 9.343860923957558740e-01
2.859147254896441392e-01 2.633391169185969050e-01 5.831907957558216671e-01 -1.159819004171462305e-03 3.510070062257166779e-01 9.363721142795407015e-01
3.022749213345319319e-01 1.790649113470679510e-01 5.604862094968693365e-01 2.686253850663064286e-03 3.524583127443339792e-01 9.358236595735689445e-01
4.053707620270873280e-01 1.439250541148103246e-01 5.908702532668851370e-01 -6.463271211197977109e-04 3.474315376106125175e-01 9.377051289903335363e-01
3.693049744847423099e-01 1.754606064190331327e-01 5.757291978211902528e-01 -6.463271211197977109e-04 3.474315376106125175e-01 9.377051289903335363e-01
4.008908410689467905e-01 1.182416135622676029e-01 4.164559341184169150e-01 2.256694963015370417e-04 3.488529139321871475e-01 9.371774610575631659e-01
4.190637665017995506e-01 2.247549235721437444e-01 3.836528437742516839e-01 2.748073820439596218e-03 3.562075146462058695e-01 9.344028331505906948e-01
6.971927580774939237e-01 2.824693383749030673e-01 5.075967789601739666e-01 8.700262887380361132e-01 2.146433698853928429e-01 4.438270841994231830e-01
-6.050918771855003930e-01 2.040084316587349178e-01 4.438062788368646316e-01 -8.911907422955158697e-01 1.467438096580867823e-01 4.292380635192999394e-01
-7.170265263205445327e-01 3.130218297391680338e-01 4.896522782327192291e-01 -8.911907422955158697e-01 1.467438096580867823e-01 4.292380635192999394e-01
-7.025773586227128664e-01 1.790543131963162615e-01 4.635709726423900001e-01 -8.911907422955158697e-01 1.467438096580867823e-01 4.292380635192999394e-01
-4.613757757035545359e-01 2.854583344534468159e-01 5.472548295214512137e-01 6.898452543923496534e-04 4.375609716656672643e-01 8.991884786787041062e-01
-3.779914814714551152e-01 2.417256631485484863e-01 4.623174502836082667e-01 7.969737826806515546e-01 2.769034669290733608e-01 5.368028126997408389e-01
-4.506435873461461239e-01 2.952651329708225192e-01 4.815718342759327530e-01 4.588010388426253840e-03 4.244424049073433070e-01 9.054433141158790832e-01
-2.443195260311726291e-01 3.248072228947984086e-01 4.997828948729562959e-01 2.680882369019992398e-03 4.167788623243683377e-01 9.090039564211634948e-01
-3.832882978534279950e-01 3.381649638381487022e-01 3.974427688084850585e-01 -2.986792812776130519e-03 4.215102026114940226e-01 9.068187405226642017e-01
-2.038910821187638611e-01 2.422346833781960640e-01 4.808590591683640225e-01 9.219394355125602432e-04 4.138267851005522635e-01 9.103551735235093645e-01
-2.679528652047801218e-01 2.928871006717020942e-01 5.661350545615804197e-01 -1.086195209783956785e-03 4.153888251463344061e-01 9.096433059851066760e-01
-2.189387662311901572e-01 2.538329131313735720e-01 4.184452666065269222e-01 -5.002704020096173602e-04 4.136218608784166251e-01 9.104486289368557417e-01
-1.487013535708627265e-01 1.768300845071458793e-01 4.789294394319164594e-01 -8.714496586696081652e-04 4.146458087513542057e-01 9.099824689852150650e-01
-1.739145063610686992e-01 2.340312105270689613e-01 4.839897293130389633e-01 -8.714496586696081652e-04 4.146458087513542057e-01 9.099824689852150650e-01
8.978742419734925262e-03 1.915885755367400245e-01 5.835199895413100135e-01 -6.334977440265303914e-04 4.157242804218552190e-01 9.094904734786058986e-01
-8.672422617255520771e-02 1.771269672111047133e-01 4.452103631270928896e-01 -2.883864856362135481e-04 4.163351090630771356e-01 9.092111931749798925e-01
-2.672817617970877357e-01 3.541828107396990388e-01 5.448159983415188368e-01 1.160857608712898123e-04 4.160066451393072962e-01 9.093615660033331771e-01
-6.380314678327235478e-02 2.090502924833797238e-01 4.395080633906081058e-01 -6.425700448885952507e-05 4.165472736358277750e-01 9.091140548344834871e-01
1.796720808682566659e-02 2.383642013974173746e-01 5.518843477085262350e-01 1.065227238433780743e-07 4.165992988747525549e-01 9.090902178425709357e-01
7.971105328369632037e-02 2.675919384402207779e-01 5.259569852106625865e-01 2.338636249397591286e-05 4.165800933956253504e-01 9.090990183910497846e-01
-2.288527330593650294e-02 2.352948009664901918e-01 4.209366002217178604e-01 -6.227503900372837908e-06 4.165969269047193890e-01 9.090913047954876092e-01
9.929415629096374762e-02 1.893598217154419949e-01 5.369500204572930091e-01 1.146147326004748156e-04 4.164768822523338687e-01 9.091462992350783923e-01
4.714746460677239626e-02 1.741704069089779483e-01 5.577380255280226518e-01 5.802462545134356267e-07 4.165708791380474119e-01 9.091032409214134802e-01
1.026814473385248422e-01 2.856212558316465477e-01 4.566500573089435910e-01 3.988261506313416213e-04 4.159941905661205253e-01 9.093671834594316827e-01
1.042049925210854489e-01 2.692304472049424913e-01 6.876032608500867171e-01 -9.342214276570994023e-05 4.163986386711492349e-01 9.091821407095043162e-01
1.521969684467553430e-01 3.269630720800305590e-01 5.249031904117383851e-01 -2.659660272681475595e-04 4.157424434373998556e-01 9.094823527626981763e-01
1.846757474418653233e-01 2.135148444499249676e-01 5.401437495974624747e-01 1.207838532026037732e-03 4.128904026598449462e-01 9.107799166195266194e-01
2.672552858246410312e-01 3.548377060977796482e-01 5.081819785449771532e-01 -5.213171354417346333e-04 4.142754821408555221e-01 9.101513902233000497e-01
2.966229527248780973e-01 2.413482349753509060e-01 5.308781026292784810e-01 -5.213171354417346333e-04 4.142754821408555221e-01 9.101513902233000497e-01
3.659444987824048701e-01 2.081459082384998494e-01 5.455209557361081485e-01 9.359583336913180392e-04 4.105870346290221851e-01 9.118209314204974714e-01
3.040513368984588682e-01 2.077220606694233362e-01 5.410089917600696685e-01 -9.138281950761952075e-04 4.120945684975013679e-01 9.111406211627753882e-01
3.924021514698167734e-01 2.345190199499053718e-01 4.738382062349994484e-01 7.570437991565909415e-04 4.072783170081506476e-01 9.133037826373514578e-01
2.622267549343668680e-01 1.642804219049593950e-01 4.998888330967404259e-01 -1.777070177467746396e-03 4.096313336513572323e-01 9.122494245065846386e-01
5.118654100433477350e-01 2.526504797285250015e-01 4.674630933176662229e-01 9.025751866071151470e-04 4.016252385361249178e-01 9.158036651645554693e-01
4.091361652880700639e-01 2.823506020858122523e-01 6.265481928476221984e-01 -2.097805310152272250e-03 4.065484686228980626e-01 9.136268066739597904e-01
4.846790011910332430e-01 2.021822713993909615e-01 5.332544239055503343e-01 8.718378200383003485e-01 1.665730340149518263e-01 4.605998696156108907e-01
5.863299479828198990e-01 1.872165983649890231e-01 4.668118161848528458e-01 8.718378200383003485e-01 1.665730340149518263e-01 4.605998696156108907e-01
5.596354318279501694e-01 3.594114528485898297e-01 5.549434823488946789e-01 7.833308184540916930e-01 3.008439620593291730e-01 5.439538025903374319e-01
6.070122634351838853e-01 2.441052317161792606e-01 4.830139390336155580e-01 7.833308184540916930e-01 3.008439620593291730e-01 5.439538025903374319e-01
-6.144765953776784029e-01 2.686488198385062476e-01 5.101517279601758270e-01 -6.128991135228268883e-01 4.320288944508705598e-01 6.615933123925086257e-01
-6.233259964326719471e-01 4.259012923199629319e-01 5.238978621193158824e-01 -6.128991135228268883e-01 4.320288944508705598e-01 6.615933123925086257e-01
-6.997487500223855683e-01 2.454238321332484762e-01 5.267731715642931523e-01 -6.410011304314313652e-01 3.899341284688236375e-01 6.611118863255190936e-01
-6.334029376746742601e-01 2.826853580645351527e-01 4.839997093645762583e-01 -7.970347864712119534e-01 2.596719300963871713e-01 5.452577719526850997e-01
-5.498004090182273540e-01 2.586900637124965874e-01 5.800156891749843613e-01 6.362145493234067084e-01 3.319404970875661776e-01 6.964528366102572532e-01
-4.336399305156493078e-01 2.199294435995060581e-01 4.798041599659064738e-01 7.865414911864379022e-01 3.074231356107442470e-01 5.355777238958624453e-01
-4.280025367440735695e-01 3.429041390029799463e-01 4.138502244439311584e-01 -1.627373587077258349e-02 5.090706252145583699e-01 8.605708942698834241e-01
-3.543615177098994318e-01 2.171621264541233609e-01 4.868344517924630965e-01 4.728684767602573877e-03 4.813164883616689038e-01 8.765341280130284352e-01
-3.736529389363175691e-01 1.680208309012634349e-01 4.163667410053165097e-01 -2.622508432938537842e-03 4.791839149229853434e-01 8.777106004421960650e-01
-3.754837111131856808e-01 2.593345183251686281e-01 4.491296896015022355e-01 2.294932637070873447e-03 4.747000324972925900e-01 8.801446542650024352e-01
-2.245007802901369809e-01 3.096515113255011165e-01 5.639656576133208477e-01 -1.040017766135455058e-03 4.734674735849215832e-01 8.808106889792821637e-01
-2.997051486494829997e-01 2.684111613520018258e-01 4.901119563812015301e-01 9.481092852055059529e-04 4.718629157757739945e-01 8.816714182757476870e-01
-2.473977845228242378e-01 4.032847538685276900e-01 5.399592801898044359e-01 -3.120691418644764886e-04 4.713860412095750019e-01 8.819269259783463211e-01
-1.637582013932972202e-01 1.740255016962277690e-01 5.698737366193620257e-01 2.030178808917830447e-04 4.709851491306762394e-01 8.821411157417472504e-01
-2.652091515958155954e-01 2.914019752746273562e-01 5.455778823106389730e-01 -8.696402190357761450e-05 4.708752383956129051e-01 8.821998086052466048e-01
-2.017529925868017382e-01 2.266656290489003633e-01 5.734766189195092956e-01 -1.657702271808671158e-04 4.709362587324191773e-01 8.821672249246985675e-01
-1.958506281672056371e-01 3.377431881014253401e-01 5.119432766880794849e-01 -8.515121367287909160e-06 4.709962212552974981e-01 8.821352274400583449e-01
-1.162887630795000765e-01 2.972634003142989312e-01 5.495559629389085154e-01 -2.235175427256188489e-04 4.711639974534267972e-01 8.820455983358317376e-01
-1.014680003943913555e-01 2.876168549196249091e-01 5.576813140482345110e-01 -2.235175427256188489e-04 4.711639974534267972e-01 8.820455983358317376e-01
-1.319371205389155977e-01 4.108542294593989230e-01 5.081725504891834166e-01 -1.533839364005871889e-04 4.713708653736454757e-01 8.819350791017833702e-01
2.048076318211411451e-03 2.279237637784062853e-01 5.078824136680873957e-01 9.435143564808074876e-07 4.714304134767767218e-01 8.819032629762888487e-01
-1.188183110983162885e-02 2.195615811104030257e-01 6.222856957070422856e-01 -5.076100485854053525e-05 4.714713992547465704e-01 8.818813509243133009e-01
-5.419630827048686761e-02 1.158693736352877368e-01 5.224892372537123242e-01 -1.525786425216632634e-05 4.714851115647867852e-01 8.818740212410942636e-01
1.810873794504239132e-02 4.106057376369791623e-01 3.996236359097872226e-01 -2.646129771771232030e-06 4.714750889360084796e-01 8.818793797939606938e-01
3.153335233222318013e-02 3.067228853086114149e-01 4.337258590634189281e-01 3.339185224871117733e-05 4.714890124990688824e-01 8.818719351343691226e-01
2.471572258901094665e-01 2.893512240008030423e-01 5.861466725387874943e-01 -2.733632101540362476e-05 4.715372831574116685e-01 8.818461259455939727e-01
1.008054849542492082e-01 2.593926490285970998e-01 5.152638998950330729e-01 1.300870604203136326e-05 4.715528751150677711e-01 8.818377888259760766e-01
1.528423382445610323e-01 2.984086263264735805e-01 4.658203228572416754e-01 1.497671959327511750e-05 4.715510185364085172e-01 8.818387815768671256e-01
9.365135839461297129e-02 2.533223631781444940e-01 5.146026259918599077e-01 7.478059928426461370e-05 4.715035558778741254e-01 8.818641568872058745e-01
1.141889575578301785e-01 2.611871714491672547e-01 4.538079937995261881e-01 -5.898284743459743560e-05 4.714518152316229949e-01 8.818918201433956217e-01
2.786851081837405930e-01 1.815645174813387552e-01 4.313194477901243218e-01 -2.094837022660923107e-04 4.710238842499933631e-01 8.821204320174357294e-01
2.157884768032716782e-01 2.450411703397635810e-01 5.997901915243410986e-01 -2.094837022660923107e-04 4.710238842499933631e-01 8.821204320174357294e-01
3.251191989121710035e-01 3.128362130877479497e-01 5.808036984437505712e-01 1.104422412795600739e-03 4.685302420594368855e-01 8.834467683606407329e-01
2.945424872368000990e-01 3.058755040368763556e-01 5.633721366643514861e-01 1.104422412795600739e-03 4.685302420594368855e-01 8.834467683606407329e-01
4.092016968599231364e-01 2.710574337590025973e-01 4.682537014257284746e-01 -1.207475881088534552e-03 4.676427964362009915e-01 8.839167138047149264e-01
3.763305471229388410e-01 2.950992618647819699e-01 4.421720338090902591e-01 2.349681789188358925e-03 4.643900649932856672e-01 8.856276568236910451e-01
3.640537319682561890e-01 4.555864315100301432e-01 4.525276891240358479e-01 -1.915854610884803284e-03 4.629187658778041725e-01 8.863986381415985827e-01
4.358601690336530998e-01 3.340343706186260642e-01 5.097654814350934815e-01 5.497070386910069689e-03 4.507912353519998860e-01 8.926124827420793828e-01
6.063992397992293837e-01 3.218247117369026911e-01 5.423080596696978617e-01 -7.850999883697824533e-01 3.014887931016086431e-01 5.410383682290035301e-01
5.227220121843151324e-01 2.776681696749424000e-01 5.717794792823457373e-01 -7.856829003623330143e-01 2.888675953738226165e-01 5.470446896014786731e-01
4.238464176721618570e-01 3.271126912304782586e-01 3.226823912735401478e-01 -6.187886458496170139e-01 3.576472123159553651e-01 6.994205339352165263e-01
6.138149355722077871e-01 3.593294710282183280e-01 4.271211457911708864e-01 3.720637823842627978e-01 4.705909054547905424e-01 8.000704603603088216e-01
6.984375386981778178e-01 4.048769513828581745e-01 4.764725877547308919e-01 6.201657271616465295e-01 4.169606527936570162e-01 6.644834722368598845e-01
5.830660685905093565e-01 3.488625794531194924e-01 4.932308367716109476e-01 7.849141318268160195e-01 2.810954758769502182e-01 5.521731060999498508e-01
-5.458878524594270587e-01 3.568465578955369311e-01 5.675600703620153897e-01 -3.073546813051373783e-01 4.968940959410810265e-01 8.115598297714797793e-01
-5.425149528181616443e-01 3.214141767402262095e-01 4.458923090731626293e-01 -2.746741295724028920e-01 5.247840854659971965e-01 8.057020455387088331e-01
-4.943596806627547635e-01 2.812264129646434574e-01 3.857527534548957360e-01 1.486455575189721823e-01 5.734558858552758487e-01 8.056381602231952321e-01
-5.053593200427879406e-01 3.145910264548232860e-01 5.952960851411840393e-01 1.486455575189721823e-01 5.734558858552758487e-01 8.056381602231952321e-01
-3.431009130134023977e-01 3.785730442153157904e-01 4.282326397294572429e-01 5.241985947260408008e-01 4.417355059977906007e-01 7.280697604131900480e-01
-3.572085521670363972e-01 3.717282605216355451e-01 4.341440518656303205e-01 7.476310785665785108e-01 3.281702366629962730e-01 5.773664920394386835e-01
4.737397838159167485e-01 3.404090639656875417e-01 5.396896598962421798e-01 -6.863187683349911694e-01 4.255882762922099660e-01 5.897806094759020512e-01
4.799855991765530350e-01 2.964212692454474274e-01 5.845398832520961596e-01 -7.183837351620696587e-01 3.700708143963211127e-01 5.890436328377015585e-01
5.994279251262590869e-01 3.346763754774771393e-01 4.882766181830593410e-01 -4.567782854745927046e-01 4.819043092948734341e-01 7.477444982090623027e-01
5.337695103823354437e-01 3.720646854588132713e-01 5.844382149416185168e-01 -5.507760833464377809e-02 5.848072566611193235e-01 8.093002716029640276e-01
5.113272372800350407e-01 3.144725420029927943e-01 4.974980609912339480e-01 1.077456976594895199e-01 4.810720921245250636e-01 8.700347733365615399e-01
5.600861418861675656e-01 4.971975275010578899e-01 4.840486653017585517e-01 3.590314407831514676e-01 5.157490689890874558e-01 7.778813035200575765e-01
6.665217651578542180e-01 2.731005963563623018e-01 5.707937529619094841e-01 6.180315565010758849e-01 4.218184828194319613e-01 6.634049764063953969e-01
7.065237519856507609e-01 4.284682840293538852e-01 4.032355292654751233e-01 6.180315565010758849e-01 4.218184828194319613e-01 6.634049764063953969e-01
-7.843982617662030865e-01 3.930038834760091748e-01 5.546354697067623629e-01 -5.215845294671840326e-01 4.833551116850504648e-01 7.030771043267081133e-01
-6.405984314451553807e-01 3.758532390876070939e-01 5.127142668739582687e-01 -3.562772709128591564e-01 5.860453320443405056e-01 7.277481535668256507e-01
-5.531266770709066805e-01 3.880806148482850437e-01 5.440219233573961866e-01 -2.506948253292183917e-02 6.238618400386293228e-01 7.811324635355690882e-01
-5.420328876033803089e-01 3.829993315798024822e-01 5.574812605877833560e-01 1.379635292666606949e-01 5.156669076465294488e-01 8.456084820710780825e-01
-5.549275669712417924e-01 3.191072038098384245e-01 4.967688348495683526e-01 3.337973955339793575e-01 5.844136607594667687e-01 7.396215058071602400e-01
4.154941228208369752e-01 3.486015832317900243e-01 5.382215371974670148e-01 -6.831324276362154002e-01 4.025039142821710825e-01 6.093608826462211248e-01
5.003272062820393051e-01 2.160122057265587148e-01 4.428737183367214003e-01 -5.643075909107656551e-01 5.370832402628340496e-01 6.269757059641649644e-01
4.518478225523762104e-01 3.955616910227543470e-01 5.289944020553336568e-01 -4.589070202456146386e-01 4.876031977153027497e-01 7.427297411219657697e-01
5.726784589064903841e-01 3.240690911662218454e-01 4.555620581672178426e-01 -2.262671236538339181e-01 6.139145002738356505e-01 7.562487521357952325e-01
4.769315548845121100e-01 3.286343645677958225e-01 5.275230701282334067e-01 1.503322088111116173e-01 6.160402206082721266e-01 7.732364926637154134e-01
6.540537670614899879e-01 4.462734607447314539e-01 5.514924427093588211e-01 1.503322088111116173e-01 6.160402206082721266e-01 7.732364926637154134e-01
5.205804499756777615e-01 4.435712633693910112e-01 4.549520288333064322e-01 3.640368928927188441e-01 4.976313784912631544e-01 7.872992771201433593e-01
-5.051742549875455346e-01 -3.985261722029452280e-01 4.861108461682827064e-01 2.257555452514675709e-01 -5.188200994680791656e-01 8.245363170753273740e-01
-5.587860074861877857e-01 -3.120152737583377078e-01 5.132621127019170171e-01 1.198186376173323298e-01 -4.418823041498624593e-01 8.890351642982041724e-01
6.044546305129232522e-01 -2.732901498900233705e-01 4.858181420512159843e-01 -2.726846979595547449e-01 -5.081491689378794252e-01 8.169623477287364377e-01
6.046311941631741238e-01 -4.095068958245253743e-01 6.149135650836414779e-01 -1.059160858309262654e-01 -4.302856625152245429e-01 8.964574900105917177e-01
4.675936851401253924e-01 -2.405292386538911975e-01 7.637736556861364212e-01 2.548621278487883668e-01 -4.445742068586584494e-01 8.587194363611334591e-01
-5.729819033196654754e-01 -2.273068433747281736e-01 5.548555916490127693e-01 -2.989349466569128366e-01 -4.063489724844265849e-01 8.634340798393814742e-01
-5.983310068972621520e-01 -2.343732327861982045e-01 6.483909885405061413e-01 -2.949070813384567225e-01 -4.223649063525107827e-01 8.571100858456092153e-01
-4.916312264106187935e-01 -2.819581912966082071e-01 5.380963759339502106e-01 -2.970571585216231214e-01 -4.255637176853054315e-01 8.547821750369628546e-01
-4.603458491570171507e-01 -2.399126056818131347e-01 5.269396460855404474e-01 1.171328234824410564e-01 -4.522506800263607074e-01 8.841658351682253336e-01
