-4.849406890375371204e-03 -5.304837356767101442e-01 6.310233250093069679e-02 8.593075825642956245e-01 4.362284800202818613e-01 2.670115948169685671e-01
-7.739442796642920230e-02 -4.672181068325311770e-01 1.108744466661797240e-01 -1.598236424336906270e-01 8.776177639602156244e-01 4.519330301058986366e-01
-7.387033807132657726e-02 -5.016266342311809234e-01 1.126967549103097405e-01 3.814471360773262210e-01 7.488429981002252545e-01 5.419707063805865310e-01
6.156431854551336347e-03 -4.987722310428151506e-01 1.958760273225271242e-01 4.768014406155518178e-03 8.486338776473045797e-01 5.289591739897536726e-01
1.688932809902802396e-02 -5.761089650578842258e-01 2.885943154131982435e-01 -1.844465526108326203e-01 8.789096114809995530e-01 4.398833528065113629e-01
3.070888905405494071e-02 -5.264750527373395217e-01 2.981646018180184599e-01 4.242668752618117267e-01 8.872846385282935344e-01 1.808966245878947388e-01
7.967057384206557846e-02 -6.441367266730897434e-01 2.996493185338757193e-01 3.918339029649176575e-01 9.060156187638440661e-01 1.600059094010229943e-01
8.747782797195952087e-02 -5.470183005631895634e-01 2.323703026424362994e-01 3.439442468368250072e-01 9.250578485903215853e-01 1.611531316149173998e-01
9.552492948780463844e-02 -6.072332653403647029e-01 1.928301379678548644e-01 3.606481086754167453e-01 9.023993815383442030e-01 2.358141172789668949e-01
6.233356226668013145e-02 -5.811317132569073785e-01 2.447765022322447304e-01 4.090924482333663237e-01 8.612851378634226451e-01 3.013822823160235975e-01
1.759443403409360063e-01 -5.973898381293406556e-01 1.727882417401221671e-01 4.066673091060816203e-01 8.391051961526647673e-01 3.612812886021314340e-01
1.846740633174367430e-01 -6.535366402585010004e-01 2.704347269513450724e-01 3.870969022652416824e-01 8.369692381205409148e-01 3.868313362391613275e-01
1.366974713121055784e-01 -5.788538980863159322e-01 1.670300798229923944e-01 3.821157766750716833e-01 8.371218928793865421e-01 3.914261995294128771e-01
2.179116401943627102e-01 -6.964646860114087623e-01 1.949140190468036105e-01 4.004427274062550279e-01 8.165604545346019094e-01 4.157819694956529921e-01
2.973020671761936740e-01 -7.000449430660579120e-01 2.691361139662394875e-01 4.409053781942711692e-01 7.770509901033796352e-01 4.492151002122746761e-01
2.838695655892773950e-01 -7.411161836227502242e-01 2.231893747755267776e-01 4.931136897849923706e-01 7.346655795210239592e-01 4.659456783935960189e-01
1.430013189509822535e-01 -7.444495062424661969e-01 2.264206427562246715e-01 5.210933525558094637e-01 7.092968634010050621e-01 4.747206309943174385e-01
3.095745605876680795e-01 -6.540405152394555000e-01 2.788623279308836134e-01 7.831242326966753042e-01 9.660955088425296489e-02 6.143150908460465187e-01
2.386158869911737535e-01 -7.699213767749722992e-01 2.367610763394654705e-01 8.120400165620709210e-01 -2.119761259662392705e-01 5.437436284888464977e-01
1.494738636560256906e-01 -6.732648036569909289e-01 1.582109402665247133e-01 7.969685848800325267e-01 -2.378828399148889827e-01 5.552052135817401313e-01
2.730178907499903884e-01 -8.046564640900942811e-01 1.626832941440020941e-01 7.900452807701512370e-01 -2.760392846404133849e-01 5.473853922676615857e-01
3.336221646143010533e-01 -8.246222491674992661e-01 2.178580762613094857e-01 7.492283853218767442e-01 -3.717927294579400077e-01 5.481122083571833281e-01
8.815539886343454201e-02 7.493804255802360981e-01 7.165002141021459270e-02 1.220841808824064817e-01 7.661212704755082648e-01 6.309941772340414978e-01
7.047927589546335025e-02 7.396649070229879275e-01 1.334089742759282382e-01 1.750670915719177989e-01 8.034292122973534234e-01 5.690808503857812672e-01
1.339546389740200460e-01 6.972942574069209698e-01 1.547905609223250989e-01 -1.244342766184279858e-01 4.742034907525369269e-01 8.715773976879832574e-01
-1.811869268515915177e-01 7.010125420472929081e-01 1.757957033300530658e-02 -1.055885256019191143e-01 7.063306892965609540e-01 6.999628708860620163e-01
-2.056598917671513815e-01 7.506666848586055485e-01 1.529658475565034703e-01 7.283967029501360602e-02 6.454685216758563326e-01 7.603057082232765884e-01
1.092981659845666254e-01 8.915316527067611574e-01 1.708507444112729035e-01 3.774935978869918829e-01 5.974862354866357084e-01 7.074664528854656131e-01
-3.344334931633552443e-01 7.851848196607430497e-01 -1.359232970413840058e-02 -1.672404666708215970e-01 8.402932499347010031e-01 5.156916524648270661e-01
-1.931051950259800032e-01 6.751478761877017787e-01 1.896120868767594003e-01 -2.084073753120197978e-02 6.316019845948595002e-01 7.750126429388042304e-01
-2.006916809034369753e-01 8.355234989217397157e-01 1.656170030331782783e-01 4.468027306713842073e-01 5.331739947673095337e-01 7.183959988533227259e-01
-4.066984477450031471e-02 7.389010720677527955e-01 1.094795322712360103e-01 -5.168567223729720883e-01 1.064913006052874492e-02 8.560056802187836489e-01
4.485420706988243328e-02 8.607760512877687953e-01 1.824167823128488575e-01 5.052578996926406774e-01 4.341835860426963567e-01 7.457875491111969346e-01
-2.666225923443071300e-01 7.741150777284900864e-01 7.460363347725584848e-02 -4.248516886130812020e-01 9.011761570373842956e-01 8.592192194047532094e-02
-2.626542613074461241e-01 7.232704513235990174e-01 2.130598137446493290e-01 5.878065533840398649e-01 3.913627268069935772e-01 7.080386090214080275e-01
-2.410591212709541076e-01 6.836619326349578918e-01 1.162699819576972077e-01 6.911579176753850362e-01 3.702472093738273795e-01 6.206591148009662495e-01
-3.622830251431231607e-01 8.074766674788420584e-01 1.425565985334308894e-01 -4.007827189879564211e-01 9.136520626116801935e-01 -6.791995764164712734e-02
-9.904361670252967431e-02 7.194887702447970712e-01 9.627050560372402144e-02 8.018764114070368043e-01 1.810293928260729990e-01 5.694054616545188852e-01
-1.726994016662324050e-01 7.027704209883736119e-01 1.752841915417817920e-01 -1.033958699082482974e-01 -2.961902358597137130e-01 9.495160021122781568e-01
1.108544535005750453e-01 7.659511009057831110e-01 1.674933379110871701e-01 9.802519898682876542e-01 -1.554580397397775371e-01 1.222245238875080964e-01
-2.149224468352970985e-01 7.608227294669915874e-01 -2.671806721754943492e-02 3.389448464307754927e-01 7.506411234248624442e-01 5.671457439684074453e-01
-9.568002304771519584e-02 7.115483769770268863e-01 1.555724061029055694e-01 1.308203281278153170e-02 7.260857714516828487e-01 6.874796818182337121e-01
-5.787541492073637606e-02 7.059413063345048034e-01 2.053836089743111271e-01 4.843956372354972229e-01 3.541727572340878094e-01 7.999515764472375778e-01
-2.484783201524266849e-02 5.872387574606878768e-01 1.225947727710974683e-01 1.177106732393276844e-01 3.223420679704596670e-01 9.392762046501932360e-01
-7.078063388830105329e-02 6.647298949539083290e-01 1.506028489017560146e-01 2.637311762965605100e-01 2.700379307681825547e-01 9.260266640846098740e-01
3.882461197251513979e-03 6.455739426565701988e-01 1.304539757901863883e-01 -2.347689342501282916e-01 8.808667414036752685e-02 9.680517988981516275e-01
-2.971800808044830489e-01 7.240029412594994884e-01 1.424769127004548164e-01 -6.387123931722684667e-01 -3.548223044122069125e-01 6.827500355911854113e-01
-3.262307579259775547e-01 6.316240474950794992e-01 2.161054714919898312e-01 -5.859403404345979727e-01 -4.391367177546614542e-01 6.810527590216854943e-01
1.898094778556586038e-01 7.272914943372235097e-01 1.259031353230781469e-01 9.941896718560905288e-01 -2.301991645664749550e-02 1.051521745900102778e-01
1.357402653129373971e-01 6.497600130652502193e-01 1.445085328005726033e-01 9.549227875405724708e-01 2.446041481617498570e-01 1.682001205047347347e-01
-3.030853539542272546e-01 6.032193479679690551e-01 1.207523894238006074e-01 -3.400918186827535661e-01 8.562236487583707589e-02 9.364861800892344545e-01
-3.584796782190103892e-01 5.290402520553708632e-01 1.563134634307732362e-01 -2.118044515189758392e-01 6.244221452816540729e-01 7.518216934876266189e-01
-1.388722255952084053e-02 6.192344279913386540e-01 1.442841185320270503e-01 2.287022301649274947e-01 -6.359647427757819660e-01 7.370509723646810896e-01
1.817796328255637944e-03 6.262591785003347455e-01 8.528616988512402464e-02 -2.636736458711560482e-01 -6.015404257226401041e-01 7.540724929968186663e-01
8.001387083126432209e-02 6.340709006864561070e-01 1.098684648312876488e-01 -2.289005886382656230e-01 -5.715884042086400996e-01 7.879665073436026290e-01
8.970046447261675882e-02 6.443397523561460449e-01 1.576962302036270247e-01 3.432334342867555677e-01 -7.263681832157571350e-01 5.954662643673104272e-01
9.917395704669138001e-03 5.754951188818993035e-01 2.060152918909313735e-01 3.973391650314068158e-01 -7.277672695714230144e-01 5.589958758995453580e-01
-4.029827673243515651e-01 6.080187992814154452e-01 1.966978680337914676e-01 -3.669411216690257049e-01 7.869904278700947664e-01 4.959841526390964539e-01
-8.076393077243965157e-02 5.912208632833346744e-01 1.040525819190973866e-02 5.762829854849390587e-01 -6.084296307500828282e-01 5.456292743849832094e-01
-4.648357871591681650e-02 5.421102651747771173e-01 1.667497751284470753e-01 8.012396153503118512e-01 1.644852946226093571e-01 5.752909408692247206e-01
-3.297195964518799816e-01 4.987791452296019279e-01 1.060134874990321385e-01 -5.517529553541721254e-01 1.763391748767212108e-01 8.151522383344930178e-01
-3.980468018558173116e-01 5.411391762936204053e-01 5.813645565406394544e-03 -6.610633503509827369e-01 -8.860861231962825074e-03 7.502777698699074627e-01
-4.391260259268705002e-01 4.251014818768644732e-01 9.933094430832356547e-02 -5.788385308834479437e-01 2.044963557414471861e-02 8.151857258131893769e-01
-2.095711624805820725e-02 5.480576899635454247e-01 1.379075068735568232e-01 6.769103195557654162e-01 6.415429872713190873e-01 3.608531761837542318e-01
-4.109464576943911984e-01 4.933062581796117119e-01 3.796456816748425278e-02 -4.734474444212115607e-01 4.035099869529152339e-01 7.829605403851983558e-01
4.586936871375082991e-02 4.927259114495127768e-01 2.977069635501611300e-02 7.620039706885750608e-01 5.271248563362924272e-02 6.454233823725086250e-01
-3.340433597380634834e-01 4.508021860865507047e-01 3.900024126253842649e-03 -3.018039894935148348e-01 -3.309575690725003599e-02 9.527953729949231176e-01
-2.617954934595512900e-02 4.052845408809090388e-01 1.802416960537814583e-01 6.357494301350580246e-02 -9.475919603359677090e-01 3.130937612400913617e-01
-5.753728638682834018e-02 5.137782306290906709e-01 1.574203914323923925e-01 -1.404965964958064181e-02 -8.905324371886579327e-01 4.547027439751821776e-01
-4.319403753320240624e-01 5.221213406137523716e-01 1.443480170275152907e-01 -8.615313501460318893e-03 1.561379233925864751e-01 9.876976892004569741e-01
-2.953151579764324297e-01 4.360127618891403434e-01 1.471658422926285792e-01 -1.410645552397256086e-01 -2.964073905335596892e-01 9.445863910157208387e-01
-3.584115359966160708e-01 5.312567567882874320e-01 9.349870986798441974e-02 -5.118620542464623613e-01 -2.728959076804349793e-01 8.145704763824080930e-01
6.763056028121307295e-02 4.923241688691444296e-01 1.069698432165265140e-01 5.981159507600246616e-01 -5.234084136972060319e-01 6.068780288636310694e-01
-1.753019580355756613e-01 3.642340235210167476e-01 4.940364818856908535e-02 4.763766752825380757e-01 -6.530027945729838246e-01 5.887721235984501034e-01
-3.914688523584926028e-01 5.265142396575150929e-01 1.467866610029421037e-01 -1.946863318944497614e-02 5.301438857392019033e-01 8.476841585962749948e-01
-4.159674386312083860e-01 4.139428799563071304e-01 7.828941963811589244e-02 -2.526488828985612098e-02 4.694488751638608570e-01 8.825981186401242740e-01
-3.611064028522421032e-01 5.552987588619344717e-01 1.381994474130416872e-01 1.728578746892428797e-01 1.070905379243518030e-01 9.791076405814587158e-01
-4.400340183842894604e-01 4.996935063251503051e-01 1.859607085033359031e-01 -2.823407504760544473e-01 -2.265905626660621730e-01 9.321697364382175444e-01
-3.080459257188141731e-01 3.479718457465759696e-01 1.655580227999573217e-01 -5.164168365010053385e-01 -1.987711464623197199e-01 8.329487873286982591e-01
-3.387027968100873587e-01 4.790878794355437065e-01 1.606220565539148715e-01 -4.238719207784531935e-03 -7.694428964149266914e-01 6.387015440846264269e-01
-2.297778382893010396e-01 4.304652958178563638e-01 1.554126202055740036e-01 -1.595054395517958301e-01 -8.178218296460412207e-01 5.529244701654919547e-01
-4.669100798271688113e-01 5.121269679720512613e-01 9.828228492549001549e-02 -8.402241622053613357e-02 5.414524660409011370e-01 8.365222415397511879e-01
-3.667230431795314161e-01 5.481355383591425268e-01 1.217591275230018172e-01 1.593461383763221939e-01 5.683383436498250507e-01 8.072176505267506519e-01
-3.419275664821738725e-01 5.259632772536427803e-01 9.053197088723055619e-03 2.323147363095430795e-01 -3.206787001204332577e-01 9.182565189436429076e-01
-3.866099658661313887e-01 4.493775524203116878e-01 1.216192265463203331e-01 -1.688671125579528365e-01 -8.029941848855676190e-01 5.715629775766642995e-01
-3.276215786626940352e-01 3.944354418968057385e-01 1.469639077107340597e-01 -1.731224779604066677e-01 -7.395749234614321654e-01 6.504287356904409068e-01
-3.920721091174546591e-01 4.406623715351047910e-01 6.584469402600698351e-02 2.633406771373111247e-03 5.935207546229106512e-01 8.048143754932731708e-01
-4.297604910218036922e-01 4.671098315813049240e-01 1.446393121185695074e-01 2.702601030646602509e-01 5.103018774440324368e-01 8.164260349649408166e-01
-3.602392866710367181e-01 3.650160755884411801e-01 1.560120948657637840e-01 -4.435986961434421061e-01 8.546387145665385043e-02 8.921413136131958188e-01
-1.946569078309446643e-01 4.665959273737285140e-01 1.099586295692994709e-01 -2.713711553006429300e-01 -6.289755821406517455e-01 7.285241335341078317e-01
-1.516853116476722108e-01 5.189045982727097384e-01 9.640573652653966485e-02 2.077458744086238818e-01 -4.747269944203306724e-01 8.552636625245080282e-01
-1.014218556782763014e-01 4.293635905995050739e-01 1.464885950953820626e-01 5.304066237300731901e-01 -1.695142963519491730e-01 8.306224875571140975e-01
-4.450532867810262361e-01 4.044261908554129814e-01 1.670255155026902361e-01 -5.012796393982610343e-01 4.020234308060285366e-01 7.662218244135960976e-01
-3.638200395441134050e-01 3.688311373242353364e-01 1.348974285265630846e-01 2.105159283350203914e-01 4.634203458174351864e-01 8.607697874575368502e-01
-9.543706712142140114e-02 3.661439844575806180e-01 1.412378246998957643e-02 -3.044978032141784086e-01 -5.896126363791233116e-01 7.480895847823303413e-01
-1.362515728262163328e-01 4.884016332851451869e-01 1.932835510665740220e-01 1.388641281139007810e-01 -5.709923358647731595e-01 8.091257666808394644e-01
-3.307075686547900073e-01 3.651175394075420466e-01 1.081665660001083495e-01 3.630341219947895715e-01 3.289448475591488785e-01 8.717806567777014459e-01
-4.380886078994780108e-01 4.596228333342046724e-01 1.880317009965717379e-01 1.101735782238432715e-01 1.913453692822847385e-01 9.753198102753684040e-01
-2.458764628991812473e-01 4.774927785930139779e-01 8.399683260098980697e-02 2.153565779123237933e-01 -6.321247983256215175e-01 7.443384873105013400e-01
-1.631745396075087451e-01 4.208835609253423482e-01 1.967657143064069081e-01 5.985818544516560008e-02 -4.541301062911070052e-01 8.889222936765845962e-01
-1.335544716557003908e-01 5.500094654294055418e-01 2.067882387010413214e-01 -9.753608251841339172e-02 -2.608341039204601919e-01 9.604437947318791302e-01
-4.567862599917101030e-02 4.156758557247846597e-01 1.018597408162361523e-01 3.030403385791568746e-02 -1.064234351134999146e-01 9.938590030736658143e-01
-5.332776778415420083e-01 4.186134506078180162e-01 7.318177011994439485e-02 -5.946396802965973061e-01 1.648150035013606629e-01 7.869178262294016513e-01
-3.166789322488492986e-01 4.618695417693751137e-01 1.193001372012043315e-01 4.109568694740544093e-01 2.401257432765570854e-01 8.794623805757503243e-01
-2.707425245384390555e-01 3.851776820208616114e-01 1.938867848022437501e-01 3.648342081966254175e-02 -6.176923821411663962e-01 7.855730908388262046e-01
-6.523060419322201930e-02 4.445954560720601911e-01 6.065060134547092807e-02 -1.865064628679452552e-01 -1.120370161047562346e-01 9.760445923884984998e-01
-1.616226361867033334e-01 3.977283013299887093e-01 9.746934322103309456e-02 3.055840133761177912e-01 -6.931063524618263916e-02 9.496391138799598064e-01
-4.469038404372199791e-01 3.799354839685505913e-01 1.857511075330168238e-01 4.600150915976781718e-01 -2.990968505898301821e-02 8.874071930303766287e-01
-5.503777420548539023e-01 4.105441416550200673e-01 1.983878656556611331e-01 4.180670749885688209e-01 -6.316129521308876116e-02 9.062177285826554796e-01
-1.186260913601062394e-01 4.091500938622563699e-01 2.281681122209925916e-01 4.957093955816250369e-02 -2.109748800559292925e-01 9.762337434942041092e-01
-2.350570322761126874e-01 4.279998142111932080e-01 2.197321950992218442e-01 -2.239241512558095282e-01 -3.804654595883934232e-02 9.738636633661650333e-01
-9.872334407280691781e-02 4.662803061211022726e-01 5.217067899490811234e-02 3.313671784348715815e-02 -8.182553523898387915e-02 9.960956478739453335e-01
-4.693872128732407556e-01 4.339240292991499159e-01 1.295243241889041386e-01 -6.192520113816583072e-01 -7.260357558411498734e-03 7.851587314727477285e-01
-4.736099822185093067e-01 3.568548666817065729e-01 7.227819307577570962e-02 3.452748171252284504e-01 -3.210056060255004340e-01 8.818960831976414561e-01
-4.377946070183454941e-01 3.953404850806510606e-01 2.049162848538143011e-01 -3.498410167232488543e-01 -2.344644137821373653e-01 9.069937715816146495e-01
-3.499558054841701571e-01 3.945621768392471584e-01 8.377417153770413960e-02 4.103950248259584654e-01 -3.035855869058529111e-01 8.598905250211388296e-01
-1.395160466621142292e-01 4.478499235461833594e-01 1.620318928364191113e-01 -2.417902565947314675e-01 -4.260121057662020518e-03 9.703191862394704437e-01
-1.505761016900094285e-01 4.845994408089954741e-01 2.132963404676753161e-01 2.638879603482749414e-01 -5.256243982576574991e-02 9.631201037787499031e-01
-6.103410676028120374e-01 3.707879224574285315e-01 1.336306010769317265e-01 -3.878584990430828383e-01 -2.306228365452012707e-01 8.924006342354829924e-01
-5.362082041089960560e-01 4.283911127527774143e-01 1.247337176865561809e-01 -2.413249544551733239e-01 -3.874520149628562504e-01 8.897433351581967020e-01
-4.164003166822108915e-01 4.062901634182037869e-01 2.328964370631591563e-01 2.573340820549941399e-01 -3.937237016796799605e-01 8.824742585189462307e-01
-4.011733967703037806e-01 3.157067908431666625e-01 1.023551439742182434e-01 3.771286825972669510e-01 -3.708650169896019477e-01 8.486654794061981866e-01
-4.334542398848810207e-01 3.395922717979334426e-01 2.395528315146562559e-02 3.589010691397162556e-02 -4.604580732647999830e-01 8.869556150061690403e-01
-3.744203855597290076e-01 2.987420415649896244e-01 1.379213552377515084e-01 3.035996677049426218e-01 -3.448576359577747996e-01 8.882006826675281630e-01
3.359991328660719145e-02 4.083339046550082951e-01 1.155510732154157588e-01 -6.085138027546475176e-02 2.567537522427538743e-01 9.645592880833387950e-01
-1.636326954915946486e-01 4.667018710667979464e-01 1.971507870322866118e-01 -1.150165714400028932e-01 2.998167476184424585e-01 9.470380700593223899e-01
-4.167501524209984987e-03 2.983571368194013473e-01 1.314083376575970741e-01 3.987254656650751627e-01 3.827690738791673097e-01 8.333701693196449156e-01
-2.369010743411504860e-01 2.659947311018003857e-01 1.917025795264184207e-01 -4.733645807277510609e-01 1.617108457650855702e-01 8.658958228761594045e-01
-4.013760962360490153e-02 3.144971076708059643e-01 1.005796047225448048e-01 -4.752972539512480277e-02 5.056645619583786111e-01 8.614199184969576484e-01
-1.679374585070170581e-02 3.399221438609435486e-01 9.832434134149112270e-02 9.588847206848872401e-03 5.126955732785734021e-01 8.585169207125732393e-01
-7.266001793888983429e-03 2.718054367300840046e-01 7.475584660632651757e-02 1.013544806572368034e-01 5.347313353664198132e-01 8.389217295004030017e-01
-4.124463276283620028e-02 2.912568314145254078e-01 1.279651896535397571e-01 2.703623262721631115e-01 5.454789578100334158e-01 7.933201870110101472e-01
-1.132541658837390997e-01 2.910777751157603843e-01 1.126265611853109333e-01 -2.491051969124717658e-01 2.360037981968172993e-01 9.392810059337273199e-01
-3.249467621429688591e-02 3.714365124045981847e-01 7.128329134977054449e-02 -5.795898494090288844e-02 2.899183400618496886e-01 9.552947776264673063e-01
6.862328990772728621e-03 3.607608075808160786e-01 1.789826762652067249e-01 2.037494969301303915e-01 4.216150018284517409e-01 8.835875354111292213e-01
9.545568546868107851e-02 3.038349577086507103e-01 1.530503519322984340e-01 -1.613526898778950072e-02 4.814835174824754205e-01 8.763066104323271599e-01
-1.290551546584369491e-01 3.510098142368764940e-01 2.401941172211000952e-01 -6.130195203700409268e-01 1.498779610389839312e-01 7.757213832556646427e-01
-1.328689360203768322e-01 2.779152649806667652e-01 3.967514431489871374e-02 -5.969976646399370868e-01 1.905422439756664921e-01 7.792864952475300200e-01
-4.697725004444562591e-02 2.834315536698289728e-01 8.449018491651832941e-02 -1.063761743600924042e-01 4.148790563081689586e-01 9.036368065574544861e-01
-5.212395300454217978e-02 3.460716766679592937e-01 1.467490453392038541e-01 9.755463199905640981e-02 3.184976075860171396e-01 9.428904325198724790e-01
6.834456813024039623e-03 2.841329392679274313e-01 1.094718112014029243e-01 -2.162084515114617855e-02 3.250691321090367070e-01 9.454430698909520592e-01
-1.873408400082262823e-02 2.881459341684354247e-01 8.134927939814873277e-02 -9.958461228845907898e-02 3.263564968384993770e-01 9.399863520108469039e-01
4.474066900804518632e-02 3.793187078025238579e-01 6.123542196854504793e-02 -8.547492585049185077e-02 3.742110862841009911e-01 9.233959605461387055e-01
-4.177982321491053447e-02 1.835243753278912315e-01 1.161846576090887762e-01 -9.500354750559961148e-02 2.683097487031457784e-01 9.586366385196248840e-01
6.032942186644971866e-02 3.833605468438158748e-01 1.343371490892865394e-01 3.787384786505049172e-01 3.376072116507886078e-01 8.617299666547988402e-01
-6.183667138395929075e-02 3.105507672007676856e-01 1.437900361066057064e-01 -6.791367450197394184e-01 1.134730601982035653e-01 7.251876627282405341e-01
-1.128719507009694895e-01 3.174429872822858711e-01 2.817197056767302421e-02 -6.075689488623777779e-01 1.311013954033153350e-01 7.833724506909653940e-01
-9.718187245954121312e-02 3.146762567732425131e-01 9.583110518042034509e-02 -5.626358705185582898e-02 1.982822312495566563e-01 9.785287760422560766e-01
-4.529355560202605324e-03 2.626529672511197511e-01 1.157540518182497286e-01 -1.235918009274345614e-01 2.276377552037089913e-01 9.658706534258765242e-01
1.375062374030988632e-01 1.582802979575469726e-01 1.549503023256933454e-01 4.229456382486533883e-01 3.111497331987529424e-01 8.510598278715686416e-01
-3.201657563723128708e-01 2.370188476649657539e-01 1.807543956401330698e-01 6.463447673900665769e-02 2.606158895771777950e-01 9.632765659542285031e-01
9.047272819436466551e-02 2.448561479560853182e-01 3.283277314828016158e-02 4.746557181118948310e-01 2.708433575098239676e-01 8.374639245701794854e-01
-4.275486547813200366e-01 2.583282240118531803e-01 1.433337244948510725e-01 -2.243198088664579565e-02 3.856604623401910792e-01 9.223680469427869566e-01
1.360975422665691159e-01 3.297372129112207673e-01 1.267735658147177980e-01 4.172616199168739937e-01 2.560726992369882216e-01 8.719630228684178697e-01
4.427600415167556869e-03 1.495494601406112123e-01 2.014798879505164675e-01 4.532435875056695651e-01 2.506632059390471734e-01 8.554169787731298324e-01
-3.360859547282955551e-01 2.139266920124617832e-01 -6.822036801730022026e-02 -1.981856623788358085e-01 4.473560984333914692e-01 8.721209574490890182e-01
-4.461626061999465209e-01 2.957847280438284931e-01 1.076200378984931982e-01 -1.881731030288871440e-02 4.047523521880933006e-01 9.142327068264242129e-01
-4.450514218353819329e-01 2.939427387665801139e-01 1.431323335492815096e-01 5.804750686635714446e-02 2.518927224012151855e-01 9.660127035126941930e-01
-3.504670968474757897e-01 2.454455463685698835e-01 7.663958826217445730e-02 6.572511313844119074e-02 1.599290138594284816e-01 9.849380285220435960e-01
-8.275676008825755270e-03 2.515425887171016672e-01 1.053273725334258754e-01 4.861389163970157856e-01 2.044526763547401538e-01 8.496281875595459443e-01
-3.925629748177578149e-01 2.540058871865862877e-01 4.732654029385312267e-02 1.660193261921460994e-01 2.599047886380158046e-01 9.512555304300387427e-01
-1.805085291045040730e-01 2.647360007190731057e-01 1.366422529598423363e-01 -6.290995907203129622e-01 1.140321327081995628e-01 7.689150653131685553e-01
-4.034856406494011227e-01 3.082470194558562526e-01 6.459250818741386901e-02 -3.974558531390065541e-01 3.064832247412767052e-01 8.649259377297761064e-01
-3.592579255133617755e-01 2.136690207659069918e-01 3.440761336552292105e-02 2.178761035012532210e-01 -4.685862652092533109e-02 9.748508976472677334e-01
-4.089553644998045745e-01 3.587603443357226252e-01 1.655180277268258338e-01 6.527130060769374686e-02 -1.654961276220422162e-01 9.840481131830337569e-01
1.350004570365352374e-01 2.323585536115244654e-01 8.370645392129703877e-02 5.125147730642640731e-01 1.636600582588309816e-01 8.429377158020645577e-01
-4.627483243556115844e-01 1.824220817120754679e-01 1.090948464246834643e-01 -6.824699989719952287e-01 1.971542152926297475e-01 7.038216506299819208e-01
-1.604629540137171018e-01 2.118694497205504679e-01 1.430065670133003064e-01 -5.904307694149339980e-01 6.443239047324023083e-02 8.045122581949841756e-01
1.517424218648651957e-01 2.762474820589355118e-01 7.161586756015475563e-02 5.837458259063846855e-01 1.285823877265983572e-01 8.016903269364047402e-01
-3.952834262421475175e-01 1.588080909927796769e-01 8.836858561891983155e-02 -7.206884208844015482e-01 3.265429715905075053e-02 6.924896366590596042e-01
-3.684352116555741352e-01 2.206354979022338569e-01 1.243416829997458783e-01 6.120877377022521104e-01 -3.091757284493327762e-01 7.278454302201556869e-01
-4.214723668846601101e-01 3.149225713194777621e-01 2.030944562195358405e-01 -6.584996715324716865e-01 -4.163158299882577934e-02 7.514286352599551799e-01
-1.701768313442706682e-01 3.015643918942680357e-01 1.545750256095295427e-01 -4.969740819948882948e-01 1.041168147176630282e-01 8.614966341886577395e-01
-1.011333628003636687e-01 5.546607358608915406e-02 2.750623853855407863e-01 -5.538746686319473422e-01 1.017841515813473902e-01 8.263551524221989242e-01
6.585646810229095482e-02 2.306591283817792937e-01 1.966308692993001817e-01 5.546236324977855681e-01 1.114999016876133259e-01 8.245971126547884111e-01
1.894008925761218876e-01 1.170330974904729010e-01 1.143577745545547308e-01 5.704566849264054440e-01 1.107961517186282774e-01 8.138202402171615946e-01
-5.765691596419986187e-01 1.838468492950573185e-01 1.653023507688741733e-01 6.705399724101354098e-01 -3.485043712755322431e-01 6.549204902902803216e-01
-4.108283306450404293e-01 1.005972404318374730e-01 6.463703029468974293e-02 1.829294153033685644e-01 -4.373132289873452594e-01 8.805077902945716017e-01
-4.162150032848251913e-01 1.742171933509238102e-01 9.610783380545782906e-02 6.100100883103874994e-01 -4.127991495382164477e-01 6.763760450371365529e-01
-1.066025440704605476e-01 1.994056948974504140e-01 1.073915721294599057e-01 -4.754955614376015216e-01 1.383281433680225714e-01 8.687745943600652110e-01
-3.816622334977790021e-01 2.257708167104517938e-01 6.529051470196289841e-02 1.110172519119282386e-01 -3.634742541858290710e-01 9.249657487290969815e-01
-4.770112574074635292e-01 1.581317354702233280e-01 2.253741033240053704e-01 4.384146336701846280e-01 -4.965446600201510741e-01 7.491568658093646915e-01
-7.857253151821670667e-02 2.373618256225847323e-01 1.199502561808600959e-01 -2.683905782525387584e-01 9.412707605003579892e-02 9.587004699381024286e-01
1.533069353090490139e-01 2.093760412855399655e-01 1.040985910477601473e-01 5.816636162230676144e-01 8.364075321424770115e-02 8.091178294686486305e-01
-1.472808273205197804e-01 1.764901678467386270e-01 1.604540018797678269e-01 -4.639895402760118026e-01 1.655556281077564251e-01 8.702327507720571953e-01
5.834189082143158289e-02 1.247938373024475855e-01 1.379216688335660745e-01 5.745086948167759111e-01 7.171233707245483480e-02 8.153509062308884614e-01
1.539973047719655486e-01 2.551476663627337826e-01 1.404532278600468809e-01 5.745109283182723292e-01 6.305642310180904764e-02 8.160643851734264986e-01
-2.872038352731783872e-01 8.083235952316583650e-02 1.515569177475873941e-01 -5.135816914575279668e-01 1.661704802854202800e-01 8.417964229440140222e-01
2.117771695307233693e-01 9.650860488258994341e-02 1.221279085156373734e-01 5.670635746020605827e-01 6.108446860955603352e-02 8.214058619551124485e-01
-2.052620474506925141e-01 1.010451744412424885e-01 1.718347845822211784e-01 -5.117026434477336405e-01 1.666058588496690807e-01 8.428540161175989143e-01
4.087713309062496192e-02 8.916675601022133746e-04 1.022139587364252478e-01 5.811983414497156053e-01 6.305568492446220197e-02 8.113152707146629172e-01
-1.377997578243119747e-01 1.792537849260101290e-01 3.988407233681638686e-02 -5.461059139637172155e-01 1.378659180166397491e-01 8.262937246423224247e-01
-2.727115401256029470e-01 3.638628782142852569e-02 1.704948891594480487e-01 -4.829644491770470616e-01 1.362863474637635575e-01 8.649690007891021049e-01
2.065752851671049384e-01 1.889526635253148124e-01 1.793920985327766282e-01 5.745087229662128037e-01 4.490575846689892625e-02 8.172656851307559256e-01
2.353122485985678636e-01 1.855894844601035654e-01 1.422038997538416227e-02 5.502104513026455646e-01 3.181577748668402289e-02 8.344196879150543866e-01
-1.615959119564521207e-01 -2.940844159277251901e-02 5.278772649926796734e-02 -5.213359893747031570e-01 9.028615381296815900e-02 8.485618401815866463e-01
1.500395227853011104e-01 -2.043631988506619535e-02 1.878703082554213921e-01 5.514017280611603899e-01 1.275455946469207470e-03 8.342388791606963894e-01
-9.594357443382993400e-02 6.954620485115925455e-02 2.084571581331069456e-01 -5.351786000311659075e-01 3.284662267752430642e-02 8.441000920787544715e-01
-1.722324075203994220e-01 2.236245054664398046e-01 1.964068351832003456e-01 -5.863797281073162004e-01 -2.497020080706028114e-02 8.096513468996670015e-01
1.130447009745164655e-01 1.565450179002461639e-03 2.526237065051691044e-02 5.573679324647510258e-01 -6.367169358510614552e-02 8.278205743372007985e-01
-2.750167916299697812e-02 2.911592129067343965e-02 2.280382654032657164e-01 5.367979037682837351e-01 -7.915995121632413145e-02 8.399891145922103730e-01
-2.260394870146040514e-01 2.556355990144720119e-02 1.292855210348766992e-01 -6.346357310181957034e-01 -1.840252819065044398e-01 7.505812311363987410e-01
-3.004116400314258972e-01 -1.115229949675117516e-01 1.976269514828009055e-01 -5.928184647191265810e-01 -2.042350732746253672e-01 7.790085382924670787e-01
1.850114057381923860e-01 7.004549799431793178e-02 9.245187192712100988e-02 5.762256982816003070e-01 -1.122542610947848685e-01 8.095448878882169907e-01
8.781729799019481753e-02 -6.997090704080789411e-03 1.952433021515034006e-01 5.512649029620338981e-01 -1.011793941016295301e-01 8.281725285056771302e-01
-2.227764332210094567e-01 3.890309244653439649e-03 1.734518527696992107e-01 -5.415239327422461946e-01 -2.909138887148816077e-01 7.887464355673224903e-01
1.101215273149168949e-01 -4.816942375167947155e-02 4.410915570480729297e-02 6.920445014893867874e-01 -3.050829943986630571e-02 7.212098526944800136e-01
-2.049214766671849097e-01 2.059097742456079613e-02 1.383938645256785616e-01 -5.362940110275055128e-01 -2.897076083967096150e-01 7.927535779629686363e-01
1.847766443087041355e-01 -9.790239722517245224e-02 3.500158980475966131e-02 5.742183496266289877e-01 -7.684449335797365055e-02 8.150878546467410501e-01
-1.839237836643082824e-01 -8.839355127663536121e-03 9.311889823133152888e-02 -5.114110024249594044e-01 -3.066336879390680337e-01 8.027668204526046125e-01
2.020865083691222863e-01 -9.493577898376437396e-02 1.233162878388739947e-01 5.766720087248767834e-01 -3.659226494378471639e-02 8.161558677725104793e-01
1.917942177621411726e-01 -5.512063046335100719e-02 1.236133188558592166e-01 5.384378517738455106e-01 -3.337452098441000964e-02 8.420040505402734965e-01
-1.128045902605515627e-01 -7.714580446919830359e-02 4.839307473413999305e-02 -4.980999895525137222e-01 -3.072253565815648013e-01 8.108692747176426963e-01
2.265273548400150161e-01 -4.640086440531092371e-03 1.137550397258077356e-01 4.973275030879423242e-01 -3.272387412402449208e-02 8.669455015943203779e-01
-1.068246444287962171e-01 -1.843610663334809552e-01 1.320484735566987144e-01 -3.842918297783493031e-01 -2.336580197883134924e-01 8.931538049822170811e-01
2.053360260273368876e-01 -1.098391219611208336e-01 9.343927033433654938e-02 4.467640134150256959e-01 -8.289686166620106877e-02 8.908030234811696868e-01
-1.766861450027686353e-01 -3.144599195006817643e-02 4.084868270832082982e-02 3.422546832426600488e-02 4.413905338695123803e-01 8.966621514976372831e-01
-1.704936209642935740e-01 -5.216679470547318231e-02 1.226825865009144173e-01 -3.882124965032652253e-01 -1.820094343590014097e-01 9.034177457649472665e-01
9.113657751112563821e-02 -5.555722912951364945e-02 1.808636360734269255e-01 4.173820505539784231e-01 -2.953551152036341942e-02 9.082509991376759295e-01
-1.245568311952849339e-01 1.172335387066349155e-02 2.326333469997197700e-01 -2.926345146578721579e-01 -5.675489339526092886e-02 9.545385916277268068e-01
1.052240987711499376e-01 -2.837761263963867187e-02 1.675178608388470380e-01 2.810746866496834917e-01 -1.024891823912321837e-01 9.541975623619874947e-01
1.736004540107807803e-01 -1.545585903157008500e-01 1.607243313398832585e-01 3.057472983528369270e-01 -9.390122414124327591e-03 9.520663921969880761e-01
-3.956784987320229874e-01 -1.782520452842076830e-01 5.396014414442185103e-02 -2.818753278842118792e-01 3.854381083348512038e-01 8.786260661814101480e-01
-2.071212658989895206e-01 -6.496197082692713176e-02 1.750004794301543432e-01 1.887006700528977843e-01 4.130471306879523463e-01 8.909456352393432255e-01
-3.052628581324887680e-01 -1.302453199340198597e-01 2.574038387990236765e-01 2.537228816729126257e-01 3.987765746525993027e-01 8.812502157866022312e-01
-1.800137322493384762e-01 2.839805150842508730e-02 1.940338637202715932e-01 -1.384933868153085668e-01 1.229086889494055146e-01 9.827069939657312458e-01
-1.963597055844593653e-01 -1.388339472595625512e-01 9.847706513850834620e-02 -3.250870970288883277e-01 -2.796936386706840461e-03 9.456799440044072469e-01
1.244660869647970514e-01 -7.972901260140248525e-02 9.995054401639107133e-02 2.118056906597604039e-01 -1.778871801931235508e-01 9.609862124542064565e-01
6.999454747346206540e-02 -1.571322182605420226e-01 1.535865814345005465e-01 2.521709377739143054e-01 -8.159302938288158502e-02 9.642366907032468015e-01
-1.389860501542314886e-01 -2.775700468357503170e-02 9.006937371140158466e-02 5.619113839054506315e-02 2.773301430569455883e-01 9.591300994747212760e-01
-2.102373314337928067e-01 -1.508763646635505606e-01 1.205402602588999533e-01 -2.748778058432980176e-01 1.355914274436034461e-01 9.518703465591205060e-01
-2.067814603954511721e-01 -9.260577732063694778e-02 1.494847140172169131e-01 2.653777360741886859e-01 3.602291632323563197e-01 8.943207518295964720e-01
-2.339136877881533572e-01 -1.276565039578669292e-01 1.435498341294073055e-01 -1.617103605184280202e-01 2.737198026468025680e-01 9.481177294724508764e-01
8.713585590877137577e-02 -4.733836288731755465e-02 9.025515379926446480e-02 1.269615845350443306e-01 -3.172468819320329314e-01 9.398059224950401358e-01
7.969936547615609490e-02 -9.194609228897757114e-02 1.935449710117218558e-01 1.773528811922475967e-01 -2.918114320375275739e-01 9.398893784190860412e-01
1.091390495082251166e-01 -1.844767622968089826e-01 4.392609334990031644e-02 1.788202048957759083e-01 -2.357800295509288602e-01 9.552126004120735647e-01
-3.186889967331801299e-01 -3.866239352103328919e-02 1.062902884979107510e-01 -3.794347563157612346e-01 3.362397223524565826e-01 8.619583022466584810e-01
-1.019700747456888518e-01 -2.343818948606650743e-01 1.187958006079134626e-01 9.489261066693381597e-02 3.722303188970478849e-01 9.232767635625928060e-01
8.039542252578346648e-02 -6.567753381515419042e-02 1.129025794740055461e-01 1.218959885259563308e-01 -3.356032000910176283e-01 9.340834331417875447e-01
-2.894009560147010052e-01 -2.284613317084878137e-01 1.226638031081790370e-01 -4.986359165453587150e-01 3.006943016435126292e-01 8.129853379305743699e-01
1.251275362467034746e-01 -1.030438395323063500e-01 1.714315737803036033e-01 9.655254764770070108e-02 -3.945423720193743100e-01 9.137909619951731788e-01
1.045808516630117868e-01 -1.350903688525558755e-01 1.287851244671854023e-01 1.093530205019744017e-01 -3.723623691574327044e-01 9.216225816149246075e-01
4.040220583027144541e-03 -1.500798943376053518e-01 9.760024508842599089e-02 9.024923005464376147e-02 -4.323913460493589711e-01 8.971581802202817091e-01
2.241561493416772965e-02 -3.985444825096010057e-02 7.865831332578190893e-02 9.315881090620735383e-02 -4.247052059256960499e-01 9.005259152351772212e-01
9.721193765036995060e-02 -1.675164693570187213e-01 1.325290535420625970e-01 1.204966413058968372e-01 -4.499552126576892297e-01 8.848846625612694083e-01
1.460713815274679028e-01 -1.921592330955158023e-01 1.451013532349643698e-01 1.112008424872240331e-01 -4.075258341903027492e-01 9.063978525446921841e-01
-3.591640287862075676e-01 -6.440661316711374096e-02 1.516227002064206297e-01 -5.486816562552460086e-01 2.487830371479531899e-01 7.981575286348180365e-01
3.399994320667162895e-03 -1.396657251424214818e-01 1.022616399929220099e-02 1.249496472553496690e-01 -3.959833211027107280e-01 9.097168763187979401e-01
-1.363566149234921032e-02 -1.606910731758073863e-01 1.357088278084214727e-01 1.157978367918690576e-01 -4.245998586884304760e-01 8.979453329663719119e-01
-4.495847862099943693e-01 -1.477427592404241541e-01 4.983619003321490548e-02 -5.633006014455246291e-01 2.274492538032288347e-01 7.943294463605542477e-01
-1.059178937886165739e-01 -2.482839075772889648e-01 1.268471816917068895e-01 1.673282269405668432e-01 -2.285300612365602224e-01 9.590491518061731169e-01
-3.328689462169977242e-02 -1.774573634123967070e-01 2.949806276400938065e-01 1.408776883771259425e-01 -3.651882883840715244e-01 9.202124705439661545e-01
-1.316103123370901407e-01 -1.878598740548911294e-01 1.588221471240096050e-01 2.312158367702228656e-01 -2.164348762519353875e-01 9.485226308151298857e-01
-3.763295348020693765e-01 -1.491855354160813718e-01 8.503677026099182301e-02 -5.882401760046349626e-01 1.982593632222034163e-01 7.840068368507779883e-01
1.601399700999026066e-03 -2.547611376690434581e-01 1.086885015149054307e-01 2.891705308684917597e-01 -1.463665143876530239e-01 9.460218007758824932e-01
-6.839172243050657685e-02 -2.034002264205095334e-01 1.660782039216671391e-01 3.341975561999273592e-01 -2.796317353072169110e-01 9.000656009642137301e-01
-2.672057843924272036e-01 -1.094247336751840854e-01 8.158026746666813267e-02 -5.917815471536680416e-01 1.940995890607136454e-01 7.823809493941382698e-01
-6.797478688003866232e-02 -2.608487982378757675e-01 1.368212338555790109e-01 4.401636193185348156e-01 -1.477060209039116057e-01 8.856855647559923606e-01
-4.380544025573497313e-01 -2.840416618522023651e-01 8.565572256312131705e-02 -5.899389205960573479e-01 1.938042888188911406e-01 7.838443516421884638e-01
-9.065754224671238037e-02 -1.942783780204101474e-01 1.717482067565695436e-02 5.138644558209135571e-01 -5.937357058560621507e-03 8.578508429995481688e-01
1.747708320373954349e-02 -1.380763034566408753e-01 1.065928265106376172e-01 5.863532827160168326e-01 1.280936643454809731e-01 7.998636390052358269e-01
-3.693423841307451605e-01 -2.209636770495083391e-01 8.145570905695259656e-02 -5.667692156784045476e-01 2.295274854697820222e-01 7.912583582959520356e-01
8.077993946137750070e-02 -1.483165508735908300e-01 3.831325553100706216e-02 5.943611249310133404e-01 1.971274691304132909e-01 7.796637827198197312e-01
-3.755561083380957177e-01 -2.022718460647601191e-01 1.841692710170936276e-01 -5.331901967536566422e-01 2.643601119732273408e-01 8.036304780701757355e-01
-4.541010338787787592e-02 -2.128334558707870028e-01 9.046500909274590718e-02 5.845070542429056104e-01 2.348609641489490807e-01 7.766542545169677902e-01
-1.634418125412180275e-02 -2.712308633528104362e-01 3.878548274432576382e-02 5.702321207442564432e-01 2.357460749297989877e-01 7.869301853574441896e-01
9.603674561256386744e-02 -2.346980330180230279e-01 8.590189564603455119e-02 5.672038570926560830e-01 1.302510160187211607e-01 8.132124306264043589e-01
-4.474374073542514846e-02 -3.371303084114158355e-01 1.551140776026412871e-01 5.758328421424704358e-01 2.922418153878682603e-02 8.170449712980998314e-01
-2.783945945227380148e-01 -3.343681557412255811e-01 1.587993487911675272e-01 -4.708327003689977697e-01 2.957674889064035861e-01 8.311667466695463746e-01
-2.046301143172864906e-02 -2.756233602378991288e-01 6.485365375517346265e-03 5.555028651103682824e-01 -1.021503754438860545e-01 8.252162550815665965e-01
-1.180329985687196201e-02 -3.363022221968141601e-01 1.398378836342662468e-01 5.604799405686071712e-01 -1.415834379128919629e-01 8.159757143009691571e-01
-4.012496326521873269e-01 -3.683142849094123150e-01 6.258282310372498269e-02 -5.262876463294383633e-01 3.339033553195380755e-01 7.820037484739916778e-01
-3.447622396941636969e-01 -2.725060685342019506e-01 1.993277362555258836e-01 -4.828277925969324258e-01 3.277117017636834717e-01 8.120851945597360455e-01
-8.288853380197724885e-02 -3.018129744267016856e-01 1.474380183836649649e-01 6.205891934765723761e-01 -1.207513202356804149e-01 7.747826608807386606e-01
-3.748477845767087535e-01 -3.217935280637805318e-01 -1.799078836562398309e-02 -5.060710103975121221e-01 3.609748677486516177e-01 7.833193967272128466e-01
-3.945931193711360585e-01 -3.681078573294371825e-01 5.365034877653918066e-02 -5.100193855397622267e-01 4.221499401698557419e-01 7.494462318193552131e-01
-1.309421512220928785e-01 -4.243397345831688150e-01 1.889869852145870666e-01 7.571410446397460747e-01 9.022797377167976474e-02 6.469902250195833648e-01
-4.731338385815009318e-01 -3.267472531493369470e-01 1.594241904119457209e-01 -5.079206992847633551e-01 5.966597684862320339e-01 6.212999950974029684e-01
-4.267556851268948237e-01 -4.353153682455410678e-01 1.927266971275337082e-01 -4.696225151509834661e-01 5.765575103964443171e-01 6.686076057514739324e-01
-6.477835612850298130e-02 -3.692504317737979602e-01 2.290578572380882472e-01 7.816191609429414822e-01 7.709790642228872559e-02 6.189728589139852355e-01
-6.668571606138234964e-03 -4.306084252057765238e-01 3.711153302766054263e-02 7.846786049709570943e-01 2.440128527246633594e-02 6.194223633175383048e-01
1.046874088158876726e-01 3.941863653012906976e-01 8.385000963767423598e-02 6.104098190504597676e-02 2.418042904571929830e-01 9.684031617278834325e-01
-1.956383711909570958e-02 -4.916910288762113557e-01 4.051129994743554730e-02 7.477409489623537686e-01 -1.236098251680753726e-02 6.638754998914313532e-01
-6.135761595603334007e-01 -4.937809121444028948e-01 8.936109992154259163e-02 -4.276883650994841579e-01 7.945915789130889584e-01 4.309372170965680704e-01
-9.195241281526683741e-03 5.437544898124954118e-01 7.238551679953245110e-02 -5.070508278468159602e-02 7.059833966826023488e-02 9.962152724265390669e-01
-3.955686733444854081e-02 4.911598437453636445e-01 1.800151538239179796e-02 -1.686719554345350591e-01 2.015147043787755832e-01 9.648531470483086014e-01
4.356242694816177263e-02 -2.624050432012247080e-01 2.248485942262313242e-01 6.651102096124225094e-01 3.520224014536106616e-02 7.459150161768215437e-01
-1.348871688084080367e-01 -4.604948900079373075e-01 9.010562517076667333e-02 6.167806613802494509e-01 -4.413231140492664822e-02 7.858969110751108378e-01
-5.660848708246265515e-01 4.329826111098841745e-01 1.290427168210204201e-01 -8.025221414958009225e-01 3.787297583165025738e-01 4.610010656978107413e-01
2.424300690387395582e-02 -4.881265622202274890e-01 1.810378725298028013e-01 5.497614502549403870e-01 1.529568310891801786e-01 8.211982438100685622e-01
-3.320537605626568134e-02 -5.911215633821905735e-01 1.015643103503622718e-01 4.706135934161707057e-01 2.332776117770581636e-01 8.509432422526846951e-01
5.560872490417067410e-02 -4.534311524980934038e-01 1.968849333791262979e-02 4.644207106825487541e-01 3.834686904722878764e-01 7.982888994070911348e-01
-1.289341491547311806e-02 -5.125716565805850111e-01 1.055397187910200180e-01 4.030861302550521330e-01 4.228320727240859611e-01 8.116246730304966794e-01
2.239602239508413362e-02 -5.041950597335499440e-01 1.301585136295588252e-01 8.345051781054496631e-01 2.248102469543428739e-01 5.030521449904760134e-01
3.080586818782297953e-02 -4.486287881082822726e-01 8.030837159480429255e-02 8.583353026780415895e-01 2.600991872595511678e-01 4.422769731328044518e-01
4.591670723464912063e-02 -5.551716504957382448e-01 -3.685710965015437379e-03 5.938554304260045269e-01 7.805127373051515827e-01 1.952833701521060616e-01
5.608214177971249104e-02 -5.369512794642575804e-01 1.106174157794453106e-01 1.477739055157196446e-01 9.585695284679638384e-01 2.435309671095989281e-01
1.234314574313863100e-01 -5.881605257660444952e-01 1.190470871234401845e-01 2.101126639956256426e-01 9.190229878876342573e-01 3.335407263929646149e-01
1.180873446730163756e-01 -5.991481777406584275e-01 8.372086924943958341e-02 2.686655658052511386e-01 8.858402300427945519e-01 3.782934054253035416e-01
1.760806546478013990e-01 -5.702719449494140225e-01 1.175774047303263514e-01 3.264529173338007739e-01 8.397852028374143130e-01 4.338079135511170858e-01
6.243275081121715808e-02 -5.942058909885621354e-01 4.839495845699132159e-02 3.504015050385320684e-01 8.338809681973393673e-01 4.264520091932964552e-01
1.393736090663834915e-01 -5.819118226897954660e-01 2.157209432165171359e-01 3.737198501291725261e-01 8.269936711805523366e-01 4.200177870599546837e-01
1.048479995750341009e-01 -5.361670825330010492e-01 1.454854500004509887e-01 3.936549209260061799e-01 8.204416866178719792e-01 4.146218060960630281e-01
2.877433239512077190e-01 -6.624117260348179048e-01 1.291157627240120676e-01 4.149566391247896946e-01 8.129761994487554322e-01 4.085103264008345669e-01
3.604286834727925548e-01 -7.375039197762196519e-01 8.084244029387707697e-02 4.601643279604868964e-01 7.911390288008295357e-01 4.029240975428916571e-01
2.837492336964194117e-01 -6.400850280155806482e-01 8.243109365193670990e-02 5.034082732821891781e-01 7.623362470245219624e-01 4.067229485332881089e-01
2.303389818222300323e-01 -6.299447334325929404e-01 1.490840611021339579e-01 8.990288873925728064e-01 1.872281681182628166e-01 3.958442530803654158e-01
2.235899289733537798e-01 -6.597795764179612554e-01 2.345558867768464117e-01 9.079591710620713574e-01 -4.092444698865416175e-02 4.170555518428558095e-01
3.894681330255629348e-01 -6.042585255885795092e-01 1.685750208767602398e-01 8.971727604713983784e-01 -2.913461124457892848e-01 3.319615649903710497e-01
1.769150444060455518e-01 -7.973207986862502761e-01 1.110937052153411764e-01 9.004842313202365833e-01 -3.058350917550333170e-01 3.091812507167811530e-01
2.861443981954247540e-01 -7.979489972927318320e-01 1.440473102467480782e-01 9.071367754072680034e-01 -3.130276081715943626e-01 2.812767093558845022e-01
1.469604493737781126e-01 -9.219518973703294540e-01 2.093747062806933235e-01 9.162600127379133541e-01 -3.106078748365463937e-01 2.529631142025316470e-01
2.479349861992049542e-01 -8.360446672311867555e-01 1.095131930727644420e-01 8.773008518724515481e-01 -4.074041427493413914e-01 2.537027389969314650e-01
1.038507935524660836e-01 -2.301420750784677616e-01 6.301157317232117250e-03 3.651551514504668416e-01 -9.139325264345768973e-01 -1.771695585988128929e-01
-2.050593611253857113e-02 8.164719662345769624e-01 6.106434711341476862e-02 -5.498766447495838545e-03 9.686801698523411774e-01 2.482508652601141674e-01
2.934469945261901358e-02 7.703581668868996202e-01 2.008223976796222054e-01 -6.548172810010061129e-01 5.314377275685635560e-01 5.373902401599890410e-01
