3.767417457751306431e-01 5.223363445193732746e-01 -9.229867246407309767e-02 7.500167629029309557e-01 -1.753770873793951135e-01 -6.377442532762869210e-01
2.816449529453428080e-01 4.367208472146356935e-02 -2.667401550075893524e-01 7.729079231075195455e-01 2.260195505363319646e-01 -5.928983936333233062e-01
1.273003880108826147e-01 -1.020092671169056664e-01 -3.742406574186020740e-01 4.831195678866944676e-01 -3.676760981636149062e-01 -7.946129686609408882e-01
3.024473059905097294e-01 -2.769723357345821313e-01 -1.781098005593959310e-01 -2.983579090416028090e-01 -7.410502509787028624e-02 -9.515729101690351133e-01
2.778104257426760038e-01 -3.535910958602385690e-01 -2.048846470081492066e-01 -2.983579090416028090e-01 -7.410502509787028624e-02 -9.515729101690351133e-01
4.817780991277822999e-01 6.320918586900028946e-02 -5.480620592663728585e-01 7.753929059710460425e-01 5.779238184740043485e-03 -6.314526441276342439e-01
4.749366245801427966e-01 6.818448866695490940e-03 -4.927386965140626574e-01 7.753929059710460425e-01 5.779238184740043485e-03 -6.314526441276342439e-01
3.784064251259246503e-01 2.238809752643797502e-01 -6.364045368905002498e-01 -4.197239141137087959e-02 2.494028721109438906e-01 -9.674898065313261020e-01
4.073379992427276219e-01 3.457086039502993424e-01 -6.614725802556381540e-01 1.069973067991347032e-01 2.567019093904058802e-01 -9.605496895283718306e-01
5.059422502967221291e-01 1.219499065686654588e-01 -5.868007046207360800e-01 4.025482463962372082e-01 3.495496114156467216e-01 -8.460319015749255822e-01
4.240664330115750946e-01 1.813210777668441964e-01 -5.423062816719338430e-01 -1.055035635482303455e-03 1.630360825195406316e-01 -9.866195430339343986e-01
3.920876681300684563e-01 1.664969978088450819e-01 -5.819481033984968965e-01 1.715858978470513052e-01 2.306629120267719990e-01 -9.577854147330449042e-01
4.814141816030172438e-01 2.041403900401101978e-01 -5.903899097363283222e-01 4.900567972691340368e-01 3.061403895150148768e-01 -8.161632173517218147e-01
4.439754632277028157e-01 2.018937098831790622e-01 -5.767361056757811522e-01 3.679366848196938267e-01 2.327928989962328166e-01 -9.002388917064308993e-01
4.573794928760552825e-01 1.377442630764261211e-01 -6.701216107470080452e-01 3.679366848196938267e-01 2.327928989962328166e-01 -9.002388917064308993e-01
4.833136166530168643e-01 1.417022091131350248e-01 -4.172653666705134490e-01 3.679366848196938267e-01 2.327928989962328166e-01 -9.002388917064308993e-01
5.376933464346186353e-01 6.001352936755657841e-02 -6.162458119533867906e-01 4.163081909011354109e-01 1.838064970629557926e-01 -8.904508194314099123e-01
4.429303673945559350e-01 6.780704022748294812e-02 -4.997934754961452231e-01 4.163081909011354109e-01 1.838064970629557926e-01 -8.904508194314099123e-01
4.467580998526924918e-01 7.936473003474139865e-02 -5.940557040236873476e-01 4.705958060035187462e-01 3.317504225542632773e-02 -8.817250160584360064e-01
5.082945742740674344e-01 9.235520055564339081e-02 -6.261362863459535300e-01 6.210681533928594789e-01 7.580009977615424777e-02 -7.800824916091301242e-01
5.173952956361306255e-01 8.849576087839669536e-02 -6.709378235528751233e-01 6.210681533928594789e-01 7.580009977615424777e-02 -7.800824916091301242e-01
1.097457520901735095e-01 -1.357352090283873713e-01 -4.122445972497071343e-01 8.791993146481720256e-01 2.690608539887999195e-01 -3.932109128355953942e-01
2.967207638831678707e-02 -1.702255372636338193e-01 -3.738587556233445852e-01 8.791993146481720256e-01 2.690608539887999195e-01 -3.932109128355953942e-01
1.553111089229835817e-01 -2.087630242440897399e-01 -4.686661545765949954e-01 9.059943571050520505e-01 8.589591896382740843e-02 -4.144829501911546643e-01
1.663349528674997746e-01 -3.525789171316329185e-01 -5.359784409938321836e-01 9.059943571050520505e-01 8.589591896382740843e-02 -4.144829501911546643e-01
1.344424727867862823e-01 -2.531355023451523634e-01 -5.153989144289932156e-01 9.059943571050520505e-01 8.589591896382740843e-02 -4.144829501911546643e-01
-9.114332414919928960e-02 -1.928341011938516925e-01 -5.176406548874747937e-01 -1.941801735811021778e-01 -2.710132543701764263e-01 -9.427862303532540400e-01
-1.365480212241770297e-01 -2.859026891175371343e-01 -6.194383367844641386e-01 -1.941801735811021778e-01 -2.710132543701764263e-01 -9.427862303532540400e-01
4.676436474184003100e-01 5.194122613229241736e-01 -9.333795630720934100e-02 7.085316176973652791e-01 -2.164280587126979072e-01 -6.716709329165643227e-01
5.072465181105587639e-01 5.751977992371909432e-01 -1.562242222019556981e-01 7.085316176973652791e-01 -2.164280587126979072e-01 -6.716709329165643227e-01
-1.672984163117975098e-01 -3.850171144903397624e-01 -3.734283269406535322e-01 -3.940921397509565272e-01 -1.144907027161919250e-01 -9.119118731423916380e-01
-4.371758508771768081e-01 -1.918261757359012165e-01 -2.147577730219845868e-02 4.778090369762348910e-01 -1.369841098329898088e-01 -8.677176256346913474e-01
-4.821821176482028459e-01 -2.844616140303066198e-01 -5.187626176174824771e-02 4.491674556771181881e-01 -3.627836317987128134e-01 -8.164781890898740180e-01
-4.167307942048988356e-01 -3.270847706435360824e-01 1.315587564884266453e-02 4.491674556771181881e-01 -3.627836317987128134e-01 -8.164781890898740180e-01
-2.984040517975341533e-01 -4.385135965333222252e-01 -6.249075251203608516e-01 -5.453326475600420720e-01 -5.078771959436534367e-01 -6.668381042993619667e-01
-2.218798622783437757e-01 -3.218146699414775602e-01 -5.062156706314463461e-01 -5.453326475600420720e-01 -5.078771959436534367e-01 -6.668381042993619667e-01
4.716174929572658492e-01 5.957008525713001212e-01 8.148049720210204239e-02 7.786419134216998605e-01 -6.104067142431698900e-02 -6.244924395819877461e-01
-3.681401644583585653e-01 1.099025844385154299e-01 3.805220236295274172e-01 7.076887551041344260e-01 -4.813985148249833590e-01 -5.171383720277007434e-01
-5.643727527399735600e-01 -1.126002405288883262e-01 -1.301622239466861397e-01 1.152393296157907671e-01 1.419827495645469839e-01 -9.831382383651825485e-01
-4.720082852788134442e-01 -2.170613176659654531e-01 -9.799366213003712911e-02 1.152393296157907671e-01 1.419827495645469839e-01 -9.831382383651825485e-01
-3.766075469746408277e-01 -8.653571578535827757e-02 -9.335285085043124043e-02 1.065541100494092203e-01 2.398630471369021522e-01 -9.649414180403795838e-01
-4.159414317433339225e-01 -1.979950191911415969e-01 1.019085861522418118e-02 1.065541100494092203e-01 2.398630471369021522e-01 -9.649414180403795838e-01
-4.918046721477272731e-01 -1.749485087485421753e-01 -5.982561283973179822e-02 1.175533276746528050e-01 -2.108763428261907491e-02 -9.928426495840004806e-01
-5.122070971100102232e-01 -1.227163910757578524e-01 -1.389586771563450229e-01 1.175533276746528050e-01 -2.108763428261907491e-02 -9.928426495840004806e-01
-3.515897412919101739e-01 -1.496579940721391722e-01 -1.911209709075934599e-02 1.299322234778062801e-01 1.201581677244746987e-01 -9.842152366384145923e-01
-4.488674292457545123e-01 -1.138551409906887191e-01 -1.008971428836403228e-01 1.299322234778062801e-01 1.201581677244746987e-01 -9.842152366384145923e-01
-4.196915287458090060e-01 -2.389539048906849372e-01 -8.668699011789787745e-02 1.299322234778062801e-01 1.201581677244746987e-01 -9.842152366384145923e-01
-3.623743483918528963e-01 -2.270368680722229526e-01 2.945132670890839022e-03 2.134256886501323114e-01 3.702365466364145874e-01 -9.040875925257235712e-01
-4.821582953066762545e-01 -1.566844893613568990e-01 -7.154250821276847416e-02 2.134256886501323114e-01 3.702365466364145874e-01 -9.040875925257235712e-01
-4.709924613656834014e-01 -1.656801343280620564e-01 -2.273401544011521488e-02 2.134256886501323114e-01 3.702365466364145874e-01 -9.040875925257235712e-01
-4.045579576640374042e-01 -1.250026205232686316e-01 2.620541983908183242e-02 3.095224317815243875e-01 3.335547183308452679e-01 -8.904701646339882037e-01
-4.656651227004225402e-01 -1.970428232451911787e-01 -1.301727389734146367e-01 3.703510619663227255e-01 1.148938166778114001e-01 -9.217589173908883327e-01
-4.718068087524739940e-01 -9.892734739219574691e-02 -7.570542978713730442e-02 3.703510619663227255e-01 1.148938166778114001e-01 -9.217589173908883327e-01
-4.531047712526702909e-01 -1.593861312251219908e-01 5.701236846669367753e-02 3.954745608228025233e-01 1.694809194984710499e-01 -9.027048740690193362e-01
-3.602150636433469888e-01 -1.348665968219893707e-01 -7.339478491825475459e-02 3.986710824488173821e-01 1.449904044646384838e-01 -9.055601308760610202e-01
-3.669301735365951833e-01 -1.773836557410999326e-01 -5.274412434402046823e-02 3.986710824488173821e-01 1.449904044646384838e-01 -9.055601308760610202e-01
-4.618684293881878400e-01 -1.549611253157219537e-01 -2.430948692193217811e-02 3.986710824488173821e-01 1.449904044646384838e-01 -9.055601308760610202e-01
-3.538130937795795905e-01 -2.318202726682075943e-01 1.587150629753740494e-02 3.986710824488173821e-01 1.449904044646384838e-01 -9.055601308760610202e-01
-3.789016007597956204e-01 -2.115835025803223246e-01 -2.914598299110258278e-02 3.508704860354646127e-01 -6.301334785639912950e-02 -9.343014609970196060e-01
-3.959325496207379280e-01 -1.460147470791471336e-01 -1.465864157384347000e-01 3.508704860354646127e-01 -6.301334785639912950e-02 -9.343014609970196060e-01
-4.504153389178928713e-01 -9.313594458628360329e-02 -5.982480112242685028e-02 4.487515115604923110e-01 4.351860326457153705e-01 -7.805351996305199824e-01
-3.896836793445178637e-01 -3.293250598205167690e-02 -6.544738138131302868e-03 4.487515115604923110e-01 4.351860326457153705e-01 -7.805351996305199824e-01
-3.805457187842986588e-01 1.946324940717449881e-01 3.659211548208680109e-01 2.167772841293606201e-01 -3.685339664577680918e-01 -9.039857989218652579e-01
-4.489310968875960262e-01 1.176179345218413830e-01 3.845181370193511139e-01 1.850059093451442843e-02 -1.668377310706130046e-01 -9.858107828717860288e-01
-4.692306845422534178e-01 -1.595596282436477220e-01 -4.137791490746577788e-02 5.478398092640827111e-01 3.124866866442640445e-01 -7.760306785530987073e-01
-2.893599740572045942e-01 1.265064784192342917e-01 3.416132441516305240e-01 4.164059284599282984e-01 -3.576459489473134412e-01 -8.358800619377164676e-01
-3.227195634335325858e-01 1.638399003971658940e-01 2.557431862929392397e-01 -1.860690740051118217e-02 -5.803117289928317879e-01 -8.141818471265117596e-01
-3.472006064832796612e-01 1.589177037582982510e-01 3.939273695841327694e-01 -1.860690740051118217e-02 -5.803117289928317879e-01 -8.141818471265117596e-01
-3.861298311759461810e-01 2.947741899320321934e-01 3.359469350946963084e-01 -1.860690740051118217e-02 -5.803117289928317879e-01 -8.141818471265117596e-01
-3.462191525821785576e-01 2.012283039591842293e-01 3.501240863929497849e-01 5.103585397831528897e-02 -6.321927062182339796e-01 -7.731285299438700465e-01
-2.870890409576887237e-01 2.230893367294222163e-01 2.713542791289456635e-01 4.965595467345916836e-01 -6.057960643932662759e-01 -6.216427791846104167e-01
-3.486271310540136059e-01 1.266147555050683993e-02 3.990087981536094563e-01 4.965595467345916836e-01 -6.057960643932662759e-01 -6.216427791846104167e-01
-3.387432806682798003e-01 1.968108826421763879e-01 3.210494276231962152e-01 4.548950453843557118e-01 -5.767743911374338950e-01 -6.785291441145379077e-01
-3.682282511397317326e-01 1.610008271967313942e-01 3.181910036808382469e-01 4.727632878671953476e-01 -7.691608679663464176e-01 -4.299842239364788932e-01
-3.667454878974358845e-01 2.652155888645950643e-01 3.854518576987038259e-01 1.914051989195252046e-01 -7.401167639978210033e-01 -6.446636529819026462e-01
2.405692323201099048e-01 3.596933062206935094e-01 -3.361849827091636378e-01 6.681788374227931593e-01 -6.367401844232140062e-01 -3.848363012516049508e-01
-2.203211736865939852e-02 5.272851431709298931e-01 -2.161761169031657104e-01 -2.823596092216708597e-01 5.726223393434150960e-02 -9.575980825195057333e-01
1.461716458561014009e-01 6.869821805918030488e-01 -3.169173929746972873e-01 -3.495311630968585548e-01 2.225629366187583114e-01 -9.101064252425601353e-01
1.508392713042702726e-01 5.900826007791005745e-01 -3.850132767659850686e-01 -6.925530354972755376e-01 3.053924005231629657e-01 -6.535333003957864983e-01
2.128079678903637695e-01 -1.535695811008353506e-01 -2.558640711164407167e-01 -5.976657877706702537e-01 -1.869941278001737567e-02 -8.015272534918240765e-01
1.682104109718430829e-01 -2.508877899053333915e-01 -2.767204386941322092e-01 -5.976657877706702537e-01 -1.869941278001737567e-02 -8.015272534918240765e-01
1.664236885189467052e-01 -3.353079753510415650e-03 -1.495189897813417323e-01 -3.990336393335041087e-01 1.144048620752686901e-01 -9.097712252065337513e-01
1.525427062205179651e-01 -1.014093236430414768e-01 -2.715723520149398440e-01 -3.990336393335041087e-01 1.144048620752686901e-01 -9.097712252065337513e-01
2.207057013864932860e-01 -1.770054683983142418e-01 -1.929397836296352642e-01 -3.538482969043950099e-01 -6.526692954638906030e-02 -9.330228350289427874e-01
1.624651112749007087e-01 -2.218028634395378118e-01 -3.177378548712189721e-01 -3.697842733493234557e-01 -1.035740173982918899e-01 -9.233266020772341598e-01
2.435846044864249105e-01 -1.690130704415658547e-01 -3.139346413796565982e-01 -1.082400932042416608e-01 1.727553485029343361e-01 -9.789993216477561599e-01
1.402830101529621842e-01 -7.813468800200891462e-02 -2.830578715815904034e-01 -1.082400932042416608e-01 1.727553485029343361e-01 -9.789993216477561599e-01
2.023159263956872678e-01 -1.411520287364242676e-01 -2.579727330006358343e-01 -1.082400932042416608e-01 1.727553485029343361e-01 -9.789993216477561599e-01
8.122288713331206333e-02 -3.953848528659517636e-02 -2.517332706679872301e-01 -1.082400932042416608e-01 1.727553485029343361e-01 -9.789993216477561599e-01
3.146111262139363873e-01 4.230270944382659160e-01 -3.136635349698594921e-01 -4.881667570249501042e-01 3.713990380935026647e-01 -7.897822306427034755e-01
2.262248918142749921e-01 5.313692300092626164e-01 -4.238050014900637263e-01 -4.881667570249501042e-01 3.713990380935026647e-01 -7.897822306427034755e-01
2.865684797792092953e-01 5.128458368238162368e-01 -3.638225213255350532e-01 -4.881667570249501042e-01 3.713990380935026647e-01 -7.897822306427034755e-01
2.753747231440584753e-01 4.755718021445536348e-01 -5.142109872592597331e-01 -4.881667570249501042e-01 3.713990380935026647e-01 -7.897822306427034755e-01
1.584896145289684255e-01 5.311738371215944943e-01 -3.890879340216263915e-01 -3.289352501204340640e-01 5.206799735289090458e-01 -7.878413332607918651e-01
3.832157890815863777e-01 4.516220090321107494e-01 -6.171848187126569574e-01 -2.252282299679537469e-01 4.130536156947368087e-01 -8.824165427886125901e-01
3.988204448835581117e-01 3.393468234309300335e-01 -5.714077842032538879e-01 -4.624472163653917667e-01 3.076649617571075579e-01 -8.315556766584533133e-01
2.400740533514733321e-01 3.288188884068043993e-01 -5.400502820344235122e-01 -4.624472163653917667e-01 3.076649617571075579e-01 -8.315556766584533133e-01
4.679847680306383206e-01 2.051432300407093623e-01 -6.890382403474335504e-01 -2.678638856546327607e-01 1.543146326890879327e-01 -9.510183662264539706e-01
1.318189300071149865e-02 7.583512141872328360e-01 -4.417121441091937939e-01 -5.146568479390813966e-01 8.199540657399871924e-01 -2.506065820082826190e-01
-2.854936634127963613e-02 8.374194585501975041e-01 -3.115171454503697923e-01 -6.931049687555531635e-01 6.148464218311322504e-01 -3.762570661765931579e-01
5.042782944703056228e-03 7.412374630298711464e-01 -3.796300803560652137e-01 -8.263068733763214713e-01 5.302408776820642933e-01 -1.898988221290534295e-01
2.100124967688028477e-01 6.258226385655542012e-01 -2.229064085404498796e-01 -7.426177726768021792e-01 6.085501328383564612e-01 -2.796168441402698268e-01
1.129635213029211022e-01 8.676301726351685895e-02 -2.299606351939574023e-01 -9.298135288359440365e-01 -2.947918831948034835e-01 2.203282714408438536e-01
-1.901940206678640055e-02 2.939337777229566462e-01 -1.573990076910891933e-01 -9.298135288359440365e-01 -2.947918831948034835e-01 2.203282714408438536e-01
1.572559478071464956e-01 2.359127588738890169e-01 -1.587417147877890899e-01 -9.889707662189735071e-01 -2.828290944572174268e-02 1.453853520735201299e-01
7.432038025540270432e-02 6.627948900980398794e-02 -1.961024518193124067e-01 -9.874558547589569191e-01 -2.308366122739247128e-02 1.561988459835638443e-01
8.854224233700543067e-02 1.835230463906531162e-01 -2.371870148470344442e-01 -9.874558547589569191e-01 -2.308366122739247128e-02 1.561988459835638443e-01
1.528266588305610962e-01 2.727249470112739216e-01 -1.439013396964402836e-01 -8.916486646845510622e-01 -2.539198843071289735e-01 3.748164232257056305e-01
-5.108999803013513086e-01 1.428431391150587759e-01 6.964394894967880223e-01 -5.064856241885798971e-01 6.621080507949306249e-02 8.597025309844270602e-01
-4.890837009503198884e-01 3.777735468872606139e-02 6.261650276059953502e-01 -5.064856241885798971e-01 6.621080507949306249e-02 8.597025309844270602e-01
-4.804571613466225855e-01 -1.623012236791744611e-02 6.412218474680521085e-01 -5.064856241885798971e-01 6.621080507949306249e-02 8.597025309844270602e-01
2.427903529495234747e-01 7.869096927630353511e-01 -1.917597537321534817e-01 8.482373971489608477e-01 4.233819201139078503e-01 -3.181840156240039463e-01
7.316074073929050570e-02 -2.492123850346731131e-02 3.756454261811176254e-03 -4.831855794400602422e-02 9.458045328175914701e-01 3.211216321892835235e-01
1.144171278455220903e-01 5.442378322615367692e-01 -2.382752328615835580e-01 2.039020546493023611e-01 8.709559545018372706e-01 4.470566825667482980e-01
2.600585456694447517e-01 5.475370318182253282e-01 -1.921802854262942284e-01 4.553897430857777318e-01 6.766960691143920625e-01 5.785348839416681876e-01
3.215428699754925290e-01 -3.719313914446031877e-02 1.928547367821466796e-01 -3.859600076069105157e-01 3.275645191593408168e-01 8.624015064434797928e-01
2.358222014175591075e-01 -1.948755464631279355e-01 4.531524966852867875e-02 -3.859600076069105157e-01 3.275645191593408168e-01 8.624015064434797928e-01
2.951130115162999834e-01 -2.472192040046719275e-01 1.872449393491422143e-01 -2.151804940570684332e-01 2.607299278877608373e-01 9.411255281209830459e-01
3.208093918578600046e-01 -8.365536076129929943e-02 2.278472102145079614e-01 -1.851023219141084974e-01 2.352734592828433224e-01 9.541402044663508386e-01
2.866077942788758937e-01 -1.718691919786844713e-01 2.530057175166202099e-01 -1.851023219141084974e-01 2.352734592828433224e-01 9.541402044663508386e-01
3.708021903487822013e-01 -3.657149543293224947e-01 2.770443038254549184e-01 -1.851023219141084974e-01 2.352734592828433224e-01 9.541402044663508386e-01
1.561789004068866449e-01 4.866371838374214387e-01 -2.579274313497141313e-01 -5.838056291006287202e-01 -4.707783616894180984e-02 8.105273991495102193e-01
-1.452298492495132654e-01 -1.039498625778257079e-01 2.537554550368730788e-01 6.011760839114308613e-02 9.979012001240339380e-01 -2.406383079108178474e-02
2.580001577928557333e-01 1.646435048048476846e-01 -2.491070571351857721e-01 3.983290186045831960e-01 1.364038734168340067e-02 9.171411738498487232e-01
2.516871006641612230e-01 2.869137299789420448e-01 -1.075797389165718126e-01 3.983290186045831960e-01 1.364038734168340067e-02 9.171411738498487232e-01
2.556096130092357921e-01 -2.864873599926945347e-02 -1.912313806850073905e-01 3.990278063701961364e-01 1.347365920490962640e-02 9.168398280239680176e-01
-2.174731356199374743e-02 2.532582905391698169e-01 -1.888526128422482742e-01 -5.402973007811502359e-01 2.465847845631811280e-02 8.411128260874533025e-01
2.271170901832423594e-01 7.854913704771775140e-02 -2.829498912536377864e-01 -5.978685135239955040e-01 9.827663099092370791e-02 7.955469466585124438e-01
-5.548743307023000781e-01 1.571370888875640026e-01 5.401635063813078341e-01 -5.843003955203562860e-01 2.431202703338680160e-01 7.742645426128863528e-01
-4.124562125508322574e-01 5.404128170587489677e-02 5.026310847754018596e-01 -5.843003955203562860e-01 2.431202703338680160e-01 7.742645426128863528e-01
-4.499746481506145535e-01 2.076524324389696363e-01 6.962763917576162420e-01 -3.069413174769190511e-01 3.450995314467354413e-01 8.869573501701063512e-01
-3.400130656695867781e-01 1.901087055330120401e-01 6.192874986354675038e-01 -1.380629827269010124e-01 2.242633485396288984e-01 9.646992087186265774e-01
-3.505057402673190659e-01 9.374458289305336034e-02 5.658561237501518182e-01 -1.380629827269010124e-01 2.242633485396288984e-01 9.646992087186265774e-01
-4.262593204108505729e-01 7.432448292203412687e-02 4.189361675224962944e-01 -1.380629827269010124e-01 2.242633485396288984e-01 9.646992087186265774e-01
-4.746579732485454728e-01 -1.552913301061099871e-02 3.596725395055743180e-01 -1.863201550001887530e-01 4.724207284675805418e-01 8.614542675933912763e-01
-4.999217011395457044e-01 -5.400691014670547935e-02 3.974800849082561482e-01 -1.863201550001887530e-01 4.724207284675805418e-01 8.614542675933912763e-01
-5.204121610382130836e-01 -2.143674220011446419e-01 3.640272641435014500e-01 -1.571338438246494273e-01 2.941218130464096081e-01 9.427625969538586670e-01
-5.164323399106384160e-01 -1.582231818816476621e-01 3.008753083717317089e-01 -1.571338438246494273e-01 2.941218130464096081e-01 9.427625969538586670e-01
-4.811558552032353941e-01 -1.374104414932446061e-01 4.115874972183273250e-01 -8.473295531931210323e-02 2.825023691384541125e-01 9.555170002224011583e-01
-5.224509156132980392e-01 -2.394458548389571950e-01 4.330511300714469103e-01 -8.473295531931210323e-02 2.825023691384541125e-01 9.555170002224011583e-01
-4.598768292533623181e-01 -1.189511398726966485e-01 2.978372517435594058e-01 -8.473295531931210323e-02 2.825023691384541125e-01 9.555170002224011583e-01
-4.596586792720300241e-01 -1.015798836697704155e-01 4.143086395054694782e-01 -2.959805654035635447e-02 5.057500986606567883e-01 8.621721363821553963e-01
-3.854003205001526045e-01 -1.803257241164742397e-01 3.384897717450030541e-01 -2.959805654035635447e-02 5.057500986606567883e-01 8.621721363821553963e-01
-4.857576993527731868e-01 -1.074793814584589363e-01 3.821606548129485859e-01 3.453047037762338456e-02 4.130917178590455818e-01 9.100345483836108640e-01
2.429144379404970799e-01 8.640158234235829626e-01 -1.130191851147597654e-01 -4.400730714651477915e-01 1.090815583674328432e-01 8.913119012979481282e-01
-2.752679941285939014e-03 -8.685616118318367773e-02 -3.360460868098382736e-01 3.802521575677471621e-01 9.242285124789785256e-01 -3.478438422579566147e-02
-4.089508193220522947e-02 -9.234037317704592296e-03 -3.208851190644911866e-01 2.930132483194209936e-01 9.554339366268095324e-01 -3.590583589194167036e-02
-3.727209348512031117e-02 -5.887173603109106812e-03 -3.203243048701546747e-01 2.930132483194209936e-01 9.554339366268095324e-01 -3.590583589194167036e-02
1.513302746816814343e-02 -1.211803162213770935e-01 -3.020770573974860818e-01 2.358362483527858267e-01 9.571733557350257104e-01 1.679298396171249874e-01
3.158490749015235854e-02 -8.628685398490085201e-03 -1.773160839929846799e-01 2.358362483527858267e-01 9.571733557350257104e-01 1.679298396171249874e-01
2.927979250470704731e-01 -3.405502429454469043e-02 3.851198531813053438e-02 -1.691393914936185350e-01 9.296619156446075394e-01 -3.272928181997997732e-01
3.222465932293563928e-01 -5.502480610390053650e-02 -4.642733705448047477e-02 -1.691393914936185350e-01 9.296619156446075394e-01 -3.272928181997997732e-01
3.806567536415575437e-01 -1.144466654515444437e-01 -7.671062959464759745e-02 -1.691393914936185350e-01 9.296619156446075394e-01 -3.272928181997997732e-01
-4.206404683870412775e-01 2.313701119702338965e-02 1.285577825757028836e-01 3.648714649521366815e-01 9.154015045507762904e-01 1.700261730730207588e-01
-4.998565849325917743e-01 1.114902210915359390e-02 2.069186679236218185e-01 3.648714649521366815e-01 9.154015045507762904e-01 1.700261730730207588e-01
-3.251201057276480455e-01 -4.342163513536044864e-03 2.300875333216364782e-01 3.648714649521366815e-01 9.154015045507762904e-01 1.700261730730207588e-01
-3.585923248475292868e-01 -2.146163103845496675e-02 2.393624224300766323e-01 2.419964856460539993e-01 8.905647364383625364e-01 3.851391321943655188e-01
-5.031361430157706982e-01 3.201062363677370515e-02 2.174695197931799662e-01 1.137495196321367114e-01 8.973146501626340088e-01 4.264826671588986540e-01
-4.207107487816660885e-01 -5.514960610531713034e-03 2.316807043124819165e-01 1.137495196321367114e-01 8.973146501626340088e-01 4.264826671588986540e-01
-4.978470325432989840e-01 -1.200080738231998206e-01 2.968686882690960149e-01 1.048463123567369149e-01 8.625100919454107284e-01 4.950591803789853307e-01
-4.523979554561879945e-01 2.975098681437259029e-02 3.104155906461476544e-01 1.048463123567369149e-01 8.625100919454107284e-01 4.950591803789853307e-01
-5.254065327891749293e-01 -5.789895135883455640e-02 3.464476619139379432e-01 -1.363864516661019155e-01 7.283886703146588149e-01 6.714526645707599162e-01
-4.519437406116534883e-01 -3.190911183522193023e-02 3.337281080560071667e-01 -1.363864516661019155e-01 7.283886703146588149e-01 6.714526645707599162e-01
-4.749423165273169434e-01 -6.783506199607117204e-02 3.325409472830687108e-01 -1.363864516661019155e-01 7.283886703146588149e-01 6.714526645707599162e-01
-4.830664415598445727e-01 -2.748382808906232183e-02 2.515475005642723305e-01 1.473555392113284623e-01 6.820688655701615533e-01 7.162879362962715213e-01
-3.989317390844427935e-01 -9.713004416179893408e-02 2.483042130642807988e-01 -1.358332016020604160e-01 7.123583810657961868e-01 6.885454801738604136e-01
-5.100573811018120907e-01 3.103944346968662282e-02 3.026612560667623075e-01 -1.358332016020604160e-01 7.123583810657961868e-01 6.885454801738604136e-01
-3.445783387049892177e-01 -9.633625698639526613e-02 4.167103231958000920e-01 1.307403223199719022e-01 6.568020690079129364e-01 7.426425858154073190e-01
-5.290268679198795176e-01 3.257553068373736371e-02 3.668039661934257012e-01 1.307403223199719022e-01 6.568020690079129364e-01 7.426425858154073190e-01
-4.770661427700992330e-01 -7.956020359491494665e-02 3.530687191423909077e-01 1.307403223199719022e-01 6.568020690079129364e-01 7.426425858154073190e-01
-4.825596918986205797e-01 -2.212939336793785100e-02 3.544700149331029837e-01 1.307403223199719022e-01 6.568020690079129364e-01 7.426425858154073190e-01
-4.466696164539365466e-01 -6.037223920377415842e-02 2.978009027328341052e-01 -1.702073938421802823e-01 6.547566268775877329e-01 7.364259654855581649e-01
-1.899974375892446721e-01 -5.179742699477243861e-02 4.166069291410119391e-01 -5.780564543289236079e-01 8.156156893627313220e-01 -2.493557446760766988e-02
-1.638637845188499198e-01 3.420424538664521702e-02 5.643776108313458550e-01 -5.780564543289236079e-01 8.156156893627313220e-01 -2.493557446760766988e-02
-2.471428613535589514e-01 4.015545969807811366e-02 5.501886339634391998e-01 -5.315562525686272632e-01 8.460344886459604252e-01 4.090958783422395800e-02
-1.479562305083680640e-01 6.044711190842290416e-02 4.694338191921742509e-01 -5.315562525686272632e-01 8.460344886459604252e-01 4.090958783422395800e-02
-1.611494276880884313e-01 -4.252090294705290763e-02 4.233576099253643643e-01 -6.500423640504231493e-01 7.598182317741732916e-01 -1.100816075944374521e-02
-1.154958859488117578e-01 -4.779574710967669088e-02 4.564008705188489223e-01 -6.500423640504231493e-01 7.598182317741732916e-01 -1.100816075944374521e-02
-1.626038691225848987e-01 -3.930820792455026746e-02 5.561228761255930797e-01 -5.271256499337706458e-01 8.404888854563743461e-01 1.253673905216242113e-01
-2.301031765616310676e-01 5.445949439303323508e-02 4.596753168060520034e-01 -7.261563811786855283e-01 6.778017340681999903e-01 1.152463421008093486e-01
-2.423922719315894092e-01 5.469442675534257059e-02 4.944587053047576064e-01 -7.261563811786855283e-01 6.778017340681999903e-01 1.152463421008093486e-01
-1.933002429176987336e-01 -3.849068193632072810e-02 5.572856121229330384e-01 -7.002305078252760717e-01 6.817709852521374181e-01 2.118149182165550704e-01
-1.901406234257980166e-01 -9.330131939590993739e-03 5.094143170938065790e-01 -7.002305078252760717e-01 6.817709852521374181e-01 2.118149182165550704e-01
-2.140079167039683206e-01 6.058772854508828742e-02 4.918589439579102995e-01 -7.002305078252760717e-01 6.817709852521374181e-01 2.118149182165550704e-01
-2.092602530497983393e-01 -4.829816484463664295e-02 3.647208098250305230e-01 -4.757762150499810216e-01 8.157197537967428858e-01 -3.289958608531350914e-01
-7.643152091882229882e-02 -3.147115493180200479e-02 3.431205356199054091e-01 -4.757762150499810216e-01 8.157197537967428858e-01 -3.289958608531350914e-01
-1.145133080482889643e-01 5.091961777915698234e-02 3.798085276894115347e-01 -4.898634225773953466e-01 8.013498878199152298e-01 -3.433251877036830879e-01
1.750454441886380164e-02 1.151974195826796221e-01 4.987071619216313367e-01 -3.503679771094054263e-01 9.189321536259225098e-01 -1.811242050325886088e-01
-9.487866826974128420e-02 5.034006661984562203e-02 5.925609726701200897e-01 -3.503679771094054263e-01 9.189321536259225098e-01 -1.811242050325886088e-01
-1.260137921131707361e-01 1.626760751363556801e-02 4.903974391636661823e-01 -3.503679771094054263e-01 9.189321536259225098e-01 -1.811242050325886088e-01
-3.484673984464355806e-02 5.538757967518496972e-02 4.329723154365624493e-01 -3.503679771094054263e-01 9.189321536259225098e-01 -1.811242050325886088e-01
-9.474929949175667221e-02 -1.069399079038817202e-01 4.737162721774096918e-01 -4.462665727218357303e-01 8.700981062803657684e-01 -2.092257907582807386e-01
-1.809109392802446536e-01 -5.353305510287788282e-02 4.275904981270861049e-01 -4.462665727218357303e-01 8.700981062803657684e-01 -2.092257907582807386e-01
1.494086489163746756e-01 8.169747183107739508e-01 -2.159982050144921839e-01 -7.813481305194180937e-01 5.776030394218567565e-01 -2.363679923010803263e-01
1.678223935815384982e-01 7.713979468478635582e-01 -2.881989476311909160e-01 -9.220833768403409181e-01 3.868905023773561713e-01 -8.830930013917655946e-03
3.720531547966207109e-01 7.552894518190784723e-01 -7.540151997069761969e-02 -8.103966634501938993e-01 4.436375822245840483e-01 3.826786426059322066e-01
2.595147026475518037e-02 -8.399460396710552168e-02 -3.401661197876120202e-01 4.206326185892129144e-01 9.031285137283672215e-01 -8.618055389455477056e-02
4.256879408855498981e-01 -9.520064547248509312e-02 -1.601129092281458610e-01 1.536689962599811776e-01 5.865522019136254483e-01 -7.951995686736300639e-01
2.817433187693754171e-01 -4.390059138142138329e-02 -1.795680541698928268e-01 1.536689962599811776e-01 5.865522019136254483e-01 -7.951995686736300639e-01
3.018940961935052125e-01 -6.762646680572526048e-02 -1.628470109410298516e-01 1.536689962599811776e-01 5.865522019136254483e-01 -7.951995686736300639e-01
3.428472600268351322e-01 -8.997848134112386431e-02 -1.654154023246021676e-01 1.536689962599811776e-01 5.865522019136254483e-01 -7.951995686736300639e-01
4.862125846858343370e-01 -1.355385765875656012e-01 -1.461668305126333223e-01 4.764081812024787560e-02 6.970331606608872743e-01 -7.154544886908790202e-01
3.702814861886594699e-01 -9.440407029684685924e-02 -1.662478189796276484e-01 -1.292833676057918157e-01 6.825546923847169989e-01 -7.193086283120131430e-01
3.852145308990578276e-01 -4.486844963314318147e-02 -1.635876936097586387e-01 -5.757308258444487209e-02 8.278673892674802692e-01 -5.579614018452987434e-01
3.013425675891561184e-01 -1.139972786585091297e-01 -1.315892602681738577e-01 -5.757308258444487209e-02 8.278673892674802692e-01 -5.579614018452987434e-01
3.198183439419177709e-01 4.006414314619521216e-02 -1.598274300629054234e-01 -1.691854487362371151e-01 8.449756594970978529e-01 -5.073385642678494012e-01
3.510451855201417448e-01 3.819289433840421244e-02 -9.672327942085469366e-02 -6.129326854487079923e-02 8.312558379079795223e-01 -5.525005585291197230e-01
3.146126631685337571e-01 -1.811095662134118434e-01 -5.044032842420565627e-02 -6.129326854487079923e-02 8.312558379079795223e-01 -5.525005585291197230e-01
2.912691358299297484e-01 -9.047548938872390645e-02 -7.949310301429941827e-02 -6.129326854487079923e-02 8.312558379079795223e-01 -5.525005585291197230e-01
2.010091354189994517e-01 5.895475703050695460e-01 -3.708179784260831613e-01 4.143252103822410715e-01 8.764763437522246070e-01 -2.452016290411703769e-01
4.061126917491897359e-01 2.239459505287011432e-02 -5.643089585698306265e-02 -1.204024028318494838e-02 9.214280624009124621e-01 -3.883624060513884979e-01
3.898742491520544307e-01 -1.177075097552674199e-01 3.577125715007663243e-02 -1.204024028318494838e-02 9.214280624009124621e-01 -3.883624060513884979e-01
-1.520420241062704625e-02 -5.010613980502662268e-02 3.285717394408673719e-01 2.474225185349605838e-01 5.696913995547167042e-01 -7.837306977496831806e-01
1.358212472062938006e-02 -6.192535894223179238e-02 4.071177078354827894e-01 1.278205719873499180e-01 7.045011592051898530e-01 -6.980974273375963879e-01
1.827736047290245275e-02 1.473644481421682029e-02 3.178666272417910998e-01 1.278205719873499180e-01 7.045011592051898530e-01 -6.980974273375963879e-01
8.947514357399705132e-02 -7.567411837509308015e-02 3.423164154663007053e-01 3.730880549210844888e-01 5.600049748250943704e-01 -7.397294988347750122e-01
-3.628497415126878678e-02 3.059304478802760130e-03 4.076788760030156666e-01 1.448668737788619543e-01 7.427382958917164713e-01 -6.537227338080021655e-01
-4.389811292652572722e-02 1.091092311264682362e-02 3.203930098315769248e-01 1.448668737788619543e-01 7.427382958917164713e-01 -6.537227338080021655e-01
-4.250974391941744063e-02 -1.433941639661609480e-03 3.799571252520925202e-01 1.448668737788619543e-01 7.427382958917164713e-01 -6.537227338080021655e-01
4.957394184142979721e-02 -3.529877030944023747e-02 4.127448763213228955e-01 2.850858544511906123e-01 7.567626609040660757e-01 -5.882485279652063248e-01
7.701835499694928422e-02 -2.906460181603838511e-02 4.391808751817202761e-01 2.850858544511906123e-01 7.567626609040660757e-01 -5.882485279652063248e-01
1.458346490312521782e-02 5.948572648733265605e-02 4.174020142885025986e-01 1.373048835828878933e-01 8.911614135212523324e-01 -4.324103421463148522e-01
-1.996961349025810559e-02 -7.128014854236615350e-02 4.056998598524905741e-01 1.373048835828878933e-01 8.911614135212523324e-01 -4.324103421463148522e-01
8.282697648684239633e-02 2.938468711402133018e-03 3.842683408165280534e-01 2.952516679288436641e-01 8.392836750045175043e-01 -4.565406503873966626e-01
3.733424946397476130e-02 4.579525858376322367e-02 4.452289533215296191e-01 2.952516679288436641e-01 8.392836750045175043e-01 -4.565406503873966626e-01
1.113492749173765062e-01 -7.379700983520408319e-02 3.684459130361092405e-01 2.952516679288436641e-01 8.392836750045175043e-01 -4.565406503873966626e-01
-7.353290771333645393e-02 7.516753513726250058e-02 4.945316433423985747e-01 1.416753778465635882e-01 8.929144067637218019e-01 -4.273545945767098231e-01
-5.770249650369406458e-02 -7.054125606972869167e-02 4.576789770190817230e-01 1.416753778465635882e-01 8.929144067637218019e-01 -4.273545945767098231e-01
3.568085930055030219e-02 8.564337806553361243e-02 4.674226199937980830e-01 1.416753778465635882e-01 8.929144067637218019e-01 -4.273545945767098231e-01
-7.121795589946644522e-02 4.166607091409287034e-02 3.808847813758094447e-01 1.416753778465635882e-01 8.929144067637218019e-01 -4.273545945767098231e-01
4.784893820084991090e-01 3.618000489576301826e-01 -4.848736557411884585e-01 8.501959785918464796e-01 4.970576152699311412e-01 -1.734950290020478569e-01
4.010051975237357014e-01 3.398595513790647615e-01 -3.964776565061421953e-01 8.501959785918464796e-01 4.970576152699311412e-01 -1.734950290020478569e-01
4.575819457278995639e-01 3.994217019737069663e-01 -4.352104666694591173e-01 7.605689305297596015e-01 6.196174943893982823e-01 -1.939305611795663631e-01
3.150203657858323680e-01 4.215689588838001378e-01 -5.373662432883751228e-01 7.605689305297596015e-01 6.196174943893982823e-01 -1.939305611795663631e-01
3.883902097785872365e-01 5.087430341183681870e-01 -4.169821044001159605e-01 7.743157523566229772e-01 6.325036130037000603e-01 -1.934671004750883674e-02
3.022845695458692972e-01 4.907871874804106693e-01 -4.163047730296264293e-01 7.743157523566229772e-01 6.325036130037000603e-01 -1.934671004750883674e-02
2.370894639577466600e-01 5.659369210879023893e-01 -3.398362078690808641e-01 7.743157523566229772e-01 6.325036130037000603e-01 -1.934671004750883674e-02
5.292142451385171142e-01 4.596767953109733851e-01 -4.471762328798863928e-01 7.356422484046057919e-01 6.602734725164389751e-01 -1.512263993266368955e-01
4.153427082473068466e-01 4.761687828517114363e-01 -3.035076491388177256e-01 7.935729337446509879e-01 6.065416328470397689e-01 -4.846902568810999845e-02
3.130540969436549914e-01 5.099243304925920039e-01 -3.849810532273978958e-01 7.286185321520707303e-01 6.807117874799125667e-01 7.580565276062389835e-02
2.525288959524017995e-01 5.361408764789893366e-01 -3.318465250790337828e-01 7.286185321520707303e-01 6.807117874799125667e-01 7.580565276062389835e-02
2.229864217835653972e-01 6.301294335858467210e-01 -2.287269311993350152e-01 6.052974651842724096e-01 7.888378083348696057e-01 -1.065358661809905627e-01
2.212156518462808363e-01 5.727564096531613247e-01 -3.143575447397747857e-01 6.052974651842724096e-01 7.888378083348696057e-01 -1.065358661809905627e-01
2.923364542342251626e-01 4.882062702754101924e-01 -2.612490922919890601e-01 6.690349266787912752e-01 7.432309635739144937e-01 -4.085211053956885966e-05
1.033418200562283285e-01 5.749461868891294625e-01 -3.486498265529768270e-01 -5.332007475121613993e-01 4.497255896535701791e-01 -7.165499681552021105e-01
1.384157328562746203e-01 6.008624781316339591e-01 -4.275192808183861937e-01 1.666141847171452237e-02 8.171484505327407666e-01 -5.761864341742621853e-01
-4.222488453732021196e-01 -1.032531918122339409e-01 7.083472854855080159e-02 5.366063896004459322e-01 6.945566270678419363e-01 -4.792125566344410115e-01
-4.159931893462510133e-01 -9.405867986010003901e-02 1.725960209556417768e-01 5.366063896004459322e-01 6.945566270678419363e-01 -4.792125566344410115e-01
-4.389298290510426637e-01 -8.924509084917571500e-02 -3.266329824907220070e-02 5.366063896004459322e-01 6.945566270678419363e-01 -4.792125566344410115e-01
-3.183024629098933911e-01 -6.321051028702881491e-02 5.643149833694680040e-02 5.489058221099830659e-01 6.078536102643641303e-01 -5.737738116560761048e-01
-4.088263484987216256e-01 -1.406077610344560469e-01 -9.006541716840739398e-03 5.489058221099830659e-01 6.078536102643641303e-01 -5.737738116560761048e-01
-3.049478266635425872e-01 -9.952812495799420733e-02 1.957573422371099159e-02 5.972458581698701918e-01 7.138320905888992929e-01 -3.657063457808965024e-01
-3.524446657811168282e-01 5.164580028864926287e-03 8.530583584810483289e-02 5.972458581698701918e-01 7.138320905888992929e-01 -3.657063457808965024e-01
-3.157329867934911549e-01 -8.918183747403068962e-02 3.551264877034673861e-02 5.972458581698701918e-01 7.138320905888992929e-01 -3.657063457808965024e-01
6.032604468379956786e-03 -1.480661152856827811e-01 -5.312814935033635111e-01 7.744944617525856279e-01 4.386033890786503187e-01 -4.558348339072991195e-01
5.963721161472360782e-02 -1.833899363344061451e-01 -3.463408640240105973e-01 7.744944617525856279e-01 4.386033890786503187e-01 -4.558348339072991195e-01
6.073672732864232593e-02 -2.194471211487802331e-01 -4.324216122578773969e-01 7.744944617525856279e-01 4.386033890786503187e-01 -4.558348339072991195e-01
-3.101484489717497295e-02 -2.257099602925916326e-01 -3.818475417871751709e-01 7.891867435239626749e-01 5.063523568691009613e-01 -3.475508229585276276e-01
8.036568097202187455e-02 -9.940632074553226727e-02 -4.379266855752158016e-01 7.891867435239626749e-01 5.063523568691009613e-01 -3.475508229585276276e-01
2.968222103354922758e-02 -1.998773082511489108e-01 -4.514404591674655576e-01 7.269272160996115284e-01 5.988347810301080099e-01 -3.361156460539902469e-01
1.104865203989724709e-01 -1.648823885746150131e-01 -3.141839386900434072e-01 7.269272160996115284e-01 5.988347810301080099e-01 -3.361156460539902469e-01
4.780817891307154177e-02 -7.129559761460271816e-02 -4.189112555030912732e-01 7.269272160996115284e-01 5.988347810301080099e-01 -3.361156460539902469e-01
1.486129014283706362e-01 -1.477906820838433832e-01 -3.720940708173282596e-01 8.332151871968336287e-01 4.807311163773292373e-01 -2.732216052422505870e-01
5.353993058079776352e-02 -1.238339179799087947e-01 -4.109114146980936133e-01 8.332151871968336287e-01 4.807311163773292373e-01 -2.732216052422505870e-01
4.323211163611863639e-01 -3.387255414097009587e-02 -1.744977291517471052e-01 1.197625804929019766e-01 5.470090922108681308e-01 -8.285155263194065034e-01
3.635205704397574400e-01 -3.870324864022386957e-02 -2.558472602192239931e-01 1.730735587267503151e-01 3.864903490532033969e-01 -9.059087996914431118e-01
3.261644264818789329e-01 5.508882976543231225e-01 -3.099131293707169665e-01 8.345793784505786128e-01 5.260721759804931619e-01 -1.634788265317402567e-01
1.744420854246636066e-01 -6.622307318549353061e-02 3.809415366032892769e-01 8.219897505272009131e-01 3.564970305619232227e-01 -4.441201607997109502e-01
2.155519356364199723e-01 -1.130760110466077495e-01 4.055181459108987418e-01 8.219897505272009131e-01 3.564970305619232227e-01 -4.441201607997109502e-01
3.678526531068984085e-01 3.835199928498099764e-01 -5.934461465899408816e-01 1.743218576669469666e-01 5.060968722231440342e-01 -8.446761781093955479e-01
3.069040213489074853e-01 3.255250749404278165e-01 -6.027193414980434039e-01 1.743218576669469666e-01 5.060968722231440342e-01 -8.446761781093955479e-01
3.795846434667419778e-01 2.439914735272385449e-01 -5.090481981696041158e-01 -5.616450226320285344e-02 4.179311218239882275e-01 -9.067409365946094146e-01
4.704645611174505526e-01 3.071449912192570908e-01 -6.062193934493544933e-01 -5.616450226320285344e-02 4.179311218239882275e-01 -9.067409365946094146e-01
3.512633631857015604e-01 3.248786651138703685e-01 -5.777467223763073090e-01 4.142592839652942116e-01 4.177597538770076446e-01 -8.086198326093564370e-01
3.888552176547896977e-01 2.144972957455786589e-01 -6.544966348915832732e-01 4.142592839652942116e-01 4.177597538770076446e-01 -8.086198326093564370e-01
3.914212561392334533e-01 2.986714023365437121e-01 -5.784516662940850651e-01 4.821858061480972513e-01 4.435020292687013588e-01 -7.555149226744984903e-01
4.267053382415662011e-01 2.393103106622573861e-01 -5.717207832447389615e-01 4.821858061480972513e-01 4.435020292687013588e-01 -7.555149226744984903e-01
4.246239151723044114e-01 2.626790229786645225e-01 -6.876041225902022047e-01 4.821858061480972513e-01 4.435020292687013588e-01 -7.555149226744984903e-01
3.526144987159097188e-01 3.134254037648976365e-01 -5.063642781196500131e-01 4.821858061480972513e-01 4.435020292687013588e-01 -7.555149226744984903e-01
9.619491308523692163e-02 -1.384774581625286549e-01 -4.173937490813569018e-01 9.149847907566404093e-01 2.774274564925598430e-01 -2.929792468215040580e-01
1.211165494364683515e-01 -1.696193489130835563e-01 -4.731893484736945932e-01 9.149847907566404093e-01 2.774274564925598430e-01 -2.929792468215040580e-01
1.216512112377520494e-01 -1.374585405323747733e-01 -4.035349938278334769e-01 9.149847907566404093e-01 2.774274564925598430e-01 -2.929792468215040580e-01
-3.014992397212820641e-01 9.073873261192967610e-02 5.429484291341268865e-01 8.662830469995452809e-01 3.246423660425802604e-02 -4.984974983115625369e-01
-2.999158794140440731e-01 1.019330752535088924e-01 3.241523407028918946e-01 8.662830469995452809e-01 3.246423660425802604e-02 -4.984974983115625369e-01
-3.690492448601052078e-01 -3.631519452819167992e-02 3.459817559486833005e-01 3.396131029224296327e-01 1.039648212769384156e-01 -9.348017202916635293e-01
-3.071279056460067824e-01 4.406749834340988742e-02 4.234340451254685611e-01 3.598841060206460774e-01 1.223550668302650080e-01 -9.249392779283847066e-01
-3.015019556870211503e-01 8.117123510717894064e-02 3.314994125094535282e-01 7.533026757482256253e-01 1.812981092974273456e-01 -6.321914854502089787e-01
-3.162698384898843251e-01 9.833229942841259508e-02 3.720133498050465781e-01 7.533026757482256253e-01 1.812981092974273456e-01 -6.321914854502089787e-01
-3.357330170906508426e-01 8.388835914189634452e-03 4.591668388260096156e-01 3.942353764920355497e-01 3.038665149457245307e-01 -8.673197847489255707e-01
-4.002906314740544702e-01 9.186050648138269215e-02 4.151602360267525604e-01 3.942353764920355497e-01 3.038665149457245307e-01 -8.673197847489255707e-01
-2.680456349097571911e-01 7.218375004258581473e-02 3.416435966677570102e-01 6.790666453432987471e-01 7.405534516009766588e-02 -7.303316349682638098e-01
-3.312841045993120126e-01 9.393129845286389557e-02 2.891899528275613251e-01 6.790666453432987471e-01 7.405534516009766588e-02 -7.303316349682638098e-01
5.478830626410527982e-01 6.444977037099575146e-01 -3.140737990459070011e-02 9.068477693406961082e-01 3.157951587727250015e-02 -4.202735507009225380e-01
5.005411949069036304e-01 6.282738265385646725e-01 2.673954301992926413e-02 8.263838606752462734e-01 4.049231397129571253e-02 -5.616494345450061543e-01
5.251809650825324249e-01 6.716302761797255938e-01 -5.177598631410453012e-02 8.263838606752462734e-01 4.049231397129571253e-02 -5.616494345450061543e-01
-3.725237842864955740e-01 8.246034621230767525e-02 3.859549017618492672e-01 -5.983889018146061334e-01 -3.197801116151154782e-02 -8.005673794174128499e-01
-5.463760051633319570e-01 1.503139772611022384e-01 2.981639903582990470e-01 6.939051542357256575e-02 3.127635752392723349e-03 -9.975846702229597129e-01
-4.667598460229620549e-01 1.363307432837328470e-01 3.283205324858644580e-01 6.939051542357256575e-02 3.127635752392723349e-03 -9.975846702229597129e-01
-3.456179839692377076e-01 3.571464519067205773e-03 4.555010252740065435e-01 -6.812735917198301135e-03 3.639480583192037377e-01 -9.313943297417072165e-01
2.558178756622645489e-01 -3.300692292167674569e-01 -8.262006723101521233e-02 -5.474317645975327329e-01 -6.469535180355519000e-01 -5.308197515268761046e-01
-8.062630684200119968e-02 -2.567400551419319332e-01 1.002839411273744874e-01 -6.425479577615590410e-01 -5.510506671306014681e-01 -5.324239703763992138e-01
-1.908259234265128057e-01 -2.239375877792170177e-01 8.272064653655777922e-02 -6.425479577615590410e-01 -5.510506671306014681e-01 -5.324239703763992138e-01
-1.233845600329567249e-01 -3.823415940920136258e-01 1.464231617946086805e-01 -6.425479577615590410e-01 -5.510506671306014681e-01 -5.324239703763992138e-01
-2.219062718244798060e-01 -1.986544168537291988e-01 1.303974854986635068e-01 -7.002172083891878840e-01 -4.541393150936544054e-01 -5.508659941963371942e-01
-5.880649753793432133e-02 -3.403643015505348202e-01 1.371313779404093325e-01 -7.002172083891878840e-01 -4.541393150936544054e-01 -5.508659941963371942e-01
-1.924696139530126249e-01 -3.364772332093784457e-01 7.234867677437915867e-02 -6.259549094360171706e-01 -4.303973376657626027e-01 -6.503372840943161259e-01
-2.469729679639665054e-01 -2.315624963697433536e-01 8.352770713746175690e-02 -6.259549094360171706e-01 -4.303973376657626027e-01 -6.503372840943161259e-01
-1.351022930083931317e-01 -3.001282722956313820e-01 2.153646318224065326e-01 -4.500575063980365442e-01 -8.183349363977149293e-01 -3.574579315188419204e-01
-8.525329057311244185e-02 -2.902900235020340336e-01 2.275044860352418152e-01 -4.529865649064276356e-01 -7.397547183520578606e-01 -4.975601759487411901e-01
-3.180382127824951111e-01 -3.292613951174592213e-01 1.828063015183982454e-01 -4.529865649064276356e-01 -7.397547183520578606e-01 -4.975601759487411901e-01
-1.993028449846500627e-01 -3.108396388222670059e-01 5.343350341250447944e-01 -4.073858075094117237e-01 -9.005981308386664663e-01 -1.515249503210767679e-01
-1.775602386000620370e-01 -3.489151555619904865e-01 4.555374908141130996e-01 -4.073858075094117237e-01 -9.005981308386664663e-01 -1.515249503210767679e-01
2.773223713398745294e-01 -2.760807359676760164e-01 4.930232507278169835e-02 -9.147106112835224900e-01 -3.929899096907716327e-01 -9.414578315869250036e-02
