4.652586888422255429e-01 4.451504378438511655e-01 3.899581178520807878e-01 8.778469037377422124e-01 -7.480306456729469977e-02 4.730637537683480276e-01
3.142749956009232015e-01 5.288265262718254700e-01 4.292895787302914434e-01 6.980129747631927950e-01 -1.222240824711725710e-01 7.055771826854367879e-01
5.617331882028050449e-01 4.483535934478101170e-01 3.358601690869374434e-01 8.458903347960036179e-01 1.154416430986064945e-01 5.207137107253839714e-01
5.177607764298872151e-02 4.679584212858655667e-01 4.920789860153931827e-01 3.988846224711262156e-01 -1.400685570706961536e-01 9.062405074130156502e-01
2.147478473304574031e-01 4.788147465863302199e-01 4.838704750741789629e-01 4.410546100939954917e-01 -5.266033433536930763e-01 7.267460008032695651e-01
3.818550874061584222e-01 4.841841179407072038e-01 5.060801852772940368e-01 5.639127854734868883e-01 -4.351447196796263683e-01 7.018913329814470137e-01
2.647939781910466639e-01 4.297264205663865466e-01 6.373106819882065066e-01 7.620900202999755235e-01 -2.684239794933120371e-01 5.892091039623851279e-01
3.025576200507447133e-01 4.596224784724394774e-01 4.842019882767339967e-01 7.296738089229820590e-01 -1.032481781379568642e-01 6.759555801108680928e-01
1.137895991960741343e-01 4.238384416579437097e-01 5.668828142888716615e-01 5.669864189984175074e-01 -5.072129132107374705e-01 6.490465787165261569e-01
3.750048161288941362e-01 4.902107132238920917e-01 3.999466282632487824e-01 7.010170601887366626e-01 -2.953903718367675499e-02 7.125324740716051375e-01
4.062258789510799217e-01 4.507673538122443646e-01 4.177132864466578943e-01 3.295109556026059594e-01 -5.155387939636567607e-01 7.909755255735514412e-01
1.378326620618902654e-01 4.310325752842092961e-01 6.265677767332262782e-01 4.851304402729716414e-01 -2.734627971714307382e-01 8.305820576461604432e-01
1.605479229915159345e-01 4.103958418075170922e-01 5.716893519118055877e-01 8.874509419012766021e-01 -3.845621754530156311e-01 2.540526695970365956e-01
4.175110920696222250e-01 6.369399798474476571e-01 1.628761290537822093e-01 6.995218929309111600e-01 -5.921029054024913307e-01 4.001040748658817869e-01
4.861491962730978833e-01 4.488185930529293155e-01 1.663268604383850990e-01 6.292282950147419784e-01 -6.338867599157891330e-01 4.497325075601091293e-01
3.328684810786293746e-01 4.691500216822059866e-01 3.881736387267314403e-01 8.112735087935194489e-01 -3.287226129137820196e-01 4.835046408143228724e-01
1.208351776636833186e-01 4.737474273294286498e-01 5.948865327282318871e-01 5.292513775309510837e-01 -1.530963131502981189e-01 8.345384941878812857e-01
2.420608754745681157e-01 4.258709062838863524e-01 4.519452052315210411e-01 6.023498875114492446e-01 -2.703968271491081210e-01 7.510393923641023317e-01
1.334872584272931428e-01 4.005475789125831909e-01 6.256369379443159628e-01 6.373073019855018950e-01 -2.350026971850514845e-01 7.339026741685243937e-01
3.633321334330092967e-01 3.533382819406378217e-01 3.386901284755470809e-01 7.181259767103912450e-01 -3.568418143111518753e-02 6.949976408372461334e-01
1.842699003072609254e-01 4.550154194282611808e-01 6.530518967706712141e-01 6.445760099472563898e-01 -3.661558999586264074e-01 6.711569297310150395e-01
1.814334253495953064e-01 5.049160168805112425e-01 4.931774297672116836e-01 5.999009032777826711e-01 1.713889117729873179e-01 7.815015976744843496e-01
5.337947955746190631e-01 4.030585027672017318e-01 2.536323462377587656e-02 6.910318727277524609e-01 -3.262444259981950867e-01 6.450112598858127599e-01
1.667002373496301315e-01 3.535895934416763975e-01 5.814552695588282027e-01 5.859215689677684802e-01 -2.921321343210214749e-01 7.558801036641941140e-01
4.253913767184699379e-01 3.876724049688964335e-01 3.092601683601105544e-01 7.302010162616220379e-01 -6.525741103192804482e-02 6.801087752381264062e-01
1.995865696174768111e-01 4.980568075628594715e-01 5.301325775700707066e-01 6.956951680841719776e-01 -6.324369734923555864e-02 7.155476698654912315e-01
4.001206989312424689e-01 3.721199396448718888e-01 4.301986594993628121e-01 7.388711324992731644e-01 -3.986444773755480342e-01 5.432789616920737918e-01
3.290123686247052870e-01 4.045316601727150796e-01 3.919719171446814920e-01 8.309822254212084758e-01 -1.441334482043394594e-01 5.373026057472108930e-01
1.469249593433341050e-01 4.437218821038577121e-01 6.100959506726802983e-01 5.266676693388956387e-01 -2.026345802164794263e-01 8.255667101898106486e-01
1.044016808595889800e-01 5.303771129510277405e-01 5.825756919706299719e-01 5.266676693388956387e-01 -2.026345802164794263e-01 8.255667101898106486e-01
2.184503702307881157e-01 2.906704484722174020e-01 5.126100994624740448e-01 5.928430813976989233e-01 -2.147589771774993939e-01 7.761544063912512170e-01
2.022492841333242974e-01 4.162758644187758428e-01 4.117949030725960857e-01 7.881416062558570523e-01 4.388948887286334699e-01 4.315137137291442104e-01
4.864926065232551000e-01 4.926155505430935833e-01 4.172435954564818195e-01 6.082014766834086261e-01 -2.755006964457463736e-01 7.444396080395170312e-01
2.836289299549750176e-01 3.003966233901090854e-01 6.365399577539843090e-01 6.797442833410887175e-01 -1.968996537082611242e-01 7.065254670814609117e-01
2.177791312480385766e-01 4.235539267866336721e-01 5.958004867032075103e-01 3.878136500259651842e-01 -6.857150037231218853e-02 9.191836172333731625e-01
2.782754615419000266e-01 5.715429057729448648e-01 4.567822181052055841e-01 7.595365551004225058e-01 3.982550427359631690e-02 6.492442919853332883e-01
2.256668133372606300e-01 4.120582073714652571e-01 4.319144077047284980e-01 8.840499495320361945e-01 9.616839173161526033e-02 4.573918748339970697e-01
5.547383668536884915e-01 5.359182720600115246e-01 2.386514615782721338e-01 8.319195172365655422e-01 -1.003907800180356587e-02 5.548054918201091867e-01
5.211503462031606970e-01 3.777806528723111068e-01 2.079882731455436895e-01 7.120681878069814452e-01 1.476199845515847008e-02 7.019551120370099984e-01
1.527975867030807178e-01 4.550363371293559833e-01 5.009256897885279169e-01 6.112229228447182416e-01 -1.972849156098300527e-01 7.664758317533448828e-01
2.584944393734645574e-01 4.221066103540427883e-01 5.012244513051322681e-01 4.263583525910474847e-01 -1.359660919847620053e-01 8.942772372179889073e-01
3.951693286456552379e-01 3.327320016724241714e-01 3.747328532606445384e-01 7.090710832866812252e-01 -4.847371033241889560e-01 5.121016886395973744e-01
4.791234691125816347e-01 4.150334000076725260e-01 8.446832272155357924e-02 5.961376044272118646e-01 3.290385476601754289e-01 7.323616529703528277e-01
1.899775650014787209e-01 3.629722715891151585e-01 5.437430269143410655e-01 3.456637417516416622e-01 -2.670993881941970960e-01 8.995412689057351585e-01
5.038105403227614021e-01 3.895390564620312968e-01 3.587741883008446209e-01 7.524003996907100422e-01 -4.531493380238395541e-01 4.780683172872008946e-01
1.981323034478985057e-01 3.923191021622519092e-01 4.545785441157174089e-01 6.815868923170839144e-01 -1.930544884739897604e-01 7.058110743687620037e-01
3.968564133779893810e-01 4.915263139846252072e-01 5.350757414797457923e-01 3.778171080616973265e-01 -8.880081862610637033e-01 2.620986340850165464e-01
3.981981707480042321e-01 5.303144238272259336e-01 2.885654407365575436e-01 4.610046825884914767e-01 -7.734420007535169894e-02 8.840206769901868267e-01
4.593045448736370329e-01 3.296580177628569142e-01 1.837382128378936552e-01 7.814660827529235076e-01 -1.097390664085637346e-03 6.239467583380261528e-01
4.428469964288858640e-01 3.609116595116869108e-01 5.317918676779735676e-02 6.421812968940349142e-01 7.725422008972111787e-02 7.626499638745314336e-01
7.278213509416756044e-02 4.753117013403290736e-01 4.297437871270811671e-01 4.999446494856490397e-01 -5.836196715111256761e-02 8.640886692006347625e-01
2.747586589459956041e-01 5.890208401863114007e-01 5.543025394819726115e-01 2.384525553298847134e-01 -9.162681838026243142e-01 3.218586556358063455e-01
3.675381553139924207e-01 4.878301001330399567e-01 2.848333187290421620e-01 5.390065267303916219e-01 -3.367896489286524853e-01 7.720393102145476361e-01
2.785142542682480515e-01 2.547763439988550149e-01 5.182470891486798958e-01 6.036022744037136123e-01 -2.763064368721420139e-01 7.478763582823599876e-01
2.579426149147192038e-01 3.939415593341933364e-01 3.757118355743211402e-01 2.323926012878146097e-01 -9.489179090421171470e-01 2.134209004896643336e-01
3.096060680310049884e-01 5.616836169771717291e-01 3.885810846835384691e-01 2.323926012878146097e-01 -9.489179090421171470e-01 2.134209004896643336e-01
4.148386787337475790e-01 4.179076737683851128e-01 4.626049040497725584e-01 7.749255847870623048e-01 -5.385604320557028091e-01 3.308217028346303046e-01
7.393030566129950298e-02 3.403045145376636937e-01 6.237702984328746814e-01 5.751701470702325070e-01 2.103575363736444673e-02 8.177632903157949773e-01
2.557991116793231212e-01 3.965449415169089442e-01 4.177406337922493496e-01 4.294069782178641659e-01 -8.552202432339952587e-01 2.901861172085749008e-01
3.980434602604742689e-01 4.362784871329835612e-01 4.552787256528333937e-01 6.033453781480305755e-01 -6.748933907595172643e-01 4.248449902923789323e-01
4.080660617039389981e-01 4.708472070810567622e-01 -1.618028340589348218e-02 5.651133427599517312e-01 1.935357698417281558e-01 8.019917802736153956e-01
1.111474472524790341e-01 4.026781254346701866e-01 6.241879401888094092e-01 4.096799450582535029e-01 -2.966291613703100905e-02 9.117469243289574310e-01
2.296677420152231919e-01 3.262666479620965898e-01 5.621765599486332476e-01 6.375718396128300380e-01 -2.036646558819962538e-01 7.429824071114873307e-01
8.237705480041092321e-02 4.595518880014313745e-01 5.397742213589593607e-01 6.375718396128300380e-01 -2.036646558819962538e-01 7.429824071114873307e-01
3.752969767953657221e-01 3.857574319216238723e-01 4.691639307812394688e-01 8.196896230949404227e-01 -4.569386075171218975e-01 3.454215261832825901e-01
3.976789292903483153e-01 3.511472590176157316e-01 4.783356498083242148e-01 7.926821845478264628e-01 -3.005153950028078835e-01 5.304200709501780686e-01
4.585819789145292313e-01 4.656207130006324579e-01 1.836553888497615417e-01 6.974052198329430130e-01 -5.252618089776078802e-01 4.875715243729226711e-01
5.112829708481917423e-01 3.702594936177446283e-01 4.155279318675949574e-01 5.981762299324010490e-01 -6.723927984572010130e-01 4.359737635761502528e-01
1.534374454074037830e-01 3.701926652939759865e-01 5.318880974076030110e-01 6.922096831505757386e-01 -5.345930448910328481e-02 7.197137328939339218e-01
2.780653632143305076e-01 5.234847839836661576e-01 3.901594612676245744e-01 4.056873889966842173e-01 -8.100088204782293633e-02 9.104156191083978555e-01
3.254815365834977658e-01 3.286170314947295945e-01 3.748209803778840277e-01 2.050969892514450665e-01 -1.694610607011997339e-01 9.639596329235041727e-01
3.596476650673469111e-01 4.171112396347489981e-01 1.136150804598206748e-01 6.411773751746550065e-01 -7.349489606176486944e-01 2.207749959827369213e-01
1.131520850916289955e-01 3.733865493240329236e-01 5.751151314417999316e-01 5.066377833356282556e-01 3.427284988603056942e-02 8.614775262637154318e-01
1.324749555918894317e-01 3.775203387700650781e-01 5.019041624987444772e-01 7.587607004913224928e-01 -1.724904769123219717e-01 6.281156221305733700e-01
1.856750092413215480e-01 2.907374212591932183e-01 5.512897295057375135e-01 7.691084449828913261e-01 -2.239460537611427937e-01 5.985986676069453560e-01
2.150401086905489312e-01 3.660412642200752686e-01 3.559137150549415707e-01 8.371310051098449501e-01 2.445816899862708615e-02 5.464553762687444083e-01
3.254194621865411086e-01 3.946143501135456755e-01 4.594790668251672594e-01 6.971878360905370275e-01 -4.461062332908322797e-02 7.154991359139333262e-01
2.048213211914631793e-01 3.147340819126591693e-01 5.611715290071295215e-01 7.276193384775361261e-01 2.632703864172464964e-02 6.854757364851580270e-01
1.849186891956371703e-01 3.277470877299176188e-01 4.060915572624959058e-01 8.041645337859200104e-01 -9.162095140994701292e-02 5.873031618028375922e-01
4.897460264077514447e-01 4.610720567770507650e-01 2.105435540711328435e-01 6.901456938735605062e-01 -5.281492341037867799e-01 4.947295298881653203e-01
2.543476611042635449e-01 3.532273652830295596e-01 4.352087603588546405e-01 7.669205482826921827e-01 8.974556343814489578e-02 6.354357610844266757e-01
2.857101615480934775e-01 3.404560235751958874e-01 6.073757001635953223e-01 7.211775861549420963e-01 -7.204410251890738803e-02 6.889938581148429275e-01
2.122036963614368776e-01 3.021175073309861903e-01 5.192664609225781103e-01 7.462797733046082627e-01 -1.220635521465086026e-01 6.543447021209837233e-01
3.780912765897391226e-01 3.209959415346793077e-01 2.553104706495199494e-01 7.059691910159934247e-01 -7.457801969353652916e-02 7.043050619687567515e-01
3.088103055990958357e-01 2.632969236612994202e-01 5.018142449121667514e-01 8.241435898280984329e-01 -1.334986194738866927e-01 5.504229845707949709e-01
2.635966431046891656e-01 2.444591018519790271e-01 4.753086040661297917e-01 6.718004074659171820e-01 1.697026309906606023e-01 7.210306717217205286e-01
3.196289768993976210e-01 3.258030544858497857e-01 2.077101498394383627e-01 3.887566307817428846e-01 -8.841614393897598845e-01 2.590884619574089220e-01
1.165999728281741643e-01 4.211631334903454538e-01 6.033250599361428268e-01 7.122524596442839639e-01 -2.513654242077770912e-02 7.014731555560740350e-01
2.704519464169625742e-01 3.443043037791218008e-01 4.791985691952068693e-01 7.925586069440534454e-01 -1.392709503600915444e-01 5.936787489414609986e-01
9.863831594807115355e-02 3.288867066820594931e-01 6.107521126999294614e-01 6.085256269742678192e-01 -1.016498836453642515e-02 7.934691136566834890e-01
2.944671739575241975e-01 3.827828913270135969e-01 5.991589941377536421e-01 7.486443612491926469e-01 -1.612978701756220823e-01 6.430510224286999366e-01
3.928636207540610048e-01 4.224660527061863124e-01 3.275613133556796730e-01 4.228346548435120700e-01 -2.728392314644750294e-01 8.641583237099801362e-01
2.440117295993807778e-01 3.801058109379796823e-01 5.226073181313944938e-01 7.365278876792916707e-01 -4.441230733447902590e-02 6.749475665767739052e-01
2.270073527420443660e-01 2.089194481789623525e-01 4.577337517262267674e-01 5.176288539111111309e-01 -1.234107160038069445e-01 8.466582337484808152e-01
1.302871789494217114e-01 3.391389022511155371e-01 5.180821810518762005e-01 6.939525037719401768e-01 -1.830309445689874970e-01 6.963688647827669387e-01
2.260587023320648481e-01 3.647320252274036112e-01 4.637769664332158648e-01 7.729284907266360527e-01 -1.288949666784920400e-01 6.212629361132007144e-01
2.690529944335584012e-01 3.020340237727890398e-01 4.013154148071982341e-01 6.648546927777507776e-01 -7.427228699955872038e-02 7.432710574718066621e-01
2.635293260875274934e-01 4.362135044914001725e-01 4.124505493382687460e-01 7.484827269507485781e-01 -1.613579645028275777e-01 6.432240781779515748e-01
4.238947541053029178e-01 3.183046807053437344e-01 3.175366141442542700e-01 3.983517028706708429e-01 -2.513717920802089889e-01 8.821157197139278816e-01
9.428493106896569664e-02 1.730298901378121146e-01 6.540912916318306625e-01 5.588535889185923811e-01 -4.325081065965498683e-01 7.075446303103971601e-01
2.248679510924682934e-01 2.712552139159192799e-01 5.594456597159642719e-01 7.673945041893339702e-01 -1.090524968956326501e-01 6.318332278859939422e-01
4.068473754881977711e-01 4.689673263432336814e-01 2.756172973470724097e-01 1.263150132217324140e-01 -7.273615853863315550e-01 6.745291999158197216e-01
5.167422343873284696e-01 3.704376578133569131e-01 8.193756383394573684e-02 4.449728237497937999e-01 -8.690642097589874604e-01 2.161633304705531666e-01
2.854785242783682842e-01 4.132391886260205482e-01 4.449506422072572187e-01 8.327790773517825818e-01 -8.309745110684298164e-02 5.473333736806660355e-01
4.148591982823434110e-01 3.084240694520548054e-01 5.064836148973235197e-01 8.455707209640618283e-01 2.352197104439434916e-01 4.792513366355736770e-01
1.653139900688458119e-01 3.844752951140484321e-01 5.237103729464867019e-01 5.253291444206100724e-01 -5.141350637387380740e-01 6.780076889362491865e-01
1.180803366147645389e-01 2.085007180892841094e-01 4.646412836433346238e-01 6.109948779655135498e-01 -4.761543517658530233e-01 6.324257208513484052e-01
2.730169639621982669e-01 3.162803641806418709e-01 5.798076957583758739e-01 7.450963799814855903e-01 -2.053794618378880221e-01 6.345476035678213611e-01
2.990997522117865293e-01 2.890508327431726143e-01 4.683097679566399774e-01 6.001546377772249974e-01 -5.183018270359285307e-01 6.092434873231771242e-01
1.772443624510474658e-01 3.308957028451547933e-01 4.234554213215973029e-01 4.956956353063374787e-01 -8.444917896977764959e-01 2.027793240724828638e-01
1.006192923298760145e-01 2.974731231547594890e-01 5.004157295763144164e-01 7.637328070929242374e-01 -1.006148329945569936e-01 6.376432033288205181e-01
4.983041875765802375e-01 3.633404160803317406e-01 1.935752262503730448e-01 7.097175632188715833e-01 -4.876570262167871372e-01 5.084206971004102682e-01
2.936849195465358053e-01 2.919404217270080149e-01 6.142183852492121288e-01 5.927292478327008673e-01 -5.249422731677423348e-01 6.108253830720887789e-01
-8.705880434967072645e-02 2.178213100020622850e-01 6.202397669841975825e-01 6.065523672513346148e-02 -7.214851885663746689e-01 6.897681240367380395e-01
3.106985068282756002e-01 3.434782914269233212e-01 3.424533900671472564e-01 7.604118234619668959e-01 1.868531655570769556e-01 6.219805087464927995e-01
3.163951011384425471e-01 3.124482875912092950e-01 3.621125518253019981e-01 7.457392229750074986e-01 -2.112747202359988030e-01 6.318512514079817066e-01
-1.176064668670626784e-01 4.386427308306104500e-01 6.334001800171468188e-01 3.179716452769529855e-01 -8.597267988572481201e-01 3.997047211711869386e-01
5.658779080927144045e-02 2.387923848378387115e-01 4.694238837519782437e-01 5.262703401439751127e-01 -6.686662257834636858e-01 5.252856437989171789e-01
3.031276749786841473e-01 2.418781254712315809e-01 5.556262078133745730e-01 6.764409513031117704e-01 -2.978503069704274142e-01 6.735820915358151639e-01
1.624233734726123757e-01 1.802467046621855085e-01 6.463607157923443314e-01 4.522207621737003858e-01 -7.699520855775171535e-01 4.501890360436038852e-01
1.782402511194751127e-01 2.607435791737552910e-01 5.369557828862983051e-01 5.398632980701644213e-01 -5.494130234344387631e-01 6.377248223782996384e-01
2.536824074145011543e-01 2.024070955570909658e-01 4.926991348829631301e-01 7.716821137647589257e-01 -1.500285188015056462e-02 6.358314475794791809e-01
3.117613024574077407e-01 2.626339078004892857e-01 4.337647129665863077e-01 8.481691483417405086e-01 7.693222287094647963e-03 5.296696235693413302e-01
2.634153198522620754e-01 2.938801135391646557e-01 4.634084114424373291e-01 8.126542568656122123e-01 -4.730646154025659050e-02 5.808228279731607602e-01
3.270843738578441684e-01 2.398348422175937411e-01 2.929280408435020466e-01 4.470853881694343834e-01 -1.936230018986908989e-03 8.944891875806546544e-01
4.872989489731764934e-01 2.359991010420953716e-01 2.386150972873455345e-01 7.914837371365017749e-01 -4.418025415580515425e-01 4.223316328683928145e-01
-4.765820311224611139e-02 3.040407675273525401e-01 5.809925746477437869e-01 5.604954501632257724e-01 -4.691003177485453257e-01 6.824879062917793560e-01
1.820332199332216350e-01 2.553738874760039801e-01 6.264262483162359452e-01 5.021408719938961207e-01 -1.983724237203993712e-01 8.417261586647429850e-01
2.327824268362879701e-01 3.452640679493306775e-01 2.982679951413457764e-01 8.547738523644452524e-01 -9.104577625657808704e-02 5.109523734555724284e-01
1.881495924264988406e-01 3.061125517396504625e-01 4.727018589488614086e-01 8.070985240012931161e-01 -1.168938191103230731e-02 5.903010510794236554e-01
1.540429615706372934e-01 2.071221034537456540e-01 4.738692693979876802e-01 5.740403121256368868e-01 5.587793584013765052e-02 8.169182188817598611e-01
2.802938257529218324e-01 2.406335248842183805e-01 4.975998263431137825e-01 8.026607515119670300e-01 -2.185931475806788399e-02 5.960351401893616563e-01
4.215858803585272319e-01 2.943922307902835933e-01 3.417334888883493127e-01 6.489716765790137787e-01 -5.571985566467198003e-01 5.180400867394686637e-01
7.728263264705359514e-02 2.635051974904258354e-01 4.807572920482610090e-01 6.831842352171166866e-01 -1.635274614620498557e-01 7.117008290697579564e-01
4.221612088051719391e-01 2.284912890141630459e-01 1.745688038393856389e-01 8.165252981161622570e-01 -3.878772631082457178e-01 4.275952131396809075e-01
1.849822415884877225e-01 1.887610989341189927e-01 6.133600395950267181e-01 4.128294210192893221e-01 -7.142930491281603844e-01 5.651170755764450826e-01
3.135609661951103688e-01 1.953425452755722658e-01 4.483425495428547403e-01 8.813752440370927754e-01 -2.047741502408573500e-01 4.257290530274978058e-01
2.317440915439750726e-01 3.502187636199362575e-01 3.631498014211396730e-01 7.363958134180371706e-01 2.308167674721365581e-01 6.359597674649717369e-01
2.451401039174514185e-01 1.362214574178435833e-01 3.733004454308154196e-01 8.513448465420695443e-01 -1.093224429821292171e-01 5.130892278412000351e-01
2.668311428468096436e-01 2.735547360361026969e-01 3.846227257217038065e-01 3.821205122572128299e-01 -2.767133839644865256e-01 8.817106199015682932e-01
2.476267426877048483e-01 1.820674349014605453e-01 4.506476843677449384e-01 5.316761789126006610e-01 3.667035740294728730e-02 8.461534882424325277e-01
3.491904562991043903e-01 2.242556870620957266e-01 4.923758353622961215e-01 6.802155331575303610e-01 8.927248562624964454e-03 7.329577973419191261e-01
3.724275431218896371e-01 1.912912814772190773e-01 4.155170951353744369e-01 8.165998440618190690e-01 -5.754018495268767297e-02 5.743290187634813027e-01
3.760549031452487534e-01 2.771885500439766892e-01 4.420474656503092792e-01 8.530471495563143325e-01 -5.401426028289146863e-02 5.190308471757139053e-01
3.287374905485200838e-01 2.543122317523357490e-01 3.942406229967574394e-01 7.076059235098391964e-01 -2.405715991425876332e-01 6.643938310217560872e-01
1.377296900784089617e-01 1.583498908927225557e-01 4.385212663928776400e-01 8.223700256417036947e-01 -3.058461471666135134e-02 5.681303743584715793e-01
3.267401657434524376e-01 2.127126976507367762e-01 3.355190811974808618e-01 6.070003423935650400e-01 -3.613685504002425719e-01 7.077876483209649683e-01
3.933885344629509673e-01 3.606951936678969850e-01 3.358463091138691459e-02 6.870034747750378701e-01 -5.691652508448877823e-01 4.517489821545807582e-01
2.508457961760474086e-01 2.142137491585180686e-01 4.568217457856781905e-01 8.289684683890101713e-01 -3.750585225628141027e-03 5.592827652692724527e-01
3.426208194236975979e-01 2.893280780673851971e-01 3.736987073652667801e-01 8.709037776779559037e-01 -4.598222164457720085e-02 4.892977062268885624e-01
2.819437863448967518e-01 2.239390624816087749e-01 3.853572797252708959e-01 6.526657850805812622e-01 -6.111460198557786688e-02 7.551770510345855447e-01
3.940042199245521459e-01 2.809570140181092412e-01 3.306335409416856219e-01 7.710120086898551994e-01 -2.166081144953620474e-01 5.988500707111912291e-01
3.088386357192862697e-01 1.038923650113898201e-01 5.721952972830396389e-01 6.611976982122703683e-01 -3.167927746968170200e-02 7.495425453286786999e-01
2.289072177287132526e-01 3.028020568850262606e-01 3.830675542830735414e-01 8.255176152671017675e-01 -7.174996596658249348e-02 5.597969357432313053e-01
3.126309974955593929e-01 2.263059627128225226e-01 3.569433708081518053e-01 8.301319243502239820e-01 -1.515240085970891437e-01 5.365831370750140383e-01
2.081080772694516023e-01 1.928874340914624452e-01 5.351963913770811931e-01 7.896998565699828720e-01 -6.133520228516403661e-02 6.104196339355298928e-01
2.304956596281075298e-01 2.551393787993954110e-01 4.658815402357767699e-01 8.787523829463400604e-01 -1.095628684127493008e-01 4.645322672660097685e-01
2.575674529695869963e-01 1.750236313692065115e-01 5.247554140181137639e-01 7.157136191069454201e-01 -1.323228998870749629e-01 6.857438775448988499e-01
1.653600691849697046e-01 2.178634966141352602e-01 4.144345586768991008e-01 6.348553477459628613e-01 -8.490862891855896488e-02 7.679513084652718202e-01
4.134132821276436109e-01 1.119060135879506035e-01 4.193068662851655581e-01 5.832598884272727213e-01 -7.193687345018587864e-01 3.772486267344117850e-01
3.073203703612489845e-01 7.999401454075137641e-02 4.923163652786913258e-01 7.607643397981190825e-01 -1.094575264021511313e-01 6.397317165855187504e-01
2.655826111507503251e-01 2.152765220364347143e-01 3.492930551838267506e-01 7.511092205917954123e-01 -5.235833154940269241e-01 4.021137282887368158e-01
3.649344888631462225e-01 1.220823532238471953e-01 -1.438792521161239013e-02 5.589134951976435506e-01 -5.402292559646185849e-02 8.274643366308622738e-01
4.137046398169796912e-01 8.009109312865084207e-02 -9.763362156009847137e-02 7.644699769189585714e-01 -5.752188296433606851e-01 2.910480242386974115e-01
2.820887927499992620e-01 5.478500008037564400e-02 -2.684609355300054956e-01 6.950309506048095720e-01 -6.002485122881696666e-01 3.957697578102877811e-01
3.115312400011805982e-01 2.520725195579348599e-01 8.952376841101986060e-02 8.579178990747106104e-01 -4.919263453826857035e-01 1.482745735642807261e-01
3.927102469476194679e-01 6.054032609399168097e-02 -9.404760954141158646e-02 5.263838953999758763e-01 -7.558339885429429250e-01 3.894033595474156173e-01
2.637448772682760012e-01 -5.067750019086603858e-02 2.865576856079168344e-01 7.710786477094458968e-01 -6.041411657436949190e-01 2.011247645130297412e-01
6.831355614485021266e-02 -2.198991243559463016e-01 4.013644745113914558e-01 3.539745671553635731e-01 -7.233064050161435166e-01 5.928995279723161538e-01
2.286583252077563633e-01 -1.259030579221352697e-01 3.769758766130167360e-01 4.208343954933948527e-01 -7.296043340486718654e-01 5.390509505669226487e-01
2.748790067750176980e-01 -1.433035366874010341e-01 3.798480949297583509e-01 4.187543698416851812e-01 -7.516538528759015847e-01 5.095696843369960094e-01
1.472839225856886758e-01 -6.933538382547752010e-02 4.061603757967290895e-01 5.350803087383343426e-01 -7.206368817697267337e-01 4.408758871084850206e-01
4.307367775223958084e-02 -1.405997219136887466e-01 3.862608701178704695e-01 3.092903244708723465e-01 -7.789635528614071713e-01 5.454862770980001274e-01
2.217420129755717506e-01 -1.147061581233111832e-01 5.081354901504102628e-01 5.690730104903397590e-01 -6.834636788632436621e-01 4.572016058657083493e-01
9.881696490769330266e-02 -1.471894462980211649e-01 3.086843128549178195e-01 5.854790089312177370e-01 -7.110907312188706753e-01 3.893126019993837228e-01
3.750701445655547916e-02 -1.169869331400863605e-01 8.436241822159576409e-02 6.194563026801414019e-01 -7.527637672875585606e-01 2.227568174689416869e-01
1.043750366144730463e-01 -2.869258669912794213e-02 1.393723709084165041e-01 5.375968369994537088e-01 -7.947542673476523101e-01 2.817007195249584539e-01
5.388822288594108390e-02 8.883938986195216714e-03 1.498346882358892740e-01 5.359736052173563747e-01 -7.494049849160001608e-01 3.887472997891547877e-01
6.268984631367237326e-02 -1.665668853680068728e-01 4.090724169956049261e-01 6.900423532078118205e-01 -6.418508776426358198e-01 3.344682371299309009e-01
1.786367796848246092e-01 -1.252227230786205348e-01 8.486686672762601413e-02 5.438619647585689609e-01 -6.857587787681918012e-01 4.836828099398482461e-01
6.478280642650799392e-02 -3.230699307281447719e-01 1.719508231497806072e-01 5.302939409114856284e-01 -6.898213026247139723e-01 4.928842731085142925e-01
1.949951739466568995e-02 -1.896134398820809031e-01 2.487913107590283557e-01 4.469584745027344597e-01 -7.634877031798024127e-01 4.661701933451112279e-01
-1.178474392474217203e-02 -1.580290123689622184e-01 3.982607708958834647e-01 6.950164346094719336e-01 -4.970192701359792964e-01 5.195421067981267349e-01
1.239152331650411887e-01 -1.778567517181705859e-01 4.281836116859974450e-01 6.129954275411321207e-01 -6.309505820913294816e-01 4.755396605671048937e-01
-5.853701043838617502e-02 -2.693296407975548923e-01 2.305748252509801366e-01 3.794432985953118953e-01 -7.156124229251706881e-01 5.864483296133391477e-01
1.121636442228888392e-02 -1.613380010889271521e-01 2.265423401385202873e-01 2.761305162976205319e-01 -7.352817459949001488e-01 6.189609777489213371e-01
7.215163567900323427e-02 -1.767334691294245030e-01 2.061495455056492898e-01 3.837852122015383283e-01 -7.256055504321857752e-01 5.711440239356659898e-01
-3.162297120789532567e-02 -1.170959919930225218e-01 1.326443497605016286e-01 2.117272439205400703e-01 -8.352911948836349021e-01 5.074053546541281712e-01
-9.339989507925193502e-02 -2.474474407370428064e-01 4.368757236638499963e-02 2.778606597159437031e-01 -7.349407502136904302e-01 6.185915837267417228e-01
8.494444843242718313e-02 -1.078655147212423948e-01 9.701280211821290689e-02 4.726845792250499168e-01 -6.972265539006797797e-01 5.389289573762205965e-01
4.141782094162640288e-02 -2.741859634555065539e-01 2.050787875966013640e-01 3.689221639801124053e-01 -7.415914032426526026e-01 5.603022644616244552e-01
5.317679792655129190e-02 -2.293600906543363516e-01 3.942609727017544474e-02 3.689221639801124053e-01 -7.415914032426526026e-01 5.603022644616244552e-01
-1.398082322807275846e-02 -2.778725509864075072e-01 1.966420024759039653e-01 3.682272450935001329e-01 -6.772027169857925966e-01 6.370283950326797173e-01
9.208248723782837264e-02 -2.741005705072451781e-01 1.558678551597201256e-01 4.570139983191540689e-01 -7.461262925892512277e-01 4.841836024147858075e-01
4.896731360992629539e-02 -2.209492188542820923e-01 1.132944531531040605e-01 4.725300316408017065e-01 -7.260831947722926616e-01 4.995183314622236859e-01
4.900306520498824703e-02 -1.988934365219004186e-01 7.616262084089808759e-02 3.357279016712786390e-01 -7.622498400989716760e-01 5.534093939467348289e-01
-3.599603780158450866e-02 -2.988757278751948410e-01 1.129851905709664261e-01 4.578943645739043666e-01 -4.955901568262513490e-01 7.380536209167948281e-01
1.108548448824545063e-01 -3.223901168780990423e-01 -1.580588073806761529e-02 3.994293989663971201e-01 -7.556180826811523810e-01 5.191314557668431640e-01
5.605281536774748413e-02 -3.104352623893068541e-01 1.564604725952498110e-01 2.819623001524390049e-01 -8.188410904275833513e-01 4.999965299080703640e-01
2.557841901570007681e-01 -3.486263906510302935e-01 9.647995884740731554e-02 4.771324745026051528e-01 -6.532086910352992160e-01 5.879311249891197022e-01
-1.404602295356404545e-02 -2.429304640630997048e-01 7.422144897982918543e-02 5.595963875045162350e-01 -7.382739221333751711e-01 3.765680535968212728e-01
5.947902300643029272e-03 -2.634032816649100051e-01 4.150739551409204919e-02 2.958573018864397164e-01 -8.048410214975421084e-01 5.144894430746554947e-01
1.450331153069298051e-01 -2.022376910131654382e-01 -1.586573581672474920e-02 3.482190408141274673e-01 -7.062307077051623860e-01 6.164265464017221197e-01
1.271827323141002178e-02 -2.187606056330416160e-01 -5.166921577625696593e-02 5.792240587893441317e-01 -6.515432594090468932e-01 4.898886310563186908e-01
1.606329633950520086e-01 -3.120745043448772682e-01 1.844719560298471034e-02 4.091778651459185290e-01 -6.952645822081541249e-01 5.909150830716284331e-01
1.314860809081607740e-01 -3.381879299124019855e-01 3.788432453743408035e-02 4.913630624786880507e-01 -5.984820234470058509e-01 6.327571480768451329e-01
-7.038662742550928775e-02 -3.283968924885005691e-01 1.272802851255719903e-01 3.809668104245656495e-01 -5.307810902029439504e-01 7.570572789676534020e-01
9.794925704530002553e-02 -1.787756222418429575e-01 2.832758216280546748e-02 4.069838303997343476e-01 -6.369629593365069287e-01 6.547078357759588130e-01
2.382483119019083648e-02 -2.798299036392933314e-01 1.161317088925277463e-01 3.151758896708968805e-01 -7.989704039713363404e-01 5.121625251304885440e-01
1.628930035679528737e-02 -3.765888478891991076e-01 7.646682824125244915e-02 3.719272117586440718e-01 -6.334358309802403664e-01 6.785493329035208188e-01
3.978478834679106679e-01 -4.042817745327331735e-01 -2.580809862013559025e-02 8.412354592074284820e-01 -5.398272478298818955e-01 3.015700038933558091e-02
3.417073678284579530e-01 -3.040613663690154844e-01 -7.924241598808872550e-03 7.924739909241518276e-01 -6.084943431493202715e-01 -4.146815722966974704e-02
2.949650351313604646e-01 -3.342746106215484514e-01 1.269684294108375799e-01 7.802660114726543972e-01 -3.700720620090784951e-01 5.042138636143441710e-01
1.484820690751396111e-01 -4.290294281026389434e-01 2.789749208169761130e-01 3.871094874958103671e-01 -6.190929044596560349e-01 6.832790208534417209e-01
1.323510489019588954e-01 -4.379768221347769552e-01 2.313043370118866848e-01 5.585957956006211145e-01 -3.883979887069689552e-01 7.328831690697300560e-01
3.424831238621481311e-01 -4.946991580086118612e-01 2.102085860910897497e-01 6.194620686957260647e-01 -3.539569904366005049e-01 7.007005026173992457e-01
3.119494330709631780e-01 -4.078210680574891334e-01 5.177841430669810618e-02 9.843286475054254803e-01 -7.089081001453546860e-02 1.614670454167751734e-01
2.497070654171450188e-01 -4.706433520322290676e-01 1.427288971975271825e-01 8.718007542168282331e-01 -4.569413645497801268e-01 1.765447090975951483e-01
6.019496790094178845e-02 -5.352738271246371138e-01 2.787895258234115436e-01 9.268946260453042596e-02 -8.728545105677434357e-01 4.790967197796584531e-01
3.813912655810173247e-01 -4.913085787812712657e-01 1.612103788966717244e-01 6.648754019574905083e-01 1.403315265408460744e-01 7.336537075014214482e-01
2.664874370741762699e-01 -5.406827000763023694e-01 7.357554443671684985e-02 7.515094213492072850e-01 1.237396560466329509e-01 6.480139559799932281e-01
2.232996619479543643e-01 -4.542672341342675058e-01 1.881955810622677472e-01 5.241517547450082887e-02 -8.644659011932102066e-01 4.999513526876271374e-01
1.944091177700607576e-01 -4.428558189574614001e-01 3.116976651395083064e-01 4.820766086487563440e-01 -9.862292513079547185e-02 8.705605447252703355e-01
2.769145931608946731e-01 -4.695524857194970370e-01 1.646879516040266056e-01 7.771683387442862578e-01 -1.064062945074283062e-01 6.202314678752157695e-01
1.612773801299006438e-01 -4.588556337907827021e-01 1.549451631861419321e-01 5.984250916450993829e-01 -1.119418299139247758e-01 7.933198827743296322e-01
1.631704395659883677e-01 -7.853742633237524862e-01 4.014478560621833059e-01 7.264781133595603346e-02 8.383702187514969761e-01 5.402385323342477896e-01
4.854998669333838723e-01 -6.797176192318086230e-01 2.633224186756294993e-01 6.843401139149227763e-01 3.111757889385760589e-01 6.594302365416414569e-01
4.937217126890354746e-01 -8.421456980909448609e-01 3.053208404141229959e-01 6.565526180751097840e-01 2.206763760387717155e-01 7.212770596359721065e-01
3.732716831344082276e-01 -8.591793848326392258e-01 8.542978815820809202e-02 8.388181002383270357e-01 -1.134925390354808300e-01 5.324505970471287153e-01
3.550875574994807327e-01 -7.985052386608414432e-01 1.932307836536231727e-01 8.300499801408323108e-01 -3.251963639342981410e-02 5.567400683595917776e-01
4.355290218267118263e-01 -7.862176253891449695e-01 1.987874922434339497e-01 7.776949619860995533e-01 5.105233883880078843e-02 6.265654034500528491e-01
2.368815437468362595e-01 -7.795020421970885183e-01 2.902351588267481630e-01 4.249994838942434128e-01 -2.178766296232429733e-01 8.785813638779523815e-01
3.702384824917417383e-01 -8.154113087132131010e-01 3.488912263774462397e-01 5.851610442839901838e-01 -2.050220583270032648e-01 7.845715441257279377e-01
3.699725988227833273e-01 -8.048263821620486036e-01 3.555643431756111417e-01 6.165987163922836967e-01 -3.351522674255940082e-01 7.123755895473055100e-01
2.983613177318795717e-01 -1.012579907573936122e+00 2.745863643440099588e-01 7.278285586629292814e-01 -2.250605909002388605e-01 6.477756707520575530e-01
3.240931915959429088e-01 -7.696295740038501254e-01 2.155734125789330047e-01 7.005047633571988008e-01 -2.458346893966321667e-01 6.699689410734921413e-01
5.233161515423209176e-01 -8.382667650509111335e-01 3.298425761184116678e-01 7.954668574882532983e-01 -3.149146676168240178e-01 5.177462996077790702e-01
1.578281442310375260e-01 -7.734826976396902420e-01 3.301182821723509520e-01 3.716934182150680166e-01 -4.805043695361667644e-01 7.943296253522522665e-01
2.716299434265569412e-01 -9.263892036269268937e-01 3.952690704126314847e-01 4.504940394323523334e-01 -5.710002057839232981e-01 6.863045136312593275e-01
3.888086963922053885e-01 -8.262618027971850854e-01 1.484878940299937111e-01 5.860112593070389009e-01 -5.666494179150897148e-01 5.792229632377055015e-01
2.847396087767929407e-01 -8.687367628869363534e-01 2.866416995012163182e-01 6.005906560044301790e-01 -4.340893267455076532e-01 6.714590980289119049e-01
3.878954249370651919e-01 -8.347848435400645473e-01 3.586678754024373306e-01 4.566457558669291261e-01 -7.445353208398804989e-01 4.869720830505351872e-01
4.461352609794644319e-01 -7.893667301548487059e-01 3.580207939199296918e-01 5.110055884383771785e-01 -7.563924563805536350e-01 4.083426753540952969e-01
4.875098744301099157e-02 -2.182310708808806177e-01 5.521983573059182498e-02 4.996016771452259642e-01 -6.730342362490991936e-01 5.453650896695435568e-01
4.563607479962671076e-02 -2.609195101839093534e-01 1.537140813272822037e-01 5.699733811331570976e-01 -6.394973183245038495e-01 5.159200758406334852e-01
2.147669701076219129e-01 8.583712346381210390e-01 1.226832065407710837e-01 3.077843115075045155e-01 8.473832676726315016e-01 4.326781890254055019e-01
1.750779836088299790e-01 1.006616495653317012e+00 2.020980935885648422e-01 1.332048988996160921e-01 9.272827537084843419e-01 3.498616149050269297e-01
-2.265300708672384200e-01 -2.130088257960914278e-01 7.437674845142960844e-04 4.971991344030169402e-01 -5.960551609754490832e-01 6.304849449617508927e-01
3.512444111684133452e-02 -5.452238796284287758e-01 1.651903161987900437e-01 5.562546722559956747e-01 -6.525851820234148670e-01 5.145029832730235730e-01
2.901105952390937992e-02 -3.139771375122446528e-01 2.786079165315077238e-02 6.148049716250362229e-01 -6.388460010662030397e-01 4.624831172992799333e-01
1.369651185508063973e-01 -1.964295278888342766e-01 -4.094514406781815663e-02 4.313093222834535889e-01 -4.176481733946614261e-01 7.997138686877268698e-01
1.073206379300132296e-01 -4.739903007732467755e-01 2.512614357160017908e-01 1.332284966348886157e-01 7.853605455154301085e-01 6.045320349097419443e-01
6.253577197373480501e-02 -4.432171429231915871e-01 1.949925572962156184e-01 1.306968603179812227e-01 9.395625098941882136e-01 3.164500287633981723e-01
2.549292233314529588e-01 -4.476376470040790423e-01 1.550957057168201314e-01 5.295458560320625008e-01 -3.250429510471209982e-01 7.835357466854010466e-01
8.758973779075547583e-02 6.433099076565228502e-01 5.668358931088364194e-01 3.572806311690371883e-01 3.969859142008236308e-01 8.454305024764547927e-01
3.936056146562676855e-02 8.904076971632988169e-01 3.149444694135294931e-01 9.082317211254208045e-02 4.928314494400111712e-01 8.653717778216905021e-01
1.637889470044017470e-01 -2.725281165430939317e-02 4.530084917202139017e-01 -3.248692518571841790e-03 -9.373644636213667169e-01 3.483350518347919644e-01
-1.087253154305839603e-01 -4.448945956914637789e-02 5.471448616953864530e-01 -1.628839708487765381e-01 -8.186879043619383900e-01 5.506531824043081613e-01
7.750811739269573841e-02 -4.430162809999868001e-01 2.915696405341056119e-01 2.019802243709657441e-01 -9.233279985071370932e-01 3.266028109736024421e-01
7.548952801416463840e-03 -8.741358454768936026e-01 3.495752707507717716e-01 1.325507624765226711e-01 -7.393884046497168905e-01 6.601023272466466363e-01
7.050337534903336478e-02 1.248924860666127123e-02 5.181241683689348232e-01 5.146732748403151092e-01 -1.231000434477532018e-01 8.485032701576974423e-01
-1.371605578911762324e-02 -4.345352220180956349e-01 2.596882724278433141e-01 4.544755465903182329e-02 8.473009273053161428e-01 5.291650577684299250e-01
2.330746353649600366e-01 -6.313185564150509965e-02 3.771702738936794641e-01 7.793829847875611838e-01 -6.034969263203630030e-01 1.683853406490797566e-01
3.014527432237112947e-01 -1.273290701721330742e-01 3.158497949860940013e-01 6.655445120677495607e-01 -6.874278930194933634e-01 2.906774747985834129e-01
4.071546644552737071e-01 -4.353181649357755756e-01 1.096427651779420809e-01 8.070021074805016070e-01 -2.236923486303035724e-01 5.465430739532681770e-01
3.907736781956123728e-01 -3.977713363380950273e-01 8.565427375530673682e-02 5.835618724804176871e-01 -8.041459067200537048e-01 1.131587455415240806e-01
3.732206886191649087e-01 -5.788440190116274087e-01 1.117819856387778643e-01 7.781120810922544928e-01 1.362980232763379984e-01 6.131593904599712541e-01
2.443991190782102696e-01 -2.734056510970280796e-01 6.439681483760623104e-02 3.139430232444253566e-01 8.790661140764978176e-01 3.587234941268774846e-01
3.521931200232132908e-01 -3.786378633749756251e-01 1.228271544376194069e-01 1.263976284361998104e-01 9.555415575513551696e-01 2.663906366936245607e-01
1.884471792256667277e-01 -2.751171650216630571e-01 7.421055394808394323e-02 1.939341521907740340e-01 9.439273914507382290e-01 2.671902398723621785e-01
2.750117223800771504e-01 -4.470323329220466380e-01 1.782643181489746986e-01 7.355048810289391836e-01 -3.695580723560651371e-01 5.678550881510838755e-01
4.134527124820602251e-01 -7.110094100095478709e-01 1.163648628673267238e-01 6.810312787085305297e-01 3.712593171024051175e-01 6.311599772524232321e-01
2.064398759465734257e-01 2.311210920638838706e-01 4.884632101268194804e-01 8.672929915600374740e-01 -9.274865937693670126e-02 4.890813357455196519e-01
1.725670011979261453e-01 4.343206947041022836e-02 4.705945169865865529e-01 8.687441998936735743e-01 -1.161619029003584380e-01 4.814456640843998159e-01
2.456179948663354540e-01 8.359589134787344111e-01 3.722167000533284087e-01 5.675838344829726712e-01 4.502233052225013132e-01 6.893094851140030288e-01
2.583401519838947058e-01 8.505429392022286761e-01 3.253201834287774430e-01 6.938399937566970266e-01 4.709091544603263846e-01 5.448216509181396106e-01
2.413248860236979487e-01 1.794724547070618015e-01 4.329895822052285403e-01 7.108459837317150365e-01 -2.073632877112298045e-01 6.720851540705835570e-01
8.194857069148069051e-02 1.422938080909628422e-01 6.092947924229402679e-01 4.552725251305539400e-01 -3.617451579316467020e-02 8.896169581726617315e-01
2.092591904664251878e-01 6.748599147248703911e-01 3.716693022004516345e-01 4.286900464602889094e-01 4.427483015270293198e-01 7.875270062422026207e-01
4.999114061612389692e-01 2.482790063448581386e-01 1.186965807693231567e-01 6.503882816171072667e-01 -5.446877692358935708e-01 5.294434031886434688e-01
3.052648353571968953e-01 -3.768125181856596950e-01 -1.060673020567113323e-01 7.870206841506106610e-01 6.166979924559592430e-01 1.679371370169420105e-02
3.023940147297842218e-01 -7.262199179349211331e-01 -2.531557249029781631e-01 9.475381669540176022e-01 2.639554366095853144e-01 -1.802746506019727579e-01
4.688187476191293390e-01 -7.489017483593305435e-01 -2.255225629725981784e-01 9.933911354644918701e-01 9.584652642968650993e-02 -6.314661789780176560e-02
4.499249065708168516e-01 6.588360953440126622e-01 3.081374353410602507e-01 5.346839400200872339e-01 6.974844664865580413e-01 4.771042897465472832e-01
3.256053799379352576e-01 7.259469598358370135e-01 3.936045240207680651e-01 7.509205691898881430e-01 4.451060964528864572e-01 4.878512700280774883e-01
3.050759646472039899e-01 6.355247032347247638e-01 4.927562740687278509e-01 9.072514251376726513e-01 4.103550899758213188e-01 9.221470444889720564e-02
3.801015445854115660e-01 6.408815017234105182e-01 2.500102379212713055e-01 8.220825039543577795e-01 -3.479432381163700683e-01 4.506837691122551615e-01
4.318033211582317232e-01 5.851419196894434016e-01 3.199570803606136549e-01 9.218406728179190379e-01 3.177821178968218835e-02 3.862640537172162269e-01
3.020613666596208557e-01 4.308568393831185284e-01 2.724352223512337967e-01 8.969305368520288368e-01 1.473208494039484895e-01 4.169078787852666390e-01
4.129285214805819004e-01 3.115148207563949168e-01 3.458642123726138329e-01 7.345175428629373560e-01 -6.533405761327631955e-01 1.833850342996992955e-01
3.993219715391598257e-01 3.920880931817791737e-01 3.974000056126686387e-01 3.689832734505146261e-01 -6.274628461054588824e-01 6.856688126719632237e-01
4.764056365338575350e-01 2.750091369734902758e-01 1.239704835575849706e-01 5.274202102733359654e-01 -6.444771724713720396e-01 5.536037354990801518e-01
4.037025697924503942e-01 3.869369099459940564e-01 4.935754064752344572e-01 5.210394991430948863e-01 -8.503044803913093475e-01 -7.416286779230010784e-02
3.997149982132805479e-01 2.958033470393779951e-01 6.257421905027577003e-02 7.196510478865260074e-01 -4.863184176352104982e-01 4.955772048274718067e-01
2.880077418343468532e-01 1.048278305212929779e-01 -1.112626954102189647e-01 6.114943775624884781e-01 -5.298961365224480469e-01 5.876093180915767933e-01
1.823568728631650149e-01 -8.012741107386327222e-02 1.875669910816266384e-01 6.624653343307959075e-01 -7.380198793276205871e-01 1.283212317866028740e-01
3.631840603077118312e-01 -4.678861534596218674e-01 -8.537869002095999083e-02 9.701857799530574367e-01 1.248664239397444253e-01 2.077207946965770879e-01
3.686073755616757763e-01 -4.904968216592999197e-01 1.329399728492079991e-01 4.553617833427484052e-01 -8.551709643522442672e-01 2.476454481708965927e-01
3.954452802356989150e-01 -8.105222464597685583e-01 1.677839918543530540e-01 8.419892319076737186e-01 -2.974779657280313128e-01 4.500677651841307747e-01
4.718642863070361959e-01 -7.508823072858573644e-01 1.522469526801161765e-01 9.466723237989266293e-01 -1.237264817283754148e-01 2.974949899952233912e-01
-1.713934030253375651e-01 9.261761467805436077e-01 5.040158777647355537e-01 -2.328513019501868009e-01 7.192325170797142508e-01 6.545875476628635337e-01
3.531912805706804992e-04 8.696420547118701716e-01 4.049821989408164402e-01 -2.875253536746426586e-01 7.445262158722126822e-01 6.025030164847933190e-01
1.867105745541136619e-03 7.556867631663339857e-01 4.685483053665688846e-01 9.706951532746674327e-02 6.623296317450284576e-01 7.428976834710051547e-01
-1.056405359925740584e-01 7.417750213710389007e-01 5.038424933960892194e-01 5.377984551766017418e-01 1.415430522796209956e-01 8.311067235686577792e-01
1.195474204419794961e-01 8.066903639609617205e-01 4.907696946032064633e-01 -2.411084066981115936e-01 4.500964548571612656e-01 8.598138854103912765e-01
-4.982725815501893446e-02 7.575512798902971356e-01 6.105833347275808620e-01 -2.141398486752374986e-01 5.978078169131985087e-01 7.725088603031178280e-01
-2.101746237917732907e-01 8.069944626845052538e-01 5.512557548618215453e-01 3.620782508094505525e-01 3.787861349271718359e-01 8.517161524109443382e-01
1.597786762095967650e-01 7.822192214729082327e-01 3.454442989658484398e-01 7.496761169719869944e-01 4.593812113935266117e-01 4.763975464466831400e-01
1.319639195346265087e-02 6.617538957827543422e-01 5.551693440099660926e-01 -4.279363352763673051e-02 6.446073914966605756e-01 7.633151483872001597e-01
-1.320400771091040371e-01 6.897851546904265607e-01 5.698799272051555675e-01 -2.665744253912319395e-01 1.971366968228746297e-01 9.434379674854624920e-01
-1.029615972468300444e-01 7.356289945367472383e-01 5.522222338931624952e-01 -1.389126282422427361e-01 5.466745343631868037e-01 8.257422328993625493e-01
2.141128014950148262e-01 7.909594569286144683e-01 4.279115283233992928e-01 3.657405098005547806e-01 4.096366574724212839e-01 8.357222555045739076e-01
1.506782894891676161e-01 6.571908925836870141e-01 4.744083919174983954e-01 1.124201731823350203e-01 3.200729163852301662e-01 9.406992255010669934e-01
-1.140728848253610289e-01 7.360793543049756193e-01 5.437955031698449293e-01 -1.552612872582624925e-01 3.774827214899988403e-01 9.129078418194310762e-01
-1.012477508576893337e-01 6.822094672827326844e-01 5.197014080806776626e-01 -4.488004681205708113e-02 6.956604545419404761e-01 7.169674423463372470e-01
-2.365452479434943800e-01 6.882629929291684823e-01 5.138943723759028526e-01 -3.128301768630810109e-01 3.591649102161256213e-01 8.792825755769619889e-01
-2.656977602194599344e-03 6.618040561655763598e-01 4.680841793309869492e-01 5.663932498280172673e-02 6.382809478938880066e-01 7.677170171496606743e-01
