-3.767358585818267880e-01 -6.226948438960494547e-02 -3.682906813304258065e-01 9.618917910949710548e-02 -1.707375967032927488e-01 -9.806101747862014939e-01
-5.856096890335490412e-01 -2.478823005734112628e-01 -3.720078316313402689e-01 -9.051161510740991512e-01 -8.690464806907624573e-02 4.161878604774510992e-01
-4.866073245553974580e-01 -1.883543362248871200e-01 -4.327541871911526061e-01 -8.813893485763941715e-01 4.470963680199586676e-01 1.525046029450951302e-01
-4.908800214454516198e-01 -3.734126686244966797e-01 -3.994776757124568478e-01 -8.658506273177786206e-01 -1.124405409750032364e-01 4.875036573387507843e-01
-4.534234587890706436e-01 -2.537102591396816487e-01 -3.701898258445771028e-01 -9.946097094716848108e-01 -6.556700205352039568e-02 8.032741789927307086e-02
-4.680175727658138496e-01 -1.078483307104102923e-01 -3.727645392721926632e-01 4.763928807888335726e-01 8.272546685640181918e-01 -2.978246740496036660e-01
-5.053350447447394478e-01 -2.135862026449085183e-01 -2.618563218554199601e-01 -8.617360966861729032e-01 -1.240719712866190094e-01 4.919522798088564186e-01
-4.649098494468123510e-01 -1.146659968970965560e-01 -3.689794832043324924e-01 -4.726970452487924690e-01 -2.092158394923025189e-01 -8.560293429074684601e-01
-5.310150830920912224e-01 -5.334984694999168192e-02 -4.123018296549355033e-01 6.209236107657152282e-01 4.622572187188859760e-01 -6.330656627364548150e-01
-5.908619212172711022e-01 -2.161238050804838995e-01 -2.611272640631442932e-01 -5.629971327617508958e-01 1.460327704111678837e-01 -8.134547673153600389e-01
-5.092230645137962863e-01 -1.333003418222820924e-01 -2.971292289196744707e-01 -8.945870289702172462e-01 -2.050915353932382945e-01 3.970535350658443430e-01
-4.351071262542003937e-01 -1.646364825766322149e-01 -2.541030609325178879e-01 -8.103674535893558017e-01 -1.802043498693658430e-01 5.575221811293811225e-01
-5.380097773314554965e-01 -2.102138239243770135e-01 -2.626476938522374072e-01 -8.222187317902884818e-01 -1.313764539202339765e-01 5.538019361184232103e-01
-5.765116908245145888e-01 -2.766546632507881354e-01 -2.397934732203617081e-01 -8.222187317902884818e-01 -1.313764539202339765e-01 5.538019361184232103e-01
-3.447466879684235042e-01 -1.851619007615753210e-01 -3.464198825295271567e-01 -8.262555337651210641e-01 -2.066059188903447419e-01 5.240379635121783508e-01
-6.126194140680633060e-01 -1.751936635192494762e-01 -3.615717251293059098e-01 -9.933816788280739329e-01 -9.238888718147296453e-02 -6.824319522184235653e-02
-5.023406371288585692e-01 -1.786329638871163028e-01 -3.165330647703747391e-01 -7.493083773737866382e-01 6.127511930860518596e-01 -2.511432479066143530e-01
-5.469280791838422306e-01 -4.860597004441608027e-02 -3.275555622691496693e-01 -5.827349647241316655e-01 8.126361012091282143e-01 -6.521341855199854452e-03
-5.301430285807181564e-01 -1.143066747924625509e-01 -2.786388525881831058e-01 -9.455287717972359340e-01 -2.172450751533739621e-01 2.424457032517083610e-01
-5.948545228512889249e-01 -1.892170757355651767e-01 -4.713428065407992418e-01 -8.917180191688939273e-02 -2.900587833071118227e-01 -9.528453662422319281e-01
-4.818333268474652709e-01 -2.190741234186379116e-01 -4.516265966346346694e-01 -1.533150208688343619e-01 -5.011425364399707538e-02 -9.869058039943295890e-01
-5.632990935289470258e-01 -2.191672608914182474e-01 -3.166801005207228736e-01 -3.828145719610719366e-01 -4.061794746175523274e-01 -8.297416693728660864e-01
-4.944423695763008331e-01 -1.306425285626504618e-01 -2.767203690355508061e-01 -8.392830035304890135e-01 -1.656835371142745816e-01 5.178349211033801414e-01
-6.297823947151426349e-01 -9.834179703423438779e-02 -4.216058658802171455e-01 -9.737933262707396675e-01 1.759550578602393500e-01 -1.441054312785217950e-01
-6.084112293668336724e-01 -1.820777993292362340e-01 -3.646014652333293693e-01 -9.623184936257789257e-01 -2.665517020887382404e-01 5.378946866634875396e-02
-5.551953089305401434e-01 -3.973609336298268568e-02 -3.664404640542005542e-01 -9.429723621488085294e-01 -2.486783688226625322e-01 2.212740226578718272e-01
-5.288304251427181635e-01 9.637983525506377269e-03 -4.440014929418312217e-01 -8.978340558554771533e-01 3.301468743264370231e-01 2.913709826296843608e-01
-5.845364463292673785e-01 -1.805566929600042059e-01 -3.749491973048271198e-01 -9.717200635319539481e-01 -2.169589136766077175e-01 -9.321452625917098223e-02
-5.799712771390780341e-01 -2.643744981345374501e-01 -2.385201844999484955e-01 -8.082720101949480984e-01 -2.685603751730702982e-01 5.239958801577712100e-01
-5.493521577980736703e-01 -1.358048788347264724e-01 -3.344788627416954707e-01 -4.053655112752988510e-01 -6.352954962158757768e-01 -6.573267336388651794e-01
-5.523858671175948531e-01 -1.717232149522321116e-01 -3.457201402927013167e-01 -8.092788372552873755e-01 -3.747604161876507689e-01 4.523520686695141069e-01
-7.522375839309984880e-01 -1.013923107343116942e-01 -3.804731374555505585e-01 -8.222126393025135371e-01 -2.929935654323528871e-01 4.879765838505291664e-01
-4.994519812166236528e-01 -7.847845364287740766e-02 -4.031941214401316143e-01 -7.635130297117829201e-01 1.022226654972327453e-01 -6.376506724837470719e-01
-5.285126774803429184e-01 -1.657345564499146939e-01 -2.404564239955840343e-01 -8.122140857094456434e-01 -4.633742589629591402e-01 3.543904275029136075e-01
-5.818816972098751483e-01 -1.525565159121181902e-01 -2.660264118283134360e-01 -6.660117874645101743e-01 6.071336904695132652e-01 4.333785652927441001e-01
-5.369296946620218947e-01 -1.415380181050994723e-01 -3.536997118698740339e-01 -8.411500722957246934e-01 -3.587494829588561140e-01 4.046793352194432702e-01
-5.418085227997879727e-01 -1.008723877986927170e-01 -3.053563158592803584e-01 -8.923469067240559216e-01 -3.182538022347093376e-01 3.200492390604289805e-01
-6.036462585487137877e-01 -9.472138808660778009e-02 -5.156252373493370733e-01 -8.035929623419051371e-01 -3.567098976038046709e-01 -4.764413918060064201e-01
-5.696986561918282455e-01 -8.061044472565417895e-02 -2.550294136389796851e-01 -8.943194423641523949e-01 3.830169245780283283e-01 2.312807179517142042e-01
-5.009678351440316479e-01 -1.199880195969755536e-01 -2.567050810968722341e-01 -7.570395379562578908e-01 -5.383015212415052098e-01 3.703007024028675542e-01
-5.505871953173826494e-01 -1.192480205386864112e-01 -4.245607713768437264e-01 -6.601304025374361562e-01 7.048905588943110700e-01 -2.595325637129726748e-01
-5.550360248149709408e-01 -1.536138061511505004e-02 -2.258180407903345177e-01 -8.006816540370523816e-01 2.729025413261358946e-01 5.333226901475566217e-01
-5.050875031024298911e-01 -1.380183836083811455e-01 -3.466025645465137250e-01 -6.953720107691093721e-01 2.419905120543799082e-01 6.766818740845543800e-01
-4.727170828662308200e-01 -2.139145498259017314e-02 -2.946665127079114987e-01 -7.679308975019286665e-01 5.574111788421669544e-01 3.155549308181830881e-01
-5.444440455922502364e-01 -8.032763860993691329e-02 -3.097610665353611736e-01 -7.581939645777955317e-01 2.398514501196145343e-01 6.063111362603550436e-01
-5.489135717399071801e-01 4.481547029164760498e-02 -2.323278852794640748e-01 -7.439446954314963278e-01 3.498505774895077636e-01 5.693424835453579913e-01
-5.616786246416454187e-01 -5.364133601222252634e-02 -3.052808536203560075e-01 -7.874084706329109729e-01 2.279436851653683926e-01 5.727386635881777099e-01
-4.254243303280337285e-01 -6.629555781045626262e-02 -2.490241289137453129e-01 -8.912104550674978531e-01 4.168482481857222477e-01 1.788336175412157947e-01
-5.614916600594579421e-01 -2.703799010703260980e-02 -2.842910934140099877e-01 -7.542010762919795219e-01 4.909245534483244189e-01 4.360892332328130672e-01
-4.952098100875580444e-01 -1.546171778004740427e-01 -3.499174014011722234e-01 -8.770200318174391496e-01 -9.587883272208883034e-02 -4.707898822476834222e-01
-5.122037158193567530e-01 -1.033435894535741917e-01 -1.832327522000734565e-01 -7.505835805005076633e-01 2.313203118029738548e-01 6.189630053811072674e-01
-4.312055934528817858e-01 -1.633747216910297340e-01 -1.810085642416644214e-01 -7.143039472424540515e-01 3.408612139039555178e-01 6.112147771526561524e-01
-5.231326235200293162e-01 -6.728746374291608157e-02 -2.216946639317645129e-01 -7.608193318428962959e-01 2.783376683035261867e-01 5.862440504580709311e-01
-6.243044372058764724e-01 -1.082288496626403335e-01 -3.887452340117656391e-01 -2.527854269435860779e-01 9.674923442785492433e-01 7.621790297955201993e-03
-5.567706648980402795e-01 -9.149202379877630076e-02 -4.367785961299713859e-01 -7.300239027333893516e-01 3.425857634669516871e-01 5.913544589395406392e-01
-4.435033856754216908e-01 -6.444513558309072909e-02 -2.136789892011180803e-01 -7.274287214214683051e-01 2.367490009016711972e-01 6.440476425103879299e-01
-4.712561315680710572e-01 -6.296416985178515668e-02 -1.886415777152122275e-01 -7.047754213903302256e-01 2.185163611522842053e-01 6.749386678157112129e-01
-6.022844830273901273e-01 -1.159748225965865909e-01 -2.389667735442425889e-01 -6.754467711780464123e-01 2.991142697737156353e-01 6.740195196898146612e-01
-4.734122354482960260e-01 -1.677467821308223084e-01 1.565065841608863362e-01 -5.400794792172268766e-01 2.601339782558114155e-01 -8.004026920777154164e-01
-6.141535217290190474e-01 -2.151621134611218511e-01 1.682065251890866031e-01 -6.845485464554770250e-01 -1.185400390798061060e-01 -7.192645873951055702e-01
-4.381350050052756906e-01 -1.049269283395567187e-01 -3.463282403758455308e-03 -6.880147161471372730e-01 -1.354656505553010204e-01 -7.129409568011950693e-01
-4.425746684920477403e-01 -1.013190889641894799e-01 8.917356647042312678e-02 -4.641487670369610630e-01 3.880674315862853718e-01 -7.962220736704631596e-01
-4.511006752060447433e-01 -1.135535363916849866e-01 2.702038492994073282e-01 -6.387132499411477538e-01 1.371290781673437931e-01 -7.571268059384711480e-01
-5.022748722918617403e-01 -1.251410816191284581e-01 3.155793747185559051e-02 -6.688628058548179434e-01 -1.540140292155109114e-01 -7.272566436608358664e-01
-4.554259786014345224e-01 -1.982172660105747386e-01 6.631459234138989411e-02 -6.639064249157653474e-01 -1.484288724628078926e-01 -7.329373293638321574e-01
-5.186434086994358150e-01 -2.662439803247937387e-01 2.127052303356500584e-01 -6.659641032866200350e-01 -1.156811928493164804e-01 -7.369597511089782671e-01
-6.360417269944437235e-01 -5.887237258818988489e-02 1.648106891221833847e-01 -5.231166256176374985e-01 2.854870950414922226e-01 -8.030231096096714927e-01
-4.684543317680830987e-01 -1.855943147679077476e-02 1.080905103602153583e-01 -4.870947797631062226e-01 3.709869763874327209e-01 -7.906372991950491036e-01
-4.290461052814428800e-01 -2.703100832648769880e-01 7.089324594619843267e-02 -6.232915524806688090e-01 -1.403014137773559156e-01 -7.693004314949478673e-01
-5.508327656972220598e-01 -2.016977536025381934e-01 1.391421353158957264e-01 -6.441226308017704572e-01 -1.724233779043475023e-01 -7.452356776490647317e-01
-4.041733014974276950e-01 -1.842111396351057695e-01 1.838347738360782690e-01 -6.406359896525216646e-01 -1.489803228044843941e-01 -7.532532058869750857e-01
-6.511403806936308936e-01 -3.256847519719883177e-01 2.095515766618281650e-01 -6.598979955374009165e-01 -1.762261500999901531e-01 -7.303964536514782058e-01
-4.990902540652760178e-01 -1.969489333630701500e-01 6.589228064508513560e-02 -6.598979955374009165e-01 -1.762261500999901531e-01 -7.303964536514782058e-01
-4.280434074435458536e-01 -4.887621299226564686e-02 7.233336418501074006e-02 -6.468620196768494202e-01 -2.314640004238684157e-01 -7.266319178286669844e-01
-4.244543562046869667e-01 -6.707808836936236807e-02 6.809441054337682375e-02 -6.985706300853047335e-01 -3.341667777504152004e-01 -6.327176617023780869e-01
-4.538978254748843311e-01 -2.566668597762056803e-01 1.712684543684336869e-02 -6.936736522616697709e-01 -1.710103584396593934e-01 -6.996944486447603806e-01
-5.150003599970871537e-01 -1.408167893013473337e-01 2.087984961147260343e-01 -7.466274121406858422e-01 -5.305356404380244528e-02 -6.631235381000682994e-01
-5.899023330665379428e-01 -1.934508925980469307e-01 2.483002576133502559e-01 -7.853922388344433125e-01 -4.305711394072766346e-02 -6.174990818760104361e-01
-5.042588859733295736e-01 -2.378583575609742873e-01 3.037905150893544515e-01 -7.539555671610668197e-01 -6.215995458646611516e-02 -6.539779375427299257e-01
-6.295745876210150360e-01 -1.128365885718700112e-01 1.721607015434806764e-01 -7.339224477546050229e-01 -8.759293529148352853e-02 -6.735616663445976871e-01
-5.122438831960255401e-01 -1.396694341687936824e-01 2.403656920227160987e-01 -7.413986598380675197e-01 -7.241421836040300153e-02 -6.671463169122417991e-01
-4.568155944090575571e-01 -2.364272940093373188e-01 2.000972621063528134e-01 -7.250868398790684122e-01 -1.118025810946773335e-01 -6.795213443996842573e-01
-4.589091113726807558e-01 -8.671487403396899163e-02 1.271651219414433320e-01 -7.086206061792803546e-01 -1.153251088007813119e-01 -6.961012539697060131e-01
-6.589793136676581620e-01 -3.688064268883455010e-02 2.153102791869799248e-01 -8.269287871633166365e-01 -3.377603782028962970e-02 -5.612913327584602152e-01
-4.826230399973395757e-01 -1.336584137842461439e-01 1.258839166364853490e-01 -7.295766812811902424e-01 -1.571265412164194186e-01 -6.656043240365024927e-01
-5.949072112681637048e-01 -1.815014059887422870e-01 2.294613153312766995e-01 -8.189982925435900230e-01 -7.425733386934327274e-02 -5.689706892075382383e-01
-4.295600852186723939e-01 -2.936827153021830117e-02 2.344354247749350084e-01 -7.789967287242539618e-01 -2.229500830416333568e-01 -5.860523501434319327e-01
-4.414213609615047496e-01 -5.776939646116225485e-02 2.131425486615998732e-01 -6.090684476560624949e-01 2.164490670552378648e-01 -7.630107649573178996e-01
-6.627070046826923910e-01 -9.762104459564480141e-02 2.000231995174991118e-01 -7.690855405805967493e-01 -2.738037923203586188e-01 -5.775282803299255363e-01
-4.730616963010366716e-01 1.563253163717295835e-02 -1.720204617907999389e-01 -7.358472809822299565e-01 1.166190231980197833e-01 6.670298212969183460e-01
-3.891295423729425051e-01 -8.777236797979759420e-03 1.845284164845012176e-01 -4.684315132315924335e-01 3.928443896395947821e-01 -7.913565586638269256e-01
-5.821912684306291830e-01 -3.128409779221580367e-02 2.749548342837588311e-01 -6.289027111267088133e-01 2.014294037888482158e-01 -7.509377971754681580e-01
-5.709633484965492833e-01 -1.129825248988311770e-01 2.187510461626304969e-01 -5.603041246551100363e-01 2.802163745646685244e-01 -7.794472857867325022e-01
-4.013031522477539248e-01 2.449295078325419706e-03 1.342984491044843243e-01 -5.672340934019616254e-01 1.954720472232246431e-01 -8.000226009537579897e-01
-4.342234166021631814e-01 -9.583691931525084584e-04 5.402318989112443737e-02 -6.386343188203852383e-01 1.433026728149536522e-01 -7.560493044695648646e-01
-4.329139925615264062e-01 -1.572437214106975067e-01 7.675164923000318828e-02 -6.366483533706102094e-01 1.287199645740432774e-01 -7.603354817911284202e-01
-4.727781499955104327e-01 -1.081526552004823671e-01 1.222624175382650835e-01 -5.592345041154209717e-01 3.342421304967513329e-01 -7.586428458818892384e-01
-4.765309294536361762e-01 -6.681255250758660891e-02 1.517315841759524497e-01 -6.133390644299056005e-01 1.901413670718695437e-01 -7.665907986483329051e-01
-4.785129789973874281e-01 -1.124782159983369195e-01 3.343590662815211223e-01 -4.507813770579719992e-01 3.857660756485093434e-01 -8.049724746700764877e-01
-5.750673094924382278e-01 -1.862853542818336261e-01 2.634066724913756707e-01 3.851813879737652768e-01 7.597551971027106665e-01 5.238390390511430406e-01
-5.799255603635073975e-01 -1.014823599761939532e-01 2.515082159506183412e-01 -7.752074158011585947e-01 -5.333257669306715187e-02 -6.294514268394090228e-01
-5.885123980456347104e-01 -1.865048150501935620e-02 2.531907451279563070e-01 -7.657291705441746643e-01 -1.673158519979353609e-01 -6.210187139273143364e-01
-5.344953498344624521e-01 -6.675303376648053511e-04 2.878414693549040115e-01 -7.484055549344490466e-01 1.756849259139411645e-01 6.395497886403155308e-01
-5.448567323024583464e-01 -1.339638543482312427e-01 2.504215489117744831e-01 -7.716448075934236872e-01 -1.288105244508719605e-01 -6.228740961902327067e-01
-5.262838338932588345e-01 2.648390618664973883e-02 3.524921407636184001e-01 -9.234984257474745384e-01 1.646997170433759927e-01 -3.464457545529576743e-01
-5.094210045884784988e-01 -1.763423809511045492e-01 1.818379241818410541e-01 -7.504903934927652509e-01 -7.887334922353100852e-02 -6.561578804352937722e-01
-5.585196455091395729e-01 -7.062833186764638782e-02 2.121356639675357481e-01 -7.630130637069970634e-01 -1.052417417732691013e-01 -6.377579794882934916e-01
-5.098711635726155267e-01 -1.079841425907780150e-01 1.023520409253985408e-01 -6.927937612345312912e-01 6.954359044905686175e-03 -7.211022405212631492e-01
-5.233242611266105682e-01 9.503808891429151029e-02 -3.114492180367283147e-01 -8.924178224944115945e-01 2.509877892501349295e-01 3.749607442675338964e-01
-5.156724997296029400e-01 -9.694378450898698263e-02 2.164071616518654373e-01 -8.702647019439757603e-01 -1.589436383082586113e-01 -4.662362795747415078e-01
-3.718836438394212407e-01 -2.971272923706443081e-02 -3.346555436589686572e-01 -8.165738133194729853e-01 4.441511022195779312e-01 3.686963598925660501e-01
-6.585805561311066647e-01 -1.127264909430563955e-01 2.213112804957457214e-01 -8.206210364297259474e-01 -1.777401720488927805e-01 -5.431294006118911888e-01
-5.519103745813010997e-01 -8.264031849322898970e-02 -3.091174924116398826e-01 -8.197625554375328472e-01 1.973846527601698653e-01 5.376138498562634815e-01
-4.957600664188784312e-01 4.867348765056238313e-02 -2.656111022445565295e-01 -8.051724396474230216e-01 1.868638713571001697e-01 5.628314454733794880e-01
-5.553163272537799955e-01 -1.269858337227055267e-01 -2.846809224441003705e-01 -7.821150095003810421e-01 1.966310808158999168e-01 5.912971587716194799e-01
-6.411425093331807323e-01 -1.628243442199781288e-01 3.941454605326116245e-01 -8.854670839883079791e-01 -9.174604202469911762e-02 -4.555553829624285900e-01
-5.959667571925683083e-01 -6.155976585738596324e-02 2.658587438464426467e-01 -7.720237080996320556e-01 -2.473460620588275038e-01 -5.854906657804930248e-01
-6.419994774142487870e-01 -5.859618363354551773e-03 3.106886443207045323e-01 -1.847718540675150622e-01 7.618999473914260800e-01 6.207800190964550824e-01
-6.219173054548196022e-01 -1.844226056674722614e-01 2.230066641541677552e-01 -9.587974771040266297e-01 -2.818101463035899146e-01 3.592268558032294529e-02
-6.835745419192028605e-01 -7.129964999430940531e-02 2.839598336956385971e-01 -9.064084982277808011e-01 1.951996950930642016e-01 3.745940647901856990e-01
-5.953463645719917485e-01 -1.622501566435642362e-01 2.021339208413287791e-01 -7.555248913017578172e-01 -4.083525864448987464e-01 5.122795172239745787e-01
-4.632306433498788456e-01 -1.690275385622501403e-02 1.594117373882884270e-01 -6.873028090276001034e-01 2.001683187913647910e-01 -6.982460117000375277e-01
-4.844245796862851616e-01 -4.315588255822164210e-02 2.472834413280377563e-01 -6.535645413105413137e-01 1.737524866921970890e-01 -7.366569511718596974e-01
-4.785512829223893538e-01 -1.117521152573410642e-01 2.313155320712189378e-01 -2.702516138515244637e-01 8.103861205949052238e-01 -5.198445928907852176e-01
-5.801121624012152145e-01 -5.776600446006976974e-02 3.214153989107608189e-01 -4.995798931738394955e-01 6.390190825982862144e-01 -5.848713896333619378e-01
-4.584292625609374672e-01 1.421546880168411686e-02 2.860634439204634560e-01 -6.263057532392538596e-01 2.659200277627497000e-01 -7.328216988422689981e-01
-4.851736302838886017e-01 -1.174454668377425404e-01 2.699073986826129312e-01 -5.086584720959205219e-01 3.805885750169700765e-01 -7.722816165956533085e-01
-5.452810554034309698e-01 -4.340263877031305673e-02 2.310868660861613855e-01 -6.112612029194488539e-01 2.362805065287391371e-01 -7.553351997888028135e-01
-4.839832088825041789e-01 -1.280836394380966137e-01 2.320060251749886115e-01 -5.778997206248979168e-01 3.128559740328326066e-01 -7.537592801509196416e-01
-5.810512335706441434e-01 -1.316033292907768937e-01 1.229241002683413991e-01 -4.968257087962339447e-01 4.422490202636197854e-01 -7.467128090203006829e-01
-4.643016820400142075e-01 -8.060797994988486148e-02 4.170791808651453381e-01 1.083178497156207093e-01 9.727748329667618155e-01 2.048813504921152551e-01
-5.073872597123083583e-01 -1.765054084921779398e-01 2.561732447244069455e-01 -5.814523204726028682e-01 4.604029148219115908e-01 -6.707774258578721449e-01
-6.049691929044077598e-01 1.430705768102501219e-02 3.004448283637535244e-01 -6.396987679595502740e-01 5.971622463785719592e-01 -4.839243099608979137e-01
-6.348981772194993711e-01 1.100693619812902202e-02 1.650429307842285476e-01 -4.874800401989172749e-01 5.265242446129694276e-01 -6.965166403198159717e-01
-5.664863382155750360e-01 -1.094787351453450908e-01 3.577360016241746266e-01 -2.976306801399548618e-01 7.681734519193791355e-01 5.668558247082702284e-01
-6.226635081451059595e-01 1.074492487082566172e-01 2.013508513960838575e-01 -2.358690607209001644e-01 9.715500454948291509e-01 2.136106958080156645e-02
-7.197998087451533689e-01 -2.793611171380797620e-01 4.498773741090925649e-01 -9.752988677360195924e-01 1.159537644290038749e-01 1.880075613042766769e-01
-8.063480550732242680e-01 -3.475856983524694410e-01 2.882243112255400974e-01 -2.029113134456364542e-01 -1.166125926590102085e-01 9.722286264604176331e-01
-7.325340331116236836e-01 -1.478270478819440625e-01 4.274805506509545827e-01 9.121395076252844514e-02 -4.309792903085195026e-01 8.977398657247298575e-01
-6.253026451302722277e-01 -3.660432763839873704e-01 3.724125658085535862e-01 -2.932335658565065062e-01 -6.310954336432839096e-01 7.181452704639035289e-01
-5.989179741861389017e-01 -2.597574135056028855e-01 2.684019654074819017e-01 -2.771305057097984970e-02 -2.390255064309960709e-01 9.706177384034644362e-01
-5.814286187377952775e-01 -1.411764579534840469e-01 2.883905264697982362e-01 -5.810374718089373891e-01 -3.651158799403234623e-01 7.273828775612479758e-01
-6.179758833621717962e-01 -2.080242892660544296e-01 3.574023998643388045e-01 -9.463714256635085142e-01 -2.134210485199903862e-01 -2.425542841020259799e-01
-6.335178465473004783e-01 -3.266027179954094084e-01 3.789742791633133878e-01 1.789192125990451410e-01 -3.307241564739206163e-01 9.266118106777785357e-01
-6.493466587110386934e-01 -3.048351267885945903e-01 4.085900592459113523e-01 -9.512902479494365071e-01 -2.572840328834333778e-01 -1.698581484048851120e-01
-6.691410700284070590e-01 -2.760699331956874558e-01 3.748634245536586751e-01 -8.841847763027248508e-01 -3.451152997182769244e-01 -3.148217134424888819e-01
-5.930619704801785019e-01 -3.144192118478320030e-01 3.730084009738963147e-01 -9.110061349309547252e-01 -3.901068280349299644e-01 -1.337328861525412527e-01
-6.601816486987458488e-01 -3.726626374435382805e-01 4.134599232558989756e-01 -8.731537808131614176e-01 -3.407946777462657617e-01 3.485132173555267054e-01
-6.571158381498416468e-01 -2.252996396783371047e-01 4.094452493602495635e-01 -8.466259433571960979e-01 -4.255109562663709766e-01 -3.196325048110975620e-01
-6.375983717309251508e-01 -2.430729148081488544e-01 3.496194791218165121e-01 -9.220266899429688801e-01 -3.742612688855823655e-01 9.897113541314019047e-02
-5.998289667020745286e-01 -1.613317701523506453e-01 4.278122181496916698e-01 -9.087357623705255572e-01 3.487262228528639763e-02 -4.159125081117512335e-01
-5.501608814854702656e-01 -1.766172424499927174e-01 3.334436782468555016e-01 -8.210897170340617501e-01 -5.142227578051116188e-01 -2.477632578414921682e-01
-6.574146964184557351e-01 -2.498848167116076435e-01 4.034334255230678234e-01 -8.001682334458704027e-01 2.362146336896036036e-01 -5.513015917036712121e-01
-6.585963126284060110e-01 -5.774858838358884472e-02 3.134679999456641553e-01 -6.841606876035990492e-01 4.729747178133922314e-01 -5.551748101698350535e-01
-5.894565853676494438e-01 -1.996308793871985343e-01 3.160675277359064061e-01 -8.901034090204024141e-01 1.874030662336088615e-01 -4.154467619521179933e-01
-5.477810438929072712e-01 -1.979971661102626346e-01 2.842448208873133431e-01 -8.314760456024702373e-01 3.007854711310674056e-01 -4.670928022842363303e-01
-6.565718961110854623e-01 -3.220336997386072375e-01 3.216951854849722237e-01 -7.933890456598984287e-01 2.017782677182731743e-01 -5.742990100143725574e-01
-6.593973954854436270e-01 -1.816324323627843962e-01 3.644708587672408351e-01 -7.312683054580528808e-01 3.322493715448308071e-01 -5.956987666099140544e-01
-3.960077032491028382e-01 -4.136383936579181020e-01 3.029289618611309409e-01 2.988782440309362132e-01 4.331006695353521452e-01 8.503502838789516183e-01
-3.187614974175241311e-01 -3.779468306833249636e-01 2.246397350252871128e-01 5.046834756390949916e-01 7.186791080970423851e-01 4.783251289674028683e-01
-3.332499290626258492e-01 -3.665217424834341098e-01 2.526356704897905758e-01 6.788217919422464552e-01 6.222222936473380539e-01 3.899235720914588366e-01
-3.878973396497681358e-01 -3.567121035532538897e-01 2.810847505476289365e-01 5.458321148468483486e-01 3.557068630411404642e-01 7.586434801586633414e-01
-3.537993212318306657e-01 -5.615213590888205042e-01 1.965463437544385794e-01 4.436278835954829969e-01 5.722107159079856675e-01 6.897602463875858181e-01
-3.061883370497467394e-01 -5.452036674076158329e-01 3.086463229626498772e-01 2.452864220934640738e-01 6.247347398167285570e-01 7.413103776440145287e-01
-4.984471112458239150e-01 -3.713222995339821586e-01 3.005441083114944734e-01 5.344208742650999877e-01 5.173332442089951799e-01 6.684015586351683691e-01
-3.885792985086453100e-01 -4.549546279581008768e-01 2.401504929181392523e-01 2.979280487055444571e-01 -3.663970630902981668e-02 9.538849038097283461e-01
-3.806814992454925495e-01 -4.435156582476914022e-01 3.243836314404486276e-01 5.338556681412937044e-01 5.151929257210017266e-01 6.705030759664324380e-01
-3.979812406690704241e-01 -3.389010883886394154e-01 2.373408836787214704e-01 4.364664052430527463e-01 -1.997512598250347216e-01 8.772664995840879776e-01
-4.255255000050350844e-01 -4.883665951100690794e-01 3.900439624623959767e-01 4.789553074565407464e-01 8.120718977360255053e-01 3.333782331926017917e-01
-3.019988189679845281e-01 -4.265535520552807824e-01 3.088876568606063189e-01 3.938183926450770644e-01 4.855822912349603837e-01 7.804594237072507434e-01
-4.075541808430093726e-01 -4.715078252933345149e-01 1.721386934564487770e-01 2.525069710821427060e-01 1.526928111452074410e-01 9.554711586330044693e-01
-3.890825369816068857e-01 -3.751739785564477403e-01 2.970937535388820105e-01 4.404075809635792926e-01 6.733218886706582307e-02 8.952695342589169769e-01
-4.609474999271722107e-01 -3.493785941120678973e-01 3.080148079506516146e-01 7.839834098821608643e-01 3.686392357872082526e-01 4.994748510863815660e-01
-4.845249919832202434e-01 -4.350169371181020761e-01 2.878958076238204988e-01 7.360101846920662494e-01 4.816922765391165595e-01 4.756695898962994273e-01
-4.921529597929371613e-01 -4.389374826665600193e-01 3.324544920256896074e-01 6.828090709970382477e-01 3.374063043425447328e-02 7.298173349695529222e-01
-4.707613443460043623e-01 -2.554281960035731935e-01 3.205589175355269549e-01 6.946654195397312659e-01 4.145074512256882726e-01 5.878975487056165017e-01
-6.129352867022881401e-01 -4.441087658304951891e-01 2.420337566134824758e-01 8.622580366386558559e-01 -4.887950592778837061e-02 5.041050209552626615e-01
-5.238796332206226980e-01 -3.078323771543167164e-01 2.815951287952040971e-01 3.808668073206523674e-01 -4.185183921746438718e-01 8.244894362530814647e-01
-3.403195653524061504e-01 -1.653962851820900692e-01 2.527951056123244333e-01 5.867500645860848074e-01 1.851236275687960509e-02 8.095564551860376934e-01
-4.364919594030811645e-01 -2.326157757352139699e-01 3.176048971280615030e-01 2.642740490451142010e-01 -1.521753907741122680e-01 9.523664617383619246e-01
-3.843244725440273513e-01 -7.835770393088628549e-02 1.477152906348102035e-01 6.289978450524356113e-01 7.695878670769928931e-02 7.735884280855490625e-01
-4.042449085701844691e-01 -7.741220697485950986e-03 3.205243373208375157e-01 5.959304192580905379e-01 8.563836106818782656e-02 7.984566403483854824e-01
-4.905047240826201915e-01 -6.359876179439183375e-02 2.849480423488254255e-01 4.485863710273428340e-01 -2.486910577062244887e-01 8.584422086229676063e-01
-4.655126752105663290e-01 -2.109724720911922147e-01 3.882662607031928115e-01 6.613588321741988851e-01 1.039737704856699002e-01 7.428283450139561150e-01
-5.432507575049829729e-01 -1.444102969861487118e-01 1.791893422232814226e-01 5.538706947017200122e-01 4.672308351886742678e-02 8.312906874355824316e-01
-4.024875415102846521e-01 -1.009646960779559260e-01 3.632412300403567995e-01 4.176608890863450219e-01 -1.839242758192765059e-01 8.897928087436751676e-01
-5.215547767454602468e-01 -2.269802010058090125e-01 2.497214556590657553e-01 3.902592719088480155e-01 -1.086846107619323099e-01 9.142676610668798443e-01
-5.627511473606952030e-01 -1.370733352303862007e-01 2.250917703738467279e-01 4.632704450796323870e-01 -1.611144310957056125e-01 8.714485841450581027e-01
-4.575566729442819280e-01 -1.256529630347249515e-01 2.798289988965493857e-01 5.027062570697449218e-01 -4.470290879780511317e-02 8.633006828723945869e-01
-5.539725052407700190e-01 -5.462754118758184063e-02 3.808077921225981322e-01 5.571395256419024999e-01 -2.672734338486066393e-03 8.304145985341730984e-01
-5.005038069663007017e-01 -1.572904101672182031e-01 2.817841284886257736e-01 5.490396105633617019e-01 -8.385648733799476451e-02 8.315789773459673073e-01
-4.361365340217419617e-01 -2.401043322278842151e-01 2.328984641699870239e-01 5.728564875822700353e-01 -1.921913495031726538e-01 7.968048254190318591e-01
-4.764141509577468070e-01 -1.260633129196452873e-01 2.339512284819233456e-01 4.704286590649026101e-01 1.153133778153390965e-01 8.748712486001665178e-01
-4.537585051783318280e-01 -8.377669254374227326e-02 4.353482170805286766e-02 4.108919048031395849e-01 -8.652700280237642094e-02 9.075686863005385518e-01
-5.769479964763947200e-01 -1.477853773373987156e-01 2.620680944428896431e-01 9.259437615562277069e-01 1.269000194965607953e-01 3.557028752862087528e-01
-1.949254034625242105e-01 7.101237265439727664e-02 4.066654189936164676e-01 -5.962017503587294653e-01 -3.119232706160177671e-01 7.397616819742651728e-01
-4.777107511554564701e-01 -8.955465071264701038e-02 3.075452157911117146e-01 8.599068688379835068e-02 -8.233517978896481848e-02 9.928879694801279188e-01
-4.189317017187403347e-01 -1.173453623250679534e-02 3.269603931285777199e-01 6.503166279539799310e-01 3.463615451972336667e-01 6.761079524862501078e-01
-6.351984481052039833e-01 -4.511303057490394924e-02 3.423680232217664043e-01 2.317647825623675439e-01 -2.304077890386493910e-01 9.450911788362749144e-01
-4.612042136927300140e-01 -9.203834912702110738e-02 3.130438701696922621e-01 3.919176450879996443e-01 -1.761631299912474191e-01 9.029768054055228310e-01
-4.909543497638755305e-01 -1.732085711848441179e-01 2.517964678395958056e-01 5.597177148078680275e-01 7.467951523238038902e-01 3.591839085982622692e-01
-3.974470691544967904e-01 -6.059473499426624998e-02 2.704426488448971599e-01 2.114777758670833840e-01 9.087984618621855470e-02 9.731485004209177170e-01
-4.633781138683614742e-01 6.841496229549852426e-02 2.083060412693367724e-01 1.897736363813732618e-01 -1.421391888955522986e-01 9.714846462578320407e-01
-5.484596130070428233e-01 -1.719635135790768543e-01 2.454508520470505828e-01 7.057908268467386614e-01 2.586121272538860483e-01 6.595294355646430517e-01
-4.647997646069470523e-01 -1.359573742653067407e-01 3.714074174341311374e-01 3.952544166014726468e-01 -2.923267000563338838e-02 9.181064193008189322e-01
-4.875822055484494433e-01 -1.533863708563064643e-01 1.935626173283747087e-01 6.539621795514126701e-01 3.150391894967496387e-01 6.878108583016098176e-01
-4.874937494960440154e-01 -1.313706220402758862e-01 2.739459697371744995e-01 7.307040970494209642e-01 1.996490893909662334e-01 6.528489593011147507e-01
-1.614881991850477538e-01 9.698241547847097355e-02 3.515117644495571736e-01 -6.567267478679882364e-01 -6.765377794930172994e-01 3.331765471238833931e-01
-3.803015787133109393e-01 -1.765801357719116171e-01 2.323056829419153924e-01 7.635763618535040820e-02 -1.660379571367728013e-01 9.831586383621072622e-01
-2.675429112250085617e-01 -7.858016510646950725e-03 2.542983269678906200e-01 3.472573887925247682e-01 4.781097600970421468e-02 9.365502744124293288e-01
-3.804738235041006389e-01 -3.776892925617807151e-02 1.728200410001922149e-01 3.490190221293819062e-01 6.647243813235816090e-02 9.347551214947099618e-01
-2.320358425050996765e-01 -1.413037906744275818e-01 1.965962719459777297e-01 2.777600765245469838e-01 -8.706154981627679812e-02 9.566972490985148347e-01
-3.128078768552292055e-01 8.244510080735095725e-02 2.068121476119438307e-01 5.277429086398190972e-01 3.573235550666441218e-02 8.486522380517999009e-01
-2.481790020962779397e-01 -6.303032001852539035e-02 1.499382662445639114e-01 3.377344141519279530e-01 -9.389738245703536934e-02 9.365461798892626977e-01
-3.363996913574707204e-01 -1.604252412158913843e-01 1.188765565779481559e-01 5.450095739198216327e-01 4.380103282700666956e-01 7.149206366195361984e-01
-2.511355431147175299e-01 -1.897496492824805314e-01 2.002466440212269383e-01 8.879632147623356397e-01 -1.751403786257514639e-01 4.252613043809259641e-01
-1.956646100281764222e-01 -2.055566045747253545e-02 2.339221011649501303e-01 4.947844227236669612e-01 5.256029017623250338e-02 8.674248041914629503e-01
-3.189706706425263771e-01 -1.350148954923411360e-01 1.674640626719083591e-01 1.336416871624495906e-01 -1.567066805435880783e-01 9.785616565783598064e-01
-2.342066302183435367e-01 -1.419969295236214457e-01 1.980455391918519159e-01 3.153283860259468163e-01 -2.834134116978578866e-02 9.485593167256168856e-01
-3.097866895169125723e-01 -1.473660933215019397e-01 2.662012082678295588e-01 3.050472286483540407e-01 -4.303502163074803682e-02 9.513643756243975735e-01
-2.793217200742685868e-01 -1.816625292492771715e-01 1.689784586147157208e-01 3.624648302218920204e-01 9.941405135397361759e-02 9.266801461376004134e-01
-1.400736268761481329e-01 6.794191198114016284e-03 1.817067239816128887e-01 5.568319542398737498e-01 1.256775702847252874e-01 8.210623137525745463e-01
-3.063812637677662543e-01 -7.969445704660990670e-02 2.598645999742257295e-01 -1.761243006453338256e-01 -8.553860886845193355e-04 9.843675629747413725e-01
-3.263728817304398788e-01 -9.876605871580387830e-02 2.207110214202139264e-01 -8.723827278027115883e-02 -2.302236404861019714e-01 9.692195618762763365e-01
-1.705605446180963325e-01 -2.290521557776706019e-01 2.538915996142491194e-01 2.251773968275432025e-01 -1.262345269607936804e-01 9.661055760945362891e-01
-4.227001021254656599e-01 -5.398438354104075076e-02 2.458121479217812988e-01 1.705486181104261256e-02 -1.024757755098943124e-01 9.945892856462169584e-01
-3.880876080313034326e-01 4.125345040753287257e-02 2.414629124983280750e-01 5.758217523999333842e-01 -6.242251095462814092e-02 8.151887754313041912e-01
-4.166060642890478394e-01 -2.778512176996755789e-02 3.200114576214272422e-01 5.464195999932145442e-01 2.743436750142420610e-01 7.913034618418747224e-01
-4.655346843631691378e-01 1.043149549108130791e-01 2.533402635714635531e-01 2.679418562055976838e-01 -2.091760891093703001e-01 9.404533616495862614e-01
-3.670140578244766583e-01 -4.846920340664911259e-02 2.041131362143257799e-01 1.208940690658675959e-01 -1.846151915621354334e-01 9.753470434205320228e-01
-5.038475298988160933e-01 -1.861283603509714807e-02 2.156267874726739975e-01 3.636883743772259536e-01 -9.142241460637788586e-02 9.270235749161885863e-01
-3.906010945597876982e-01 6.606750525761741211e-02 1.662607651910410489e-01 5.180461144145296348e-01 -5.205616618100071535e-02 8.537671690235835165e-01
-4.251791974525864770e-01 5.994852365188853976e-02 3.163555208495790194e-01 3.541117771858884877e-01 -1.501893180218842883e-01 9.230644712100954941e-01
-4.178233449611373773e-01 -2.618753491172489539e-03 2.668608076385710626e-01 1.530046375037605322e-01 -1.612064645860075141e-01 9.749882341228652827e-01
-3.402551774692635922e-01 -3.811843344747360696e-02 2.448148762722322236e-01 4.903261091622289070e-01 -6.534376399321289997e-02 8.690860136839329009e-01
-3.685262874391691534e-01 4.358790660128442768e-03 2.102800727048716178e-01 3.768805279472295378e-01 -1.725284795409488536e-01 9.100521915810685369e-01
-4.864162118075065488e-01 -1.035977540237143918e-01 2.186608986485658601e-01 4.585326736676765269e-01 1.409381711297166273e-01 8.774304639672495520e-01
-3.508581378574533449e-01 -2.195885611468150270e-02 1.726923368101929979e-01 3.788375353328153616e-02 -3.094970106192204140e-01 9.501454739333317079e-01
-3.097904173493822855e-01 3.007628193953132759e-02 2.969742792846686852e-01 5.195475059294560882e-01 1.563872673535639376e-03 8.544401344651028074e-01
-4.489343373882761501e-01 7.132932618550252846e-02 1.771562608623711288e-01 5.682012327776225780e-01 -7.046315232612604396e-02 8.198672473237695879e-01
-2.447435536458739402e-01 -4.547850020664426923e-02 2.558724772680990300e-01 2.535229268566849825e-01 -1.252155609226759669e-01 9.591909032412888614e-01
-3.842378859543043590e-01 -6.904095158236560337e-02 2.592674230466857632e-01 5.942354620053182934e-01 5.536306749835909757e-01 5.834186244992007886e-01
-2.477688042901246279e-01 -4.674784846667207616e-01 -3.535386944383305252e-01 5.989996708139492254e-01 5.025569753579370857e-01 -6.234066737562746763e-01
-2.922310166072086268e-01 -4.895798853317577803e-01 -4.162563830761172312e-01 6.306443021684784433e-01 6.900036008773594576e-01 -3.552221768396653379e-01
-3.343991357063869074e-01 -5.287433462511447191e-01 -3.970017854522915890e-01 6.851135424275185404e-01 5.589940487803117808e-01 -4.670600469004079214e-01
-2.338093806524541574e-01 -6.366534457482938558e-01 -4.438075729949100823e-01 2.594190152172786146e-01 8.915395290716086052e-01 -3.712937417281250707e-01
-3.795570404160624189e-01 -4.698819859220835227e-01 -2.868457460327838993e-01 8.701907769562468031e-01 1.317646659291052402e-01 -4.747695067218142273e-01
-2.844975767712050740e-01 -4.844236268504616971e-01 -4.599100076503649936e-01 5.387191705710149270e-01 7.294497003413252800e-01 -4.215267369114665263e-01
-3.225938704272121593e-01 -6.001614362694744909e-01 -3.216914133871330850e-01 7.123283408084942758e-01 4.946450827067023215e-01 -4.979102098120677944e-01
-4.163058617145446449e-01 -5.520908081130351253e-01 -2.885700608209882390e-01 3.783440152819350089e-01 8.946445279393747674e-01 -2.376278071448633400e-01
-2.627603803419539252e-01 -5.018930281926105019e-01 -3.758336212922901431e-01 6.749684564499488504e-01 4.912218202028645342e-01 -5.505621728326037800e-01
-3.098605597888459129e-01 -6.674353053574527683e-01 -3.448159754732171844e-01 2.314517186789400993e-01 8.959368637021143389e-01 -3.791137536151699128e-01
-4.223061580875952514e-01 -4.745396716438183282e-01 -4.521376458138138821e-01 6.503954944226721935e-01 5.984187055915667353e-01 -4.678469339781993752e-01
-3.008199936022822873e-01 -5.649760447635050475e-01 -4.934935912366524846e-01 8.271746298632268735e-01 7.436634805808509108e-02 -5.570024936992090669e-01
-3.244391849020467622e-01 -5.382673469849338366e-01 -4.237480114573503598e-01 4.199138630880723255e-01 8.020540638166644420e-01 -4.247135814894851258e-01
-2.714950918196161744e-01 -5.095088577298533261e-01 -2.957821353899525718e-01 4.368769722709791581e-01 8.199048188930633252e-01 -3.699927013540607601e-01
-3.514069837503816518e-01 -6.155610646280095244e-01 -2.528981419291927990e-01 6.017511673622404356e-01 3.474649234782396512e-01 -7.191409177139359565e-01
-2.484657024634854272e-01 -5.988934558273898423e-01 -3.589426563105300727e-01 4.694492032630063205e-01 7.015516460972237578e-01 -5.361368607118937035e-01
-2.741889350351762733e-01 -5.087351997291340577e-01 -3.847026136666604756e-01 5.625831806021296400e-01 4.827106908670943386e-01 -6.711859308911385380e-01
-2.505296753898808015e-01 -4.672399543521280618e-01 -4.275216984034141410e-01 7.164366737470529989e-01 4.337997742589567163e-01 -5.463847072925238635e-01
-5.086362621893852909e-01 -4.927951686379623553e-01 -4.544835707838503769e-01 -4.847639390090640460e-02 -6.115056419464659498e-01 -7.897536888815428480e-01
-4.846025357189471250e-01 -5.401834973322613420e-01 -5.417420732480365819e-01 2.926990218856821979e-01 1.665006113286821576e-01 -9.415969567783977201e-01
-4.306442495889578059e-01 -6.482479816738131451e-01 -5.001469912904957793e-01 5.335380051264437817e-01 7.643900204059326242e-01 -3.620015107558429701e-01
-5.661214942119839888e-01 -5.544098271989124083e-01 -5.199911713687638271e-01 6.709546186945846147e-01 1.053331543961344569e-01 -7.339787641596754453e-01
-4.097982770690713483e-01 -5.876704115761588465e-01 -5.631166832027172386e-01 5.615525154737125435e-01 6.730070176788597314e-01 -4.813733753752411082e-01
-5.605744900024324240e-01 -4.188826631696606073e-01 -5.245336207234865267e-01 4.426653969797603727e-01 8.009792116642532323e-01 -4.030876440657325532e-01
-4.847924691281323417e-01 -5.180596383828595108e-01 -4.991926109393567401e-01 4.577618223608036496e-01 6.441838728233174605e-01 -6.127652503065655898e-01
-4.612667649693423244e-01 -5.342059373003704703e-01 -5.518635397132947151e-01 5.059587823340513379e-01 6.867278171280578603e-01 -5.219297038506016673e-01
-4.067438315786393588e-01 -5.508232229934899582e-01 -5.066346522285279930e-01 6.136472903198638695e-01 4.528964008017344889e-01 -6.467780556140748649e-01
-4.083151469763516839e-01 -6.293259826951463909e-01 -5.182052370683070119e-01 6.231206826727444525e-01 -2.894043696401247256e-01 -7.266125003457173381e-01
-3.719989642228690441e-01 -5.854081322848752045e-01 -5.118844090777795452e-01 6.786953892107410180e-01 1.360090114152621710e-01 -7.217160920181313610e-01
-4.320482936873421553e-01 -6.408647566814338337e-01 -4.248272331353223907e-01 6.879339654578497942e-01 4.652058637191006096e-01 -5.570730324928712118e-01
-3.637736889400052243e-01 -4.914308614042082746e-01 -4.569974217214790024e-01 5.299081705975314804e-01 6.830933540320025532e-01 -5.025741740393018242e-01
5.364602307350708754e-01 -5.191383758613723476e-01 6.558616207740494697e-02 3.519109184048918593e-01 -8.730641364574401875e-01 -3.375169908897179827e-01
6.834671818537724208e-01 -4.091588295322098334e-01 -9.580844198731960915e-02 7.084835748712841053e-01 -6.135505289615235114e-01 -3.487216261556490560e-01
5.238812504959906580e-01 -2.746720644926562427e-01 -8.555423023763070178e-02 4.159256857781310490e-01 1.574502888620346319e-01 -8.956646863906455591e-01
5.246727811296725275e-01 -5.431398026265795709e-01 3.274183623246662567e-04 7.293738318241672625e-01 -5.974481465049076290e-01 -3.332709493609995466e-01
6.748842914144100869e-01 -3.178640596009269514e-01 -1.839862758257792552e-01 3.304448826077932555e-01 -1.486424974625851804e-02 -9.437082354402777096e-01
5.755129166232184623e-01 -2.262362704918899903e-01 -7.484771107892118636e-02 2.514015059781513628e-01 5.715359185311654766e-01 -7.811171337390152569e-01
6.803839205183677130e-01 -4.313906286976577076e-01 -9.097301284930704723e-02 6.096899765019627715e-01 -7.853463717539435063e-01 -1.072809811940254737e-01
6.689353047045396572e-01 -3.421455633962566800e-01 -1.811862501573453452e-02 2.344983547833567050e-01 -8.388325174336623835e-01 -4.912947478854253203e-01
5.405916486265666121e-01 -2.722864319880526351e-01 -2.157901880163630992e-01 1.488922267638650987e-01 2.655138293182847664e-01 -9.525405562232185375e-01
4.633738261907164313e-01 -3.788139417418964205e-01 -2.353184455272519515e-02 -1.850158825244869465e-01 1.309016185536933663e-01 -9.739783824468122297e-01
5.804755969443708974e-01 -2.946248500999332220e-01 -2.255873848297771933e-01 4.706283780758287461e-01 -4.921594560044252331e-01 -7.323168710436371853e-01
5.865901798615100748e-01 -3.172232462362601368e-01 -6.934756671058925348e-02 5.853743131739479466e-01 -1.680700642252256488e-02 -8.105889451573109472e-01
7.298642286371062049e-01 -4.454451118181542713e-01 -5.355436016465418836e-02 4.616950863643119463e-01 -8.792664158284790865e-01 1.171674751080297866e-01
6.701793417843310285e-01 -1.495844554428766848e-01 -7.253601691376675153e-02 2.171666738367212246e-01 -2.196687408549912179e-01 -9.510963568776182875e-01
5.167312748930098509e-01 -3.701406906963687904e-01 -5.461412870020850019e-02 7.900370171158633825e-01 -4.234907947639990344e-01 -4.432798871332032653e-01
6.235409267486280438e-01 -3.212605541616010973e-01 -2.284938185241840169e-01 3.747967162152061049e-01 -9.753532766872020920e-02 -9.219621908575500457e-01
5.480557908670389278e-01 -3.153811904867624971e-01 -6.168670137083806515e-02 -1.377570630822142275e-02 -1.085096362338031084e-01 -9.939999440443230139e-01
6.024687510387874978e-01 -2.681597613376305311e-01 -1.039232127490971047e-01 -3.272652894978540783e-02 -2.956833363642616952e-01 -9.547252688074185922e-01
6.290115862359919596e-01 -3.202673798273891759e-01 -6.045527930956957202e-02 9.651848370617603645e-02 -9.907228869126937232e-01 9.566788202128477525e-02
5.142025266007599349e-01 -3.136370640662106135e-01 -2.867437740045142291e-02 1.887889897150640539e-01 2.569174887134090812e-01 -9.478143918276197288e-01
5.529074288497116685e-01 -4.121623658410065172e-01 -2.954930467823353724e-02 3.391657380317489312e-01 -4.525820869112132661e-01 -8.247036175211491793e-01
5.690626236036796515e-01 -4.204710261869073484e-01 -1.241658460061087627e-01 -1.378056099786463262e-01 -9.759491418061414514e-01 -1.689168033863690799e-01
5.813595707821092029e-01 -4.019994940977162368e-01 -1.305796294400109470e-01 -3.070888008647950501e-02 -9.978003358658458222e-01 -5.874908024675428581e-02
5.263825552162121335e-01 -2.671978033869388813e-01 -1.726726498617154326e-01 1.094937400910060976e-01 -3.327677715438252526e-01 -9.366305200572100365e-01
6.330300276266970227e-01 -3.792551379172943160e-01 -1.317596557952103731e-01 3.621124052538650107e-01 -2.726675214151020321e-01 -8.913624564264558403e-01
5.965709166093206006e-01 -4.366808060513427403e-01 -2.246304281453508356e-01 -2.602788787919412261e-01 -8.196316195775368851e-02 -9.620483071741756653e-01
6.734954095228319337e-01 -2.276291109632140874e-01 -4.652179514087775858e-02 1.542465478097059528e-01 1.485564886768828974e-01 -9.768003747751039523e-01
4.539727013617690377e-01 -2.496671671873617604e-01 -1.210189416987700467e-01 2.840982439808684701e-01 5.414482732698905343e-01 -7.912786836128221646e-01
7.095305236054799680e-01 -2.974951497336009720e-01 -1.690485989528979216e-01 2.548501352099366568e-01 -5.277493713412757526e-01 -8.102666287293123215e-01
6.934813824054710807e-01 -3.222844748593090003e-01 -1.663099349892588341e-01 4.315012940135196096e-01 3.906761854121974520e-01 -8.131289881786483154e-01
5.979244735870753447e-01 -4.368774242810372632e-01 -1.991070061984402395e-01 -3.735911486535875570e-01 -7.264904471995877744e-01 -5.767506252926266619e-01
6.123874180541686307e-01 -2.320760976253630758e-01 -2.287290586471613096e-01 2.971990031273663568e-01 -3.034832499772259218e-01 -9.053014246776375229e-01
2.720434676511772620e-01 -4.220252048552579072e-01 -1.441407577910563675e-01 3.544296262571293710e-01 -7.455956002758004630e-02 -9.321054189520225908e-01
5.997105467832418713e-01 -3.774017842379089327e-01 -1.313752745326360882e-01 5.639280520661726914e-01 1.012954031229751917e-01 -8.195879412235186345e-01
6.607250862402730407e-01 -3.540113074355645262e-01 -1.925423081310442264e-01 7.730259937573464857e-01 1.221153098601851922e-01 -6.225099710632897576e-01
5.540799702207275246e-01 -4.005311964867718233e-01 -1.508329952264307050e-01 -1.051646987166077740e-01 4.594973270961610345e-01 -8.819311722211256033e-01
6.058242330509598927e-01 -3.081240356620189580e-01 -1.951589207688821936e-01 1.440618566821778163e-02 6.096715551259197508e-01 -7.925232215429625082e-01
4.688503505481262379e-01 -2.494958771827436583e-01 -1.852764750744792521e-01 5.933126463103799431e-01 -5.834269479445045592e-01 -5.546107645370167427e-01
4.442993239671462757e-01 -4.189532572142341538e-01 -7.922899403250292794e-02 1.421493052563641175e-02 7.977688882179242436e-01 -6.027957670236981924e-01
