-5.038290039092135908e-02 -2.572520492959461391e-01 1.020527863032572452e-01 6.446825034962787582e-01 1.390878027260362138e-01 7.516907960182920290e-01
-1.638972765876768878e-01 -2.720670192209101446e-01 1.261508239765559147e-01 -5.793006248126034707e-01 2.628658643366073022e-01 7.715648536955888037e-01
1.765103363922085888e-01 3.606312401172901416e-01 1.820929128287049614e-01 -4.592478528302970653e-01 6.917810305929322778e-02 8.856104108059477120e-01
1.229539726815122441e-01 -5.111319723741913901e-01 9.776478804212478113e-02 1.453950336755836237e-01 9.853697415176184693e-01 -8.891994536648036018e-02
8.677110582197064548e-02 4.771317523597318200e-01 2.397575758569289728e-01 -3.468377791606800931e-01 2.079403781796949624e-01 9.145842520344272808e-01
1.495951409897191831e-01 -3.988950771167347753e-01 1.152025114135274697e-01 4.129720916056073832e-01 8.288159750593800945e-01 3.775157361505063203e-01
-3.245940754673459216e-01 -4.451019269837057091e-01 1.406158578580918306e-02 -7.608570450717757616e-01 5.051060237771104466e-01 4.073873607621167903e-01
-1.239670256559699674e-01 7.310419833511521137e-01 -2.625364379666146608e-02 -1.270355179237082910e-01 5.873317208772311782e-01 7.993143479490690817e-01
-8.506591844125757640e-02 8.248777128971931383e-01 4.364087621181763146e-03 -1.967113330344830713e-01 5.991718106455429238e-01 7.760784707640964175e-01
1.704562749037914493e-01 -3.945349863842702032e-01 1.423910036809857282e-01 5.445586809343644363e-01 3.846826873237865207e-01 7.453020012668523098e-01
5.596179756565371199e-02 7.359975735358577076e-01 8.679324268139528009e-02 1.836675725538640669e-01 8.581268575936713550e-01 4.794627400211428081e-01
6.814836391071857347e-02 6.021948616582362135e-01 -7.430709142857844229e-03 2.714586522967129059e-02 7.905058543509211333e-01 6.118525935532614923e-01
5.957697488051442308e-02 7.395476248775174621e-01 1.390571639859460029e-01 -8.596105922334921698e-03 7.876098410797625071e-01 6.161143117939099634e-01
3.948940089021624189e-02 -3.354301942671485959e-01 -2.781492616003345963e-01 5.389404827623930361e-01 7.033894210813629311e-01 -4.634506212647297452e-01
-1.478173169967028078e-01 -2.503058602311742931e-01 3.136994722405840319e-01 5.439100072903715333e-01 5.117445940422628015e-01 6.650408817793892480e-01
-2.244718809497650291e-01 -3.546238548763619991e-01 2.799764232275743225e-01 3.938433911291014389e-01 8.324352992925384553e-01 3.897933500659954698e-01
-8.365828059753144252e-02 -3.486260305100318257e-01 2.795448416829070526e-01 4.541374376114353240e-01 6.726983921197619010e-01 5.841541414722716263e-01
-3.261102272922047351e-01 -4.739013810053550046e-01 3.926076317228101575e-01 -8.086539326606217992e-01 4.588935794044239347e-01 3.680971338843946894e-01
-3.052924829418318664e-01 -4.706574047382364179e-01 2.504728898035792906e-01 -5.486707752415836969e-01 7.047915188481174154e-01 4.496991164718507905e-01
-2.582540973139559326e-01 -4.820224396973383785e-01 3.291343123769715495e-01 -7.898225988988507584e-01 3.264085013976251726e-01 5.192665524410575717e-01
-1.740792477707242270e-01 -3.744136280117281723e-01 3.952782122477674909e-01 5.198131685778605293e-01 1.767131769873773461e-01 8.358030407052084998e-01
-1.788048749104830248e-01 -4.231552442340749676e-01 3.575117258815613264e-01 5.297285621250016341e-01 1.665082379934982315e-01 8.316625861184804291e-01
-7.402058456660888519e-02 -4.206010917822838868e-01 3.331240076235013059e-01 5.240229385320931410e-01 1.612633768988834537e-01 8.362978435721084569e-01
-2.383127656833236574e-01 -4.695089851206267761e-01 3.221511731215725427e-01 -8.368239172868505715e-01 1.346657075875439258e-01 5.306513720481992324e-01
-6.487683375935050789e-02 -3.775136512114125042e-01 2.411243618518746912e-01 5.251546625703048532e-01 1.646811461755580408e-01 8.349207749690827907e-01
-2.135914094079228442e-01 -4.629345446472634684e-01 3.259061154179725417e-01 -8.372809587313697621e-01 1.378762067535754254e-01 5.291037211711172583e-01
-8.598717642833339503e-02 -4.815785284960218959e-01 3.058816317255280692e-01 5.224645526121307615e-01 1.730088174462798833e-01 8.349243919958536653e-01
-1.520980729981707413e-01 -4.437106265547264838e-01 3.635567654889208522e-01 5.231426915915550202e-01 1.756708113722421361e-01 8.339433375632671064e-01
-6.582663784390892225e-02 -4.856090641897130578e-01 3.923870932838985914e-01 5.229836028006989990e-01 1.762645965640345092e-01 8.339178276063650141e-01
-9.959392166804241497e-02 -5.060945888781533952e-01 2.671218110335042417e-01 5.215063895736453681e-01 1.756092838860244254e-01 8.349805177648750298e-01
-2.664208917296396195e-01 -4.410336201261524369e-01 3.144261154368762079e-01 -8.320088649593865293e-01 1.381278805864398496e-01 5.372912964432715599e-01
-2.771272865597443347e-02 -4.470677519607302863e-01 3.984239595349913232e-01 5.211143664745131465e-01 1.770856499060453060e-01 8.349134623727302307e-01
-1.363414279299133280e-01 -5.646468491207610185e-01 2.479545682340296153e-01 5.211100647605041436e-01 1.762756319870955601e-01 8.350875415025980075e-01
-3.534166899043290067e-01 -4.965434700139682578e-01 3.376489095988442490e-01 -8.313280533798393934e-01 1.386021203286998404e-01 5.382221845149782746e-01
-1.999267371014776251e-01 -4.979892098293079994e-01 3.085620555554978162e-01 -8.296501850868268635e-01 1.389287987471309604e-01 5.407211474171069732e-01
-2.952067593226653242e-01 -5.624871069450657624e-01 2.636441356064088692e-01 -8.286162393271847559e-01 1.403416428221903323e-01 5.419403576162623581e-01
-3.177601479725510880e-01 -6.401025166642412279e-01 2.927728441982238583e-01 -8.253780292241474914e-01 1.449202921308249681e-01 5.456640154919311092e-01
-9.691982969378433455e-02 -5.831179007197466735e-01 2.473136568868348484e-01 5.158985578141476180e-01 1.696106749478533959e-01 8.396909532613866523e-01
2.911432319347827258e-02 -5.936564770769767740e-01 3.644897607254308225e-01 5.189836612800247106e-01 1.673416163275073532e-01 8.382438444565386559e-01
-4.277489884582856561e-02 -6.984102867674620851e-01 3.446197842128443933e-01 5.237925016175538628e-01 1.641729053336774546e-01 8.358759910438415819e-01
-1.134274795224104460e-01 -5.375648739133143117e-01 2.753550798075720674e-01 5.200328263642094440e-01 1.646033830560666156e-01 8.381357800441104899e-01
-3.050420814779136180e-01 -5.235678297911139367e-01 3.751188184661894409e-01 -8.219986586450758193e-01 1.443121531671968660e-01 5.509012684991239084e-01
-1.091589428986132204e-01 -7.005599537861361137e-01 2.585535986939874187e-01 5.264596910076154712e-01 1.596228812738070546e-01 8.350812712053924391e-01
-3.139615595765495315e-01 -6.784821019624698302e-01 3.750614443019165689e-01 -8.218316522272643976e-01 1.423883312776779153e-01 5.516505220820178135e-01
-2.840647766358651155e-02 -6.948151479427898680e-01 3.411839355727954715e-01 5.307107056392429412e-01 1.570950197122155390e-01 8.328669171611484678e-01
-2.660037529667407807e-01 -6.176721370701999669e-01 3.017923430482971625e-01 -8.211387555554482409e-01 1.407671683112836636e-01 5.530965091649671095e-01
-1.539637758956319963e-02 -6.874757570919585170e-01 2.596217119942951790e-01 5.362585903153075373e-01 1.560275747386306866e-01 8.295071550229209389e-01
-1.026601629080473727e-02 -6.788694586257884023e-01 3.876847372679324000e-01 5.309463531346333420e-01 1.573761686124123538e-01 8.326636245482990084e-01
-2.611264700789277526e-01 -5.813443072283059898e-01 4.307207682605866950e-01 -8.205201134541084684e-01 1.412389996731019948e-01 5.538937518952514738e-01
-9.118738472616660928e-02 -5.751799722374625334e-01 3.186468470509461470e-01 5.355023108733811821e-01 1.578904123496739642e-01 8.296432322012387006e-01
-3.098919242314418510e-01 -6.859347639953354836e-01 3.678096924557935354e-01 -8.210619833159158443e-01 1.421072687439620952e-01 5.528677452370196477e-01
-8.911236260377891627e-02 -7.555951971669684353e-01 2.051785834491328953e-01 5.347815783669902512e-01 1.597375240438431154e-01 8.297545340952668935e-01
-9.130123797514162753e-03 -6.940802898652379538e-01 2.606720876775406870e-01 5.332324836374139343e-01 1.634833499289188030e-01 8.300218748261358748e-01
1.382015226952012371e-02 -7.113157657995503591e-01 2.850891197013395439e-01 5.322425730817922362e-01 1.642511603773423590e-01 8.305055085392086811e-01
-5.026544790127418505e-02 -7.308988554095190437e-01 2.604032227253472165e-01 5.309311098015102592e-01 1.652244831955989590e-01 8.311516268393414064e-01
1.236281986300999045e-02 -6.911110560586213314e-01 4.164327946768148214e-01 5.281763636676927165e-01 1.611039719827752625e-01 8.337117242033642572e-01
-5.664483118546864704e-02 -6.981857266275163232e-01 2.628636564288293620e-01 5.281153421452802199e-01 1.678827310487487623e-01 8.324119016486892786e-01
-5.335310218626744538e-02 -6.852097540764804373e-01 2.976154425541741588e-01 5.235781577144500432e-01 1.626696667135090202e-01 8.363040668893451102e-01
-3.741430837561088296e-01 4.545985478162160587e-01 3.416048177672421221e-02 -7.200008313027032036e-01 4.114105813115186833e-02 6.927526371362765500e-01
2.239959367987330030e-01 7.315579320540163133e-01 -1.542283527118349928e-01 6.214347837723412926e-01 7.551767866132199636e-01 2.086308473796593954e-01
1.375512783501701974e-01 7.045530943277967806e-01 -1.950455999686135922e-01 5.487272184019278409e-01 8.307208721999971290e-01 9.381509620609526645e-02
1.915459549566139175e-01 3.138632151360907230e-01 1.577626732990389247e-02 7.532041641234235030e-01 9.280625877671774479e-03 6.577213369888904593e-01
-3.283799691237762053e-01 3.370629453230312156e-01 1.383654402428817765e-01 -7.013629287498243103e-01 -6.757599315898847603e-02 7.095939171977485582e-01
1.762854401444290953e-01 6.615078573946919782e-01 -1.705623473255227507e-01 5.098136799931828333e-01 8.589876161388404485e-01 4.722591462238436011e-02
-2.441143531895190733e-01 3.386384782739144672e-01 9.684444191062635543e-02 -6.382022178236670396e-01 -1.859371561062179989e-01 7.470778427607690508e-01
2.602159806376463935e-01 7.285525924951115062e-01 -8.244337936434589786e-02 4.838966996379118757e-01 8.740201321596814399e-01 4.396353783659320835e-02
1.754473953799955410e-01 3.361405746954213569e-01 8.854863272670493446e-02 7.519688029027229437e-01 -1.663486309305684530e-01 6.378644467663732165e-01
1.586842609235329382e-01 -3.590563166808242168e-01 1.811593517608084403e-02 3.799145662888568920e-01 7.728838544680439737e-01 5.082474494025219780e-01
4.725195500065738907e-02 -6.004001901019970777e-01 -2.190459576591750612e-01 8.205151453716393872e-01 -1.721183866080774061e-01 -5.450964659646858612e-01
5.595502158165415602e-02 -5.212978860940381542e-01 -3.046373270643175091e-01 8.226085532952187584e-01 -1.613740596233658176e-01 -5.452280082004424822e-01
-2.493816551723619657e-02 -5.613165185154741499e-01 -2.240329521821046999e-01 8.245671556665810087e-01 -1.294121176437982301e-01 -5.507644774337503435e-01
2.050806124188739657e-02 8.852951502632065983e-01 -5.691999334874054545e-02 -6.916208994097813867e-02 7.783501011683191528e-01 6.240093952227510066e-01
-3.880886086758743303e-02 6.980371407967259634e-01 4.161154254025994925e-02 -4.778786947704273536e-02 7.162275210359113631e-01 6.962287394539228291e-01
1.036022825951823240e-01 -5.216829444924794279e-01 -2.071065402649204523e-01 8.302879703493947217e-01 4.409011168168193440e-02 -5.555879303449448026e-01
-3.674860839750956898e-01 -4.183564027876803815e-01 8.415480005698514065e-02 -7.834101766059137217e-01 5.227421875988916833e-01 3.361682621762742129e-01
-1.498606346010789570e-01 7.008024978450133613e-01 -6.289820082666823520e-02 5.702788932206724441e-03 6.595062285917960843e-01 7.516774658369242967e-01
3.567271693073407191e-01 -5.089866276091823405e-01 1.234028371206412067e-01 4.486352939526266348e-01 7.602554675481946189e-01 4.698276248616254924e-01
-1.563244197975183214e-02 8.182514894879021616e-01 1.945790098024878512e-02 7.721263836978055350e-03 6.046536193393116099e-01 7.964511175864031900e-01
-1.262584201879225210e-01 -3.673212379521584303e-01 2.765561700807999679e-01 5.764655308400794265e-02 9.943421352288412951e-01 -8.922215546646142248e-02
-1.476465446995794684e-01 -3.422042427597795089e-01 2.393577742544996390e-01 1.937310551384130719e-01 9.769161760095058655e-01 9.001701686859660267e-02
-1.294707820289369704e-01 -4.068485353743434563e-01 2.320691784797927482e-01 4.493143385907304443e-01 5.965620196581372658e-01 6.650040464825599518e-01
-2.585280477734813731e-01 -3.409986622994540251e-01 1.455971221701663210e-01 -1.245755292352315607e-01 9.880769036673207051e-01 -9.047082377740479908e-02
-7.431177310039702166e-02 -3.539538173551692313e-01 1.538392547572376701e-01 4.883164842891259960e-01 3.474206993421515843e-01 8.005284934592385993e-01
-2.553338805704288283e-01 -2.746837698306678899e-01 2.714656146200063458e-01 -7.544879398821054961e-01 5.192876130965095038e-01 4.013580987808592626e-01
-5.200050980297203640e-02 -4.314319810502731389e-01 3.300404903275808155e-01 4.598445122516949257e-01 4.798309336254151236e-01 7.471983001105951816e-01
-1.877414757157636616e-01 -3.151432343470073061e-01 9.253112135496588397e-02 -7.370523027732229782e-01 5.353810013492988906e-01 4.124573752170173080e-01
-1.048120463226778487e-01 -4.278356947234541185e-01 1.875333191642864772e-01 3.821374965835755977e-01 6.764056126356059462e-01 6.296398819165509586e-01
-4.269521538375645187e-02 -4.179887967102860480e-01 2.054934348625245544e-01 4.215260291488213129e-01 7.448061815020700083e-01 5.172809282646448903e-01
-2.175171179446037939e-03 -4.295879223082552656e-01 1.715249376977382167e-01 5.036233919312771423e-01 5.272725806542399862e-01 6.843589005703463179e-01
-3.962614859784684418e-01 -3.870950007923297798e-01 2.172061448175621190e-01 -7.077613800079510797e-01 6.441340658566987454e-01 2.901122785615231070e-01
-2.138469055438369654e-02 -4.246302596522894546e-01 2.214587446137849247e-01 5.221161561875323764e-01 4.199236606007710759e-01 7.423333743781189709e-01
-3.654990494123092071e-01 -4.343296317645461979e-01 1.392416743404381596e-01 -7.700594034983221370e-01 3.125998355059073086e-01 5.561383442323393211e-01
-3.421898279696660161e-01 -4.146350294388370661e-01 1.841844721283533715e-01 -8.413536152964660175e-01 1.661992383381387939e-01 5.142974890113588549e-01
-1.370488689502146785e-02 -4.495638261697197380e-01 1.599103533740207639e-01 5.362065393678677738e-01 1.636230190655799943e-01 8.280761165321700590e-01
-2.894670513370958820e-01 -5.124833982203889082e-01 2.502396024212639736e-01 -8.444399575945753522e-01 1.508384005546265783e-01 5.139736714422189490e-01
2.061974359663520592e-02 -4.401229773608397178e-01 3.099831005921697691e-01 5.526342944877601360e-01 1.363549635544585026e-01 8.221938095547046688e-01
7.823337189801773950e-02 -3.783296837478589136e-01 3.178760074670173852e-01 5.389661480417009543e-01 1.475129266786073534e-01 8.293102120001917266e-01
-2.580380635625493246e-01 -4.786554759661999503e-01 1.822658821840952015e-01 -8.415381389568918902e-01 1.597807966355029585e-01 5.160267994082234910e-01
2.584718558780508407e-02 -4.985175432215616653e-01 2.585901664506527475e-01 5.416716875574459911e-01 1.621773991351398436e-01 8.247971108754141856e-01
-4.400595692104735113e-01 -5.500972420995802192e-01 3.249102001955695984e-01 -8.387756882690138305e-01 1.595570762326412317e-01 5.205736107342875396e-01
7.274521747777831782e-02 -4.826036323083050528e-01 2.266242749562312198e-01 5.468854950168974272e-01 1.739018470897312763e-01 8.189471307226753316e-01
-3.603736380106998816e-01 -5.941008910953199385e-01 2.885976451359730799e-01 -8.386127979479244265e-01 1.546867701840705933e-01 5.223031478442132780e-01
4.310626252852151064e-02 -5.942912829715137901e-01 2.427944737061410452e-01 5.411777568442350805e-01 1.779488812495530481e-01 8.218642413191332707e-01
-4.884189653259206620e-01 -4.961143327871795905e-01 1.117211601701659784e-01 -8.387073322745514092e-01 1.548489225773864719e-01 5.221032675300236736e-01
8.278844484546053761e-02 -5.069377187562964515e-01 2.258629396093257136e-01 5.429950210372851416e-01 1.806827064227189417e-01 8.200671720831652634e-01
-3.865315589450131761e-01 -5.208118934731863492e-01 1.954366872174496117e-01 -8.372397078571539586e-01 1.536143903743667494e-01 5.248164352010892264e-01
3.880033539818785598e-02 -5.576724129644489159e-01 1.823597835625567487e-01 5.438267323833763101e-01 1.809276584040721558e-01 8.194618158093999183e-01
-4.019311971549489604e-01 -4.542468509464079318e-01 2.355983482603582757e-01 -8.359865044176952864e-01 1.535260784992408256e-01 5.268361297900208129e-01
-4.021644050181222840e-01 -6.620273505770466471e-01 1.659129331334872060e-01 -8.344226174681743657e-01 1.528761243004954085e-01 5.294976733437269933e-01
2.540979142216145265e-02 -4.850174447617200957e-01 2.479597750400585610e-01 5.445060161707310220e-01 1.713286392965766569e-01 8.210722840960246183e-01
-3.400627310263699132e-01 -5.563332745511941901e-01 1.511682244941028874e-01 -8.347698221404674657e-01 1.523557530952443784e-01 5.291002443227116325e-01
6.863340590787926632e-02 -5.672021864450200734e-01 1.727925003286607808e-01 5.444035582516177918e-01 1.676507769702647865e-01 8.218990100640369834e-01
2.099320022946245812e-01 -4.917875063978799366e-01 2.891661612771468937e-01 5.435108990065018464e-01 1.664549690095594725e-01 8.227324267057734009e-01
-4.269273711107227642e-01 -5.839105768460606249e-01 1.856909443716178443e-01 -8.341863665089791491e-01 1.507974845642922335e-01 5.304651021317321469e-01
1.019947393681386316e-03 -6.792333071075847828e-01 2.618071272627547907e-01 5.423818423445320169e-01 1.631456455207326850e-01 8.241392087763903529e-01
-4.208664799088048802e-01 -6.139144983280234724e-01 2.725484018092357297e-01 -8.343937021637353180e-01 1.480957318954055357e-01 5.308999943340174665e-01
9.142527340787801049e-02 -6.936519539717180827e-01 1.207481076131190073e-01 5.409691954132022085e-01 1.615286595419407611e-01 8.253852565684564047e-01
9.146303656576978969e-02 -6.630133693389260729e-01 2.652069436170786942e-01 5.406311254715761017e-01 1.611894771007887361e-01 8.256730216273941991e-01
-2.955187811907499795e-01 -7.031643023419248406e-01 1.616204949486599873e-01 -8.354630850532887010e-01 1.446179194275774016e-01 5.301764714636815201e-01
4.583454168986651756e-02 -7.367041031225748382e-01 2.404183129386865958e-01 5.374106697477724071e-01 1.627471960736544820e-01 8.274678979944866120e-01
-4.082206253946525920e-01 -6.558194674869730623e-01 3.428263588777542559e-01 -8.366571741349461133e-01 1.468816195706005023e-01 5.276651995355045033e-01
8.297247214151180772e-02 -8.183191892789996036e-01 1.943885381130044110e-01 5.329701785881921783e-01 1.748075552874862326e-01 8.278798870307714219e-01
-4.344164833541972470e-01 -7.785111856757350735e-01 2.818675119865135525e-01 -8.366301607029706933e-01 1.483766769882015057e-01 5.272896129529390796e-01
1.049938235553130178e-01 -7.184070341204529253e-01 2.127268567029607926e-01 5.317062046777842887e-01 1.774208388433454187e-01 8.281366782429514517e-01
1.718021565037758380e-01 -6.697140248247963612e-01 2.088695797658020881e-01 5.316980080627726757e-01 1.810420670063456194e-01 8.273578416840864369e-01
4.653273010016276828e-02 -6.764794739762335363e-01 2.867861888043751195e-01 5.307234123624648969e-01 1.830651581888038115e-01 8.275384023884626572e-01
6.685873644659387494e-02 -7.604524750975458769e-01 1.980951496776287291e-01 5.317713097441948422e-01 1.864134608791571668e-01 8.261169988179630774e-01
-4.477053260901128207e-01 -6.754408478116805670e-01 2.663027107759483592e-01 -8.375964005501271847e-01 1.472551242223698043e-01 5.260686249680027737e-01
6.586826811809651239e-02 -7.710619871590991270e-01 2.457456608299197764e-01 5.343797446972886611e-01 1.870444209599324559e-01 8.242891926047702933e-01
-4.436604828079771523e-01 -7.266868538903055175e-01 2.638826051400212092e-01 -8.375870595042781419e-01 1.472654468567633768e-01 5.260806078093495097e-01
-3.927469184113344669e-01 -7.955633623298875579e-01 2.254527120247450944e-01 -8.397257739029172496e-01 1.471677624796108030e-01 5.226875494307200443e-01
1.363537890328265223e-01 -7.507669134925712973e-01 2.423779525719422234e-01 5.406140650479643872e-01 1.905987897005196052e-01 8.193952245632215581e-01
-4.476341404508193400e-01 -7.694951536995009445e-01 1.381665945320762756e-01 -8.399445594025571893e-01 1.463396227054180321e-01 5.225685141265977718e-01
-7.283423971626842852e-02 2.308254272532877516e-01 1.300188701036409933e-01 1.651719488005556069e-01 9.113871606021546612e-02 9.820447860277666807e-01
-6.556984306414054275e-02 2.623577866360068400e-01 1.627625633448507303e-01 -7.261736079065814753e-01 -3.960008758078008562e-01 5.620099621353638053e-01
-7.224192163993552185e-03 -2.509000454230417287e-01 -1.990845967764052205e-01 5.263843210254084415e-01 -7.259006259257413940e-02 -8.471423902694432684e-01
-3.810215428639407431e-03 -2.598190836671356307e-01 -1.666906971320347708e-01 5.017722212360926637e-01 -8.235894393608893249e-02 -8.610700565862976497e-01
1.812661275256360061e-01 3.869390624717317095e-01 3.776654277292365580e-02 7.860773437433408173e-01 -2.093172391035520719e-01 5.816087199032352606e-01
2.305726828999423716e-01 7.668363138919688238e-01 -3.219773888283356533e-01 4.488851762480158825e-01 8.522622534497451552e-01 -2.686096608269147312e-01
3.036867352552800603e-01 7.248273240152689478e-01 -2.808941212008048138e-01 7.621612525927242698e-01 6.432963821482424738e-01 -7.266353804537581396e-02
2.731048371106208905e-01 -4.364651802087340382e-01 9.263351186832735618e-02 6.702197824741521481e-01 4.786465590015839822e-01 5.671886059647561762e-01
1.996114540066177834e-01 -4.203269447922752255e-01 -1.210718729283381812e-02 8.313309809118315519e-01 2.329445945077158742e-01 5.046044154244074820e-01
-1.250343130967569716e-02 -4.911548340677467928e-01 -2.623165316064491326e-01 7.805677218616304813e-01 2.274874389415140474e-01 -5.822057168317530396e-01
1.385936548772477295e-01 -4.858572969560522314e-01 1.619665475522596432e-01 8.673784382336607868e-01 1.562463895558882376e-01 4.724846141813350830e-01
-5.086323710234333939e-01 -4.890302190988736752e-01 2.533700812390658058e-02 -8.461348474698897615e-01 1.375578505455383460e-01 5.149113104704513555e-01
3.866839666912061935e-01 6.918555623839597324e-01 -2.043404431153135192e-01 7.295141153793338606e-01 6.792837384487119268e-01 7.989216570759700986e-02
-6.818491270023753492e-02 7.300454310345583231e-01 -6.556223427982866940e-03 -2.229350206967307610e-02 5.970089366686771593e-01 8.019247653634378192e-01
1.192425961750979979e-02 -2.447888190110275031e-01 5.682487343586963002e-02 7.112436530566953463e-01 7.970213470235643083e-02 6.984125111353998161e-01
-1.473795193734837028e-01 7.335998183115191029e-01 7.162200070416688269e-02 -7.242889897734530735e-02 5.967933177944363399e-01 7.991193843405616226e-01
-1.369160655970886320e-01 -2.401986647353500648e-01 4.291074511182059459e-02 -6.586593900914244903e-01 2.287105711406070552e-01 7.168397885810539050e-01
-7.508967228305288288e-02 7.926399185308172779e-01 1.340937930140894373e-03 3.093004753088197164e-03 6.969859943367006094e-01 7.170780689855731360e-01
-5.901485630907542246e-02 6.904003622576704302e-01 6.929250350651822155e-02 9.419501859227449869e-03 6.343685787913696528e-01 7.729733366856466059e-01
-9.718138168032935953e-02 6.770270964754719900e-01 -8.801456787615796751e-02 5.160821727072450321e-03 6.281856197438310252e-01 7.780463951887189866e-01
2.166851746352455033e-01 5.504347782344647388e-01 5.197595449119736533e-02 4.126847424838463452e-01 2.029067967556183461e-01 8.879865624835859839e-01
2.588437673085336455e-01 5.271519031608891126e-01 6.000248319070238673e-02 4.104809609349106547e-01 2.553638602935355828e-01 8.753825903945862130e-01
-1.267452985261250109e-01 5.838049493972504722e-01 4.955476650356772927e-02 -4.442363554580394669e-01 5.407988477167368080e-01 7.142763238394563841e-01
-2.600288927504449954e-01 5.435831962264736639e-01 6.105673276389406157e-02 -4.542647683536101821e-01 5.784793314202441028e-01 6.774992128056152030e-01
-2.637542981785009552e-02 -2.033236591186016462e-01 -2.189328326146059156e-01 5.165782645785863547e-01 -1.517149376198130561e-01 -8.426918026585948907e-01
2.656512928443744426e-01 6.964663528044424678e-01 -2.187817247922176078e-02 5.647377111226367097e-01 8.031382054449147656e-01 1.898429366362817394e-01
-9.603845882966620395e-02 -2.071387277493640655e-01 -1.762972910077389987e-01 5.075312755748602189e-01 -2.098215429633078222e-01 -8.356954734960886366e-01
9.998950171408768628e-02 -9.345567054749112090e-01 -6.797571006351968426e-02 8.282746856358191856e-01 -1.855454061371014374e-01 -5.287097004938560163e-01
3.876774579319763187e-02 -2.407581224538244413e-01 -1.853995310572772448e-01 5.289950163813846862e-01 -2.266655709639763538e-01 -8.177939786909862452e-01
-8.169779604487678593e-02 4.461309253790752272e-01 1.853101930314288992e-01 -3.905631639784638148e-02 2.673498508253523975e-01 9.628076970055302608e-01
-5.874032427372478937e-02 4.535909834225622661e-01 1.859482281150428296e-01 1.479358585748335314e-02 2.817703742343421469e-01 9.593678158148292168e-01
-2.796992484832810932e-03 4.999309396389987059e-01 2.660889544279769758e-01 5.667041961314673443e-02 2.825299917981710096e-01 9.575830341413715807e-01
-1.501341376602329247e-01 4.565433969040812445e-01 2.084405378000527276e-01 -1.889957902266696521e-01 2.187099910824887583e-01 9.573121387913633429e-01
-6.369101262213847092e-02 4.419971972667519622e-01 1.484886692680714715e-01 -1.000104939082900740e-01 2.395688378775393812e-01 9.657145919091338904e-01
-6.599350758874958367e-02 4.495499935209502640e-01 1.056107897912667293e-01 -8.155119114113049128e-02 2.559598259671201914e-01 9.632413875630264632e-01
4.129574253222736968e-02 4.600700958437370924e-01 1.533492387772183441e-01 5.600244680118749568e-02 2.668725770493105554e-01 9.621032967261571311e-01
-9.415265683521528706e-02 4.680148876827711080e-01 1.839227019138090224e-01 9.115603527524993033e-02 2.329593982807571795e-01 9.682047799848775282e-01
2.314270550414964517e-02 5.334331875719426908e-01 2.742958992702907994e-01 1.298947551209072848e-01 1.247938293200563237e-01 9.836431531585609900e-01
2.301509368216599072e-02 4.029277794567915350e-01 2.003653772594397031e-01 -1.424710665709197910e-01 1.910994246928877649e-01 9.711760937503516322e-01
-9.408676473468111090e-02 4.995991471427871922e-01 1.539790725546056893e-01 -2.212460940563975090e-02 2.712050348418049150e-01 9.622672865348292914e-01
-5.802727205435749547e-02 3.939788376676109927e-01 1.126971421336146056e-01 2.234776024656279503e-01 8.967607127695625957e-02 9.705750684189990984e-01
1.681202309886654644e-01 4.021322443235622046e-01 2.512841708445067157e-01 -5.790689598143586997e-02 6.016529481169842208e-01 7.966558362429390083e-01
-7.601729157520414892e-02 4.108965546119305312e-01 9.853932501041039183e-02 -1.737971581040108626e-01 1.541819410923185030e-01 9.726368679399184369e-01
-7.625061981029190861e-04 4.048130812206939821e-01 1.653722713972705649e-01 -1.413798445712217411e-01 1.583303871165757659e-01 9.772119668037902995e-01
1.512802533917963765e-01 4.023274939597756839e-01 1.526105204439494878e-01 -2.055834171543747257e-01 2.257782193435979301e-01 9.522392841408952036e-01
1.668037634347008802e-01 3.975920865673014393e-01 2.506781665942474646e-01 -1.527818776968766779e-01 3.762461304011203711e-01 9.138361708783472315e-01
1.887092369429661243e-01 4.404071207264635968e-01 1.603211297513174038e-01 1.609244607319722242e-01 3.726932072874173940e-01 9.138944639179854557e-01
-7.117172456944786951e-02 3.948841979614101660e-01 5.480212770822853741e-02 -2.182778671705433715e-01 1.332598784088291077e-01 9.667453529807851220e-01
-1.705841669757160173e-01 4.377710069838526841e-01 1.749886684235016643e-01 -1.404575309758156476e-01 9.901382746651804512e-02 9.851233140894638529e-01
-1.185867288324211205e-02 4.024434417666624686e-01 1.226461183716577863e-01 4.382486224814055586e-01 -1.448269280690418215e-01 8.871095230010975774e-01
-6.064200120970889007e-02 4.546157671213861273e-01 9.714103218139057139e-02 4.127556139261307488e-01 -3.281278378456422562e-01 8.496851918229521017e-01
1.453001391313624713e-01 3.600799601259299099e-01 1.228152774429135674e-01 -1.047561848654742500e-01 9.137342275998003305e-02 9.902913911296798988e-01
-1.079562426718660567e-01 4.853402020851205756e-01 1.976150735026239169e-01 -2.367392974521639604e-01 1.117749731824967258e-01 9.651221997301212552e-01
1.781331882278990586e-01 4.232940265221495357e-01 1.963756478935857197e-01 -4.686557292561178978e-02 -1.880872886057645965e-01 9.810335315060775274e-01
3.208575040502905651e-01 4.840633210326764080e-01 1.889980531879497105e-01 1.012443735175952153e-01 -1.010334743428071835e-01 9.897180476748167477e-01
-6.488623080036660939e-02 4.501161471188602770e-01 1.275780575182127174e-01 -1.242757199911793120e-01 -5.855490938516780264e-02 9.905184844350803930e-01
-6.327579745064046413e-02 4.493339846919792713e-01 2.283260403509103642e-01 4.525901139353348257e-01 -2.055318498290393814e-01 8.677089647306024389e-01
4.144888208373226357e-02 3.831551601615718061e-01 1.569655054758894996e-01 1.186427327542350849e-02 -1.505143681938621303e-01 9.885366275393383528e-01
1.859932531634761466e-01 3.737909813780702639e-01 1.943247728925384110e-01 -1.023900771726801995e-01 -1.897103163195775766e-01 9.764866962629334957e-01
1.878217655994574020e-01 4.515259575853173279e-01 2.167452757230343141e-01 7.980632614288296622e-02 -1.972519224058734144e-01 9.770990888414352593e-01
-1.076093001172467173e-01 4.264819558840886038e-01 2.344476252929043048e-01 -1.644743667533905274e-01 -2.052329441720695744e-02 9.861678239870411700e-01
-1.715821005163562507e-01 4.738565192643643398e-01 1.315937481672999620e-01 -7.181537727602238519e-02 -1.520750183214557849e-01 9.857564305594113119e-01
-7.821934232331027859e-02 5.041359620753069759e-01 1.865556351886009934e-01 -3.126362195907259750e-02 -2.019535348130705177e-01 9.788959882022738590e-01
6.177152454810039273e-02 2.912597306035477063e-01 1.056533365038638678e-01 4.726037232625038831e-01 -4.946716879075494649e-02 8.798856289144887377e-01
5.841576313014087973e-02 4.478574813621625239e-01 2.400779414171847481e-01 -2.661309549161185520e-02 -1.850502237392191163e-01 9.823686466100285397e-01
1.776415777388734574e-01 4.177219315011468370e-01 1.043043630865731625e-01 -1.811726260530012456e-01 -1.756898088823586057e-01 9.676309061950945090e-01
2.223108157822151210e-01 3.697787330794382044e-01 1.547662862108366566e-01 -5.888555468427052880e-02 -2.662407128350038343e-01 9.621062177736066090e-01
-2.660959479101138170e-02 4.182086753072039587e-01 1.800991661188741100e-01 -1.415747361750574560e-03 -2.565223469764617015e-01 9.665372632035950096e-01
-1.316490884746627510e-01 3.110373303322013228e-01 2.020108119382947875e-01 -1.542726028851161002e-01 -3.334788334991946601e-01 9.300493705213006557e-01
2.334917187108246500e-02 4.399203884155047928e-01 2.190888080688884187e-01 6.646482420515932299e-01 9.884126332179098140e-02 7.405897103002978543e-01
1.595883820878335746e-01 3.618836489132957190e-01 1.956374237816542461e-01 6.670551206371443109e-02 -1.981417240343583963e-01 9.779009315145423820e-01
2.535196578977654824e-01 2.724047573175694126e-01 2.688457850039505659e-01 -9.432961450684207438e-02 -1.809637597875582149e-01 9.789555870776475155e-01
1.905743217751298957e-01 3.846257658468705265e-01 1.740731377058687412e-01 -1.735901322008570891e-01 -6.339322324080655380e-02 9.827755416419510226e-01
-1.252752552855904977e-01 4.534333054722651246e-01 1.915869458495472466e-01 2.035206310052830800e-02 -3.745065752063488906e-01 9.270008730604106795e-01
1.563273219303040057e-02 3.590209616551938154e-01 9.610947347879965352e-02 5.117047609348273074e-01 1.765009153432481326e-01 8.408362887742338865e-01
-1.326915740962149037e-01 4.343736536299316886e-01 1.544763626161057279e-01 7.474817303990510808e-02 -3.812206600161555103e-01 9.214572800754483595e-01
-7.737293683691814916e-02 3.610354439962472073e-01 1.380478245547998029e-01 6.920461438520124631e-01 9.343879414529615568e-02 7.157802222248339508e-01
-1.183667762423367964e-01 3.574229949859296096e-01 9.990138818803717680e-02 5.696348703959749210e-02 -3.485139870995179745e-01 9.355710352187516232e-01
-7.907370809269199941e-02 4.159070678145566080e-01 1.572971521947795492e-01 -3.488819831047332842e-01 -1.685578354783544563e-01 9.218837334305017839e-01
-1.856821006624199688e-01 3.109143695241238237e-01 1.622799848172189474e-01 -4.849150468003816106e-01 4.409030845755423922e-02 8.734491639967957299e-01
-6.629664825442302400e-02 3.646377135558913074e-01 1.655257251654994877e-01 -5.514262219076532245e-01 4.261195337529242316e-02 8.331346489146836953e-01
7.504975550985934496e-02 2.622411885318319813e-01 1.662753904922583403e-01 8.751173553501917501e-01 3.243249344426780700e-01 3.591419653335413131e-01
-4.956852327565633431e-02 3.842701321655443980e-01 1.343042958077474702e-01 -5.414712632562503902e-01 1.567458828217553057e-01 8.259779653756563755e-01
-2.386563894339353842e-02 3.549529561136869349e-01 2.375543892397815882e-01 -5.164580219332572941e-01 6.161515425947068636e-02 8.540929014728835256e-01
-1.218290203688143225e-01 2.553869303536115964e-01 1.627632038782944601e-01 -1.403640475935634402e-01 1.338645411174943789e-01 9.810087760945640500e-01
5.438116040681144348e-02 2.585808913326678726e-01 2.650318538872060148e-01 9.378075889583114000e-01 -2.121517470230855906e-01 2.747882135886678956e-01
5.323241509689494166e-02 3.554995998953908720e-01 1.393733205595962810e-01 -1.337145006087772092e-01 9.055496520093894719e-02 9.868739689567265216e-01
-9.196784701111498234e-04 2.833676543235918444e-01 1.251037748654604820e-01 1.266310150637166287e-01 -9.605114543592190302e-01 2.477545803182472361e-01
2.604511538437766921e-02 3.166313865308572062e-01 7.319881063917332842e-02 -1.090349486714024957e-01 -2.534975154134989639e-01 9.611713633101057752e-01
-6.189880571576664853e-02 2.777166004072359473e-01 2.081284996508955820e-01 3.843494180030127667e-04 -3.765386107964754925e-01 9.264008456683235915e-01
-1.783227558716238004e-01 -4.395124907412064075e-01 1.280828502248145262e-01 -1.406102704870886289e-01 6.731314101639729319e-01 7.260322695887619915e-01
-1.113901012035561494e-01 -3.152712274460138242e-01 1.129060733176397574e-01 7.640258288667638002e-03 7.010290511436775285e-01 7.130917864524015659e-01
-1.607265091816279523e-01 -3.369103568910781776e-01 1.077354074145411705e-01 5.115206616106716259e-02 6.756694224404401483e-01 7.354279690808990244e-01
-9.378667343122919220e-02 -3.073747216502847879e-01 1.272533210520285785e-01 1.098735012271649519e-01 6.908410490030265638e-01 7.146093049635459105e-01
-1.645820289298493833e-01 -3.177564743511493428e-01 1.283958111573209604e-01 -2.508787365219877219e-01 8.353933691593480315e-01 4.890580521019200488e-01
-1.196851315792177711e-01 -3.918073421181544891e-01 1.756010466221968325e-01 2.967668486688108120e-01 7.240926993460857775e-01 6.225907165103590213e-01
9.675019101958490242e-03 -3.723911617772341365e-01 2.400209576468963490e-01 2.763083937435292237e-01 8.318206935023669812e-01 4.813813513298079716e-01
-2.068741577339563292e-02 -3.435933125007630262e-01 1.323512014795351355e-01 3.636130190378027982e-01 7.939520627658791518e-01 4.872634753560129983e-01
-2.323814976703381802e-02 -4.124248287441190652e-01 1.506862898389390581e-01 3.867426351785286376e-01 7.681641792130069479e-01 5.102488881998420434e-01
9.644535028964090762e-02 -3.964377578900395993e-01 1.325677873719054711e-01 4.206728227282305888e-01 6.995538756251908907e-01 5.776320206806733193e-01
-2.928550221192469452e-02 -2.985182986329728561e-01 4.414693711726419556e-02 4.409830706785330956e-01 6.592929780902859749e-01 6.089882596699000006e-01
-3.375044854710006204e-02 -3.612707909802993500e-01 1.682997980518961267e-01 5.008552949146074518e-01 4.987427188000594924e-01 7.073893369283469346e-01
-2.537758772426623732e-01 -3.158257702550659185e-01 2.520735718536173953e-02 -6.302498194179604329e-01 7.728071875768001142e-01 -7.452661238285725187e-02
-2.869932722168602179e-01 -4.346454145100548394e-01 1.671233798837321594e-01 -7.223379359641859399e-01 5.392216822848400204e-01 4.329756155038140264e-01
-2.547224698637838847e-01 -3.790093019463692814e-01 1.943311911409579540e-01 -6.033819199228248609e-01 7.174511432067408601e-01 -3.481294526775725595e-01
-2.246430404672438153e-01 -4.046950757945232957e-01 2.223335566456718093e-01 9.552936604464043469e-02 9.853531077682144979e-01 1.412564803279145464e-01
2.750017614922548037e-02 -4.495484055843474991e-01 9.553776257941760941e-02 4.875232500520956247e-01 4.997623999767326630e-01 7.159319969299725583e-01
-3.901852985398413520e-01 -4.266747024565698543e-01 2.322423074015970146e-01 -7.465857505704521779e-01 5.197650026723390493e-01 4.152758830490615449e-01
-4.387240541806144978e-02 -4.462030520958770174e-01 1.771117110244374016e-01 4.624621338033720885e-01 6.066117003279986042e-01 6.466459771955643809e-01
-8.753985468074523824e-02 -3.233110186143908216e-01 1.857318070852520542e-01 4.479033225279624442e-01 6.917842849865890598e-01 5.664072004432902929e-01
7.167999806665899254e-02 -2.996397988841198456e-01 1.213383875879909535e-01 4.410693816647927035e-01 7.350181380489937411e-01 5.149816863703288172e-01
1.726788610748287156e-01 -4.133534594647884086e-01 1.327892649009649595e-01 5.825567519103111991e-01 4.023210556317728948e-01 7.062332468802668961e-01
4.422873250380122273e-02 -4.646292328785009973e-01 1.478769904955659076e-01 5.346903206795599051e-01 2.590844693244453434e-01 8.043516014321473451e-01
-3.562624503790496888e-01 -5.221736768024966002e-01 2.470613432554209510e-01 -8.415671591279534347e-01 1.471030565889975550e-01 5.197359016072299331e-01
1.401034888900477837e-01 -4.726907543466402628e-01 1.365508885088550228e-01 5.293823415620051431e-01 1.385384711572930638e-01 8.369954769601377631e-01
-3.634390159508300577e-01 -4.976563625081533715e-01 2.424759637560214842e-01 -8.469236282540337779e-01 1.418149825368731354e-01 5.124537819482746226e-01
6.133298747205095935e-02 -4.691211032431208405e-01 7.960184066359457522e-02 5.378238035792435312e-01 1.398935825317700610e-01 8.313695579403794778e-01
-3.348527425139721792e-01 -4.807079377467694536e-01 2.215559724989699109e-01 -8.405850486421733159e-01 1.581546497779743321e-01 5.180771011662661518e-01
1.097234485307192475e-01 -4.279631904306836487e-01 2.063373756020192018e-01 5.353596708608879817e-01 1.438847356438874570e-01 8.322783222362638567e-01
-3.687216899803309467e-01 -5.320849511134982945e-01 2.003724261598625045e-01 -8.409209391210223927e-01 1.636874807326290648e-01 5.158084749199290941e-01
-2.777217921888081031e-01 -4.997862550893338862e-01 1.409512440634074493e-01 -8.409531961406864209e-01 1.639742918349574585e-01 5.156647685444376572e-01
6.940788982283896402e-03 -4.181076990781556479e-01 2.258122120949399569e-01 5.354110256905355580e-01 1.596798831307298661e-01 8.293596134924614560e-01
1.363926011595947285e-01 -5.282330181917247458e-01 2.175050530385191638e-01 5.364332543582004398e-01 1.624277848610832242e-01 8.281645840796331148e-01
-3.029196776187841889e-01 -4.767654479282033009e-01 2.121515914618968546e-01 -8.409269017664852131e-01 1.627881615120492786e-01 5.160832881976969988e-01
1.359407097282363530e-01 -4.530158774470491867e-01 2.544918415274148304e-01 5.379835685548303159e-01 1.664538758607392588e-01 8.263575419731751248e-01
-4.016924443053915272e-01 -5.323096067404033960e-01 1.660220179576594457e-01 -8.399770908334840414e-01 1.623399971721573576e-01 5.177684928547320320e-01
8.007803738529475912e-02 -5.607229751472547763e-01 1.521696452957356782e-01 5.394073699750141504e-01 1.701259148355918072e-01 8.246798544392796027e-01
-3.669918170668333701e-01 -4.824773369710607662e-01 1.673459807451864734e-01 -8.394142665052046759e-01 1.611561982974314966e-01 5.190494860202137239e-01
8.976139807320007713e-02 -6.094067034910468639e-01 1.419204759087283330e-01 5.430176783037091726e-01 1.724724251793604002e-01 8.218181450919658237e-01
1.181005694321769772e-02 -5.704706704266246931e-01 1.334345735212983108e-01 5.449276292759277496e-01 1.683212908748932535e-01 8.214145250054484260e-01
-4.067413047455499253e-01 -4.989736485084683149e-01 2.569514950333470216e-01 -8.375032276669864828e-01 1.619103870058293537e-01 5.218940220265053664e-01
1.204222242710725060e-01 -5.979080618405834269e-01 2.595344733779374469e-01 5.465287798314611978e-01 1.694484146475047359e-01 8.201179961379834182e-01
4.020604981352013385e-02 -5.901430909544008729e-01 2.509721607003549959e-01 5.504887607276193195e-01 1.698733324323742355e-01 8.173770092441369206e-01
-3.814706700057671762e-01 -6.768921566482309915e-01 1.752525068034503919e-01 -8.369027518339374749e-01 1.568147257553155483e-01 5.244072136794725170e-01
1.164893291819985299e-01 -5.512442261233509999e-01 1.952554995755713674e-01 5.527320978983082389e-01 1.701564362973896904e-01 8.158026814981103048e-01
1.169355217458117324e-01 -5.570878560770423649e-01 2.589549651313138301e-01 5.520145583149077551e-01 1.711949527032705642e-01 8.160712074183981146e-01
-4.572821036588904375e-01 -6.485190117176931057e-01 2.286998412324338648e-01 -8.374278595004611692e-01 1.531088356406295203e-01 5.246639539564793564e-01
1.133084179016248250e-01 -6.613169305059917180e-01 2.521763201213378380e-01 5.530738785582411943e-01 1.714597792726551828e-01 8.152980000885052814e-01
5.904991054510007331e-02 -6.134123472017483092e-01 1.218924583908888304e-01 5.546156197978073799e-01 1.699098786323443577e-01 8.145748261635857856e-01
6.469478311400007897e-02 -7.209195788132748417e-01 2.068250644540055583e-01 5.570455007510316525e-01 1.682409582183925778e-01 8.132621287572595614e-01
-4.125856273915045058e-01 -6.056420880879399560e-01 1.250168143634430851e-01 -8.387183975423878612e-01 1.432829757916267432e-01 5.253774247835790723e-01
1.198893416831248865e-01 -6.364390545680911337e-01 2.688456902788726177e-01 5.584952284876640860e-01 1.686421217179377985e-01 8.121840398203994393e-01
-3.784305265399001694e-01 -7.478214180791410426e-01 2.818039718653927439e-01 -8.387417331745330440e-01 1.420046276820384756e-01 5.256871605320659890e-01
1.160066369853945956e-01 -7.359376664371054533e-01 9.548994091234423720e-02 5.635809511347468215e-01 1.675337817588887779e-01 8.088936540037999778e-01
-3.588989202535389778e-01 -6.443013847143987949e-01 1.930542532338109796e-01 -8.378372111195873106e-01 1.450462341934709576e-01 5.262987721908962691e-01
1.735788886471990033e-01 -6.744790878303676962e-01 3.140459946072622355e-01 5.728905615644357407e-01 1.671851686148276006e-01 8.023998528574249889e-01
2.770365549299980135e-01 -6.169654496799188426e-01 1.431785698124684036e-01 5.728721571118234879e-01 1.693523435695427071e-01 8.019584000018641357e-01
-3.454074139986986203e-01 -7.066362667654295660e-01 1.269630131224920577e-01 -8.384075472648460092e-01 1.437212940962135643e-01 5.257537202080976302e-01
1.281120072048078096e-01 -6.927991952986001234e-01 2.127179543330826594e-01 5.748375878953846385e-01 1.701897315388261889e-01 8.003731647309012542e-01
2.260372523805905809e-01 -6.946910335444391738e-01 1.639081156137367767e-01 5.781492700454913258e-01 1.686624969718505118e-01 7.983084514528741016e-01
1.637494412699480317e-01 -7.316439928151757810e-01 1.878839676061961339e-01 5.755761780617345558e-01 1.770793621163874454e-01 7.983451401244325840e-01
-4.191625866034906500e-01 -7.688610750326777543e-01 9.133594864032708316e-02 -8.406486867705256216e-01 1.395339470494798284e-01 5.232972989150465049e-01
1.475247129472022634e-01 -7.496830916525533128e-01 1.261090212228398177e-01 5.743148355060679888e-01 1.910271229685013283e-01 7.960346148302944735e-01
1.110666635613391101e-01 -7.190835612788958331e-01 1.781483713538601632e-01 5.764198161638240947e-01 1.958678746519613989e-01 7.933321947412614872e-01
-4.793093546548019557e-01 -8.083915107562519298e-01 1.401047934394726302e-01 -8.427441641404683770e-01 1.383472944478435496e-01 5.202329285292742744e-01
-7.377774646755511090e-02 -2.329357997802978808e-01 -1.548118741877912430e-01 5.254909350133800672e-01 -2.660714225548276857e-01 -8.081245419602192115e-01
5.304635807775084921e-02 -1.526824806536438150e-01 -1.629933197070022877e-01 5.041662816575254169e-01 -2.883644066652262805e-01 -8.140407418601582901e-01
2.652762606639818554e-01 6.345173805008382795e-01 -2.217058628763656503e-01 7.596179744854524296e-01 6.498652434154680302e-01 -2.560660538168165259e-02
-5.792879882811068082e-02 -1.227535427529742595e-01 -2.328042887773131009e-01 5.138442759640506896e-01 -3.455180360161808628e-01 -7.852269397101079296e-01
3.718926702434265930e-01 6.192197289677310312e-01 -3.009116661543841942e-01 6.859591567977185722e-01 6.833118598225469409e-01 -2.500898587132528994e-01
-1.727397755457238115e-01 2.776903134133150708e-01 2.520931346396617645e-01 -1.635723175613589264e-01 -5.599859350908223954e-01 8.121944652779058416e-01
-1.836002080606236736e-02 3.002596434360297883e-01 1.961208295897149678e-01 8.269094407570551919e-01 -4.770852741466472535e-01 2.976750207512758872e-01
-2.667645024991710523e-01 3.857423918117805495e-01 1.198833188467302718e-01 -6.810662138207375371e-02 -4.579308742981520464e-01 8.863750913064111225e-01
-5.660195024064997860e-01 -4.462910960309539599e-01 5.832689064649165811e-02 -8.450790875589938578e-01 1.517095220854235982e-01 5.126651506383779200e-01
2.144522438982529866e-01 -5.294685654510540296e-01 2.889185020417343874e-03 9.636098482519388497e-01 -1.176429036293146213e-01 -2.400337634116065655e-01
3.408290463750786592e-01 6.770638000488673480e-01 -1.951694914228684907e-01 4.976822422826308601e-01 8.421685186290531755e-01 2.075200519146975231e-01
-1.322516310840579912e-01 1.834211329781184063e-01 1.057519910449793571e-01 -2.432682094996895250e-01 -4.188075020849281183e-01 8.748833376194782296e-01
1.052353380584460651e-01 1.717061459016381852e-01 1.448055624844742373e-01 1.012211754135602798e-01 1.556815418995199096e-01 9.826075163358386488e-01
9.343695738333011869e-02 2.674222326338469569e-01 1.746001607456957871e-01 9.514751294053713782e-02 7.366393178875844938e-02 9.927338897885231717e-01
-7.301237973257758418e-02 2.846695335655523018e-01 8.674353250586369635e-02 -6.233428527980284795e-01 -3.492115812983435652e-01 6.996391636784821122e-01
1.327266530144912693e-01 2.721753122378032241e-01 2.257578663334974534e-01 1.242612428534465713e-01 9.454155818431671243e-02 9.877353073068706468e-01
2.522974239873054247e-01 -6.913905980282733510e-02 -2.201650112211815946e-01 3.673545664045786419e-01 -4.987033362278960325e-01 -7.850768146983261309e-01
1.320037037855770479e-01 6.205563639510333629e-02 -2.031375503024831497e-01 3.342934691492200350e-01 -5.156851577576955226e-01 -7.888705182427597773e-01
3.056848027461188042e-02 2.395352407789460292e-01 1.529890455336780641e-01 1.262458344906496888e-01 6.074145198874197904e-02 9.901375991669334464e-01
-4.525643854083577500e-01 -5.684482045822284446e-01 5.449887372644326988e-02 -8.466241749909020342e-01 1.607249252944629725e-01 5.073411127733132853e-01
2.939633531202682781e-01 -5.863730569316272234e-01 8.519384750579639398e-02 9.372270895255756518e-01 -2.343211042796140321e-03 -3.487117606583229334e-01
6.067926299782980260e-02 -7.688739213815444229e-01 -3.598096221367095421e-02 8.283678478386442556e-01 -1.832968135102965301e-01 -5.293476993660634067e-01
7.799481630519469744e-02 -8.225651470211176042e-01 -6.177403687156735046e-02 8.342059437862494597e-01 -1.700392986612705160e-01 -5.245827677902467068e-01
1.681039804532869220e-01 -7.228735390553174822e-01 7.985950047034931498e-02 8.365948682430323080e-01 -1.701534943080265094e-01 -5.207271980645831189e-01
5.334067027474201361e-02 5.419264168366100254e-01 2.557451793227534242e-01 -2.840215206634704934e-02 5.428617151584148592e-01 8.393416920261164149e-01
-5.563990395519986115e-02 6.327192839370427979e-01 1.327213351357493798e-01 3.638858271302688324e-02 5.633999170222403485e-01 8.253825807148283955e-01
-7.030171403812468522e-02 6.004054857133113154e-01 1.070586485860198778e-01 -1.536643154840161285e-01 5.339957429219863716e-01 8.314059325552257684e-01
