-2.087457138984447902e-01 -2.355921720892019955e-01 2.903038382597818434e-01 -3.387914167943966159e-01 -8.719025727517784596e-02 -9.368128067777113932e-01
-2.612947183120719052e-01 -2.734375976330370994e-01 3.349838989215012663e-01 -5.195545757677452192e-01 1.544831010672224336e-01 -8.403558854934335409e-01
-1.911547570610236668e-01 -3.094963456707088278e-01 2.307408756604762412e-01 -4.810049686555585291e-01 4.083883265020857856e-01 -7.757919791448548708e-01
-6.947528058921106919e-02 5.447588523556368134e-01 5.321920642971009752e-01 -1.478333100829807567e-01 8.538812470281436084e-01 4.990311898103882426e-01
5.396671213755623031e-02 5.046347848086704113e-01 4.725188185722032919e-01 -1.665378705660676695e-01 8.614996584354495113e-01 4.796701743728951084e-01
1.394700961133677197e-01 4.695848846067851023e-01 6.047448283925911383e-01 1.431353497629124505e-01 8.133381571165941848e-01 5.639089588102241812e-01
-4.482038773697864797e-02 3.508059199236535086e-02 7.877817828966943159e-01 -2.712011977525564665e-01 3.900143305299429430e-01 8.799651881289731747e-01
-5.854458599806706964e-02 2.406027417215973463e-01 7.869326693532510131e-01 -2.861313830486346688e-01 3.043738423235803903e-01 9.085622685010950050e-01
6.268703863730658299e-02 3.396869844593095045e-01 8.160173496815635863e-01 -8.830552622463404278e-02 2.920692153180375339e-01 9.523117701161192272e-01
-4.689815970862110106e-02 2.792281646650700555e-01 7.807903788906640496e-01 6.300954590150303902e-01 -6.352949573380307635e-01 4.465199096451445970e-01
4.279393195619999452e-02 2.719803956067928796e-01 6.427312501989881355e-01 5.621799665994902107e-01 -6.035034485333899967e-01 5.654531570010923325e-01
1.523866577290728386e-01 3.010021872319179059e-01 6.587277319962223654e-01 2.458069609642979381e-02 2.838770117342148680e-01 9.585455813826837534e-01
-5.046420042512265308e-02 2.570028558810597552e-01 6.765252593721440277e-01 -1.844897900887048914e-01 2.692056359545651478e-01 9.452469745644910271e-01
6.928093695542021646e-02 3.279304332673421141e-01 6.135719900177883934e-01 -3.464169718975046441e-01 4.992746379353746322e-01 7.941788951463416568e-01
-2.276656851900143441e-01 -1.219814799451837267e-01 4.991149830970775247e-01 -8.321937281483751114e-01 -4.709140480193280132e-01 2.927346207891344254e-01
-9.160772526447415187e-02 -2.085153066712349679e-01 4.768296564160400819e-01 -8.245948830177963762e-01 -5.350515934351234293e-01 1.837473027377604096e-01
-2.308587148433255409e-01 -2.098054163918306458e-01 5.448741548369773202e-01 -8.738645946206277104e-01 -2.307754625229675449e-01 4.279057795424553445e-01
-2.179133803560432403e-01 -1.130444276478620586e-01 5.480835699587198739e-01 -5.630210342319819095e-01 -8.256444417461936691e-01 3.631213056218976498e-02
-1.923629299700888862e-01 -1.764766208892976918e-01 5.325333654249189141e-01 -5.269913541926352085e-01 -8.278434685687179329e-01 1.922376241902888083e-01
-9.765794707204675240e-02 -1.746232621181170730e-01 6.692210718184303797e-01 -7.931315204551737663e-01 -3.893385784136916827e-01 4.683565550083290674e-01
-1.140167619697707302e-01 -2.992019964222471518e-01 6.099158490319696035e-01 -7.854958794320232585e-01 -4.196951963947220809e-01 4.548100323415350532e-01
-4.131544729156783058e-01 4.002597358829118601e-02 3.096652395292555093e-01 -9.523897691101336216e-01 -2.782704859042616219e-01 1.245763395230112119e-01
-3.852298872645477101e-01 4.099318708306139841e-02 2.223534837242231721e-01 -9.493151307270030204e-01 -2.295859544767431260e-01 -2.146883137941512643e-01
-3.850098013641329864e-01 4.349663811942221930e-02 2.219134893227523997e-01 -9.418790451139796849e-01 -2.931675364368478420e-01 1.640629755756224661e-01
-4.133714556880674351e-01 9.625482339060723036e-02 1.458940967915943743e-01 -9.696338074478989544e-01 -6.626166550681497625e-02 -2.354138295392898261e-01
-2.921344630096915918e-01 1.331440529363089875e-01 2.132340635708211696e-01 -9.419765046235150097e-01 1.658917118086204456e-01 -2.918222141826604665e-01
-4.702192631672379441e-01 3.202303595155814309e-01 3.053431323838143863e-01 -8.348394969804705523e-01 3.596946326447087450e-01 4.167286713534152365e-01
-2.778024755234899112e-01 3.943752907298273547e-01 4.400777669341525700e-01 -6.021791947549163249e-01 5.201117350786508275e-01 6.056929919008440244e-01
-2.912347818447068581e-01 4.398733214864123942e-01 2.701849862010371472e-01 -7.874761914982404409e-01 4.681559531613879721e-01 4.008880783248349178e-01
-1.835782111557007212e-01 4.479153758688457221e-01 3.690415173289802730e-01 -8.201534014767229985e-01 3.856267142766180434e-01 4.226587693191530826e-01
-2.391878444082539690e-01 4.373365160257906004e-01 3.193554890446825834e-01 -6.572608874073212482e-01 6.522168447835873240e-01 3.776523709247469052e-01
-1.904913062673532220e-01 4.204334305584828124e-01 3.289629457119832012e-01 -8.189799721602775140e-01 3.961815685335585147e-01 4.151047698529132801e-01
-3.370118572935570378e-01 5.171046607179828891e-01 1.868244416805114883e-02 -8.063273653702051069e-01 1.875664798808881761e-01 5.609411693575682145e-01
-3.431653002836572153e-01 4.940929900860163704e-01 1.065186034637588403e-01 -6.703168754280443009e-01 6.803083961016861414e-01 2.964047447493631249e-01
-2.734302789736283157e-01 4.986010296129040897e-01 1.248562825341779509e-01 -7.017846447519248132e-01 5.610175799248243722e-01 4.390416693273066495e-01
-2.202745254813455733e-01 4.989780362184192408e-01 1.678885400839801867e-01 -5.793008408029115541e-01 7.916020113115929124e-01 1.943625260498548224e-01
-2.639526470440020645e-01 5.331266046135534342e-01 1.473942065293076253e-01 -4.576680796546145902e-01 7.012078812595875510e-01 5.466694029527326970e-01
-2.253528007993280957e-01 5.357386424853524121e-01 2.597872718791153779e-01 -5.440892181596030941e-01 7.830004736191427117e-01 3.014584233267832980e-01
-4.400353230449421393e-01 4.059601113569214492e-01 2.185360070690718359e-01 -9.542297241685057108e-01 1.567116447593474779e-02 2.986637710156115344e-01
-5.571641177595778593e-01 2.290601760371893114e-01 1.368436584604126871e-01 -8.512140385074280502e-01 4.946184780897375788e-01 1.754628786383796157e-01
-3.626585730837205146e-01 4.842541171119482124e-01 1.957018572247466448e-01 -9.903190245662536473e-01 -7.239264002876638626e-02 1.184378961811183711e-01
-4.186316329209196496e-01 3.473980707265220680e-01 1.416669769747804231e-01 -5.133404868473240290e-01 8.354835267241211838e-01 -1.960837095119762341e-01
-4.137139284585603649e-01 4.512857287002854934e-01 1.605127630114173976e-01 -9.355576405369009363e-01 3.484227013953983820e-01 5.773666413432590461e-02
-2.643167194928545682e-01 5.403346280202044882e-01 1.650928188624522508e-01 -9.624463246359559188e-01 2.369840821340125914e-01 1.324221167699703716e-01
-3.903532651647992902e-01 4.032756380201494295e-01 1.493655440812449442e-01 -9.070034858463705829e-01 2.213161813233056191e-02 4.205411610548690504e-01
-4.039252583602466751e-01 3.407429295161709670e-01 1.823046365998166884e-01 -7.924772314239901805e-01 6.098974969446062655e-01 2.209274829307060744e-03
-4.064289313018922822e-01 4.107431739724832220e-01 1.773194193854115697e-01 -9.379235965161349942e-01 3.199201714439299793e-01 1.339791439050299349e-01
-3.569098331582285510e-01 2.861171946953568468e-01 2.872749018113579522e-01 -7.433618243569158901e-01 4.506111158135410744e-01 4.943306791956504909e-01
-2.457658248358021436e-01 3.162849346932166683e-01 3.596893387130328246e-01 -6.656899945755629933e-01 7.455966461439695880e-01 -3.069971304183896979e-02
-2.925959209774043890e-01 4.300802677874481228e-01 3.104511631217897749e-01 -5.363570846223637556e-01 8.326687233241965025e-01 -1.377819834849647873e-01
-2.442695138080190898e-01 4.186764613968257387e-01 4.368595588347365943e-01 -7.380135904662978863e-01 6.593406105814838547e-01 -1.435475514422989707e-01
-3.823078312588655825e-01 3.718650887254729698e-01 3.017857810423886789e-01 -6.241342140897807589e-01 4.621949462255510177e-01 6.299462790477388108e-01
-4.295782675212336810e-01 3.521349632152265263e-01 -8.117360972461146185e-02 -7.915833584800129330e-01 4.874534089318022789e-01 -3.684901093628816793e-01
-4.354131616852128239e-01 2.546127772673437151e-01 -9.051717322557469025e-02 -8.372797887296237196e-01 4.066842043190217471e-01 -3.654729994709333130e-01
-3.744465129275960646e-01 4.523270718131667811e-01 -4.262640295492815812e-02 -7.311695877092757589e-01 2.903426330506176933e-01 -6.173266472802563243e-01
-4.027711360010816088e-01 2.673769832257403833e-01 -1.360758480669095882e-01 -7.922494265800540392e-01 3.379102372865424031e-01 -5.080920365647626502e-01
-4.934974658636008260e-01 3.814377470717049690e-01 -9.656180982480060127e-02 -8.349573666328118371e-01 3.164294520653543885e-01 -4.502428208991453573e-01
-3.829725870192368653e-01 4.406899591874461342e-01 7.639741297840652035e-02 -9.826626153317080670e-01 -1.362325249935479425e-02 1.849015722507156845e-01
-4.362446613795821215e-01 2.959857089662540353e-01 1.072986976150370336e-01 -9.733209093981366467e-01 2.779750394395865201e-02 2.277579989876750699e-01
-4.592692131821486945e-01 2.765448243235934522e-01 2.684854067606490258e-03 -9.695852632917206781e-01 -2.437314186150947859e-01 -2.234754544459719577e-02
-5.312962755324117659e-01 2.927598221157320935e-01 -6.294633792494451485e-02 -9.267719988158564792e-01 3.662758687612487352e-01 8.328055099514274084e-02
-4.134038031029856897e-01 4.042094105021166728e-01 -4.049076178599987641e-03 -8.419578759676779045e-01 5.300401590168489774e-01 -1.008184751193438727e-01
-4.215228145928484049e-01 1.441411490488917202e-01 -1.028493729902821840e-01 -9.237566807353694287e-01 2.582679070421743939e-01 -2.827919429347792724e-01
-4.128069307768428287e-01 2.115583732691780350e-01 -2.723849717521731884e-01 -9.159423073406217641e-01 3.372043457128020005e-01 -2.175842798915836596e-01
-3.061411071962003572e-01 3.735851819159539677e-01 -5.274508763004605999e-02 -8.707605436109306929e-01 4.257246155902501550e-01 -2.460378575970174064e-01
-4.445737027419118248e-01 3.112750617826580135e-01 -9.868725264362838978e-03 -9.564437244917740610e-01 2.547717813520891661e-01 -1.425017238737373848e-01
-3.314496981742744430e-01 4.155726401395732350e-01 -1.298712587963950400e-02 -8.949687208425152196e-01 4.192495195788458751e-01 -1.525150125280102520e-01
-3.908153457318968016e-01 3.133363715298623231e-01 1.603488002947105195e-02 -9.305845199997316852e-01 3.238797978916286846e-01 -1.706292110236308501e-01
-2.708902839598497092e-01 5.502667858088281516e-01 -7.852613362922547524e-02 -6.259869844796043248e-01 5.716336589231152399e-01 -5.304481645253409372e-01
-3.794526035430079158e-01 4.300935436062338635e-01 4.688321019855066357e-02 -9.103841076649860087e-01 3.769143801765311719e-01 1.706936628207633422e-01
-1.592223478085135757e-01 4.675794752660389908e-01 -2.760733368201220839e-01 -2.271632261310526923e-01 4.406770326276401306e-01 -8.684472474527339392e-01
-3.182336244151774407e-01 4.368219663724625668e-01 -2.732938778430195059e-01 -5.560260635861083989e-01 4.263800118135919193e-01 -7.134669593882945193e-01
-3.901159641681905543e-01 2.717828472721868227e-01 -1.634154995157659496e-01 -8.094603609977957248e-01 2.637617492769185334e-01 -5.245985737606404520e-01
-3.034181349799238148e-01 1.458083922230102858e-01 -1.988705641527130086e-01 -7.354117332167139365e-01 4.100022203379798391e-01 -5.395069619246033454e-01
-3.365161644420641140e-01 3.295912336803383802e-01 -2.263584843678644598e-01 -5.821166499576900799e-01 5.416224329101007040e-01 -6.064530864053538917e-01
-1.923721045495673521e-01 2.874915338566869094e-01 -2.751989152531829630e-01 -6.035771999588400716e-01 5.894973284289961590e-01 -5.368309449583942294e-01
-3.292183830891293739e-01 3.221169556757994545e-01 -1.087880758179177315e-01 -6.913140611898398458e-01 4.539072898706352777e-01 -5.621859487780758169e-01
-1.167754854759572580e-01 3.798603179803151653e-01 -1.521308501684403292e-01 -5.578575521059545572e-01 4.979409314882411453e-01 -6.639651951021039444e-01
-1.127618002287565924e-01 6.001240328937677004e-01 -2.021014786928290174e-01 -7.263214716162493811e-01 6.701640442948521015e-01 -1.527654201826222635e-01
-2.273397680777366203e-01 5.043882531753742793e-01 -1.429918734217642262e-01 -4.624698366694531271e-01 4.524381309018958852e-01 -7.625099264120619447e-01
-3.371785871886167074e-01 3.936184180192138227e-01 -3.127384729500993221e-01 -6.031612236871332078e-01 5.855153142271420919e-01 -5.416348909050553440e-01
-2.587659921576684341e-01 4.680400522215374948e-01 3.212304806855859063e-02 -6.270892442153879198e-01 5.224048817180170223e-01 -5.777994629164673324e-01
-1.794690731012205664e-01 5.040492017464024421e-01 5.543139376357458792e-02 -3.591014339701683600e-01 9.235905678512572603e-01 -1.342632604131191731e-01
-3.006653246538981694e-01 6.314883432817431919e-01 -7.041738602677027892e-02 -3.803585135125664984e-01 8.554767551451373242e-01 -3.514070611198037986e-01
-2.287156903909929873e-01 6.232319115505315921e-01 -3.651474113048952530e-02 -4.718484939378524978e-01 7.746025835731099596e-01 -4.211292394152223451e-01
-1.823056498502380052e-01 5.533933475760188792e-01 -1.614609455524398385e-01 -6.795241972167711531e-01 5.929171868993453609e-01 -4.320834119429599607e-01
-2.751517062411214520e-01 4.439498762994191772e-01 -1.167899129798594532e-01 -7.527280866520522640e-01 5.939816228487256877e-01 -2.838771904946478242e-01
-3.309693866256764316e-01 5.130738460582005001e-01 -8.795271102574997446e-02 -7.728765612295069865e-01 6.042587544617710194e-01 -1.937348155555964346e-01
-3.580743563560864207e-01 3.299157122785604246e-01 -2.687680671927951126e-01 -6.622980433136895773e-01 4.265037100689937910e-01 -6.159999083768127326e-01
-2.772055442145114346e-01 3.965795109645070537e-01 4.800801749866894230e-01 -4.420792009910332054e-01 4.462430067112430621e-01 7.780958546428834444e-01
-1.007103064219466576e-01 5.408010786935276704e-01 4.092046001434255786e-01 -4.946681305788449001e-01 7.148480071631583277e-01 4.942628523816978703e-01
-3.477703968598150341e-01 4.706846046134633421e-01 4.236580389486583331e-01 -4.137445011670204953e-01 8.499133679085764115e-01 3.262863080246460878e-01
-1.483135102565029118e-01 4.863096930580196320e-01 4.051343175154421550e-01 -4.198353510601930405e-01 8.413903558969911822e-01 3.402947942647651658e-01
-3.247407385460299722e-01 1.122775252113902000e-01 -2.525598904732522243e-01 -9.506343241738692829e-01 -2.096227543281548866e-01 -2.288070859269197843e-01
-2.872548805713810993e-01 -6.564845646991890327e-02 -3.721016708207512957e-01 -9.425090605084733841e-01 1.474633188770710368e-01 -2.998853788453083591e-01
-4.249987314094433311e-01 -2.288680131865129252e-01 -2.007427320814311189e-01 -8.630600657531772857e-01 -3.408844544847185465e-01 -3.727265909386895393e-01
-3.824060541651274625e-01 -6.837831391449770979e-02 -1.200611700980627194e-01 -8.259001636251168676e-01 -3.862202856374580273e-01 -4.107588230167741883e-01
-2.982856626236421449e-01 -2.577110409335366947e-01 -1.315449663612945630e-01 -8.158501622173096601e-01 -5.133653884305999782e-01 -2.661662840622164850e-01
-3.493571005744308677e-01 -2.929976512483875584e-01 -2.469663781760463306e-01 -9.569516858267609338e-01 -1.736755072969107527e-01 -2.325516913687814269e-01
-3.216315596711684099e-01 -2.019907997006354372e-01 -2.420122355536700187e-01 -9.207052223708253047e-01 -3.418125997547878936e-01 -1.883242951611988625e-01
-2.140008512964797216e-01 -1.749211269227219645e-01 2.973857819705384431e-01 -3.400959553972970340e-01 -7.854285920840924362e-01 5.171427925236897760e-01
-2.994695674726229884e-01 -7.473077180437641409e-02 3.491794958377055225e-01 -8.907357306988749057e-01 -4.443823854673059626e-01 9.546807603973213319e-02
-3.736700748659595450e-01 8.331631760696253663e-02 4.523995624219256939e-01 -7.457040335995948066e-01 -1.440786981889268237e-01 6.505127385389761763e-01
-3.393244717293488755e-01 9.018750895269644907e-02 4.365894568619039795e-01 -8.093017696619074774e-01 -5.240020188879708218e-01 2.654289543803304841e-01
-3.530513021938541662e-01 1.998298184970765667e-01 3.792539060434687581e-01 -8.903764017398071440e-01 3.489086695033516983e-01 2.923911824427585793e-01
-4.266227409679185234e-01 1.248433201781105339e-01 1.496548949142238391e-02 -9.889399455983390874e-01 -1.091735422915923182e-01 1.003938327959457283e-01
-4.791603118761884605e-01 6.227417386316315417e-02 1.121602561140447873e-01 -9.809373773401668384e-01 -1.395000169829162806e-01 1.352834320926300515e-01
-4.317047708856940336e-01 1.418647977458553089e-01 5.918404644474219156e-02 -9.662146575708013829e-01 -2.122765225672637868e-01 1.461776777147897610e-01
-5.239142214918589557e-01 1.634286214190786846e-01 1.173445434720841452e-01 -9.988951064581290673e-01 -3.648468100639642997e-02 2.962151829101257461e-02
-4.688698782230319995e-01 1.927301907040990803e-01 2.367006784249121032e-01 -8.111190645244534814e-01 1.100696422645892208e-01 -5.744306198460530366e-01
-4.554746608012912867e-01 1.285618949169546610e-01 1.080726772120819273e-01 -9.879384240356089419e-01 1.166451771404720533e-01 1.018409198893323736e-01
-4.428694742990148536e-01 2.878209547821713454e-01 1.783041342515720162e-01 -9.582556996274093075e-01 2.454367868523277540e-01 -1.466519614297379093e-01
-4.661039619971526493e-01 2.473407672452669070e-01 2.193300671258174295e-01 -9.604733586841656123e-01 2.651532342110963780e-01 -8.476254860109772027e-02
-3.854711181734394310e-01 1.383916860199392307e-01 2.689859477727820081e-01 -9.760836492556251853e-01 2.119337817537473578e-01 4.842294711576761168e-02
-3.964262258031810982e-01 3.576395921075763984e-01 1.735531949443856470e-01 -8.842231222875749364e-01 4.093891315109571272e-01 2.248332916022821593e-01
-3.668788468697909977e-01 2.382615523076963560e-01 1.893467438498034616e-01 -9.451180399384974118e-01 -4.328429832289539675e-02 3.238492860907792870e-01
-3.841241486218455736e-01 2.579819475109451088e-01 2.233131570333456439e-01 -9.697027520240081300e-01 1.998122250799927446e-01 -1.405405543807460578e-01
-4.356044977671506002e-01 2.769596888790931133e-01 2.761576229827331641e-01 -9.748426988585452424e-01 2.227438262618454956e-01 -8.179263073204462442e-03
-3.508161496345529318e-01 1.711025720021721597e-01 3.079305055858712059e-01 -9.728589399011914329e-01 2.313964916715897102e-01 1.070839114980624276e-03
-4.341753805763831076e-01 1.949142412153720416e-01 3.090781029582851946e-01 -9.917896960559222652e-01 -3.155544412089551082e-02 1.239251901093331582e-01
-3.674453228410907712e-01 2.758529205874972745e-01 3.290365791470772905e-01 -9.593853046403079121e-01 -2.524878790875979551e-01 1.258161680948442773e-01
-4.810918724260893065e-01 2.436249292963479363e-01 2.443764995887034719e-01 -9.827302497816110538e-01 1.500971274910878339e-01 1.082224952729161777e-01
-3.118658384365428637e-01 1.168880950746209596e-01 1.776973998254393061e-01 -9.989169748982663632e-01 4.184426855948696761e-02 -2.034537905317913495e-02
-5.085014734203240350e-01 3.341468031706685826e-01 1.739851334554343432e-01 -9.676518293537659243e-01 1.280190462200650747e-01 2.173960923135813961e-01
-4.063600645346810980e-01 1.780306533129897284e-01 1.668374951304917864e-01 -9.356322676528635585e-01 -1.254947596766085730e-03 3.529740568841990278e-01
-4.673868217232038935e-01 2.613988418301096406e-01 1.100577166097247983e-01 -9.568971295099548691e-01 1.415108656565914474e-02 2.900821095562768903e-01
-3.268838641530804612e-01 6.070473474847967732e-02 3.444983651181726669e-01 -9.579278282735080863e-01 -1.245377498564068514e-01 2.585819496405414308e-01
-4.656292485857219665e-01 -4.610916800578685609e-02 3.512754902939526636e-01 -8.365654659076020572e-01 -5.363492059027997749e-01 1.117486043681651248e-01
-4.670208026398979806e-01 5.801562377239601054e-02 2.596635089900392046e-01 -8.531290823072494867e-01 -4.761309231020240951e-01 -2.132372223313852566e-01
-3.940057470076055446e-01 9.229271754687201623e-02 2.256906491614269761e-01 -8.842398579427496186e-01 -4.603586080923509627e-01 7.867544458507552685e-02
-3.707092222522748726e-01 -4.342984795885934668e-03 2.497506183557394732e-01 -8.955552096117247451e-01 -4.160780234057792071e-01 1.576703680976216104e-01
-4.171648602066398426e-01 6.409234784169950960e-03 1.756706443536561191e-01 -9.218138329766811800e-01 -2.724048416058962307e-01 -2.757804554396592889e-01
-3.318367044447165792e-01 -6.060869378100415539e-03 3.064309593088612171e-01 -9.705058987614705313e-01 4.618582865007104382e-02 2.366118545235986192e-01
-4.028741989809349611e-01 -3.325399224221361333e-02 1.934648657160968899e-01 -9.982076819229999121e-01 -4.808669518712105351e-02 -3.562433853269199313e-02
-4.681465062627950258e-01 2.301232327467717664e-01 -7.722711343575829057e-02 -9.612881235580984507e-01 2.742579712443821705e-01 -2.660279524910629662e-02
-3.709031270199682484e-01 7.410710471241628572e-02 -1.170158264313436031e-01 -9.946832913510070817e-01 1.029812792412572314e-01 7.767214245135484110e-05
-4.369910446915206692e-01 2.509127724986444097e-01 8.465720693234500549e-04 -9.980487856518787115e-01 1.764332951595748780e-02 5.989436018859826266e-02
-4.432137436888209936e-01 2.941680155759925919e-01 1.142998954944192402e-01 -9.990595265969621774e-01 -3.513689038635744999e-02 2.540592942269643759e-02
-5.688017742338755678e-01 2.697135320023153482e-01 9.675118500151459744e-02 -9.637755592873152866e-01 2.391470112085485322e-01 1.180905514867334194e-01
-4.209508349542734895e-01 4.013928667173640163e-01 5.204821327215009702e-02 -9.595922918909161048e-01 2.675795460142136872e-01 8.708513017941810208e-02
-4.527231272711114141e-01 1.121520742910891433e-01 4.082701263999643504e-01 -9.089481783365022105e-01 -7.682045202256743144e-02 4.097704567801376263e-01
-3.568535248915145619e-01 1.100910509991552960e-01 4.540255726018687654e-01 -9.445757765140035955e-01 3.104803696799735002e-02 3.268220032730368430e-01
-3.898339649059733847e-01 8.511427542453850470e-02 4.246484382333644003e-01 -9.354152079620433602e-01 -1.939477634734324552e-01 2.956055712549757741e-01
-3.839521197775978556e-01 8.104721780344648074e-02 3.341945988833391334e-01 -9.051696738845861345e-01 -1.334562257200798685e-01 4.035558168286305647e-01
-2.193013774465338850e-01 3.481430953812558182e-01 5.598011248865094602e-01 -4.381081123831875868e-01 3.741451465645878049e-01 8.173595849846035932e-01
-1.249516129590245994e-01 3.272073971983866514e-01 5.169225167891299266e-01 -4.392071466302609473e-01 6.350593547271338180e-01 6.354499967129286775e-01
-1.219401983562351660e-01 4.067945448087633142e-01 5.094424973107865018e-01 -4.476325425107718359e-01 6.841139120899264459e-01 5.758587171957706419e-01
-2.725201514757484289e-01 1.951749502916331758e-01 6.672757210250124249e-01 -7.674064809998324410e-01 1.416929627176378714e-01 6.253082417782066527e-01
-2.573718931363039863e-01 -5.942390056693126060e-02 4.042555932315058942e-01 -9.075220452264988191e-01 -3.651618936185834219e-01 2.075103102903635144e-01
-4.720293441472581675e-01 -6.999313071472631695e-03 4.413061126855437610e-01 -8.817966360309468232e-01 -3.657505609906676058e-01 2.977603395677770881e-01
-4.110886937463317792e-01 -2.612735168416122078e-02 5.059003857653043834e-01 -8.681724278765889924e-01 -2.934554175528733544e-01 4.002006414084536834e-01
-2.054983201994451947e-01 3.717714653969970140e-01 6.066281763125511706e-01 -4.977610794417853257e-01 2.744741285738649395e-01 8.227380266746919801e-01
-3.132895902935137200e-02 2.326042837249093220e-01 6.893662721080666689e-01 -4.903029594375887812e-01 5.661890764462427228e-01 6.625956064446041349e-01
-2.716221857795086958e-01 2.430035800793713119e-01 6.508959682087182008e-01 -6.739409152692616978e-01 2.399548131950982599e-01 6.987312289790226227e-01
-1.812889206949928611e-01 2.349554059700703357e-01 7.118134058740469561e-01 -7.062852509299095694e-01 3.692946737320150219e-01 6.039723406514896364e-01
-2.753203212983381110e-01 2.043206137338749451e-01 5.990526734192828107e-01 -6.214230881099693793e-01 3.003187013433306074e-01 7.236311375191954998e-01
-1.580597102269490906e-01 2.692149642812511900e-01 6.107164152251187694e-01 -8.001176231839850495e-01 2.675964608159439595e-01 5.368462752308070796e-01
-3.321978868326697087e-01 -5.525910484944829282e-02 -1.211562325262482281e-02 -8.928684058240483612e-01 -2.734073240610320754e-01 3.578190115561333262e-01
-3.690855602165996063e-01 -1.491045060975839387e-01 -7.940905712490277379e-02 -8.497589127929741082e-01 -4.114686759156555573e-01 3.295501765575613029e-01
-5.194747866304147976e-01 -1.315005709715150461e-01 7.013666732306998719e-02 -8.194155608723024953e-01 -4.747793768087827937e-01 3.211583440569365511e-01
-3.474595126839023496e-01 -2.164095906298726391e-01 5.220777189962660936e-02 -8.071172069236718372e-01 -4.885211249372324871e-01 3.315251495404104021e-01
-4.631056641873734225e-01 -1.622941161710099445e-01 -1.154544671466758987e-01 -8.818958406042207709e-01 -4.402257185807040840e-01 1.687040101037246831e-01
-4.053158868516882896e-01 -2.073585873133135249e-01 -1.006514841075011879e-01 -8.981623121311308466e-01 -4.280279773925173559e-01 1.004813994554795142e-01
-2.459899649937667410e-01 -5.292409212674938912e-01 -2.670426036472938261e-02 -4.722871586440817171e-01 -8.795416480937291448e-01 5.789066460550312820e-02
-1.660452257451061342e-01 -5.093435883868443481e-01 -2.634154006977937335e-01 -2.447481795235021962e-01 -9.590277493171783796e-01 -1.427028544198007398e-01
-2.440367411551115917e-01 -5.101996706206254339e-01 -1.143793862483952484e-01 -8.383965339515692117e-01 -5.450606698315328957e-01 -3.435997611865043862e-04
-3.385019042357118590e-01 -5.103906524288138735e-01 -1.318727845291205181e-01 -8.893508798961894390e-01 -4.568974772974366272e-01 -1.731206709530204793e-02
-2.295741177663048471e-01 -4.456047298445228177e-01 -2.135262666721100266e-01 -8.224539981631590058e-01 -5.659749388777632895e-01 5.693671458511181949e-02
-2.299311181934578230e-01 -4.048275240343376380e-01 -6.822841206058942454e-02 -8.785764036873173755e-01 -4.732141307989664036e-01 -6.459016408121652508e-02
-3.078456537519116409e-01 -8.314832749544386059e-02 4.443880363984117204e-02 -9.870254384991411500e-01 1.512371186578255755e-01 5.392696631238416693e-02
-3.890785837902902555e-01 -1.312050628140850120e-02 1.149429867702808361e-01 -9.003606645052451007e-01 -2.997528817576605720e-01 -3.154344364359280561e-01
-4.675519675208891779e-01 -5.179816393622971304e-03 -1.694431942943843555e-02 -9.180686096754411274e-01 -5.284366526498314454e-02 3.928836659495596462e-01
-4.196204338648674703e-01 6.790103102296711490e-02 2.059650803019634838e-03 -9.031464197647977032e-01 -1.282457951455837075e-01 4.097310831429618050e-01
-5.139449773205221339e-01 -3.784237356280062414e-02 -8.570588193835872171e-02 -9.992239054562943590e-01 -8.409689751718798026e-03 3.848199426940111106e-02
-4.063542776324940986e-01 -1.097990799072001977e-01 -6.794601489279203377e-02 -9.692212036910695661e-01 -7.535079581520782999e-02 2.343768672152797272e-01
-2.971284689888658015e-01 -2.743581663497037665e-02 -2.715735395636402483e-03 -9.630660909997655894e-01 -1.464780379917686448e-01 2.259377984147697416e-01
-3.403844774629761760e-01 -1.280946816036407365e-01 -6.271278023485008998e-04 -8.935838744251221044e-01 -3.278698246236989022e-01 3.066092586152814325e-01
-3.753203019744440483e-01 -9.817241044873331601e-03 -7.868001658466348969e-02 -8.834139907576302742e-01 -3.274894525657328082e-01 3.351572457696153085e-01
-4.097461361195478546e-01 -1.047183201336742836e-01 8.359372015339351647e-03 -8.960095894951161100e-01 -1.767867058986356543e-01 4.073245341865656122e-01
-4.175393931069419917e-01 -1.852951428484456153e-01 -6.093201996723246472e-02 -9.230879589047192857e-01 -1.232329431407271220e-01 3.643106666706226737e-01
-1.634788369052749823e-01 -8.731444675121344812e-01 2.460155382541159494e-02 -9.463902019054163395e-01 1.315268798516847637e-01 2.950360412117570830e-01
-7.625142947432882179e-02 -5.098734009386627353e-01 2.092227878783849138e-01 -5.231555848680209397e-01 -4.472140216709941662e-01 7.254707801436627301e-01
-7.501874152439549914e-02 -5.154231273163889515e-01 3.057057793132288981e-01 -5.868153490152306917e-01 -3.589973930455973572e-01 7.257882734975799055e-01
-4.433738136365342197e-03 -5.628501479035881161e-01 2.787357543142193195e-01 -5.172852240211697206e-01 -3.432673937688118238e-01 7.839537571722809961e-01
2.722638376500910451e-02 -6.100920539954679533e-01 2.786436962798748418e-01 -3.753069525843775733e-01 -2.421448167603964252e-01 8.947125678439425966e-01
-5.529316376084614931e-02 -5.084846032072012356e-01 2.508379971346449411e-01 -5.884187894556129894e-01 -2.502976102971282146e-01 7.688396676129152230e-01
-1.234660391972570020e-01 -6.988679487775348864e-01 -8.194292325721795611e-03 -9.674365370536661679e-01 2.282403785531253171e-01 -1.094206396048603702e-01
-2.653640568872633887e-01 -4.266119895177875598e-01 1.528373658482410358e-01 -8.635453240175712253e-01 -4.648016333001788181e-01 1.955732984046489320e-01
-7.042648852262944903e-02 -4.305063927180248773e-01 2.156006998205070857e-01 -8.272046854520082038e-01 -4.925664558774584534e-01 2.703898942463711652e-01
-1.009336648055906421e-01 -6.431360677915277657e-01 1.517759106664387514e-01 -6.228986612355401631e-01 -2.114583295137401620e-01 7.531816731109635121e-01
-2.353782839218764300e-01 -6.759590222891541655e-01 1.566487678737032152e-01 -8.129604606003918432e-01 -1.819390367176502432e-01 5.531667708916112591e-01
-1.957676197327476164e-01 -6.034427063782593637e-01 1.289631466949100747e-01 -7.827283257408765849e-01 -1.708900463784303048e-01 5.984421109277506812e-01
-3.947510905423123884e-02 -5.682246039808352966e-01 1.423235468580668905e-01 -7.806828559310352578e-01 -1.958794029897937550e-01 5.934353696399670142e-01
-1.514866267816237511e-01 -7.948293164792790133e-01 1.853605895117440006e-01 -8.565949503620966521e-01 -1.885381859417088052e-02 5.156448628063458051e-01
-1.134046639371512205e-01 -8.263846695332913717e-01 1.544603274509308843e-01 -8.083674325466927435e-01 7.183231173556742233e-02 5.842792251899706635e-01
-6.959319177497408360e-02 -7.411150463664379906e-01 1.146611196097443996e-01 -9.047546527066169242e-01 2.263526464361546864e-02 4.253312393890701371e-01
-1.385823409239876902e-01 -7.006758476210747100e-01 2.277923693365874191e-02 -8.983700563740205647e-01 2.630327843352995784e-02 4.384511139844293748e-01
-1.503090894890226903e-01 -8.005442746858754122e-01 3.952280641776063225e-02 -8.432698452860412086e-01 3.285712869612157638e-02 5.364852068091928716e-01
-1.445483010836376980e-01 -7.200446793961376990e-01 1.237336640564482559e-01 -8.556087870853547050e-01 7.818880108149514618e-02 5.116836081484011922e-01
-1.308864295676201717e-01 -8.101975692413526664e-01 5.979178566117587107e-02 -9.032604159955212042e-01 3.638139825348016970e-02 4.275476754196188001e-01
-1.622281757864126317e-01 -9.527060201904555825e-01 2.205488718272248863e-02 -9.030281393579913107e-01 1.318426116975794926e-01 4.088492451606162148e-01
-1.533948878599013244e-01 -8.178142816277255145e-01 -2.268867349813884909e-02 -9.235776456936073409e-01 1.292163880869900104e-02 3.831936372456503093e-01
-7.764076468413116938e-02 -7.133003914102962195e-01 1.290525515531767420e-01 -7.892319048447552499e-01 -2.099251217921133464e-02 6.137363561070214857e-01
-1.335098754722127690e-02 -7.742555330745498621e-01 2.124452904957829791e-03 -7.316486673332122104e-01 7.546008651978254253e-03 6.816401435823442601e-01
-1.550888962642069102e-01 -3.674449439432068698e-01 3.123928419988067362e-01 8.124823350317305071e-01 -5.507802249997323374e-01 1.910853186684708938e-01
-1.995521401215799295e-01 -3.526160521327613706e-01 2.644203551665470497e-01 6.845212416500529029e-01 -6.930112487535023957e-01 2.261992016585846477e-01
-3.004583254923430813e-01 -7.824563934263951970e-02 -6.395352374582299326e-01 -5.658371898276169931e-01 4.371803342593069686e-01 -6.990719776567403398e-01
-2.733846230436839386e-01 -1.668523407365261890e-02 -3.217614946264097942e-01 -9.296949901825358742e-01 2.063718871794569809e-01 -3.050866588552897385e-01
-2.020204686272288330e-01 2.486919635794804240e-01 -2.758860457552781420e-01 -8.300654596417189612e-01 -3.588282161865495312e-01 -4.268883272919988259e-01
-1.869063744055295961e-01 1.655352192138640210e-01 -2.674415062999437320e-01 -9.942807129622609486e-01 -6.597801179425846763e-02 -8.398074654904420788e-02
-3.814453940965154000e-01 7.201281162697463489e-02 -2.913209020130521631e-01 -9.568418451264826263e-01 2.833747192971036721e-01 6.443952108943584722e-02
-2.792843387371615194e-01 5.397515493415511179e-02 -3.619818696269444525e-01 -9.892144144339043432e-01 6.483435679506649452e-02 1.313443887463717208e-01
-3.005136391721828226e-01 6.875027821507190273e-02 -3.297187910581381720e-01 -9.650549405103738820e-01 2.406894879095987094e-01 1.036220642833060313e-01
-2.720416513682011872e-01 5.882719356301473190e-02 -4.345789214935806277e-01 -8.517417863189266081e-01 5.101488643245682963e-01 -1.195159640658813999e-01
-3.360000822296791978e-01 -1.088683097641465758e-02 -4.518058695719722184e-01 -7.627096563751072367e-01 5.939943516051308103e-01 -2.558215986451614632e-01
-2.561049229527130322e-01 8.288962262901981848e-02 -3.440149510297996205e-01 -6.972816939417841864e-01 6.488209412858712000e-01 -3.046795454942653469e-01
-2.481865666216241662e-01 1.821752013589118258e-01 -4.942401610998834460e-01 -8.702772398668613407e-01 4.635665846102789978e-01 -1.665038960579557359e-01
-2.225621201069595823e-01 -1.673700183756998694e-01 -2.839952006963975539e-01 -9.462255318393818504e-01 -1.386038011900822264e-01 2.923118697400761135e-01
-2.755475941188276212e-01 -1.999002039241882384e-02 -3.368288397995641836e-01 -9.211205545502133551e-01 6.448780829395626968e-02 3.838987452005402923e-01
-4.030006223842805269e-01 -1.014691835023280586e-01 -3.203645481649254334e-01 -9.724637519202213864e-01 6.804865595159750868e-02 2.228982539734829793e-01
-3.831988902177734801e-01 -9.032833477115942769e-03 -2.679926464105848449e-01 -9.825871524017000258e-01 -9.561253837842559680e-03 1.855561110827848581e-01
-3.405539982417817302e-01 1.395884251538809795e-01 -3.807770383567998795e-01 -9.235659568970815414e-01 1.368278659470150427e-01 3.581955588238970867e-01
-3.934871983103152560e-01 -5.243123169732168999e-03 -4.655769729942023649e-01 -9.234568260490235714e-01 7.737152746052181063e-02 3.758206183299275249e-01
-2.617825104687963034e-01 1.041341065493263385e-01 -3.905753245942448770e-01 -9.325787393423141669e-01 1.075181244623467092e-01 3.445819900093433086e-01
-3.134253034737751742e-01 -2.696992229310691061e-02 -4.238639492223643668e-01 -9.623042772909106146e-01 -1.312165684055234018e-02 2.716584252869343463e-01
-2.111431536925019725e-01 -1.824707507157353747e-01 -4.836013725294340260e-01 -2.252827627412448408e-01 7.633751015280784147e-01 -6.053974984905934331e-01
-2.334882521072524919e-01 -2.183088683793999729e-01 -5.042467762895839201e-01 -5.859403908612834666e-01 3.392122681797136163e-01 -7.359408233504242114e-01
-1.123461362697542876e-01 -2.600723206695944589e-01 -4.335078397869462918e-01 -4.173393289892508018e-01 -2.694645330288648610e-01 -8.678806081013318297e-01
-2.080891995235089054e-01 -2.915847734026320581e-01 -5.412424083004589992e-01 -8.242289282563750596e-01 2.521618864751564160e-01 -5.070118902300394526e-01
-2.014310972839019331e-01 -3.122799592374980726e-01 -4.536707844349552321e-01 -7.758526701903043499e-01 -2.608034775906029057e-01 -5.744860139596288384e-01
-2.918724961454084443e-01 -1.216803405735657206e-01 -4.574293495187677916e-01 -3.380078897726285225e-01 -5.359690292602025119e-01 -7.736199752626162773e-01
-1.594695829686243460e-01 -3.941195385409114182e-01 -5.829743491481629292e-01 -9.095767493782752622e-01 1.967764534643995089e-01 -3.659906615645037720e-01
-1.994989026653874731e-01 -4.290093643820488967e-01 -5.251973527509175010e-01 -9.835448911410881179e-01 -1.764919782426102868e-01 -3.860089022645405571e-02
-2.329595052651002585e-01 -2.821482536278797082e-01 -2.663206218253669766e-01 -9.112851745777700296e-01 -6.384971682411885729e-02 -4.067954575167267439e-01
-3.017732753924581846e-01 -3.839282285319656762e-01 -4.115966420273340365e-01 -8.881816762508301100e-01 4.017752075908743170e-01 -2.229573782981299213e-01
-1.163473693497324990e-01 -2.735500792001992476e-01 -3.990345199836749512e-01 -8.703098592428850644e-01 4.925025513977417391e-01 -1.409173993681352806e-03
-2.513398667153298738e-01 -2.970427939708629728e-01 -4.628661421903687012e-01 -9.912383834724792786e-01 4.443917878616652356e-02 -1.243849931449820811e-01
-2.675273150974800673e-01 -4.334668598625170954e-01 -3.862816764465819008e-01 -9.483818958624415929e-01 -3.643320356514741926e-02 -3.150307941746989804e-01
-3.759882268022765039e-01 -1.837969917687487242e-01 -1.173660968327190912e-01 -8.274315443903520473e-01 -5.147585362970825695e-01 -2.244564293066303173e-01
-3.445223324227571493e-01 -2.343564202401615670e-01 -1.677314367879760293e-01 -8.706394835033549606e-01 -4.704078495324087728e-01 -1.438865694333770762e-01
-2.455329051443064237e-01 -2.489264288554041693e-01 -1.450609171860196556e-01 -9.192737061635325446e-01 -3.936084610235915382e-01 -2.869245023177645001e-03
-2.777439987681307176e-01 -5.568195052972061410e-01 -2.493789864194662087e-01 -6.334357800623948709e-01 -7.737387935405494188e-01 -9.348363876120532184e-03
-2.747918574564447991e-01 -3.373317457531700425e-01 -7.944898093851028575e-02 -9.078096596614362301e-01 -3.769186079256299227e-01 1.838857928845848977e-01
-3.480757140430965624e-01 -4.503497538504324660e-01 -8.592461342154047998e-02 -9.223476532654328874e-01 -3.447981878138215439e-01 1.743244566779242333e-01
-4.737588569047214704e-01 -2.622897748469834589e-01 -1.263156692907010936e-01 -9.241230684522299121e-01 -3.818818738747852826e-01 1.275886986835874162e-02
-3.388913729794564289e-01 -1.582797613336954790e-01 -7.295674062404182425e-02 -9.034563885376376557e-01 -3.863078769681542735e-01 -1.858299712180106478e-01
-2.882150441851447087e-01 -4.896479783538519870e-01 -1.840577517937584950e-01 -9.344157895385253321e-01 -3.350631352097196425e-01 1.208297466873436421e-01
-3.069704376611631647e-01 -3.772934145645562842e-01 -5.424227610883898543e-02 -9.499579461145818415e-01 -3.122751244241643298e-01 -8.009199687727673253e-03
-2.815083593462281986e-01 -4.318832345096357828e-01 -2.443782852888461421e-01 -9.406828225080069439e-01 -3.192596316316881344e-01 -1.148438724911705761e-01
-1.595828799700238776e-01 -2.859797579558233105e-01 -5.161388437126335216e-01 -5.151508782401802433e-01 3.232130533104201620e-01 -7.938217021586941868e-01
-1.985304192726448647e-01 -4.222284641967832819e-01 -5.513697121268534840e-01 -5.226032820940219592e-01 -1.347063533570609095e-01 -8.418669775622505957e-01
-2.572852109043209934e-01 -3.413537511323997409e-01 -5.500949402940090716e-01 -5.358259946111105787e-01 -3.310632887678821579e-01 -7.767159083791242979e-01
-1.497692012276580775e-01 -6.282566368280347868e-01 -2.648443093065120379e-01 -4.513154293540430073e-01 -4.133636375355883574e-01 -7.908507358473674254e-01
1.227237383375177349e-01 -3.781219506201143887e-01 -3.486877830284014768e-01 4.607096675780518180e-01 -6.713760891163147448e-01 -5.805176562026370668e-01
3.963775428828440056e-02 -5.667967624756357070e-01 -4.802116848566195251e-01 4.314199727225468406e-01 -7.140809644567036596e-01 -5.513303758515947228e-01
1.405428019612399437e-01 -2.790961176447132042e-01 -2.531233100111217049e-01 4.926447300753901137e-01 -6.744007868273059758e-01 -5.499861349667430899e-01
1.389332717431721598e-01 -4.956862664676115471e-01 -5.161037829157923973e-01 4.419514912765735715e-01 -6.566577117240066652e-01 -6.111297153565714568e-01
9.647189618237886344e-02 -5.950748322020511516e-01 -4.213862453311886247e-01 4.265611256026108355e-01 -7.034971814393103928e-01 -5.684516882124457382e-01
1.439232641812200897e-01 -2.842355360872444447e-01 -3.123435084840071596e-01 4.281474287220464747e-01 -7.280850473442600501e-01 -5.353334877554428717e-01
-1.454387258042987019e-01 -5.287185058857590825e-01 -4.331573210066413382e-01 -9.586722338666650578e-02 -9.682360274179044879e-01 -2.309295795045017419e-01
-8.628934659786668959e-02 -4.065154586450580587e-01 -5.636740580577359605e-01 1.699693485370037394e-01 -7.466413712757626886e-01 -6.431462378474706032e-01
-1.555139858408781106e-01 -4.319971860377423423e-01 -5.889612996227170383e-01 -7.400469976191841048e-02 -8.088428101478357668e-01 -5.833494774878097422e-01
-2.929007031167538133e-03 -4.989104397091141396e-01 -5.817786192308052051e-01 8.317754758845932739e-02 -8.501189890713862773e-01 -5.199799996128832147e-01
-1.546843421604478797e-01 -3.225333563717965313e-01 -5.130335586193724984e-01 1.397431360996485017e-01 -8.196954137629575143e-01 -5.554919302465239905e-01
6.032467458690932149e-03 -3.855011045806663872e-01 -5.197031577558549609e-01 -1.617578232151826653e-02 -8.079585778735209889e-01 -5.890172157983875056e-01
-1.322270043335923850e-01 -5.504576941447253402e-01 -5.731409958003068628e-01 1.741852425576052854e-02 -8.782479610899310840e-01 -4.778881813292000791e-01
-1.909828000297759676e-01 -4.748447715115369783e-01 1.394970259402362467e-01 -9.088539469256181613e-01 -7.113189794837532220e-02 4.110045696242164981e-01
-1.197752834874354771e-01 -5.891090542392085627e-01 6.241110612902457666e-02 -9.587799045511683493e-01 8.708252623556096694e-02 2.704768534519831902e-01
-4.939538728138988255e-02 -5.889277673880058961e-01 2.228177656194763046e-03 -9.519351370512801891e-01 1.252383549175522040e-03 3.062971210811589184e-01
-2.459877966663817916e-01 -4.047150804048398887e-01 1.151473589305939682e-01 -6.944376098997980806e-01 -6.782700433887746128e-01 2.402210527785720029e-01
-2.280413398244429679e-01 -5.017843847426202153e-01 1.321364853052933164e-01 8.958831430705151144e-02 -9.946233816796554716e-01 -5.194480297149278725e-02
-1.652539493453135389e-01 -3.895400109087577278e-01 6.242602718691830921e-02 -6.821934750974913975e-01 -4.868813382505634557e-01 -5.454893445318145240e-01
-3.314420240369774229e-01 -2.087633442506298953e-01 1.985028880663155249e-01 -8.827886600099678072e-01 -2.941182665902212778e-01 -3.663040090085952216e-01
-3.976990379378114171e-01 -1.543922473846647825e-01 3.082081193980307915e-02 -8.289288404509225217e-01 -5.088683141718104430e-01 2.322283710071371965e-01
-3.723864287909740556e-01 -1.497109776781487822e-01 -2.342476912372560768e-02 -8.317282461040266250e-01 -5.020253011627324735e-01 2.370626955579207273e-01
-2.038478900112860592e-01 -2.929314169164290091e-02 -5.097574910380732183e-01 9.649104537591407516e-02 2.682377431737894002e-01 -9.585082113885595723e-01
1.346106264955299753e-02 4.478841633156292051e-04 -4.638511237275770305e-01 -1.721291383965058430e-01 3.614852553769231647e-01 -9.163514445123973617e-01
1.637559974134404628e-01 6.788855715656180734e-02 -4.573580489068120314e-01 -7.331813195298901575e-02 3.017558466555567698e-01 -9.505618657068629629e-01
-3.789233406812376331e-02 -2.366014623270229489e-02 -5.202327153059481679e-01 -2.944693233467104293e-02 3.354971054692965082e-01 -9.415808889297833106e-01
-4.870489837662597687e-02 -1.317634178257059696e-01 -4.863350454335077511e-01 -4.805589944260970636e-01 -3.952974687539821674e-02 -8.760710313599835430e-01
7.880055537240149288e-02 -6.449394737971207714e-02 -5.258733922234838376e-01 -1.085839007070248802e-01 3.560172093039601360e-01 -9.281493862448367826e-01
-8.482907793025404319e-02 -6.340485147841863622e-02 -3.119860351057125447e-01 -9.719376422508226032e-02 6.541933380473365922e-01 -7.500562969872609509e-01
-4.526811134340790604e-02 -1.203918807466753532e-01 -4.389057466868577229e-01 -8.301612284328283020e-02 1.026723110830952690e-01 -9.912450352384748475e-01
-9.554581376479302779e-02 -2.515428466338258395e-02 -4.452357195124436728e-01 -1.036223863811518153e-02 6.025136160156321363e-01 -7.980413313395329222e-01
-2.803219936168293014e-01 -4.650502580947440956e-02 -5.514498247122883168e-01 -7.139784086030889210e-01 2.445560418703814909e-01 -6.560694890278718772e-01
-2.862105162973777039e-01 -2.251693266734333954e-01 -5.571881284738634532e-01 -7.298457659590826818e-01 1.070401525237394541e-01 -6.751796528771394357e-01
-2.228881055903194630e-01 -1.422373300624483472e-01 -4.885346998527373974e-01 -5.672187148795571066e-01 3.079626520849966173e-02 -8.229912025894269290e-01
-3.020451826752341140e-01 -5.483244715944375625e-02 -2.868341948257635554e-01 -9.853018913576279125e-01 1.420752758290159956e-01 -9.484091356155500974e-02
-2.361816079850298511e-01 -2.211861797355237080e-02 -5.282040687037961035e-01 3.638056731626502227e-01 -6.092547330752351442e-01 -7.045949917506474369e-01
-3.319193328726184333e-01 -5.298847905765162458e-02 -5.899602684278241194e-01 5.718400181808293015e-01 -5.364279878980442451e-01 -6.206802779262480252e-01
-2.678025330959851735e-01 -6.995437649262019331e-03 -4.879645329888031013e-01 4.942383705150436568e-01 -6.040419141644015610e-01 -6.251894105335119578e-01
-3.517963984462780247e-01 -1.910540733467155916e-02 -5.820179612976945638e-01 -1.205575758866096747e-01 -9.573021480813361794e-01 -2.627517234485893249e-01
-2.539755849042140690e-01 -2.456868781165143928e-02 -5.071471040572284039e-01 -6.726102655809896858e-01 -7.366384305740267813e-01 7.042196558251928584e-02
-3.113700795843235558e-01 -1.028859829748236254e-01 -4.775472665429734698e-01 1.940489113390355402e-01 -8.394418991996082102e-01 -5.076241896090945005e-01
-3.773821634074224773e-01 -1.239555520043735537e-01 -4.665624383724968349e-01 2.786278268977047598e-02 -8.075715570482530081e-01 -5.891110638813727984e-01
-3.210617272248477705e-01 5.196588236154028873e-03 -4.124987458970330589e-01 -8.815072342508135650e-01 -4.677919073542678441e-01 -6.415393501054729442e-02
-2.564879244992150920e-01 -7.849616669321370088e-02 -3.519024068387642812e-01 -9.689668412869461012e-01 3.473320203696415214e-04 -2.471904930349585472e-01
-4.094557799512916763e-01 -2.266116295187235730e-01 -4.434034492704442276e-01 -9.594868427277676304e-01 1.228522445213374586e-01 -2.535593118944158286e-01
-2.089933616675906380e-01 -1.207244577352641346e-01 -4.853379910967949851e-01 -9.435051309007194131e-01 5.206207083076494491e-02 -3.272424311497956206e-01
-2.055425774483279067e-01 -1.702919567713188087e-01 -3.572383160980201477e-01 -7.183552870745645302e-01 -2.846291655382260366e-01 -6.347849396898394003e-01
-1.878965269378848335e-01 -1.068877355487315439e-01 -4.491975276394142846e-01 -9.318219475249898132e-01 1.212636146583281199e-01 -3.420570038323021422e-01
-3.230735904083670840e-01 -2.695389143380234054e-01 -5.606585508086491254e-01 -8.500778886554178904e-01 2.320944773344006673e-01 -4.727575877868260834e-01
-2.202705847147385376e-01 -3.170755880319706677e-01 -5.226094523615245624e-01 -9.991341776910670491e-01 4.151977433676069112e-02 2.646376507552565711e-03
-3.573860641260745985e-01 -2.310991650928216345e-01 -3.097343870314124281e-01 -2.160661829270050793e-01 -4.353509450940920011e-01 -8.739479156111277236e-01
-2.682251851721010882e-01 -1.856794481168478617e-01 -3.134250949136464515e-01 -3.184118692267667861e-01 -6.999095327352808926e-01 -6.393281845201237434e-01
-3.017523530102955154e-01 -3.094454368713062120e-01 -3.154483896497601858e-01 -9.953541587989254147e-01 -6.170759901505356443e-02 7.390717681985253806e-02
-2.420885163383199867e-01 -2.178414016049085022e-01 -4.079414630141168230e-01 -9.776179492784461411e-01 -2.076246491905147373e-01 -3.398750207240146953e-02
-2.538920212101932750e-01 -2.792707715545414415e-01 -3.483665386220674010e-01 -9.608213046517946054e-01 -2.265835061610044221e-01 -1.596318742075316377e-01
-3.163788710047161223e-01 -1.569175630616861661e-01 -3.657771614318656161e-01 -9.779394971659541858e-01 4.370466192733491601e-02 -2.042651277350536199e-01
-2.741283695211149674e-01 -2.139058499851656803e-01 -4.520795352375667209e-01 -9.749345323720108869e-01 4.917244931358136922e-02 -2.169901560372535787e-01
-3.243093708523677732e-01 -3.852693931945260220e-01 -4.106173785354914063e-01 -9.734728924954675344e-01 4.114582777307040917e-02 -2.250723182298900171e-01
