7.182326009125480359e-01 5.646554324277977543e-03 3.546326933610151333e-02 4.059434843592563680e-01 1.667558457846582687e-01 8.985557163598201225e-01
-6.044695059154098216e-01 2.645313695486546379e-01 1.304118721686004512e-01 -3.959891936428320269e-01 -1.337683071584335748e-01 9.084594644330953317e-01
-7.631534926213165981e-01 -2.432283010396639467e-02 2.427096609866840130e-02 -3.959891936428320269e-01 -1.337683071584335748e-01 9.084594644330953317e-01
-5.060595769702929125e-01 3.359125516778409537e-01 -4.093730126471044339e-02 -3.959891936428320269e-01 -1.337683071584335748e-01 9.084594644330953317e-01
-7.427613601181612957e-01 5.772885274620985496e-02 1.084536207366000038e-01 -3.959891936428320269e-01 -1.337683071584335748e-01 9.084594644330953317e-01
-5.750359224999402885e-01 1.960058837617336958e-01 9.855063837027741580e-02 -3.959891936428320269e-01 -1.337683071584335748e-01 9.084594644330953317e-01
-4.422871243847058542e-01 2.214623883329024934e-01 1.104698889499512171e-01 -3.959891936428320269e-01 -1.337683071584335748e-01 9.084594644330953317e-01
-6.278163494506526776e-01 1.436644198215893675e-01 5.487518841599120512e-02 -4.092890203470239130e-01 -1.779567359937997695e-01 8.948820581159321330e-01
-6.522160522652286074e-01 1.138411975590865599e-01 6.512223057667901327e-02 -4.092890203470239130e-01 -1.779567359937997695e-01 8.948820581159321330e-01
-7.290239742950049839e-01 1.286953624555317588e-01 1.716842878753155610e-01 -4.092890203470239130e-01 -1.779567359937997695e-01 8.948820581159321330e-01
-6.943161104914638004e-01 5.938913131708771498e-02 -1.230689504852603422e-01 -4.092890203470239130e-01 -1.779567359937997695e-01 8.948820581159321330e-01
-5.270445321343993905e-01 5.378437435954568774e-02 -4.790199889393498278e-03 -4.081409151800030610e-01 -1.192992604884017677e-01 9.050904263127248495e-01
-5.727910553557653550e-01 2.366136489719158909e-01 8.959432589132659830e-02 -4.081409151800030610e-01 -1.192992604884017677e-01 9.050904263127248495e-01
-6.944859417222213338e-01 -1.000104950485111027e-01 2.336500924161953319e-01 -4.081409151800030610e-01 -1.192992604884017677e-01 9.050904263127248495e-01
-7.045737836565142409e-01 3.186515602760064958e-03 6.956955703385875323e-02 -3.905538615640747335e-01 -1.315076974178066294e-01 9.111385222551268148e-01
-6.422141517284392087e-01 1.094870091812929352e-01 6.221091593347784221e-02 -3.905538615640747335e-01 -1.315076974178066294e-01 9.111385222551268148e-01
-6.189965740820423390e-01 4.576545895202931147e-02 9.887242291259722149e-02 -3.905538615640747335e-01 -1.315076974178066294e-01 9.111385222551268148e-01
-5.594094545296848242e-01 1.131827989950058705e-01 -7.802808099486330251e-03 -3.905538615640747335e-01 -1.315076974178066294e-01 9.111385222551268148e-01
-6.079948998548880823e-01 1.005384078585640079e-01 1.667501877475763283e-01 -4.625611135961688603e-01 -6.965014550423566375e-02 8.838473134087758698e-01
-7.051017736024580707e-01 2.446137469920839358e-01 6.191913056217142330e-02 -4.404923639216153375e-01 -1.019621400698808855e-01 8.919474195932837191e-01
-5.959488483763708544e-01 8.038031051217961465e-02 1.226354141300680101e-01 -4.792907316647807003e-01 -1.086370802144327324e-01 8.709066421509954470e-01
-6.255047340912626153e-01 1.997832275849708017e-01 2.481835250907253598e-02 -4.315632930649099253e-01 -1.225745829711548107e-01 8.937161717729057431e-01
-4.898328238902696641e-01 1.047838643604502573e-01 8.274892988670491667e-02 -4.315632930649099253e-01 -1.225745829711548107e-01 8.937161717729057431e-01
-4.914750214609052703e-01 6.459318701002608742e-02 1.377828238298461627e-01 -4.196542126626521263e-01 -1.129900581389315511e-01 9.006239995448992453e-01
4.524174977657279273e-01 7.621934329182067369e-02 1.510006933553665609e-01 7.810117571504395784e-01 5.729735116752078528e-02 6.218823431662686696e-01
4.869786375442214377e-01 1.001830683788903220e-01 3.675161885236374326e-01 9.757411976979540880e-01 1.154408840898246648e-03 2.189241477205970954e-01
4.000715642484634071e-01 1.256295915568336474e-01 3.537375046140045498e-02 9.325270838699637466e-01 -6.540765441297684279e-02 3.551268457793274602e-01
5.104022213011082387e-01 1.558228530111568366e-01 4.369966261650934380e-02 6.654543976036813024e-01 1.231570328780931117e-01 7.362083875932042831e-01
3.531719566970635271e-01 1.017295789797482974e-01 -3.529741985465245646e-02 6.944038637210120379e-01 1.259687623538054135e-01 7.084738138847338496e-01
3.944419543005318607e-01 2.342372854176077990e-01 2.807490292371520590e-01 8.093284538257489169e-01 5.658252346357178775e-02 5.846245563321103011e-01
5.797095727716407021e-01 -1.980985083154254700e-02 2.152986682588338418e-01 6.922181512504178569e-01 6.594381560831545641e-02 7.186692175559421525e-01
4.264974478617842846e-01 4.725223552356926093e-02 7.006778527249196697e-02 5.767485285767832703e-01 1.507441471051781390e-01 8.028931042785508732e-01
5.000917780319111827e-01 6.710998140188109695e-02 1.059391189908568537e-01 5.773182133180243536e-01 1.461029690331503150e-01 8.033415232707583620e-01
5.710849038078175122e-01 1.600557092805827281e-02 5.999799922218621018e-02 5.773182133180243536e-01 1.461029690331503150e-01 8.033415232707583620e-01
5.747330907662483446e-01 9.649028416253385698e-02 1.148807464573406434e-01 5.024410536651260362e-01 1.877987155623620230e-01 8.439695670016809093e-01
4.721150949204471203e-01 9.278894606361504094e-02 1.541913343993181196e-01 5.024410536651260362e-01 1.877987155623620230e-01 8.439695670016809093e-01
5.391936880342020899e-01 1.130770686537685976e-01 1.972620709488975832e-01 5.195803300864206831e-01 2.047995148874580396e-01 8.295139777539303205e-01
5.662320700908294313e-01 1.513703633379245295e-01 8.432168119010502449e-02 5.195803300864206831e-01 2.047995148874580396e-01 8.295139777539303205e-01
5.338354574644603723e-01 1.778454439588041391e-01 5.004445555920705030e-02 5.993942661442804853e-01 1.907707442198125491e-01 7.773886009346794301e-01
5.423241102349608544e-01 6.655550712245103528e-02 5.639019871509920456e-02 5.047382338458384909e-01 1.788501628081873018e-01 8.445424409451952608e-01
6.977741186671718721e-01 1.807819818739983542e-01 2.244516175706196548e-01 4.671665762283093160e-01 2.332984452289465771e-01 8.528348172470888722e-01
7.380688029462713073e-01 4.780159579501296052e-02 2.984031233775401998e-02 4.586742803206569352e-01 1.777775850598395380e-01 8.706394401947450401e-01
6.120315165949615777e-01 2.899049289708617583e-02 1.400194878742087590e-01 4.586742803206569352e-01 1.777775850598395380e-01 8.706394401947450401e-01
5.624267104052410593e-01 1.014502845949536713e-01 -9.231375044031693566e-02 4.586742803206569352e-01 1.777775850598395380e-01 8.706394401947450401e-01
5.764469725118904764e-01 1.533534425325734363e-01 8.689177302267336866e-02 4.568080563167015717e-01 2.142068703597211909e-01 8.633897245015433874e-01
-7.696432692980091916e-01 1.829204597259170839e-01 1.437273224496722623e-03 -3.850263506883795372e-01 -9.466405277993840406e-02 9.180378131574243872e-01
-7.733767664521570273e-01 1.299755989175922499e-01 -7.251029703194059040e-02 -3.850263506883795372e-01 -9.466405277993840406e-02 9.180378131574243872e-01
-7.995412402281016906e-01 4.191966066811887437e-01 1.321964082525687589e-01 -3.850263506883795372e-01 -9.466405277993840406e-02 9.180378131574243872e-01
-6.312034715831272846e-01 7.999148395815450230e-02 1.167100938361627926e-01 -3.862954555356857833e-01 -1.392977088744815628e-01 9.117960130066358193e-01
-6.833886314217237912e-01 1.368852553763071356e-01 2.304593655341167016e-02 -3.862954555356857833e-01 -1.392977088744815628e-01 9.117960130066358193e-01
-7.247115272634685468e-01 6.281946704984441021e-02 4.577778559332230934e-03 -3.862954555356857833e-01 -1.392977088744815628e-01 9.117960130066358193e-01
-8.717813713331548087e-01 8.444642620348360995e-02 -1.123174273963292030e-02 -3.862954555356857833e-01 -1.392977088744815628e-01 9.117960130066358193e-01
-6.671160374643182456e-01 1.078770155505990591e-01 9.316710899758284120e-03 -3.862954555356857833e-01 -1.392977088744815628e-01 9.117960130066358193e-01
-7.225515628729929363e-01 2.029901943342474757e-01 1.697320107753584606e-02 -3.862954555356857833e-01 -1.392977088744815628e-01 9.117960130066358193e-01
-7.113638772985216852e-01 2.615232936337530956e-01 8.524260217032492148e-02 -3.857635208031907070e-01 -9.439228711238029090e-02 9.177562869036747228e-01
-8.265174888268009834e-01 1.368201572232847774e-01 4.098926673466030818e-02 -3.857635208031907070e-01 -9.439228711238029090e-02 9.177562869036747228e-01
-6.289904923828759653e-01 1.584518067389475704e-01 4.588281611790675368e-02 -3.857635208031907070e-01 -9.439228711238029090e-02 9.177562869036747228e-01
-7.427624499549007053e-01 1.773369466095807978e-01 2.033000390278738578e-02 -3.857635208031907070e-01 -9.439228711238029090e-02 9.177562869036747228e-01
-8.050014902696032149e-01 1.728655686122995971e-01 1.084199632634006982e-01 -3.857635208031907070e-01 -9.439228711238029090e-02 9.177562869036747228e-01
-6.872002066391100783e-01 1.333576618698427141e-01 2.545081888976549050e-02 -3.857635208031907070e-01 -9.439228711238029090e-02 9.177562869036747228e-01
-7.159090710559913306e-01 2.095609078548133497e-01 4.588776854260919608e-02 -3.857635208031907070e-01 -9.439228711238029090e-02 9.177562869036747228e-01
-7.040694566008142141e-01 2.250313139990361699e-01 1.941750451166554536e-01 -3.635802300574498269e-01 -7.785606154929733402e-02 9.283037487759079331e-01
-8.623613749166174625e-01 2.635411840149202156e-01 7.915047925397145079e-02 -3.635802300574498269e-01 -7.785606154929733402e-02 9.283037487759079331e-01
-7.141847034893489266e-01 2.831674591849951406e-01 2.630664718405423264e-02 -3.635802300574498269e-01 -7.785606154929733402e-02 9.283037487759079331e-01
-6.171146428397813466e-01 1.436035128114619974e-01 8.271127912836498397e-02 -3.635802300574498269e-01 -7.785606154929733402e-02 9.283037487759079331e-01
-6.560740703198136847e-01 8.369746941036873555e-02 2.130683439234662413e-01 -3.717836114305966833e-01 -8.086411805182971979e-02 9.247907550810197108e-01
-5.873245301340099811e-01 1.717660587208745815e-01 3.475125037984444498e-02 -3.717836114305966833e-01 -8.086411805182971979e-02 9.247907550810197108e-01
-5.699802329016379066e-01 3.589865870520755342e-01 1.529321048922079873e-01 -3.717836114305966833e-01 -8.086411805182971979e-02 9.247907550810197108e-01
-6.891157118859562170e-01 2.753064586644831668e-01 1.631363354136261823e-01 -3.717836114305966833e-01 -8.086411805182971979e-02 9.247907550810197108e-01
-5.802089261663022635e-01 1.425116610385429305e-01 2.210648244563299947e-02 -3.717836114305966833e-01 -8.086411805182971979e-02 9.247907550810197108e-01
-7.070966900958368662e-01 1.634103743363749528e-01 -4.074338179212030897e-03 -3.717836114305966833e-01 -8.086411805182971979e-02 9.247907550810197108e-01
-7.251315526467535522e-01 2.381650536280245367e-01 1.864540791578639389e-01 -3.717836114305966833e-01 -8.086411805182971979e-02 9.247907550810197108e-01
-7.418804293328109534e-01 2.244587445075237331e-01 1.036813180665585726e-01 -3.717836114305966833e-01 -8.086411805182971979e-02 9.247907550810197108e-01
-6.525982754942952768e-01 1.280331043417449466e-01 7.926275779619118556e-02 -3.752526792325333038e-01 -7.854016388569801110e-02 9.235891236830440221e-01
-6.673115385550191236e-01 2.398336706285342512e-01 8.520371197571290078e-02 -3.752526792325333038e-01 -7.854016388569801110e-02 9.235891236830440221e-01
-6.829107096138010702e-01 3.055776073360252365e-01 -2.386585998230794647e-02 -3.752526792325333038e-01 -7.854016388569801110e-02 9.235891236830440221e-01
-6.140899028681380267e-01 2.556016733400925944e-01 7.368518607915765239e-02 -3.752526792325333038e-01 -7.854016388569801110e-02 9.235891236830440221e-01
-7.430455291194002498e-01 3.409686824797918958e-01 1.473659732753080376e-01 -3.752526792325333038e-01 -7.854016388569801110e-02 9.235891236830440221e-01
-4.463343997333520941e-01 9.614544355823241573e-02 9.713268359442783773e-02 -3.752526792325333038e-01 -7.854016388569801110e-02 9.235891236830440221e-01
-5.755280382207507150e-01 2.226114145731610539e-01 1.052035773047151623e-01 -3.983616259201296361e-01 -6.907395859791096160e-02 9.146238588829206373e-01
-4.494529757244729029e-01 3.722353563466817006e-01 1.648486105950910663e-01 -3.983616259201296361e-01 -6.907395859791096160e-02 9.146238588829206373e-01
-6.574130261482549198e-01 2.653577583296141684e-01 2.719303644767129269e-02 -3.983616259201296361e-01 -6.907395859791096160e-02 9.146238588829206373e-01
-5.158664302297628623e-01 9.891467381247850965e-02 1.154000534383022025e-02 -3.983616259201296361e-01 -6.907395859791096160e-02 9.146238588829206373e-01
-5.095427939529004746e-01 1.149647960049657580e-01 1.745408390088706851e-01 -3.983616259201296361e-01 -6.907395859791096160e-02 9.146238588829206373e-01
-4.961594996062084761e-01 1.228144725722662561e-01 5.490788327714184180e-02 -3.993368636160906648e-01 -6.525426411396785531e-02 9.144790595591615334e-01
-5.528854121891302320e-01 7.568503810000307142e-02 2.553985658746114884e-02 -3.993368636160906648e-01 -6.525426411396785531e-02 9.144790595591615334e-01
-5.448345975062935942e-01 6.932412103216270549e-02 1.554972459708044707e-01 -3.708480809011832635e-01 -8.053933649373777592e-02 9.251946369110977120e-01
-5.290405221509322242e-01 1.317285002144531203e-01 1.012190114085561587e-01 -3.708480809011832635e-01 -8.053933649373777592e-02 9.251946369110977120e-01
-5.157546374401551503e-01 3.324731087195638146e-01 5.286357377357715076e-02 -3.708480809011832635e-01 -8.053933649373777592e-02 9.251946369110977120e-01
-6.313411864608441393e-01 8.667279233999244936e-02 1.727173827209079748e-01 -3.708480809011832635e-01 -8.053933649373777592e-02 9.251946369110977120e-01
4.116526710678156675e-01 1.100368574596354843e-01 6.252273336173946872e-02 8.789908662611839452e-01 1.441154981855561346e-01 4.545390854614618226e-01
3.570573321301981351e-01 1.904011047764906650e-01 7.125951158384180584e-02 9.327658454355304274e-01 7.092251481606977326e-02 3.534372284877534409e-01
5.626047254850339296e-01 8.114996883903977110e-02 7.146514575337577224e-02 7.447555672790195924e-01 1.697051236505966731e-01 6.453985714375585214e-01
5.452104280085723342e-01 1.207420605787540846e-01 1.617612585448525708e-01 8.299337241502646734e-01 1.247732136998591090e-01 5.437293983785329576e-01
4.801222551217714241e-01 1.660533726612176963e-01 2.170213571813879305e-01 9.912130077736736045e-01 3.842345550029360735e-02 1.265717633901186079e-01
3.570395690028903002e-01 1.503243904523580976e-01 1.017390743779915396e-01 9.709728954898886322e-01 1.804868733824894003e-02 2.385076122670886645e-01
4.994508300852230076e-01 2.110122178351291899e-01 1.324052277771819996e-02 7.848553349806116630e-01 1.743578133070768643e-01 5.946439742326885547e-01
4.594468361470032125e-01 2.740672441624310562e-01 1.142304592087814985e-01 7.848553349806116630e-01 1.743578133070768643e-01 5.946439742326885547e-01
5.475767719128781241e-01 1.925323353503669843e-01 1.351946253718189217e-02 5.222157807986462785e-01 2.805262339679217010e-01 8.053544004602165574e-01
6.257749351073667032e-01 1.156646808794858095e-01 9.843105367504492720e-02 5.222157807986462785e-01 2.805262339679217010e-01 8.053544004602165574e-01
6.712245823672499112e-01 9.009262475186394226e-02 1.747767263744994248e-01 6.315950490741550905e-01 2.716943102528634468e-01 7.261335247468171383e-01
4.781252108657002564e-01 2.019900146033891952e-01 1.841072536938819504e-01 5.534803593147105127e-01 2.430656951642789221e-01 7.966043934646385161e-01
5.316852996223412342e-01 1.085870187772658979e-01 2.559335223325696074e-01 6.322450598208249062e-01 1.988554804961065459e-01 7.488141840328774723e-01
6.335407773988580571e-01 1.040557868170557121e-01 -3.584775574297510703e-03 5.246913131806857367e-01 2.341978122470227131e-01 8.184438958239200756e-01
5.537822783433977714e-01 8.053733303571243562e-02 5.377040381781107714e-02 5.232974266673210417e-01 2.409093015821738848e-01 8.173876140819291702e-01
4.002407742783062328e-01 1.593557722338536931e-01 1.971331011948043721e-02 6.643391966138422200e-01 2.085860490984405569e-01 7.177362272896483653e-01
6.450409621390060799e-01 1.805982087757061760e-01 1.608893624834228653e-01 6.235412899301782108e-01 1.893235641986235895e-01 7.585201696667921434e-01
5.683773979003474697e-01 1.863040831684433796e-01 -5.231579260126957565e-02 5.948323944231460603e-01 1.892706760459318682e-01 7.812496615896499241e-01
5.532302651130862614e-01 1.540516066758578217e-01 2.081916582782290526e-01 4.725249056342836762e-01 2.586163694757174225e-01 8.425187161093280475e-01
5.973891446298364993e-01 2.156218917689953773e-01 6.717781611729313485e-02 4.725249056342836762e-01 2.586163694757174225e-01 8.425187161093280475e-01
4.735100783770689881e-01 6.464742347205162942e-02 1.214481042978265979e-01 4.734725076751991613e-01 2.246467645006300640e-01 8.516792915617691362e-01
-7.904845158369675495e-01 3.818229701852666746e-01 -1.287960354896832693e-01 -3.657890417823675966e-01 -7.123487145489031114e-02 9.279676556867392234e-01
-7.441860034677136859e-01 2.994522155499346749e-01 6.069606280584022295e-02 -3.675863379577637979e-01 -7.286183431513934550e-02 9.271307552050217504e-01
-7.654032001237489613e-01 2.974222867247861557e-01 -2.197257941552941546e-02 -3.816321310839609349e-01 -1.024415496293982208e-01 9.186199679050320865e-01
-8.291583972194178642e-01 2.224060941972372252e-01 9.042228998707983745e-02 -3.816321310839609349e-01 -1.024415496293982208e-01 9.186199679050320865e-01
-7.439294010943563462e-01 4.674902030843197109e-01 -5.719789528831474568e-02 -3.658648264465154121e-01 -7.064568868219806008e-02 9.279828206598864648e-01
-6.017644462998413823e-01 3.041321665634940663e-01 1.245616932709679991e-01 -3.658648264465154121e-01 -7.064568868219806008e-02 9.279828206598864648e-01
-6.685686384788201986e-01 3.638117375882005122e-01 -5.779137287636310072e-02 -3.658648264465154121e-01 -7.064568868219806008e-02 9.279828206598864648e-01
-7.381734468730861698e-01 2.987498226303179627e-01 2.233176994620225675e-02 -3.658648264465154121e-01 -7.064568868219806008e-02 9.279828206598864648e-01
-8.120120301114246431e-01 4.365947171594824483e-01 -2.733609830521005479e-02 -3.682638431427829317e-01 -7.009755229016971512e-02 9.270750104477170073e-01
-6.869208358762719513e-01 2.632657888301787596e-01 4.813148050072270367e-02 -3.621587318420853574e-01 -6.981997367631920248e-02 9.294978344387740954e-01
-7.386481030957736671e-01 3.844275259474990714e-01 8.043267836013896777e-02 -3.682467180314308308e-01 -5.803060772994318023e-02 9.279152995966675199e-01
-5.995992065042556884e-01 3.946785696809674837e-01 5.176368979906408041e-02 -3.682467180314308308e-01 -5.803060772994318023e-02 9.279152995966675199e-01
-6.612916847573763190e-01 2.076624593368954219e-01 1.521978922733765727e-01 -3.563265553970314525e-01 -5.933921255124157551e-02 9.324753314553070327e-01
-4.686963557254826829e-01 2.035435781190796656e-01 1.526998478473925169e-01 -3.501555375132333059e-01 -4.817101676883917688e-02 9.354521113837281909e-01
-5.547106079766473963e-01 2.195651148223332072e-01 1.871459287130210480e-01 -3.501555375132333059e-01 -4.817101676883917688e-02 9.354521113837281909e-01
-5.028711342561261732e-01 3.137513518128922652e-01 2.171526546798231982e-01 -3.501555375132333059e-01 -4.817101676883917688e-02 9.354521113837281909e-01
-8.586122935492644936e-01 3.107149579154895314e-01 2.822167589841001467e-02 -3.501555375132333059e-01 -4.817101676883917688e-02 9.354521113837281909e-01
-4.630553258229138658e-01 1.696343001146451146e-01 9.623651279136215264e-02 -3.501555375132333059e-01 -4.817101676883917688e-02 9.354521113837281909e-01
-7.044712481970220042e-01 2.836050415856366524e-01 1.467298696848906014e-01 -3.530328931985095009e-01 -5.057086906915553293e-02 9.342432036260580608e-01
-7.094687909684171956e-01 4.224408067985940818e-01 1.162744557770990367e-01 -3.530328931985095009e-01 -5.057086906915553293e-02 9.342432036260580608e-01
-7.134166643830448518e-01 3.362488311674300401e-01 7.256732251367246922e-02 -3.530328931985095009e-01 -5.057086906915553293e-02 9.342432036260580608e-01
-6.768723976300438094e-01 2.249145642052721716e-01 1.807362852428336941e-01 -3.530328931985095009e-01 -5.057086906915553293e-02 9.342432036260580608e-01
-6.081260886036103930e-01 2.884730417614131404e-01 4.799460436769084626e-02 -3.484600389097277096e-01 -4.978429193731153529e-02 9.360006012601336245e-01
-5.957500395815922278e-01 3.342613880059618348e-01 1.181556288167399937e-01 -3.484600389097277096e-01 -4.978429193731153529e-02 9.360006012601336245e-01
-7.314367790374445288e-01 2.981906731720677106e-01 -6.016538236718951826e-02 -3.484600389097277096e-01 -4.978429193731153529e-02 9.360006012601336245e-01
-6.411354690015871327e-01 2.543149541553002546e-01 8.119359680658476408e-02 -3.484600389097277096e-01 -4.978429193731153529e-02 9.360006012601336245e-01
-6.373587023966434950e-01 2.982632316621549040e-01 1.285596264546177148e-01 -3.484600389097277096e-01 -4.978429193731153529e-02 9.360006012601336245e-01
-5.924079485949151902e-01 3.252109313594739315e-01 9.354394297743721942e-02 -3.484600389097277096e-01 -4.978429193731153529e-02 9.360006012601336245e-01
4.203634016976660059e-01 1.490432740437812320e-01 8.727477304052172480e-02 9.602455294489095072e-01 1.856795586684670263e-01 2.084505328994546713e-01
3.630501072293893516e-01 3.039868574903417664e-01 1.256080740710479871e-01 9.977502312308197396e-01 4.289378799114771518e-02 5.152280107502105883e-02
3.388258845024243460e-01 3.335728450935299128e-02 1.082617238121913461e-02 8.390725731423260836e-01 1.638563444749975839e-01 5.187565087549329546e-01
4.639063048179040138e-01 3.830070014291095393e-01 -4.376063042507483125e-03 9.982080413892909787e-01 5.625567542941548732e-02 -2.039620277737633561e-02
4.621057965379614663e-01 2.809259311415516769e-01 9.356909919993250391e-02 9.880308179656703826e-01 1.221105086832191683e-01 -9.425564396477170703e-02
4.620769787752843638e-01 2.343196472083640403e-01 7.632987460652268519e-02 6.230665493748427375e-01 3.532717569156597626e-01 6.978446394548356579e-01
4.000317045917030079e-01 2.504388704719240355e-01 2.577915192908157294e-01 8.038331977721051569e-01 2.648085141767720363e-01 5.326618448687328033e-01
5.317956243899407687e-01 2.245654180713937409e-01 1.177649605698340152e-02 7.639290179061669628e-01 2.185221341272126638e-01 6.071742192298745788e-01
5.420992013083586469e-01 2.007632197004666497e-01 9.518040863423396503e-02 6.030299057547660047e-01 2.616025376412548509e-01 7.536040373200331155e-01
5.191655508380469408e-01 2.066144796589086396e-01 6.457389801862581380e-02 7.955761528456476439e-01 2.745618774616008784e-01 5.400688478963395767e-01
5.401897218185671701e-01 2.465561639095166790e-01 1.762670506248371072e-01 6.538381586412208568e-01 2.969393900531613895e-01 6.959329428468765677e-01
4.187905263465525607e-01 2.990334247316776550e-01 1.628271067214003831e-01 6.905103348050692924e-01 2.978400587693530444e-01 6.591561096733150604e-01
-6.124826529915077256e-01 2.102146011804078007e-01 1.001351068914028419e-01 -2.188216760256071203e-01 7.025501954117160386e-01 -6.771560359535340190e-01
-7.613599967656130563e-01 2.606288743206500724e-01 1.400568614556144953e-01 -1.360396977812843855e-01 6.180751617791586661e-01 -7.742585453317538668e-01
-6.875974240582762853e-01 3.044746057269444584e-01 2.024886043532259650e-01 -1.338249438350395670e-01 6.238038412401183397e-01 -7.700387341307070033e-01
-6.299391408462278186e-01 2.775978315057165968e-01 -1.410794729260063662e-01 -2.029482443122822832e-01 7.273204980065667291e-01 -6.556042276480850139e-01
-7.968553190583638202e-01 2.693368889130826060e-01 -1.262240100729176417e-01 -2.224524396605322973e-01 6.869843847965344530e-01 -6.917856366930468237e-01
-6.234562399432117541e-01 2.937018148547484997e-01 -6.247815479918131937e-02 -3.187277529027381928e-01 7.714147088246180450e-01 -5.507558138945067849e-01
-7.332954828651775392e-01 4.263213802917124040e-01 -1.406801377705818312e-01 -3.101511554130040871e-01 7.389377359661652989e-01 -5.981448680388191663e-01
-6.716661085089929983e-01 4.405861274867083344e-01 2.375848735873566792e-02 -1.199929229454862051e-01 6.451415866910791275e-01 -7.545820244113394804e-01
-5.971588963937877192e-01 4.560287329490765318e-01 2.140171723716096167e-02 -2.058188697981572501e-01 7.077483598806120213e-01 -6.758186531321199730e-01
-6.149872038789658824e-01 2.339674266205298003e-01 8.799298632002382214e-02 -2.017027574194938666e-01 7.151865872065866769e-01 -6.691966401060066572e-01
-8.194147136319930302e-01 3.650769542341669727e-01 5.919809530480434762e-02 -1.241833269875094042e-01 6.381061117285456996e-01 -7.598678118416319904e-01
-7.177039878256329386e-01 3.777873919633092381e-01 1.074750098695835127e-01 -1.241833269875094042e-01 6.381061117285456996e-01 -7.598678118416319904e-01
-7.047545444827761907e-01 2.814068233804427610e-01 -4.380981266472153135e-02 -1.253546790423308854e-01 6.374599249979743254e-01 -7.602177638438681884e-01
-5.681670079831361297e-01 3.159586797849625595e-01 9.717801016016769378e-05 -1.063995391240618316e-01 6.594320416356295178e-01 -7.441965604183161664e-01
-7.804535709498502394e-01 2.866360529118071598e-01 1.311607525085715931e-02 -1.191793838704715003e-01 6.457490306764008814e-01 -7.541912647603017383e-01
-7.135755560095323746e-01 1.970810093712544175e-01 -3.656644027981380968e-02 -2.282859748107331777e-01 7.391088056094097247e-01 -6.337220898590680829e-01
-6.112749736687828062e-01 3.687565526461261678e-01 -5.557892533733244794e-02 -2.892111290768061838e-01 7.913966924195239283e-01 -5.385612296160544599e-01
-5.610350810702169344e-01 3.268840876635036863e-01 -8.673688261200038219e-02 -2.666316980858627339e-01 7.586198930454358669e-01 -5.944774137438535444e-01
-7.723438583648750688e-01 2.737866954700434174e-01 8.650623923872564902e-02 -1.736774743076443250e-01 7.223355963329756158e-01 -6.693783841657885425e-01
-6.171412146904653451e-01 5.042051160311742386e-01 5.966815605714247128e-02 -3.346059767159982878e-01 -3.275640666358792946e-02 9.417886483539831266e-01
-7.248382668966008024e-01 3.719982010242430803e-01 2.204985246133810139e-01 -3.346059767159982878e-01 -3.275640666358792946e-02 9.417886483539831266e-01
-6.161322550087293681e-01 2.440176905197137813e-01 1.964019270387257210e-01 -3.346059767159982878e-01 -3.275640666358792946e-02 9.417886483539831266e-01
-6.449670938720097890e-01 5.555189246499607769e-01 -1.904206316771622776e-02 -1.258794761137498885e-01 6.333088247603347876e-01 -7.635930133087988070e-01
-5.621964059548726356e-01 3.285346555959973158e-01 3.327393779292216469e-01 -6.674113968046914425e-02 6.733846781394898784e-01 -7.362735195028596857e-01
-7.127590913499410874e-01 3.740447421546202467e-01 1.104194167903498058e-02 -1.631722851741276570e-01 6.235408657237421215e-01 -7.645728180647932692e-01
-4.412840550812595075e-01 3.372676493988694402e-01 2.109286039052468698e-01 -8.838542165937834927e-02 6.653186711632292916e-01 -7.413090334264710313e-01
-5.666671389127234670e-01 3.492110044099707711e-01 5.639611780399841900e-02 -1.430628736677086732e-01 6.337542303469758664e-01 -7.601898379321112564e-01
-5.157346274510231643e-01 4.981115217639715542e-01 2.033750678982975402e-01 -1.042181633056230017e-01 6.452071107599590682e-01 -7.568661431600625100e-01
-5.577473572098444743e-01 3.702592941540935878e-01 1.073256604834896821e-01 -2.752850192757003503e-02 7.199541201266498325e-01 -6.934754837009632356e-01
5.034161248243979037e-01 1.878111659452215143e-01 1.447200423159111793e-01 9.607199082607914553e-01 2.375635966190328963e-01 1.434600830642649150e-01
4.735559986284432199e-01 2.392378618091203779e-01 2.024545639598989144e-01 9.384875481472113590e-01 3.353093797680981730e-02 -3.436812450091378257e-01
3.571471589370903144e-01 1.172882169150164244e-01 -1.425748347014356432e-02 8.999600258702495914e-01 3.069605044096533342e-01 3.095919904780984333e-01
4.951539318061807249e-01 3.369256735843506045e-01 7.789955356351636884e-02 9.816132135062100028e-01 1.380099979343417382e-01 -1.318663700121243398e-01
3.839196387457932125e-01 2.776016057520599989e-01 2.656458698040808364e-01 9.658755997068204646e-01 1.352115129708923447e-01 -2.209121378537453884e-01
5.739813108108406947e-01 3.225234760108020016e-01 -5.057144197045948530e-03 8.608614173137131287e-01 2.212488533511519986e-02 -5.083582492982022805e-01
4.575684291563867911e-01 2.729801341742434939e-01 1.264571210176745342e-01 9.181009975206293472e-01 4.175403041391452519e-02 -3.941410398522581793e-01
4.956160848539455377e-01 3.695800937946977505e-01 2.335904475696253813e-01 9.101732919059296600e-01 1.147920856670019835e-01 -3.980042157683044701e-01
6.518906515145274083e-01 3.228780759161990477e-01 -5.838753164523233230e-02 8.085177400935088521e-01 2.927053251789973887e-01 5.105121512422035046e-01
-5.346194781849041844e-01 3.156851125631318089e-01 2.488133054887224360e-01 -1.838897501829957759e-01 7.421812368216255118e-01 -6.444777509639552093e-01
-5.385480662434146693e-01 3.733665759172427601e-01 -5.791324181918758307e-03 -1.543407548443445354e-01 7.584955692359698354e-01 -6.331377439732053247e-01
-5.620633331603075433e-01 3.706971355290645254e-01 3.430874776825246913e-02 -1.744674566422726725e-01 7.549316926708070641e-01 -6.321702666006737692e-01
-6.221236755785279904e-01 3.410449790943161918e-01 1.431354645074406906e-01 -6.799868685821940095e-02 6.670462291030827551e-01 -7.419066698884135835e-01
-4.838265946651569838e-01 3.470732849014991350e-01 -6.140372205643611359e-02 -8.824440424488066981e-02 7.443717912838598849e-01 -6.619090280849203589e-01
-6.200336451314267805e-01 4.391165502788627606e-01 8.530798085572670331e-02 -1.061261544638688048e-01 7.161483360826712552e-01 -6.898324434706825103e-01
-5.436413601127726425e-01 4.072187418707971518e-01 4.047204986588115450e-02 -3.778092223732542054e-01 8.829457673321828848e-01 -2.786879319954481682e-01
-4.379255995241875254e-01 3.438639859702717350e-01 5.718176969936712706e-03 -2.613217473637770571e-01 8.027857011681843735e-01 -5.359534143511439641e-01
-4.655151723721155932e-01 3.826404690093876404e-01 7.823371260139910799e-02 -1.885147211709378157e-01 8.121004588329127083e-01 -5.522273487117569379e-01
-4.853148140523345644e-01 4.121314709317741576e-01 8.061226319461886614e-02 -1.268447439083179862e-01 7.311740393307750718e-01 -6.702946629293354830e-01
-5.062222757764929248e-01 3.573622012388151248e-01 1.499483426749519399e-01 -6.898279645858877707e-02 7.090076286192266153e-01 -7.018187489320114603e-01
-3.790765569650442202e-01 2.674201596898931887e-01 1.982882111414293325e-01 -6.746502833975973057e-02 7.610060390863361279e-01 -6.452273075631884680e-01
-5.350346868308797355e-01 4.944826881387261452e-01 6.098746804268028593e-02 -1.665291065831425998e-01 8.565278099454316507e-01 -4.884958213236864077e-01
-3.149489757478602381e-01 3.951467012366003950e-01 1.775585619846836161e-01 -3.105784729135582234e-01 9.207386516177958891e-01 -2.361807519247181297e-01
-4.160793627707574660e-01 4.260157485107266551e-01 1.226739902204629917e-01 -1.724878438058262964e-01 8.350078564229226341e-01 -5.225034195593485364e-01
-4.107715828753638054e-01 4.125535292145089405e-01 -7.001087578838996461e-02 -3.577483382204154072e-01 8.888043213249471330e-01 -2.864315012260899018e-01
-4.899922672684665637e-01 3.860233160086901649e-01 2.997730304005397084e-02 -1.819555461138654406e-01 8.261496400024603837e-01 -5.332625540596396263e-01
-3.574619670679711203e-01 4.546848206092792277e-01 3.453455730411107705e-02 -3.101833013077142653e-01 9.227189015513473924e-01 -2.288583586188687180e-01
3.941318226747825282e-01 3.258400515192032554e-01 4.055028182368420470e-02 9.163384687644762217e-01 2.165317805395134132e-01 -3.368052830327385450e-01
4.108802161003989317e-01 4.057179905958134269e-01 2.705679500706427709e-01 8.324615758369021679e-01 1.309946884607600115e-01 -5.383754418156624366e-01
5.590032484241410637e-01 5.532239316520002337e-01 2.596970770627683722e-02 8.353793987414126487e-01 1.285873895371572040e-01 -5.344216906249737997e-01
5.276346758188632524e-01 4.293473122092126837e-01 5.710185143446956657e-02 9.140168640851036308e-01 2.000831896683368805e-01 -3.529020960268975382e-01
4.182203521498258914e-01 3.535657415432531536e-01 1.125805593306575259e-01 9.213122065744540068e-01 1.653776351237259967e-01 -3.519006334432975835e-01
4.040724753303975292e-01 3.434876435128007000e-01 1.491169563813389554e-01 8.518094155626084740e-01 1.230929091801935688e-01 -5.091845002240776852e-01
-4.079808238081041871e-01 4.322190778736809680e-01 5.351058687998248853e-02 -9.657632771107536873e-02 7.582144423703295333e-01 -6.448130522150533617e-01
-4.504146420021818975e-01 3.200979527155243254e-01 1.091934226214561210e-01 -1.857108914833493496e-01 8.547732821102058676e-01 -4.846381134155732795e-01
-3.980126267959214204e-01 4.248685188604046647e-01 6.231875406427931502e-02 -1.524974536573164841e-01 8.538706100014686884e-01 -4.976439570654451194e-01
-4.929166223160169613e-01 5.104316592121870277e-01 8.172294313549646749e-02 -1.446810004332030886e-01 8.624545544573671840e-01 -4.850149993653717351e-01
-3.432519451343991612e-01 4.688726543248403211e-01 1.694976197910754712e-01 -2.174500741884503874e-01 9.321834261605360661e-01 -2.893951022858571309e-01
-3.171695658052794409e-01 3.495531467526281078e-01 1.654370400668380148e-01 -1.462625651639300195e-01 8.545877875829078762e-01 -4.982840307955071490e-01
-3.617847081731234149e-01 4.387869258477921086e-01 8.333288133047372925e-02 -2.054673469848490586e-01 9.348265056484336144e-01 -2.896248843938428741e-01
-3.996952335092605058e-01 3.547544701734320349e-01 -2.270530613731318315e-02 -2.641096511009635162e-01 9.602696089331019813e-01 -9.015747531289172723e-02
-1.620646157883899596e-01 5.103616082060370429e-01 1.308743582043138121e-01 -1.920061664014099667e-01 9.627466827990627252e-01 1.904007794711857493e-01
-3.041667749843378621e-01 5.619509976583995092e-01 3.048317805771141864e-02 -2.918853415332053891e-01 9.556753374203238449e-01 3.856937703144665275e-02
-3.675715327388119902e-01 4.431044056410783916e-01 8.554095354077775881e-02 -2.956289992692763824e-01 9.442198358697978522e-01 1.450944393871054505e-01
-3.734819917174873050e-01 4.634674614986270536e-01 4.900450931265974697e-02 -1.792912706790827648e-01 9.804421709117508987e-01 -8.116520040099101108e-02
-3.071868789219960316e-01 4.975555248518080398e-01 1.305555672971006886e-01 -1.320784576888689998e-01 9.436026738646682288e-01 -3.035939309175633150e-01
-2.773759217662072341e-01 4.699486398931071451e-01 2.754585720925060710e-01 -4.215983513614663530e-02 8.742222072001788469e-01 -4.836921342541562474e-01
-3.553362284103780411e-01 3.999802858004912753e-01 2.178768989904966702e-02 -3.185400672581754217e-02 9.289199587539346270e-01 -3.689078915991092500e-01
-2.759126150496992724e-01 3.630319874486117038e-01 1.248894414122289354e-01 -3.156616605753292254e-02 8.986728446445165774e-01 -4.374822230205024920e-01
-2.965159819681264519e-01 3.740615079971926216e-01 3.326451974898014252e-01 -1.837331219736565990e-01 9.601006196222580114e-01 2.108291727697328699e-01
-2.236709955475411071e-01 3.938527164481994136e-01 2.036610488645095030e-01 -1.002079036097709014e-01 9.896387864903187781e-01 1.028272742423149283e-01
-2.252501531243365218e-01 6.634656387019451929e-01 1.094277091978272110e-01 -2.243003122722946885e-01 7.997652213731928361e-01 5.568347695649391582e-01
-1.696124112868775957e-01 5.133431905585438271e-01 6.296496958657792076e-02 -1.791129226512805095e-01 9.427313406567860987e-01 2.813826225671642867e-01
-1.214771314377970091e-01 5.018359665770192324e-01 2.969952782458097906e-01 -5.173957241860216438e-02 9.534277927317322820e-01 -2.971505690599252625e-01
-2.371080405712755745e-01 4.385563193618367550e-01 1.545632496506116060e-01 -3.040315584462293524e-02 9.772402364934849039e-01 -2.099456317546177786e-01
-3.378900801423919686e-01 4.041548996083578760e-01 1.897970006247656771e-01 -7.790529731696664573e-02 9.947893256997599742e-01 -6.576444422157076697e-02
-2.503642813339732598e-01 3.604544034026309074e-01 2.187192556392694165e-01 -1.937562121976157681e-01 7.860296344188143491e-01 5.870399850523450036e-01
1.107441934376976467e-02 3.969959674709382380e-01 2.055069882808442105e-01 4.164811025125688022e-03 9.956515052171216462e-01 9.306306736834364657e-02
-4.379134516200955396e-02 5.556744755578110206e-01 2.505180098500799923e-01 -1.195596357125271320e-01 7.381400138909496311e-01 6.639689852706649464e-01
-1.447481780598049161e-01 5.610536915170977190e-01 1.791736053829933450e-01 -1.300753077607721409e-01 8.642127765075713342e-01 4.860212868095539762e-01
-1.637211481309227556e-01 4.671084495995858621e-01 2.480517849556197196e-01 -1.010896906238079457e-01 9.008261221822063680e-01 4.222477614431501269e-01
-2.882942029029435527e-01 4.373828264380388853e-01 1.996647169789424747e-01 -2.776634658082786228e-02 9.840171900380403347e-01 1.758954226442306645e-01
-5.053321391893782905e-02 4.691273008506984810e-01 2.548153081581940871e-01 7.950755045978613600e-02 9.900465251368586461e-01 1.161310788906917274e-01
-1.004667892914761079e-01 4.213456703228189992e-01 1.946597504966554038e-01 -1.848474580273945511e-02 8.892727242323223980e-01 4.570036499953057940e-01
-1.042097255630011765e-01 3.609555962389727757e-01 6.705641720567852293e-02 -6.447155870375749498e-02 8.236774707685413643e-01 5.633816133551453609e-01
-2.027076228786965917e-01 5.186347262812878167e-01 1.513099920157298106e-01 -5.609827168532516978e-02 7.812582600616518880e-01 6.216820047253739379e-01
3.662381884088733441e-01 5.283782552498708096e-01 1.270626176579171540e-01 6.954988231265802900e-01 2.824590884945575239e-02 -7.179718348673642669e-01
3.843311766598509482e-01 4.442988529770912631e-01 1.243330078595429600e-01 7.944033491782105383e-01 9.124113058559311928e-02 -6.004984387189570283e-01
3.597108184474638870e-01 4.460739057279791697e-01 -3.907573279644442621e-02 8.516288094102362205e-01 1.745260037009464249e-01 -4.942358192347868218e-01
3.626022866256350952e-01 4.837216101363223109e-01 1.331548736207809891e-01 6.865837333657373032e-01 4.941303450023749183e-02 -7.253696499709955114e-01
4.874951215035040475e-01 4.609452935146428620e-01 -5.824078506062912997e-02 8.820968997886927676e-01 2.758974023011169230e-01 -3.818189136052228538e-01
4.093030846385071753e-01 5.650794900432855039e-01 -1.243142003477329394e-02 8.153363906688267937e-01 1.813923356788928187e-01 -5.498394225663397750e-01
5.527570731661457515e-01 4.156705694752418911e-01 -7.359111848217536611e-02 7.614037878210960786e-01 2.797547233466484567e-02 -6.476740266826667147e-01
4.438000923686770127e-01 3.883441184097341514e-01 1.989337992978251479e-01 6.943070320254021155e-01 1.663584522060263318e-02 -7.194866183146657601e-01
4.823196692909682004e-01 5.992611324158891861e-01 1.380932054293916855e-01 6.943070320254021155e-01 1.663584522060263318e-02 -7.194866183146657601e-01
-3.114049260745293535e-01 4.453870312751196936e-01 6.537520163030857701e-03 -3.174159398890318284e-01 7.781590612899067505e-01 5.419553454268846160e-01
-2.989870881862367602e-01 5.279255790991064234e-01 6.860668608796700874e-02 -3.188518439642074598e-01 5.944954031505162995e-01 7.381793259320730272e-01
-1.148590874160628772e-01 5.712364032095273991e-01 1.105655813627653972e-02 -2.917057412993665499e-01 6.075276173536011681e-01 7.387949340958173128e-01
-2.429373716350920476e-01 4.772004346194105295e-01 1.334986392721863313e-01 -2.635904936605346638e-01 7.279026337516865119e-01 6.329911590450169045e-01
-1.172531611852821037e-01 5.069118478603217293e-01 -6.482593519681752181e-02 -2.568106060219601527e-01 5.928388796877022138e-01 7.632760806977143542e-01
-8.311554849739008488e-02 4.997273514747442302e-01 1.737278825992903120e-01 -2.672774850368559441e-01 7.897365439947214849e-01 5.521584347555025252e-01
-1.958065579564766123e-01 4.876481719374838875e-01 6.397071243851668032e-02 -2.917604532337835233e-01 6.836992892923352549e-01 6.689029225156465364e-01
-2.422305368613729137e-01 5.527846233790600916e-01 1.281479204254869497e-01 -2.753514954206827681e-01 5.166329744022891690e-01 8.107230869599294509e-01
-1.026584053994138573e-01 5.561280496375297089e-01 3.661033511121655759e-02 -2.989642774782076962e-01 5.632387204753191989e-01 7.703132509241018555e-01
-1.612050711811414683e-01 5.215394190127861096e-01 1.207715968750325969e-01 -2.560434239469837059e-01 6.710553595640318392e-01 6.957919728294466033e-01
-1.949414428076162165e-01 4.884963802665077126e-01 -1.269174120787398830e-02 -2.660904029176764940e-01 5.792823445604303734e-01 7.704724931856291592e-01
-2.224776355314415366e-01 4.667126523030670215e-01 1.460918658939108772e-01 -2.599549720114819884e-01 5.552401745028108238e-01 7.900201017345052090e-01
-1.398331198678180731e-01 5.629423319671343906e-01 -7.987289942354240668e-02 -2.313352005443528592e-01 5.137151268375200752e-01 8.261844790647030479e-01
-2.089839140440198917e-01 6.240904316005456698e-01 5.320489173893619417e-02 -2.304097055101295421e-01 5.254740026302741063e-01 8.190167520670464940e-01
-8.828727679152670316e-02 5.096509019735999679e-01 6.650666984341181698e-02 -2.565423499334645863e-01 5.337808523697732399e-01 8.057692128233827633e-01
-1.168095083093864672e-01 5.475919268092912517e-01 1.864032596606716718e-01 -1.970008976193188821e-01 5.169551532306539965e-01 8.330354229475800398e-01
-2.026029602649503381e-01 4.556692328205578790e-01 -8.676604530069734200e-02 -2.066617054710705170e-01 6.771011631381060880e-01 7.062754097155106159e-01
-6.353030695316283505e-02 5.005017758368422998e-01 1.951211278284560591e-01 -1.391990768633508124e-01 6.300717531996915532e-01 7.639589012638428045e-01
-2.886879620953245462e-01 5.498921109104447646e-01 8.899766858658231250e-04 -1.914260620307087213e-01 5.758148762380089769e-01 7.948542577595101299e-01
-9.099937924503642694e-02 5.268733042761895025e-01 -2.424907750364986569e-02 -2.082992648750889297e-01 5.900872047168713719e-01 7.800054532385826134e-01
-9.836848770690539978e-02 4.703300418066433952e-01 2.108221486132512701e-01 -1.964198232651359899e-01 6.685895281607912022e-01 7.172219292954052916e-01
-1.646223402020881577e-01 5.238323127126146561e-01 2.289841049601263334e-01 -5.995245457927067534e-02 7.951971238708585021e-01 6.033798450208914810e-01
-4.414061851783585011e-03 5.368823911925867387e-01 6.810630604441658686e-02 -6.659162801122013586e-02 6.868561095724907695e-01 7.237363054467821355e-01
4.022196270241495952e-02 4.568578310116445107e-01 8.374094085797646747e-02 -1.661703812481798159e-01 4.839486591473460275e-01 8.591746619316240619e-01
-7.012214391524411450e-02 4.683121165638385319e-01 1.714421226006726529e-02 -1.661703812481798159e-01 4.839486591473460275e-01 8.591746619316240619e-01
1.371622037049049225e-01 6.451664006380343208e-01 1.531368986660225917e-01 -1.661703812481798159e-01 4.839486591473460275e-01 8.591746619316240619e-01
-9.690223790019371342e-02 5.997002524885852726e-01 5.867493270614733414e-02 -1.447009511294751749e-01 5.785515131312034542e-01 8.027077808242675250e-01
-2.996487891554155403e-01 4.231145856163524566e-01 6.514582533400772868e-02 -1.447009511294751749e-01 5.785515131312034542e-01 8.027077808242675250e-01
-7.227243096563426561e-02 4.650198487485001086e-01 2.280595975714816426e-01 -1.530254154567173008e-01 5.771781908922514193e-01 8.021524532049046918e-01
-8.322832640282240568e-02 6.113813762904910520e-01 1.129049834268554819e-01 -1.860340437883549747e-01 4.977696892751967139e-01 8.471225832136848322e-01
-6.057803050972258851e-02 6.292583532227923326e-01 2.957382588052587247e-03 -2.098579353745526899e-01 5.137415107449425644e-01 8.318829888258529870e-01
-1.271817323953977896e-01 5.667123613201234811e-01 1.359336342996551594e-01 -1.831508496780113182e-01 4.981794532271547338e-01 8.475098811486009298e-01
-2.172455202194070734e-03 5.617598099664455891e-01 2.079010274248559997e-01 -1.572468019065990374e-01 4.665234694142239014e-01 8.704190345895834735e-01
3.797031665743865608e-03 5.601010010368883130e-01 1.266378712175459942e-01 -1.274113952746838418e-01 4.895885878357176813e-01 8.625945461311391727e-01
2.132067122847631363e-02 5.184669421081778973e-01 1.609233748813983789e-01 -1.340851411138627436e-01 4.397287207263069764e-01 8.880652155674609860e-01
7.539543049994547330e-02 5.438316796319578872e-01 2.051285690566093667e-01 -1.340851411138627436e-01 4.397287207263069764e-01 8.880652155674609860e-01
4.171970284944417906e-02 6.777304392797848243e-01 -7.131464651356186901e-02 -1.186180388804078945e-01 4.474815733598535017e-01 8.863915626604058629e-01
-1.045655611020679943e-01 4.158035476450611112e-01 7.514316042960156317e-02 -1.186180388804078945e-01 4.474815733598535017e-01 8.863915626604058629e-01
5.166470395672134730e-02 5.201041632947133175e-01 1.063268108887200636e-01 -9.558693763950773525e-02 5.589966099264844779e-01 8.236418684376107802e-01
1.451093616805660957e-01 5.275663144272569882e-01 5.842773537354004065e-03 -1.023608845788858968e-01 4.996584067095881654e-01 8.601533153529457021e-01
-2.187108891133092703e-01 6.017675868185652366e-01 2.241243522039604585e-01 -1.341579081439114862e-01 4.801021728743181671e-01 8.668930495071511810e-01
5.510099255447805516e-02 6.208973840486045059e-01 2.010309542015526474e-01 -1.529315662060091729e-01 5.147802923569858580e-01 8.435716843627655281e-01
1.203183103360876693e-01 5.229591845223302560e-01 2.055355853815876155e-01 -1.035965361540163165e-01 4.227633967040612117e-01 9.002993213949092022e-01
1.261089486340828680e-01 6.163483723562366290e-01 1.382958906781596442e-01 -1.035965361540163165e-01 4.227633967040612117e-01 9.002993213949092022e-01
8.174688898179051366e-02 6.777377992276111263e-01 1.588389454223215203e-01 -1.035965361540163165e-01 4.227633967040612117e-01 9.002993213949092022e-01
1.596035212667563929e-01 4.919111391443816150e-01 -1.083504977338533570e-01 -1.004673683238970910e-01 4.173053434645361270e-01 9.031957474534609842e-01
1.571162559775133305e-01 5.147606455266688918e-01 6.566462882159757042e-03 -1.004673683238970910e-01 4.173053434645361270e-01 9.031957474534609842e-01
9.694318422051446948e-02 4.927942270683325909e-01 2.449184886704281472e-01 -8.696345042267487890e-02 4.710238693843915581e-01 8.778233721886986585e-01
1.974337269337224088e-01 6.601706922796719557e-01 4.672652104492471675e-02 -7.304573730053201541e-02 4.374208335965190653e-01 8.962852975464610239e-01
-1.096705379877921382e-02 6.197231298578629310e-01 1.888867317997773576e-02 -1.062169523137843352e-01 4.222283785971479020e-01 9.002450529430278126e-01
1.011635740779687487e-01 6.433348281212020181e-01 3.747808562558366252e-03 -1.129008792832247310e-01 4.593398750116613471e-01 8.810563379724057897e-01
4.450446215844103964e-02 6.132816178642812588e-01 1.497586551648415198e-01 -1.129008792832247310e-01 4.593398750116613471e-01 8.810563379724057897e-01
2.719707033823515197e-01 5.028376604929648552e-01 2.574837603401816666e-02 -7.858741745709067750e-02 3.825402690824793450e-01 9.205905497818935856e-01
2.239271476382554971e-01 4.957450460984625384e-01 1.351890829334362332e-01 -7.858741745709067750e-02 3.825402690824793450e-01 9.205905497818935856e-01
3.285208614007266714e-01 7.231129086945302653e-01 1.462411639464579749e-01 -7.858741745709067750e-02 3.825402690824793450e-01 9.205905497818935856e-01
1.572381667983310805e-01 6.430328114834116260e-01 3.853354944795405607e-02 -7.858741745709067750e-02 3.825402690824793450e-01 9.205905497818935856e-01
2.882098516343670758e-01 6.152066681535037773e-01 -3.618430628390545412e-02 -7.858741745709067750e-02 3.825402690824793450e-01 9.205905497818935856e-01
1.687824636872955197e-01 5.561381806770804292e-01 1.779749469412110208e-01 -7.858741745709067750e-02 3.825402690824793450e-01 9.205905497818935856e-01
6.588631020894686330e-02 5.902204002401113536e-01 1.510646648364075695e-01 -7.702551734751168777e-02 4.007867997137640192e-01 9.129277139251208428e-01
-2.430516442934793631e-03 5.515247049601532670e-01 1.960493565353773338e-01 -7.702551734751168777e-02 4.007867997137640192e-01 9.129277139251208428e-01
