-3.429803482867815334e-01 6.660211031626923628e-01 3.860638568640181734e-02 3.931906666385083238e-01 -9.049703269248262627e-01 1.625724670844927444e-01
-5.256241193722515082e-01 -3.916217479902243948e-02 3.680455018212409890e-02 9.861522890567347988e-01 -6.090418925708216552e-02 -1.542541491146984245e-01
-2.397135820575765214e-02 -4.836300983470959158e-01 2.433889006452006065e-01 -1.316573044977306373e-01 -8.594978070501062273e-02 9.875621445606105331e-01
-4.527695126030296668e-01 -3.744858713869341216e-01 -4.629862568397656586e-02 1.612567411475010482e-01 -1.847804436088301694e-02 9.867394921209372560e-01
7.566028634448314083e-01 -3.270031138714583063e-01 1.540320758088006003e-01 -6.029137726545592546e-01 1.367912341017711586e-01 7.859918199423967522e-01
-1.261833721089916927e-01 -1.863531624962878885e-01 -9.370478229163796413e-02 1.789627133519865465e-01 2.853333134128827608e-01 -9.415716900409231149e-01
1.120084027710252679e-02 -4.615491259272403446e-01 2.356052488815540968e-01 -5.537788886648553621e-02 -1.792851373269028770e-01 9.822373078632091747e-01
-2.272159343527788145e-02 7.801128212193580991e-01 -8.992221553979520832e-02 1.095866120065095428e-01 -7.400910996358391059e-02 9.912181526340874127e-01
-5.083061587989744501e-01 3.880121267337448554e-01 -1.179050160084296472e-01 6.698575704310812950e-01 -1.123354388714801616e-01 -7.339424940073444592e-01
4.386263661150804904e-02 -4.899821442566417717e-01 2.021071246892641726e-02 -4.798067866845843847e-03 -2.637350945332858632e-01 9.645832148945284734e-01
5.647390328308861118e-01 -1.353157936709434850e-01 1.287452279945988654e-01 8.235206935293445385e-01 8.692407881321267960e-02 -5.605870778491257589e-01
-4.150364492878622080e-01 6.407949217051558399e-01 2.641589567531415494e-01 4.526460770993996907e-01 -8.804839888438089623e-01 1.409236469731731944e-01
2.291203522538982629e-01 -3.784391296184544395e-01 1.265144550363404008e-01 1.537145779358456248e-02 -2.627580088349951160e-01 9.647393156072621156e-01
8.746823327602806786e-02 -4.051055199155958464e-01 2.386827758066774330e-01 4.032918152595282302e-01 2.166915521809950063e-01 8.890447024520565789e-01
-4.286063913439267514e-01 5.798328531092624694e-01 1.890709348184391458e-01 3.525337658763446624e-01 -7.758828901339950290e-01 5.231880013096263937e-01
-5.579461496212599902e-01 1.366623677667272441e-01 1.558501095993923558e-01 9.830693177164330221e-01 -8.431660385049402628e-02 -1.626819808081571006e-01
-5.534513447849178647e-01 -7.627875655751835682e-01 -6.052961330400048051e-02 -4.637678489276426119e-01 -5.826718947162781159e-01 -6.673925721857936200e-01
8.460904495708074791e-01 -2.647610472733207265e-01 1.604119518801264410e-01 -3.283603478613101312e-01 -7.506468259592727343e-02 9.415650669917464688e-01
-5.135661182752506715e-01 6.438946619897041312e-01 1.088915930550754807e-01 5.155473483625863107e-01 -8.439378603692750946e-01 1.482559254520244840e-01
2.288852435706833222e-01 -3.926340556485342081e-01 2.166311680610731871e-01 1.303314157755965652e-01 7.996445627935495903e-02 9.882405617024002664e-01
-2.934571766450419505e-01 -2.122948108021296687e-01 1.671549998541377868e-01 2.111588102094752173e-01 8.974460690731232981e-01 -3.873015749724203483e-01
-5.853875206866805403e-01 -6.162929168256504608e-01 -5.618314923323092236e-01 -4.772890715238852777e-01 -6.531667261607588815e-01 5.878506358253802189e-01
-4.177874713869939027e-01 7.848932119563016840e-01 2.407403908198550990e-01 4.981507373921950088e-01 -8.454010137395041591e-01 1.927251120218408942e-01
6.597056176426100427e-01 -4.158180207938455553e-01 9.758273130940536833e-02 -3.235971824773374306e-01 -1.872713452356048608e-02 9.460095971634037149e-01
2.793515929508015583e-03 6.189694780481458380e-01 1.449781478762377784e-01 7.998061972922274054e-02 4.752451384382277433e-01 -8.762106817761122768e-01
-3.686505070764127812e-01 -7.393446054197767570e-01 -4.971929014932347513e-01 -4.229562577578965255e-01 -8.113770641057818089e-01 4.034541657568030404e-01
-5.942165868866274847e-01 8.396461057757281798e-02 -8.336557682744230591e-03 9.745245235201810408e-01 -1.865156157436595186e-01 -1.245547194670992286e-01
-1.933719774079211140e-01 -1.807178350783822662e-01 3.531413421931452190e-03 9.253665846278976703e-01 2.567469445865341870e-01 -2.788865190352144419e-01
2.384649996728824273e-02 -4.778947041152991626e-01 8.502350755276515126e-02 -2.276444488246049669e-01 -7.541247447698064266e-02 9.708197379599369237e-01
-2.646908227611880493e-01 -3.206623409150152204e-01 1.472042596337514997e-01 1.511678737305632327e-02 -2.455486729436790472e-01 9.692663885408984159e-01
8.222515350109403931e-01 -3.688268802546901814e-01 1.839288431919692823e-01 1.210271613136458882e-02 -2.140947286783524417e-01 9.767379236081632499e-01
-5.345524557805165777e-01 6.857943497821195056e-01 -6.334944615951715319e-03 4.438855233860483085e-01 -7.900107382671656131e-01 4.229050431844744162e-01
5.606070194962641251e-01 -4.571564069428871169e-01 6.900553160852522516e-02 -3.049391393350224244e-01 -4.479852798248012968e-02 9.513176195110751854e-01
2.493828779525001649e-01 -4.296408223376051438e-01 3.100471895421820778e-01 -2.364727770402734186e-01 8.293851650140018905e-02 9.680918490512190333e-01
-6.465396625700340349e-01 8.324270004293081726e-01 3.157871736516684735e-01 6.001577137476152846e-01 -7.772693160872261586e-01 1.888468397896325146e-01
-1.432903798044433130e-01 -2.059604681111479041e-01 2.231545908479719634e-02 7.359382814171980813e-01 4.492283067500567051e-01 -5.065459252221639064e-01
-5.401911456146459845e-01 5.824414237880494172e-01 2.382142011860880204e-01 5.943225440916158897e-01 -7.908865004666134624e-01 1.458741134133897388e-01
-4.785947773531883387e-01 -3.271949148618508163e-01 1.774749508690940114e-01 -3.166371044576333782e-01 -3.939153956198183093e-01 8.628856269369468146e-01
6.765951430361623053e-01 -4.770002751968172583e-01 1.495389795159348112e-01 -4.359958904340309194e-01 3.539874384689867259e-02 8.992521962490268583e-01
2.652044404187599014e-01 -3.411563119094322971e-01 2.189061185058400472e-01 -3.118448957516132061e-02 -2.018492524312410774e-01 9.789200206875359189e-01
-4.337540520860155846e-01 5.955146418443245659e-01 2.400211888737667221e-01 6.264780809432318742e-01 -7.595119699921085710e-01 1.751193351300533441e-01
-1.069212264281551444e-01 -4.419793446000110926e-01 1.553247860531636049e-01 -2.296922492728223006e-02 -2.402606586046875936e-01 9.704366185553190416e-01
8.562598584631584409e-01 -3.463364066736840940e-01 8.607676874866015959e-02 -6.385131164288117001e-01 9.644712130002928985e-02 7.635436810957864084e-01
6.668166870807656910e-01 -3.242143179367853456e-01 -5.602893413885382673e-02 -2.933961171304411697e-01 -4.978467906549405991e-02 9.546937750834694203e-01
-5.533133410539667896e-01 6.307535283789579283e-01 1.858077966051108754e-01 6.030241526426355358e-01 -7.178273063130723441e-01 3.479738921829482745e-01
6.392707779039062954e-01 -3.280521328475292098e-01 1.311800933359943792e-02 -3.159954723633381368e-01 -4.630453580923034329e-02 9.476300709714539083e-01
-4.356658134769274549e-01 3.363392502681013529e-01 -2.059480666830496021e-02 2.916930780480873620e-01 1.800672102575612971e-02 -9.563424628326053778e-01
-5.609958715106719840e-01 1.722012879575690880e-01 2.160415107696916082e-01 9.706854966484741443e-01 -2.338174323981981884e-01 -5.566933539228718919e-02
-5.523115230686089783e-01 5.707945788394118702e-01 1.675309079498773224e-01 6.197562068926748546e-01 -7.142586691176823210e-01 3.251719508325420782e-01
-2.554945866000930543e-01 -4.041043694842068046e-01 1.644332206143830355e-01 4.013160617067308700e-02 2.195303460321176847e-01 -9.747799143176785197e-01
2.247793458838529546e-01 4.186654267800260509e-01 3.214020551304272999e-01 2.107361988081405679e-01 5.123874366183263085e-01 -8.324958674417526350e-01
-2.719823460847461405e-01 -2.364463122456203215e-01 1.840907180156484968e-01 6.135825965722266351e-02 2.338506983578853837e-01 -9.703344860662049820e-01
-6.495403082023658570e-01 6.009593224840792391e-01 3.291034701012268693e-01 6.479746421387738708e-01 -7.024246593553112872e-01 2.944969627597253115e-01
7.202196769263182752e-01 -4.236787440065550858e-01 -4.639111596001560534e-02 -4.231993414494953920e-01 3.382507093605487819e-02 9.054049822995696717e-01
-6.849557833209264368e-01 5.405854259881202051e-01 2.148391673791889001e-01 6.249109545237548913e-01 -6.729497438394558273e-01 3.957586905964546320e-01
1.950070818366018144e-01 6.027946476520770203e-01 1.065411661500354490e-01 2.938555534841336137e-01 7.159305657603706186e-01 6.333185128326574986e-01
-7.413330483798811210e-01 5.338013394746912166e-01 2.489114308849323387e-01 6.995683136790035173e-01 -6.968822336885176494e-01 1.579852109079128153e-01
-4.183286568367484137e-01 -8.484318004999621410e-01 -7.365117866645624900e-02 -3.329475968546141140e-01 -7.022596910206639897e-01 -6.292672120143386616e-01
-1.527621137767351187e-02 -3.232356402968709630e-01 1.427841460033427157e-02 -3.131198355025043290e-01 1.677902286332715875e-01 9.347739875446250402e-01
-1.555515187741154381e-01 -4.256857923348263961e-01 1.432828255551786001e-01 -5.551743658244096685e-02 -2.049966290087279208e-01 9.771868789184454673e-01
-2.668280455693377018e-01 -4.494252138085916837e-01 2.332496515314353147e-01 4.249390797015665383e-02 -2.685824869895821476e-01 9.623189260676082712e-01
5.286491565374482615e-01 -2.944846306720911855e-01 -2.970307404759646164e-01 -1.869266946265953355e-01 3.542144816764155602e-01 -9.162917176351010884e-01
-4.109750744611891382e-01 -4.111556397816592545e-01 8.781540024276471290e-02 -2.466755416574923365e-01 -3.326631536407024248e-01 9.102122847763620683e-01
-7.298152687592647236e-01 5.396532515542804553e-01 1.447084167855739456e-01 7.213719058939148665e-01 -6.488317043241842441e-01 2.421569591210526728e-01
-1.791566084933422509e-01 6.871287358613231699e-01 1.508750904198313258e-01 2.691328946515435597e-02 2.085112679280634873e-01 -9.776495926441109985e-01
1.024994414737814552e-01 -3.747107677136550241e-01 4.373227466153949139e-04 -8.798011912666137135e-02 1.306063915924172147e-01 -9.875228954883358279e-01
-3.865777079588774146e-01 -3.044378878644327102e-01 1.298926930709504712e-01 -4.398436091018016469e-01 -5.682632414438812951e-01 6.954239627421495706e-01
-6.063475279366423720e-01 4.120365997198465746e-01 2.250950745949489296e-01 7.609793231638644073e-01 -6.253422774927772654e-01 1.727932455196480588e-01
-1.008658385242991729e-01 -3.287460692079763325e-01 2.352417430606566773e-01 3.789816465400767248e-02 2.310223298255980884e-01 -9.722100659002715917e-01
3.225918398240804064e-02 -4.629343531086895225e-01 2.839436440638160378e-02 4.295904127175174947e-02 2.191882764164409525e-01 -9.747363850060188906e-01
-2.929020529175414000e-01 -2.707156336590506585e-01 1.081077726963286245e-01 -3.075947260915545128e-02 -1.945796063228784067e-01 9.804043204964164593e-01
3.263288771364104557e-01 4.226147167705562313e-01 2.450390120286735085e-01 5.796956331334525148e-01 8.148214569614107283e-01 4.355020239870943666e-03
-5.720922279971487612e-01 5.113961197130436620e-01 2.891253459206464815e-01 7.490567868116461137e-01 -6.160618929176547853e-01 2.436835534584313734e-01
5.672554244645046095e-01 -5.935912714360088716e-01 -5.620166690202610393e-01 -2.568181043473626718e-02 3.046038565247926044e-01 -9.521328348518486306e-01
9.235297169985227095e-01 -1.814703097736357074e-01 3.486266414924978074e-02 -2.780918197937818914e-01 -1.032239678896833684e-01 9.549920168341159421e-01
7.492046051232548187e-01 -1.975722199459786776e-01 1.421683892653341497e-01 -4.945669111112783733e-01 8.348713251405580349e-02 8.651204939997835242e-01
2.790702576137163993e-01 -2.300833928439842968e-01 2.002645170662350205e-01 -4.835961553632305704e-02 -2.640929300593358175e-01 9.632841075600976355e-01
-6.622537608982319579e-01 4.599137355273149597e-01 3.104040104300197500e-01 7.804652642243833371e-01 -6.007449009920898808e-01 1.731459940950626497e-01
1.839903627081714288e-01 -3.058140013011678704e-01 3.770013047688437480e-01 -3.697421605882977858e-02 -1.860621353620367513e-01 9.818420387879885913e-01
5.976762047495252916e-02 -3.274676670062807160e-01 3.130102395791335979e-01 -2.034576851774945183e-01 6.423419178148149777e-01 7.389193670220053356e-01
-7.626687807368399685e-01 4.941505290797603700e-01 9.678222819745251060e-02 8.052160884602352908e-01 -5.695565928780327303e-01 1.650222360591601378e-01
8.324765989624416385e-02 -5.259719290152443660e-01 -1.849586188864410508e-05 2.911805498870332909e-01 -4.668843280092613846e-01 -8.350047374876535811e-01
-5.761604391278143389e-01 -5.224037789356290595e-01 1.524499955755295733e-01 -2.260044706573373363e-01 -3.184977653681713705e-01 9.205873954700758421e-01
-8.970289148695081982e-01 -1.442228366882022661e-01 9.209275587107165761e-02 -9.529362813163312351e-01 -9.605865578424881146e-02 -2.875503058595577088e-01
2.536562451114038330e-01 -3.322251478353091536e-01 1.253249564937896077e-01 -2.616140448756869991e-02 -3.025235368724183416e-01 9.527828139473552005e-01
-5.506350424955943623e-01 6.621091000060495002e-01 -2.800567800947418862e-01 2.703089321615088081e-01 -7.683065340453118508e-02 -9.597031477968266389e-01
-7.235177021863478108e-01 3.126288508378754494e-01 1.265692938997242112e-01 8.474741295535703767e-01 -5.024648874920502051e-01 1.712210167444977449e-01
4.138396865784400580e-01 3.492720852576442492e-01 2.797109119209955641e-01 7.137331107725006785e-01 6.581047643672606196e-01 2.397564716626469639e-01
-1.011462825464385235e-01 -3.313467586768503170e-01 2.398097624066129752e-01 -5.640464668527811476e-02 -2.115267481267229521e-01 9.757432811243144100e-01
-1.937830206180524151e-01 -3.258974121444679906e-01 1.504479061071883339e-01 -4.912155430499286907e-02 -1.950671031904221420e-01 9.795590325016448885e-01
-4.483775669477439441e-01 -2.644210917373416847e-01 8.505210627336413920e-02 -6.084640997372235960e-01 -5.101937083806464823e-01 6.078435812441996822e-01
-1.116150320612203373e-01 -7.668238291444332555e-01 -3.954834127281858236e-01 -2.202065904782344319e-01 -8.401498809327783146e-01 4.956382098654113499e-01
2.255936062759045790e-01 -3.971403407229660565e-01 7.600848864902645663e-02 -4.809090159834802231e-02 -2.050019633488570914e-01 9.775793881862342438e-01
-2.731345068511946694e-01 -1.267597122887642591e-02 5.397951013960645278e-02 9.566811393084364568e-01 -9.452202090189808573e-03 -2.909842840552702148e-01
6.051526671174330824e-02 -4.017372953296792781e-01 2.191286824881699680e-01 1.065328446614457886e-01 -6.036180118154234331e-02 9.924752923707773622e-01
-4.854802941002061070e-03 -4.473859175138204525e-01 2.069485405707228998e-01 -2.188372062759442738e-01 1.182412845471745438e-01 9.685707386546291708e-01
1.932534532086914447e-01 -5.511870629415358547e-01 -1.061489001343245281e-01 3.962682963415249393e-01 -2.301663159406586445e-01 -8.888165751834796735e-01
9.082127921203755894e-02 -4.468941086705147669e-01 -4.516368861225750209e-02 4.553963071674779206e-01 -6.326598967430948628e-01 -6.263829966332422616e-01
5.158935555288046704e-02 -4.200812385467899701e-01 -7.299323342468072573e-02 3.180458043809094582e-01 -5.292178879104254552e-01 -7.866227135236616430e-01
-3.226738167688893988e-01 -2.864046391098762356e-01 2.807685060650365050e-01 -6.014548340031889567e-02 -1.819037333169238324e-01 9.814751920613721259e-01
-7.983235425229830984e-01 -5.737794687744336430e-01 -3.922278781562705818e-01 -4.334464556131429336e-01 -5.665772384577437704e-01 7.007955500557925266e-01
-4.980924829141614163e-01 -3.800458094366570005e-01 -8.040990301429219722e-02 -2.361388203220360360e-01 -3.315320015450434754e-01 9.134139201306570310e-01
-3.384753320573158364e-02 3.186477261828091212e-01 3.013566798370358457e-01 3.243704867735098807e-01 -8.594182357254908089e-01 3.952013201050836866e-01
-9.389766764508951369e-02 1.592209083094172639e-01 2.044175294383078212e-01 5.224554002291597055e-01 -1.653952960658883753e-01 -8.364716078927398879e-01
6.325991157581908331e-01 -8.245614491690077263e-02 -2.125707446834467496e-01 -2.324611596029377836e-01 2.590713197099769882e-01 -9.374667250520352102e-01
7.050727247780625984e-01 -3.256607042612625347e-01 2.462462799318906534e-02 -4.109728451348965694e-01 -2.428476402732568026e-02 9.113240756162790390e-01
6.788702958169485768e-01 -2.715742728069563960e-01 -1.232657194322303584e-02 -2.984434766389770233e-01 -5.707017289525827264e-02 9.527195214843378057e-01
3.348641022432066183e-01 -2.117970229085749945e-01 1.292718960499246728e-01 -1.578769627311878421e-01 -3.831280149149152714e-01 9.101031748247730979e-01
2.512342652573706925e-01 -3.748476894654069747e-01 2.056774150176131910e-01 -1.841151371782835319e-02 -1.683704645952264489e-01 9.855518265492716479e-01
4.125032045842820239e-01 3.865215222764653569e-01 6.453566241530581116e-02 8.716110906760441424e-01 4.494060412569590990e-01 1.957761903099183576e-01
-2.274188451347606277e-01 1.460237742434686015e-01 9.038871042074020368e-02 9.277138185523640113e-01 1.933935930698306993e-01 -3.192898197978322750e-01
-1.743609008118002790e-01 -3.904077315856053776e-01 2.905279379999319844e-01 2.472317796507395582e-01 -1.935055701591173738e-01 9.494377501701325439e-01
-2.836603920609783169e-01 -2.427231570418539319e-01 2.923915215743959073e-01 -5.937278511672664655e-02 -1.929194600419977257e-01 9.794166398038105514e-01
5.989351848201324158e-01 2.307035524226110079e-01 1.370993571584950832e-01 8.839878296527233781e-01 4.526997515009726358e-01 1.167409611782655315e-01
1.943724413547196217e-01 -4.995320096598799831e-01 -1.164601629640845820e-01 2.661068409730614759e-01 1.210069416867963488e-01 -9.563181841055549137e-01
1.121002192812310672e-01 -5.289551882744299993e-01 4.823332829233256680e-02 5.409111410805501619e-01 -5.305375525594504538e-01 -6.526446527622558058e-01
7.347688650105269059e-02 -6.589948362305387830e-01 -4.142588559313405416e-01 5.026888797683953802e-02 4.730475960752936748e-01 -8.796016204788151827e-01
-1.576968066247528832e-01 -4.224227462021189483e-01 -2.441881965535036836e-01 1.627074275693221050e-01 4.802113939022924494e-01 -8.619299914611343594e-01
1.424415607081655766e-01 -3.420850180496809445e-01 9.021394446049914306e-02 8.882588475711513439e-04 5.138833208169142353e-01 -8.578596292998057482e-01
6.155731148368775302e-02 -3.994737996555380866e-01 -4.205865995394250656e-02 1.026310429699077258e-02 2.228940917211773010e-01 -9.747886399450808037e-01
-3.972251115945903410e-01 -2.395959930793046810e-01 1.643130918292990961e-01 -4.881281187951089229e-01 -3.038745384036535269e-01 8.181633116630899760e-01
2.057428262789577633e-01 -5.508316640436116129e-01 1.012244140373937118e-03 3.098336515224903165e-01 -3.625102532772011554e-01 -8.789706619979642532e-01
6.549200378259507627e-01 -6.396782850535331910e-01 -4.449316198135284672e-01 -5.464336740375523582e-02 2.884185690955449743e-01 -9.559439478335832741e-01
-3.216046450458884820e-01 1.805027242160091028e-01 1.180261087517836122e-01 6.882577497154307444e-01 6.881741367785363384e-01 -2.296031955913679923e-01
-2.622508148384855575e-03 -3.214504684753191066e-01 9.603030702205922475e-02 -2.057888703709306183e-02 2.766285619914943816e-01 -9.607565498599698328e-01
-3.751780426580969552e-01 -8.255968165364226952e-01 -5.393833014613850230e-01 -2.715181849158118110e-01 -7.428621281463152481e-01 6.119099066251098007e-01
5.573261879988122836e-01 2.456793507326953674e-01 3.626355108982984299e-02 9.441022905383085195e-01 3.225158266414186459e-01 6.822321134424522149e-02
-4.404958967139778747e-01 -1.510625628247601882e-01 2.057934677608546092e-01 -2.170844739754524688e-01 -2.959855441724907887e-01 9.301972311288159156e-01
-5.482734075083378622e-01 -2.982221469919121848e-01 5.365229766364484898e-03 -4.484149269873374255e-01 -3.932796726648721819e-01 8.026550643480372393e-01
3.354994471811959533e-01 -3.317432075089239985e-01 3.280285280307271290e-01 -1.196315191800395722e-01 -2.261976480863963634e-01 9.667072584908311672e-01
1.414154938340841383e-01 -3.907551252495168326e-01 1.329176041012748444e-01 -4.352145009227884748e-02 -1.345756003242823406e-01 9.899471153446655070e-01
1.822195599380034559e-02 -3.865074635687945070e-01 3.357360770671900807e-02 5.417280436297618879e-02 2.012314346412703014e-01 -9.780445884414815660e-01
-2.171193016662099351e-01 -2.664505458540590843e-01 1.750546469217304502e-01 1.852391135197343774e-01 -1.892923280966291866e-01 9.642898347209624133e-01
8.775498593971426953e-01 -2.938920010257321525e-01 1.795484220793641117e-01 -1.398053540800566208e-01 -1.627687103608859709e-01 9.767091736530398860e-01
8.743990125952723069e-01 -1.711426907233699612e-01 1.471605468652717463e-01 -6.213393256423106470e-01 3.559405769621443866e-02 7.827327164920842018e-01
8.749373899081931416e-01 -2.681419491197193361e-01 8.078163584530631547e-03 -3.151493950995121196e-01 -7.676370629948810198e-02 9.459324458773878952e-01
-4.060643582034654808e-01 -2.866897658804560267e-01 1.384075945032491317e-01 -3.432415472327930012e-02 -1.904267790916160663e-01 9.811011641045612741e-01
-3.682494594254435150e-01 1.862807316916971490e-02 1.370043582042524688e-01 5.015053481048372674e-01 7.609999390882784542e-01 4.115476625251106024e-01
-8.414957582773544553e-01 1.003735823224306406e-01 8.945007606071772588e-02 9.642624627741364085e-01 -1.482955653952579556e-01 2.195593955376490825e-01
7.953555539029104615e-01 -2.315801197310713155e-01 6.729953867453823679e-02 -5.848169081281702208e-01 5.512124447070768790e-02 8.092903263819527515e-01
1.870750079937788524e-01 -3.941748816825155766e-01 -7.141348471692917851e-03 4.173838877200094499e-01 2.815216536450658724e-01 -8.640232918160701825e-01
5.320960247324295622e-01 2.994491993449883288e-02 2.355083609476772977e-01 9.804705224555917420e-01 1.617535480618485233e-01 1.118630604134449175e-01
2.306166288890853233e-01 -2.034176798415581189e-01 3.361005157192002435e-01 -5.680953916061151077e-01 -5.494451808534480675e-01 6.126806829603953508e-01
1.791548191194469730e-01 -1.816850570487108796e-01 2.680544725635459202e-01 2.457866334841384698e-02 -1.296032171402382305e-01 9.912612649624243932e-01
3.505000339395791809e-01 -3.822620619789079965e-01 2.419118298986809024e-01 6.781795399854730240e-03 -1.490507609048057069e-01 9.888062893837462619e-01
-9.422129752404552194e-01 7.420899719438708853e-02 6.588484657319956805e-02 9.711351815382646135e-01 -7.181485022899501691e-02 2.274622748176693410e-01
-3.048774574756584199e-01 -2.173898160511406052e-01 2.926257123710128694e-01 -5.687557741155706975e-02 -1.917478388618014395e-01 9.797948433146250746e-01
-4.466520104662663471e-01 -2.422487245677254208e-01 1.949013956258834890e-01 -2.815002520379626394e-01 -1.181995406564696621e-01 9.522533679074928203e-01
-5.969506433977087578e-01 -2.382623392145247487e-01 1.017821600035444252e-02 -2.094559622847143587e-01 -3.273321371602785357e-01 9.214021227702207106e-01
-8.843972182496018242e-01 -1.103220035982104691e-02 2.042534270860180412e-01 8.463366807103490652e-01 -1.292417892968769355e-01 5.167308610713418071e-01
3.488862585829570762e-01 -2.768565591221791022e-01 2.904663531908902585e-01 -5.930881500454691230e-02 -2.091157545718130006e-01 9.760907056481060717e-01
-2.522300133996335791e-01 -5.111648051450717878e-01 -2.589411011102996096e-01 2.441432080251848546e-01 5.538783457606754057e-01 -7.959980352190506592e-01
-3.027607385613637625e-01 -1.859436295911921500e-01 1.350391309744291002e-01 1.776414979612392642e-01 -1.350136412161248578e-01 9.747896259643156203e-01
-8.511110974538979024e-01 1.357819839736305600e-01 -2.352593448030224077e-02 9.367536666041125226e-01 -6.966762606062422425e-02 3.429854078278378182e-01
-4.807180011973554157e-01 -2.940083995973147291e-01 7.792598038375878056e-02 -4.748676105105350542e-01 -3.653703072867920953e-01 8.006280603633435522e-01
-7.835134533891554565e-01 -3.221984557744769218e-01 5.203160538562057180e-02 3.034812245594539770e-01 -6.785552348531274924e-02 9.504182101961370366e-01
9.166476675460711876e-01 -3.502809260365005173e-01 2.843790900653431208e-01 -1.298057783651853092e-01 -1.572909286832979980e-01 9.789841794722496937e-01
4.250336106856448248e-01 -3.764195627873960781e-01 2.217011316337527127e-01 2.688804022036502331e-02 -2.565224022677726756e-01 9.661642150420801656e-01
1.724640302921023882e-01 -2.919315758695760765e-01 2.089880458120279838e-01 -6.836829274521374900e-02 -1.649060578253582210e-01 9.839368722837884551e-01
-9.688566075842254266e-01 1.431714973702708504e-01 5.738793481369833943e-02 9.676348202071858307e-01 -4.422017508387228457e-02 2.484500570298964206e-01
2.645705199994774146e-02 -6.966936995492166718e-01 -3.739569546869839223e-01 4.575709478256901469e-02 4.747526559932908619e-01 -8.789290095931382440e-01
-2.042670282796853476e-01 -6.246687485677671070e-01 -2.151822179596108997e-01 1.217182848330114475e-01 4.751851800901267797e-01 -8.714262468849693910e-01
8.071197277504158496e-01 -2.131060459906030657e-01 1.017217298282578064e-01 -3.992463569153518743e-01 -4.674233053695108636e-02 9.156514080291657809e-01
4.805663227696461148e-01 -1.970879435949163261e-01 4.168805388422123226e-01 -3.011917496879279454e-02 -1.791133583450960909e-01 9.833672966707509566e-01
1.303253331137339266e-01 -2.967440550697795776e-01 6.322266630769916851e-02 6.720606783454431410e-01 7.259656853799351106e-01 -1.459735190803586324e-01
3.582474144968580965e-01 -2.860488341173552662e-01 2.577718192653478124e-01 -4.841744508803662306e-02 -2.024870790106489404e-01 9.780872833468812200e-01
2.087518455776848358e-01 -3.396512933141545010e-01 6.516643264925411905e-02 1.795081656409715787e-01 1.520346359922210289e-01 -9.719373888923741323e-01
-1.212281620366619656e-01 -2.267082280880247103e-01 2.423393599031957168e-01 -6.259623141421777337e-02 -1.943126297643129052e-01 9.789404035623490152e-01
5.434466513018548772e-02 -2.875225315269535620e-01 -1.901239744890192984e-02 1.190581098342851502e-01 5.062373869225458844e-02 -9.915958872259937884e-01
4.108763602411268367e-01 -4.433637722039772411e-02 1.643264131069286926e-01 5.576787410983161664e-01 -1.166380757625654768e-01 8.218211368718884025e-01
-5.235080475829476110e-02 -3.403003383893448697e-01 3.529347655776887693e-02 7.871106298386849887e-02 3.723735691564903361e-01 -9.247391489266614251e-01
1.967973469954547028e-01 -3.713392228833182207e-01 -4.330274055178828796e-02 4.029016409264487009e-01 8.821491347135950178e-01 -2.438917215955277162e-01
-8.115839494470407089e-01 -4.668350147141528406e-02 -4.391745047917024192e-02 4.589056368633720462e-01 -1.679304183030549680e-01 8.724706247568361217e-01
-3.697953487031512276e-01 -1.867300614238507628e-01 2.479153327116035421e-01 -6.558661396270895616e-02 -1.735146320706049683e-01 9.826449351247423802e-01
-4.583569443455356995e-01 -2.966999315702495976e-01 1.064423937638613316e-01 -4.065253264727763383e-01 -2.612509920116354301e-01 8.754913352564598350e-01
-5.963070606355691528e-01 -3.664178841689125776e-01 1.664574669205172164e-01 -4.954912356513255789e-01 -3.804347633677157003e-01 7.808699163203003391e-01
-6.118105209044535364e-01 -3.296979250752546942e-01 -7.940076668734821763e-03 1.613743344272544067e-01 -1.122466180973976935e-01 9.804891742971247881e-01
2.523107783868851484e-01 -1.993727259467846791e-01 3.279444721727185486e-01 -4.142000003805917374e-01 -2.614046414616083003e-01 8.718405663348349766e-01
2.334961241967953849e-01 -2.545210310623279848e-01 2.679575459493160894e-01 -4.126166455496148577e-01 -2.560619615248064251e-01 8.741737674372597189e-01
-4.447835244835162682e-01 -7.943393510259190160e-01 -4.881321855055475445e-01 -3.225538987480393027e-01 -6.257837923692275428e-01 7.101785885327908110e-01
-3.029078509880707704e-01 -3.331436065305992122e-01 1.544894204448140906e-01 1.074312276745264111e-01 -3.220025226378020466e-02 9.936909353891141272e-01
-2.399005807500086407e-01 -3.323032994532504891e-01 -1.590042635102516533e-01 5.737148700054230943e-01 5.963897198075414074e-01 -5.614005255096780056e-01
-6.058864211254276766e-01 -2.462280229361350214e-01 1.520297553744154595e-01 -2.296144626654530452e-01 -2.726588953464458842e-01 9.343095447030984602e-01
-3.534102578629627067e-01 -6.487201614554680695e-01 -3.656525344842183611e-01 -2.223977323681227691e-01 -6.373648356766308254e-01 7.377705028533048104e-01
1.054253620465882696e-01 -7.457782717393004468e-01 -3.406707934022127349e-01 -1.299728733656576457e-03 4.908397906529790578e-01 -8.712488798368458465e-01
9.569611905860857248e-02 -4.451764723780620714e-01 1.778134099735807425e-02 7.738890593981420096e-01 3.559110033485233804e-01 -5.238540650212676342e-01
3.107065754337555719e-01 -2.956590599502763594e-01 2.317446963524188441e-01 3.302347082737051159e-02 -1.763813648233508169e-01 9.837677899370186330e-01
6.905238545849141651e-01 1.157349639453396084e-01 8.351235651992475195e-02 7.462363186182630059e-01 -8.091489092797488070e-02 6.607451378566294720e-01
-5.625676587399591755e-01 -1.261662785265365572e-01 -3.556085715501336453e-01 5.250340336281302811e-01 3.914444014875506639e-01 -7.557185614210017999e-01
3.634013074478755212e-01 -1.470041093703936541e-01 2.284372076000869556e-01 -3.906194655832236767e-02 -2.113418036746479156e-01 9.766313564240202139e-01
1.441588871792205406e-01 -7.624061292526620459e-01 -3.581808087386647022e-01 -2.080193286431254729e-02 4.654475865511209509e-01 -8.848309577330832898e-01
1.146197501071168912e-01 -3.218579820357383992e-01 9.224761388324002886e-03 3.629974615651367364e-01 7.937199090180486749e-01 -4.880999374366356003e-01
-5.310462891059025692e-01 -2.186908537201836394e-02 -3.690110957127983315e-01 3.437746338899314025e-01 2.445794296864486073e-01 -9.066421034058010919e-01
-2.975950354900266381e-01 -2.179896042885659524e-01 2.785153427542227944e-01 -2.828285651446423021e-02 -9.304250851102047193e-02 9.952603536951317720e-01
-3.669460727883401829e-01 -8.828930513433773664e-01 -4.334134249042964626e-01 -2.116544485525390096e-01 -7.234777011886905917e-01 6.571015220577778315e-01
6.452388031601166141e-01 8.068977853133497968e-02 1.609251037812989560e-01 9.866472822808077803e-01 -5.499761839902565785e-02 1.533049325309883415e-01
8.742207338709274689e-01 -2.115897312244604811e-01 3.175642197517735132e-01 -1.158073286763638549e-01 -1.932012383907163178e-01 9.743007462324649870e-01
8.066323468998191082e-01 -2.412274370583123162e-01 1.169519839890233864e-02 -5.908788876893916742e-01 -1.473772607250932801e-02 8.066256501706098314e-01
4.243083384582320150e-01 -1.396882779186080226e-01 3.699375964325971600e-01 -3.936477177327896149e-03 -1.798220198131773029e-01 9.836912855859513138e-01
-2.949160743938233908e-01 -2.486800943850322465e-01 2.200641808565106106e-01 -4.142586159363350062e-01 3.139042914458163858e-01 8.543148687307343669e-01
4.411051589634046866e-01 -2.430739750628894413e-01 1.516886182682479767e-01 3.485770444146729652e-01 5.511256480700496008e-01 7.581256915225199622e-01
-6.791017878941376651e-01 -1.603563302385475065e-01 1.885933178350565620e-01 -4.999057160066893712e-01 -3.455839954823248239e-01 7.941448086906517378e-01
7.150560004434067807e-01 -1.610779569063251204e-01 -4.540074595989845863e-02 -3.291192001174938486e-01 -1.092950195396816399e-01 9.379419762532442695e-01
-2.112950021550312474e-01 4.986481625529733952e-01 1.111591135905933003e-02 4.241120578354176662e-01 -3.599487358642997625e-01 -8.310029301682996250e-01
-8.581526070976700504e-01 -1.807807124427144863e-01 1.082125603285389731e-01 2.839565064035047270e-01 -1.404906223873059468e-01 9.484888441580868745e-01
6.985299143608870720e-01 -7.551633414652682008e-01 5.226466205906506179e-03 5.510771860221497231e-01 -3.641934220811332001e-01 -7.507843141400483145e-01
4.433452494794812848e-01 -1.904177812724912877e-01 2.295136990178134329e-01 -5.950754353446077033e-02 -2.216248017713174367e-01 9.733145943128144184e-01
1.793562782903186936e-01 -1.384846534244518756e-01 1.644189580755673619e-01 -3.288058893261329718e-01 -2.379259021112672401e-01 9.139354201741993755e-01
-7.194836105585764585e-01 -1.872661281684449841e-01 1.554037797879643801e-01 9.493449004461984586e-01 1.492581489258387184e-01 2.765253423757576545e-01
-1.397593152739169675e-01 -8.675796315037851425e-01 -5.996835594314133822e-01 -1.438610807227687083e-01 -7.363541688119874529e-01 6.611251980725616484e-01
-1.575612257581615883e-01 1.577199751767098812e-01 1.803587218889592947e-01 3.874743523877762635e-02 2.177279974317547495e-01 -9.752400501398486021e-01
1.933227223660486660e-01 3.130124012797769195e-01 1.821372907983112022e-01 3.684871346276184095e-02 1.923936932814908074e-01 -9.806257385474067556e-01
8.665709016772118467e-01 -1.949756396215678311e-01 1.232066828629616168e-01 -7.592760473118858044e-01 1.498107782110564591e-02 6.505962275372927373e-01
8.326705941563450342e-01 -2.433784226820166763e-01 2.584525835686536932e-01 -3.034766652600671133e-01 -1.480756401560737734e-01 9.412627255102572477e-01
3.504910285229323463e-01 -2.361520990781766360e-01 3.586126836073237900e-01 -1.446709463717811561e-01 -1.389260852965744919e-01 9.796784472979193081e-01
-3.808111123588034386e-01 -7.055111168414857081e-02 1.840613569746722689e-01 -2.340688249070528304e-01 1.028941537554157043e-01 9.667598348760608751e-01
-7.739796479283547193e-01 -1.321610515379374740e-01 1.500487385071170854e-01 3.491460567051731800e-01 -1.209571730667373390e-01 9.292289240929445526e-01
8.197383594247151795e-01 -2.188515713236594273e-01 2.619910721500769840e-02 -3.878082719533628153e-01 -1.059583913706979574e-01 9.156295995120955489e-01
5.429437870616482531e-01 -2.681960252998715211e-01 2.475900222595486810e-01 1.624090022630142460e-01 5.617260279813998799e-04 9.867233657149310222e-01
3.421571511757565132e-02 2.639833161136697637e-01 1.363565599408000095e-01 1.318292034839194382e-01 -1.237960829995598117e-01 -9.835118661931646633e-01
-2.593541651412238913e-01 -4.010576476177765692e-02 4.094049782608933929e-01 -1.339494216054721090e-02 -1.366154688581685817e-01 9.905335881196448700e-01
-5.017578997966304355e-01 -3.135047696412877061e-01 2.177874667594500990e-01 -1.836971442983164129e-02 -1.888045024873156452e-01 9.818428659578291029e-01
-6.522568406360171878e-01 -1.789502260467199513e-01 2.958146262162314466e-01 -3.586475107911210047e-01 -2.812691996238936842e-01 8.900896585997767341e-01
-4.093178071649839489e-01 8.740816791880366976e-01 -2.196166082994905899e-01 2.666389091344779083e-01 -2.650982628694677490e-01 -9.266210677289645758e-01
-9.838291069820613577e-02 -6.985987063740505265e-01 -2.735449754998222627e-01 9.898560118000156172e-02 4.572782875204551289e-01 -8.837977248903696736e-01
-2.131862095880199814e-01 -2.794799057874254866e-01 1.206893350549656935e-01 -5.371372616380115650e-02 -2.102858541468805020e-01 9.761632523135241879e-01
7.618968729273828400e-01 -1.813476268736952113e-01 1.062055842417783114e-01 -8.783348733432276845e-01 1.031659966214022728e-01 4.667811343769678878e-01
3.261433322841977844e-01 -1.478494621495150263e-01 1.625103172890214609e-01 -6.494420622039619173e-02 -2.506241380760752535e-01 9.659036139760668327e-01
2.284771634642988047e-01 -1.394269308037718869e-01 -1.883410970406108886e-02 3.280643409927888610e-02 2.265754642918384187e-01 -9.734409570501066922e-01
4.965830488634929707e-01 -3.674848885102580121e-01 -2.605694528152803224e-01 -1.871024387553595347e-01 3.647178737483176558e-01 -9.121258410878968492e-01
-4.513228334295603661e-01 -3.233156369759412896e-01 2.221801737564194634e-01 -3.894494521422574990e-02 -1.919318882112480418e-01 9.806352234801306578e-01
-2.102718568896921048e-01 2.072591734495272675e-01 1.310129829952087765e-01 4.677656847709849713e-02 2.142598028168420099e-01 -9.756560303397890932e-01
5.555322335945769296e-01 -1.431897948787042019e-01 4.692309010102976158e-02 9.354173915204897494e-01 -3.529118232832943458e-01 2.115534513695370086e-02
1.873097355492960858e-01 -1.581350565641308770e-01 2.693436566642932739e-01 -5.082053688116192625e-01 3.206184437910874485e-01 7.993316687158261713e-01
3.053719260682826731e-01 -1.777390554857006255e-01 1.305420028377713981e-01 -1.040403662641927185e-01 -1.927330519644941953e-01 9.757200279117285158e-01
2.415391634325603221e-01 -4.927310668171088759e-01 -1.782434976472125066e-01 -4.460872856571276857e-01 8.921414495621685647e-01 7.134260682207246851e-02
3.685884948277050599e-01 -1.249292573365665127e-01 3.864111019552123882e-01 -1.328463218027581549e-01 2.125193740233692896e-01 9.680843818842412851e-01
6.187010799404023542e-01 -2.138431515254337056e-01 -1.022410573483577972e-02 8.549005436447998374e-01 -5.081774436651205207e-01 1.044066388014135288e-01
-6.345989205160043056e-01 -1.077114210155219881e-01 -5.790451255931786112e-02 1.782533700706729896e-01 -1.353054934576005675e-01 9.746374502853063504e-01
8.480399419332054212e-01 -1.266874594393449793e-01 3.438142822080458294e-01 3.463545136075042025e-02 -1.704133103792389858e-01 9.847637732749039419e-01
8.620963862321044946e-01 -7.760313934488949350e-02 1.041888700661040973e-01 -7.723999695399361709e-01 6.558121108266976029e-02 6.317415545993757542e-01
-1.833924073150727807e-01 5.028136139132440841e-01 -7.880187113251505004e-02 2.993329608236559580e-01 -3.352176410888719760e-01 -8.933246395725105149e-01
-5.478244891833370378e-01 -1.285803177582869883e-01 1.141975540356198887e-01 -4.893972637444614637e-01 -2.534527799213099897e-01 8.344171658047275786e-01
5.763433120954019051e-01 -3.145347052867879523e-01 -1.625877197347544711e-01 8.401341315436225976e-01 -5.423764078891097906e-01 -1.572634970072824207e-03
-1.434504321684590689e-01 1.065734949718791791e-01 2.810684101806109059e-01 5.697528845532129349e-01 -7.883864308536714383e-01 -2.320096683095392021e-01
-2.928583827162128395e-01 3.969215613735667669e-01 2.732641788447055520e-01 -7.939909918993828808e-02 3.593732256127765146e-01 -9.298100170252494578e-01
2.004938085825608562e-01 -2.510311411683888161e-01 1.422687083111028594e-01 4.686881284425790939e-02 2.033525858023239041e-01 -9.779831492567130358e-01
2.232866569218433517e-01 -2.702445618670724636e-01 1.920137043679137900e-01 2.250066825277780569e-01 7.459362756388768778e-01 6.268580904031193501e-01
6.509291550820860417e-01 -3.677793090092593697e-01 1.147761659584108779e-01 8.486703315886522381e-01 -5.263583886839572346e-01 5.201456472215596621e-02
-2.126653834119569542e-01 2.502732167991434942e-01 2.198397893204689368e-01 3.862765313398426881e-01 -1.139223558830640554e-01 -9.153207842970201291e-01
-5.837831617960356212e-01 -2.026852659197463380e-01 -8.716189035667315510e-02 -2.921053135363883002e-01 -1.026948983987084479e-01 9.508565841632939941e-01
2.512369151901922004e-01 -4.279472547160467766e-01 2.270476987712536365e-01 4.425166568611545864e-02 2.118947468665367539e-01 -9.762901240586071561e-01
8.986775533363312585e-01 -7.225305623421895973e-02 1.560211219122262238e-01 -5.811624610885619546e-01 -1.001185815626956382e-01 8.076053884462135457e-01
8.168953778101833985e-01 -1.538987093676391638e-01 1.118770883751519507e-01 -5.605379305166886539e-01 -8.637132556554200091e-02 8.236123011296754282e-01
5.738977897446386756e-01 -1.932735745509374103e-01 2.689645732741185458e-01 3.594632063982992898e-02 -2.375656977379679846e-01 9.707061353935757531e-01
1.578839148331746822e-01 -1.351990085807481257e-01 2.142689101296248178e-01 -1.889571701845854934e-01 -1.277616150023762054e-01 9.736386175413433985e-01
2.971439063724533591e-01 -1.320408980648155872e-01 2.407621073411994050e-01 -4.065424652640586139e-02 -2.028452789238383014e-01 9.783665085527409877e-01
5.123015418291770873e-01 -3.608002255965361837e-01 1.282187776312304350e-01 8.230503842525026537e-01 -5.669876837043614781e-01 -3.336212687120877762e-02
1.150840038200971471e-01 -2.792681293182332491e-01 1.233540574645358434e-01 5.184950167896620887e-02 2.231405525836072656e-01 -9.734063503842191878e-01
-3.373220286138068902e-01 -1.561325643095342608e-01 2.129728425079592258e-01 -5.466675620100759636e-02 -1.962498799065576227e-01 9.790288710774168734e-01
-4.981778784610456645e-01 -3.761357557368905091e-02 2.020435616784326815e-01 -3.613446662514634145e-02 -1.826055406009068072e-01 9.825220185133597406e-01
-6.509613619107210702e-01 -1.479992713507143898e-01 1.714893469409759785e-01 -3.355760079024101561e-01 -2.207453469807768298e-01 9.157839454296073933e-01
5.299724834149815988e-01 -3.217760606270584911e-01 6.749425561575306265e-02 7.728333053965866783e-01 -6.223442530112914817e-01 1.241624452626628322e-01
-1.036100139729776853e-01 5.544855021588327437e-01 -4.186176308754885333e-02 2.753149058032297591e-01 -4.954841253892766639e-01 -8.238307982406232188e-01
-1.063772958433730487e-01 3.456198477287834026e-01 1.472889781656988029e-01 4.105749410345022749e-02 2.056850495051211203e-01 -9.777565865735812212e-01
-4.435817481043301536e-01 -4.796217844348325821e-02 9.910172143453536975e-02 -5.061576135140870569e-01 -2.162659784459836088e-01 8.348853195789978088e-01
8.259234829367252395e-01 -1.056199819310775501e-01 1.912075597970528118e-01 -2.083100862291856759e-01 -1.880320597412316053e-01 9.598181351092814895e-01
3.982033146451489647e-01 -3.702119023082812155e-01 -2.026948071123082715e-02 7.303974376733811669e-01 -6.516629864514676962e-01 2.045847871404743168e-01
-2.349014317023453147e-01 8.867143418240899244e-01 -2.393616801250034176e-01 -1.540832214716153781e-01 6.801887970143218887e-01 -7.166600039608311823e-01
3.078806970462248382e-01 -1.928941965984907192e-01 1.251574389817705080e-01 4.224541638733911308e-02 2.492261803796610997e-01 -9.675234549134326123e-01
-5.976863375202354778e-01 -8.799546243941747115e-02 1.576676245420141897e-01 -7.187006523990548956e-01 -2.254319246756900375e-01 6.577612177516907188e-01
3.826387144487336522e-01 -1.920913453146523842e-01 2.898704898593432722e-01 -9.048686699152641566e-02 -1.543918273021421539e-01 9.838573527520964035e-01
-3.474826436694223308e-01 8.854944040463211818e-01 -1.050169052683711385e-01 2.858813302610904716e-01 -4.872533720245119104e-01 -8.251399980966210856e-01
-1.645383383164681634e-01 5.798939564183989148e-01 -1.318574223075826279e-01 2.267604741862217776e-01 -3.684625108652873626e-01 -9.015625687847116376e-01
3.686312303632669485e-01 -4.190590114516912768e-01 3.408328291995704057e-02 7.299438308273946685e-01 -6.684436526240302712e-01 -1.427062966504017150e-01
-2.117132764928524313e-01 -5.371383328932827217e-01 -2.064275676960992123e-01 1.785933618471777784e-01 4.623831738320077767e-01 -8.685080377642812044e-01
-6.012319425954737451e-01 -1.256129543365529511e-01 -1.216365280513776598e-02 -1.706694330040929852e-01 -2.143054264506427942e-01 9.617406764985400036e-01
4.074212801149487695e-01 -1.632498005047656187e-01 1.930043945851076248e-01 -3.623328531135312086e-02 3.335849222901487443e-01 9.420234862551046806e-01
3.837970767230728386e-01 -4.936326912838872039e-01 8.645074052871809522e-02 6.836163109279880246e-01 -7.229316703210706407e-01 -1.001925120954415271e-01
-4.849004262915349583e-01 -2.063201880780692055e-02 2.123945941526590442e-01 -2.314916054368967580e-01 -2.709431609488409665e-01 9.343454608159117436e-01
-5.751530009482173078e-01 -1.378733473999279036e-01 1.605067285515037745e-01 -2.806028264171349096e-01 -1.933175398304471937e-01 9.401544461420255905e-01
8.531355822719195459e-01 -4.677880516322863169e-02 2.020401488656843880e-01 -6.335446425179965813e-01 -1.091799005641206632e-01 7.659640561080871546e-01
4.111199796549012686e-01 -4.886348088991523952e-02 3.187912145618828075e-01 2.747022314229404238e-01 -1.902914778606583091e-01 9.425114521876452045e-01
4.909157318861482322e-01 -5.305634249345494990e-02 2.365907447721074253e-01 9.550271006900302312e-03 -2.929761357168575789e-02 9.995251083202957298e-01
3.127103965549945519e-01 -2.302993072918339823e-02 4.350024004166479497e-01 -2.992940365873044892e-02 1.045628294988780183e-01 9.940678274060684716e-01
8.566688517908996880e-01 -6.125282077770172195e-02 -2.402847060229760245e-01 -2.373144371003673425e-01 2.463589966877732518e-01 -9.396749984408064860e-01
3.940941736907651038e-01 -3.429763263665658313e-01 6.574255341598923830e-03 6.291313047603228625e-01 -7.772339510132868501e-01 -1.005916312868717494e-02
-1.989116225911420899e-01 4.153392561719236320e-01 1.511759994700700993e-02 1.280889440802471524e-01 -1.006165198732666827e-01 -9.866455991555427296e-01
-8.700772665870887268e-01 -1.483886863021771640e-01 1.710521384768882297e-02 -9.391757977315569050e-01 -1.520792109622737254e-01 -3.079297558671232893e-01
-3.380769915882380627e-01 -3.685205800156254319e-01 4.365103932437275347e-03 4.044081330338973879e-01 5.420328646450286447e-01 -7.366508233761376312e-01
9.411293556398314664e-01 -1.346090502279959356e-01 2.551865124792549455e-01 -8.939237813676151334e-02 -1.809068148634069007e-01 9.794292864046038050e-01
5.171205010098685051e-01 6.169602653572878181e-02 2.603273092210900974e-01 -3.089025426156138607e-02 -1.598573793916922836e-01 9.866566831708365459e-01
7.731229020890224846e-02 7.206735571664595330e-01 1.530330619901839051e-01 3.323849195687100105e-02 7.058740613958419674e-01 -7.075570733877035723e-01
2.504441672406411135e-01 -1.041330223822658357e-01 1.802827877960821445e-01 -5.416346868291292693e-02 -1.943074994160174096e-01 9.794441864296962175e-01
2.949237039750655098e-01 -1.507423989254573493e-02 1.138592539504350160e-01 -5.744852464552221982e-02 2.199492584642440129e-01 -9.738182534318619021e-01
6.692274159060456196e-01 -3.655941208730590919e-01 7.261191061731944729e-02 6.355324440332522640e-01 -7.646351838991424232e-01 -1.069184180796074191e-01
-1.324538153201678115e-01 4.332422060712139422e-01 1.682996734971705100e-01 -4.401358167339999850e-01 6.196466834593836737e-01 -6.498603315372319944e-01
-6.674161672204290685e-01 -8.220806562559682118e-02 -1.273220798709685797e-01 3.399086978916799340e-01 2.937018348927172284e-01 -8.934211265009540659e-01
2.658549020582656741e-01 -4.700291544187255033e-01 3.308217167407755815e-02 4.415271270119682789e-01 -8.155137727612249421e-01 3.741538220429003747e-01
3.137794044636675883e-01 -4.657152910402301282e-01 -6.255279203473454452e-02 -9.107784962029007170e-02 -1.286320480116726617e-01 9.875012007754049304e-01
-6.845359146671932404e-02 3.716428659669839263e-01 8.436680969695901922e-02 5.666913781500072800e-02 2.242038458748240037e-01 -9.728932337693806387e-01
-5.020888129800520419e-03 4.128930913823809501e-01 1.965311187170080409e-01 5.470482683691538228e-02 1.958399642431726539e-01 -9.791088245572991955e-01
-4.880909163207730606e-02 2.132432987642367272e-01 1.284538563042678661e-01 7.099072490365889720e-01 5.312009056093421056e-02 -7.022890813220011852e-01
-6.172776880479082795e-01 2.897466576229280888e-02 -7.062061957497445253e-02 2.565086581536415444e-01 -1.439129665984101580e-01 9.557679458618933976e-01
-1.884160328357466496e-01 9.879398623913584476e-01 -1.022772046555107256e-01 -9.127898484681215563e-02 6.249423019770713461e-01 -7.753162362061911672e-01
-7.201998688821489858e-02 -5.260072200634113848e-01 -1.899853036619600644e-01 -1.399850393960829810e-02 -2.008553851020599967e-01 9.795208809223803215e-01
-3.109358169387931026e-02 -6.124522481504625082e-01 -7.884360571559753672e-02 -5.013225869873850354e-02 -1.001548195724888540e-01 9.937080903133298504e-01
7.204431731470575806e-03 -5.707251466476535029e-01 -1.820864007309686006e-01 -5.212749256695421718e-02 -1.503813099183009400e-02 9.985272050049286419e-01
-4.683105899339225497e-01 -4.347671206899695467e-02 2.687731309733212282e-01 -5.839494722673910232e-01 -2.504625158321098777e-01 7.721862094091589412e-01
-8.158526597686938109e-01 -2.045856715775573598e-01 -3.959807456545074711e-01 -7.330767144905334654e-01 -5.067030456846932651e-01 4.537075645893736686e-01
-8.403064774513745450e-01 1.131411251664136280e-03 1.999488208467335437e-01 -9.675793030429573616e-01 3.859048184295311990e-02 -2.496018169686139154e-01
8.478899834407375158e-01 -5.303431090108579743e-02 5.058357748954553368e-02 -6.211118965872877151e-01 -1.560878571524312308e-01 7.680212189564195047e-01
3.998092517377981880e-01 1.140126783387393483e-02 7.797784275080085759e-02 -6.128175501973159855e-02 -1.940511567839910412e-01 9.790754286838662113e-01
