-6.368268418913685114e-01 -4.368479038471321796e-01 3.746268517906685691e-01 -1.883484902107232795e-01 4.712833690461705749e-01 8.616361368326145298e-01
-4.762200208047736583e-01 -6.204381790832804722e-01 3.061574434625496388e-01 -1.947970972033438719e-01 4.751228765666316023e-01 8.580864426642578202e-01
-7.226230378721891778e-01 -4.885073116094355572e-01 3.066793993919017525e-01 -2.126152460380109632e-01 4.771446921768442984e-01 8.527178313367562712e-01
-5.964257097866030310e-01 -4.910381365666961484e-01 2.733350371541509727e-01 -2.138621148685203033e-01 4.802942853827443792e-01 8.506352892119176667e-01
-4.371501994972520899e-01 -3.617584839595801016e-01 2.280459431755531285e-01 -1.891095662178041981e-01 4.661002923948307508e-01 8.642847270398611448e-01
-4.478601334444043958e-01 -4.715450724940944416e-01 3.477470930951330752e-01 -1.909390567033315278e-01 4.664776326330257739e-01 8.636786988680048571e-01
-5.346957139204773224e-01 -3.622788395159223240e-01 2.967936934600026166e-01 -1.899385182709976139e-01 4.670712770441554085e-01 8.635784743944002750e-01
-4.997209295068701929e-01 -5.313590757950212851e-01 3.035081892521881985e-01 -1.911299981516973445e-01 4.698460854190358860e-01 8.618085517230263948e-01
-5.184925497237311554e-01 -5.007481751449072149e-01 2.915515641277356407e-01 -1.903583065062677548e-01 4.726774381132700098e-01 8.604299824173617939e-01
-5.240756411254009484e-01 -3.908132331089116396e-01 2.912397565574300073e-01 -2.056104772405846493e-01 4.771607315414428396e-01 8.544249340484709743e-01
3.242438840371968944e-01 -4.698825630202483894e-01 3.266433570629427852e-01 9.457140482405387294e-01 3.041538218397117910e-01 1.145224502915864473e-01
-2.982685949910799939e-01 -3.077615176146293319e-01 3.148701225050498098e-01 -1.896106212796805912e-01 4.648125642099698029e-01 8.648682514987390269e-01
-3.754828324489660196e-01 -5.675712741757716895e-01 3.506257853822015713e-01 -1.868241030903044497e-01 4.645271812445750381e-01 8.656276638309758908e-01
-3.714458839803915779e-01 -5.375744812275500273e-01 1.975209150552590942e-01 -1.900850165647322842e-01 4.672804774275449158e-01 8.634330558257954369e-01
1.594569002442065009e-01 -4.302041848269169133e-01 2.558043455664953392e-01 9.461590821229050041e-01 3.035533620263284327e-01 1.124204061496617141e-01
-4.634900837335123036e-01 -4.325489094405911561e-01 3.170134775029324059e-01 -1.907827490723455199e-01 4.643221568495309870e-01 8.648739083328840227e-01
-5.006138385865041007e-01 -4.553510307508432664e-01 3.477269669748646597e-01 -1.872838418392933912e-01 4.642855792741076848e-01 8.656579367533233649e-01
-3.083681101048463269e-01 -4.923129008891882208e-01 3.316865438722609305e-01 -1.895623005300823838e-01 4.639746328464273151e-01 8.653286510296337442e-01
-2.795469104617441802e-01 -5.126926183082481936e-01 3.390103029736885043e-01 -1.885785775879008641e-01 4.645282333984047662e-01 8.652465778324011092e-01
2.227319930451237551e-01 -5.084737333343151144e-01 4.518998580431299317e-01 9.467926186358632812e-01 3.018480734864787407e-01 1.116757710031423129e-01
-3.399620903703148289e-01 -4.813056462265108415e-01 3.439392370017801959e-01 -1.911578014674868986e-01 4.643342876288037435e-01 8.647845767995451238e-01
-4.312192395051646088e-01 -4.822352003198263071e-01 3.521590091104088160e-01 -1.913985159976246964e-01 4.635811723037343568e-01 8.651353100870421420e-01
-2.730787217126466881e-01 -3.303173251619693218e-01 3.819524510513917503e-01 -1.926019729732694752e-01 4.671770064433626302e-01 8.629311239359851449e-01
-4.258860339618326107e-01 -3.737724084401092828e-01 3.685515747476564297e-01 -1.910056339156736283e-01 4.660011898138635700e-01 8.639211416006297162e-01
-2.920374356375865510e-01 -5.110374372915975627e-01 4.304195542666288676e-01 -1.909545691510651233e-01 4.660062489989009737e-01 8.639297010835460533e-01
-3.562005825181403518e-01 -5.171178887476886032e-01 2.823481549582523287e-01 -1.911391602570638171e-01 4.658165846463778181e-01 8.639911636611848911e-01
1.985841565812060949e-01 -3.580291094024849463e-01 3.013492667905612876e-01 9.400250892100122657e-01 3.206909467966134741e-01 1.162331635050861678e-01
-1.496922437519313254e-01 -3.641006682910362113e-01 3.528521028943307214e-01 -1.905025543941125665e-01 4.649934306275388396e-01 8.645749743327932890e-01
-2.130003826877083228e-01 -3.826392541569229033e-01 3.906711868933376297e-01 -1.933882956722831892e-01 4.663853551118688490e-01 8.631834495830800202e-01
-4.340962919562048050e-01 -3.703120678186093140e-01 2.887751308992239085e-01 -1.916553422076121282e-01 4.665821118254286914e-01 8.634635850618174180e-01
-3.502768616032458926e-01 -3.672008226920510654e-01 3.170387885742265155e-01 -1.906231235525376322e-01 4.663878329201979756e-01 8.637969750300561467e-01
-3.007000377833575766e-01 -3.651744742182047587e-01 3.719849094689341995e-01 -1.931094173774098033e-01 4.645991134808387657e-01 8.642085492940787539e-01
2.398483376206984041e-01 -3.947736121511044582e-01 4.204974688524869553e-01 9.447630307741192723e-01 3.070331798475504637e-01 1.146884569396682818e-01
-2.675188928257231091e-01 -3.298752619986814461e-01 2.578894319590813167e-01 -1.807759863854526416e-01 4.676218004884075130e-01 8.652455688729913108e-01
-3.236649480059435313e-01 -4.015640531420714976e-01 4.039558995097675131e-01 -1.858321777765174210e-01 4.664287482298797305e-01 8.648182609817766098e-01
-3.386994463769313901e-01 -2.895044745865202884e-01 4.070086944520371897e-01 -1.900290027873326737e-01 4.663607662089845340e-01 8.639424829469960487e-01
3.290946109772748818e-01 -3.636337321166790426e-01 3.109629092026881536e-01 9.442178649024266512e-01 3.087264853303385848e-01 1.146323726295459949e-01
-2.952071382246280740e-01 -4.070947377564930192e-01 3.071718182804733521e-01 -1.703631081899374400e-01 4.731925818772418912e-01 8.643293306513514240e-01
-2.077589279150100499e-01 -2.754737625795740108e-01 3.912425251575027962e-01 -1.774267464825448892e-01 4.746355110180783266e-01 8.621141927339012190e-01
-2.226472638138996540e-01 -4.096359553879880266e-01 3.145579671370347663e-01 -1.729763492468359698e-01 4.760988100145655544e-01 8.622117522418442093e-01
-2.166751162565244970e-01 -4.185458436367471280e-01 3.881396071926414559e-01 -1.701843802461371624e-01 4.753955387357807760e-01 8.631548867210073750e-01
-2.013353682303832548e-01 -3.360625998345170840e-01 2.846987195361215250e-01 -1.702699409058568147e-01 4.750800974183618242e-01 8.633116750402924922e-01
-1.271752901473206243e-01 -4.527414977216051017e-01 3.423555726699456514e-01 -1.777739515791257607e-01 4.787120492538460281e-01 8.597855523554264190e-01
-1.523520830819730110e-01 -4.127510177121817558e-01 2.816797295406443524e-01 -1.751401781066162788e-01 4.774862718847262544e-01 8.610068397953688502e-01
-2.678344484466251840e-01 -3.656551641042907752e-01 3.626153334445832987e-01 -1.573568632889558450e-01 4.889416022702928188e-01 8.580063677766148755e-01
1.926404685224763491e-01 -4.287461315616458157e-01 2.897738050950290356e-01 9.355644976523908030e-01 3.292568979618128444e-01 1.277065616050866714e-01
-7.388057961388337647e-02 -3.926242599680902501e-01 2.597148656176384574e-01 -1.685449618316917642e-01 4.769087014297704319e-01 8.626416905886962194e-01
-1.524344317841963836e-01 -3.774925223848382694e-01 3.312767344345489695e-01 -1.709311239002618277e-01 4.807458129988955164e-01 8.600383794728142517e-01
-9.812706980997575046e-02 -2.706354186751490642e-01 2.852332675408025264e-01 -1.757616536851257516e-01 4.808618250769623459e-01 8.589992702427183824e-01
-1.335182023295220510e-01 -2.209658908399365074e-01 2.319133541956610867e-01 -1.731703726150431444e-01 4.747202706689909735e-01 8.629326084140794828e-01
-5.510988975356159725e-02 -2.860968833826000868e-01 3.675099513173731847e-01 -1.747044895030614442e-01 4.746329463006307425e-01 8.626713787030708680e-01
-1.082653143900409176e-01 -4.144337070023740299e-01 4.529250334088262275e-01 -1.693820569392392450e-01 4.749988607807064667e-01 8.635310075753291903e-01
-8.584202513213058661e-02 -2.573140595873060210e-01 2.204928666036277130e-01 -1.724084070234275790e-01 4.776175793867141750e-01 8.614852227684581809e-01
-2.521553992166869831e-02 -2.456838346790900518e-01 2.482838459847059309e-01 -1.744911427798383208e-01 4.748598014857134952e-01 8.625897112905618336e-01
-4.441801891449506656e-03 -3.592201272098299869e-01 3.218325047945116979e-01 -1.709455428287696421e-01 4.752440991370122658e-01 8.630878678456943565e-01
7.521550693362759332e-02 -3.259439774310150528e-01 4.354610149566649491e-01 -1.729742568409997350e-01 4.747164581013308959e-01 8.629740383569085571e-01
2.633343782606303168e-02 -2.068544941671315307e-01 3.214411966250941832e-01 -1.767682002953811227e-01 4.774985871390213243e-01 8.606672426928834163e-01
9.346940650213006463e-04 -1.509489797630777230e-01 3.422105925303514096e-01 -1.714362540608489749e-01 4.774372690794324026e-01 8.617791276699370284e-01
-4.639799024400319966e-02 -3.959364523314310991e-01 3.624625339748014929e-01 -1.670995099090510638e-01 4.769036787740688066e-01 8.629256253930084331e-01
1.002668296754922750e-01 -1.585354895161414646e-01 4.068728355423904541e-01 -1.717888961060829167e-01 4.763391978746764899e-01 8.623163826245928698e-01
3.687410813040938734e-02 -3.765885037294942617e-01 2.449153644399587604e-01 -1.703756500467349388e-01 4.782492474312992625e-01 8.615392011989636556e-01
2.216501471207676932e-01 -5.081180622743163289e-01 5.176821233105971531e-01 -1.771235490695795001e-01 4.760453791835180248e-01 8.613988886242057719e-01
3.888611267454717413e-01 -4.701391566396584398e-01 5.136078830964149189e-01 -1.715228849886900053e-01 4.684333010214506432e-01 8.666891844365565145e-01
3.617895266406114807e-01 -5.626949331073489713e-01 5.637970873779073466e-01 -1.790981702133121745e-01 4.786780050548463117e-01 8.595296463199835202e-01
2.589288142363843082e-01 -5.825234180503990888e-01 5.040155406413909800e-01 -1.273898459188644583e-01 4.778707045365203632e-01 8.691440714303571013e-01
2.436223522853242229e-01 -6.013674098011159153e-01 3.893865710206367292e-01 1.115803658990878328e-01 4.394022101900133537e-01 8.913335624927163359e-01
2.591829559569068797e-01 -4.685988945135278749e-01 5.372537306956037817e-01 5.518218577443322337e-01 4.175925566351297302e-01 7.218788637704596223e-01
2.041857889069897680e-01 -6.540057225786695128e-01 4.842498501958034662e-01 -1.741059563780788244e-01 4.871351804483356474e-01 8.557957886804784531e-01
2.858700474701535432e-01 -5.740009430238802723e-01 4.829723327921521814e-01 8.078646477380488911e-01 3.838773369771133481e-01 4.472056586073547280e-01
2.233826427273617188e-01 -5.794584815309667958e-01 4.706482920771509759e-01 6.651858300757348408e-01 6.262245215518665864e-01 4.066579152968639588e-01
2.404962182576817764e-01 -6.028504571711735815e-01 5.074091601263940321e-01 8.585013918924883081e-01 4.550566958793944572e-01 2.364291937430495205e-01
1.537647114642278212e-01 -5.662449231715955822e-01 5.396930586134437435e-01 -1.714438926862917045e-01 4.628194945245997505e-01 8.697155323141958494e-01
6.313984769316469126e-02 -4.988828323407126231e-01 5.239876672079814002e-01 -1.779703163071982286e-01 4.699862320167900176e-01 8.645458392868337061e-01
1.831377208885412444e-01 -4.925367396873907011e-01 6.553012377393823140e-01 -1.942693378211506061e-01 4.848538956885453111e-01 8.527462249803120509e-01
8.089211524271033849e-02 -5.943366433523302739e-01 5.885694708026880662e-01 -1.848399217914326320e-01 4.748521188061889942e-01 8.604357434331804111e-01
9.845173126897938110e-02 -5.393721156836144281e-01 5.102359037719166324e-01 -1.934685651812552698e-01 4.745488129158791923e-01 8.587044534919078265e-01
1.880593916057680115e-01 -6.036533680227995635e-01 5.858647904910740944e-01 -2.029828352321042528e-01 4.720121638863418734e-01 8.579058723102840345e-01
1.318879604049486010e-01 -6.080232212456032626e-01 4.593926537987138570e-01 -2.046691656124710879e-01 4.765271482441878481e-01 8.550043331081758069e-01
7.513733649826283278e-02 -6.418100418994010514e-01 4.648412041909347203e-01 -2.057206563352918238e-01 4.876445725772144968e-01 8.484584741712245526e-01
3.645129944806708711e-01 -4.819586917227616785e-01 5.246470929226273450e-01 9.358113340839384620e-01 2.958583495086021253e-01 1.916376372899784297e-01
8.476030208367080210e-02 -5.311513293374684475e-01 4.929047289285087841e-01 -1.792485469933154940e-01 4.261534867792520220e-01 8.867148155448125735e-01
8.757526992061999416e-02 -6.287316006544758640e-01 5.443118850406480913e-01 -1.861902328675196783e-01 4.238932839629112603e-01 8.863676895035589309e-01
3.388091168281158472e-02 -1.902360323382231433e-01 3.760340725043485044e-01 -1.720604771171988789e-01 4.776799625912208636e-01 8.615201945126137462e-01
5.717083544712588811e-02 -5.888632840747360930e-01 5.819527415033551865e-01 -1.909836369791955979e-01 4.288346999471736032e-01 8.829643540525384804e-01
1.010541651793274293e-01 -6.528930009221799446e-01 4.493774510351968843e-01 -1.755271341423232934e-01 4.504328786624906544e-01 8.753858846243780523e-01
6.192903177112922541e-02 -5.666550103766914148e-01 3.998441854698525644e-01 -1.882013933388348159e-01 4.833450559598479468e-01 8.549606964208896764e-01
2.580016468157961262e-01 -6.263721898639367236e-01 3.964415412790591731e-01 9.343760024881537785e-01 3.017726903557813034e-01 1.894062547269524943e-01
1.915345651286055051e-01 -2.946497159334111049e-01 3.686643292450049181e-01 -1.709770204021525131e-01 4.740258395116360157e-01 8.637513310957560808e-01
-5.446965073222763409e-02 -2.898152021123918676e-01 3.482530652558913364e-01 -1.759149072550940940e-01 4.768467803220768353e-01 8.612032823334457854e-01
-3.479098010452545686e-02 -2.395852649482829722e-01 3.657707210891927296e-01 -1.668806380568744752e-01 4.772792513518455682e-01 8.627603194808810549e-01
1.830123701787871038e-01 -2.425692208253710236e-01 3.345533868127331112e-01 -1.349016527818072408e-01 5.117266586438663500e-01 8.484912320760423787e-01
-1.037661802709410885e-02 -2.676780273014744971e-01 2.724477995391426655e-01 -1.630152229698476896e-01 4.821062263751581534e-01 8.608133500186877507e-01
9.660887908602690255e-02 -2.033090991591041674e-01 4.406705645586021514e-01 -1.695874916701065604e-01 4.819576381793515552e-01 8.596260336155617798e-01
3.348746128093303687e-02 -2.479621439222507995e-01 3.721327435334519373e-01 -1.681068058668379328e-01 4.800004670792897832e-01 8.610108323505069050e-01
1.238266504446111915e-01 -2.315568419003314060e-01 2.850538895130923511e-01 -1.547667606974749976e-01 4.976173368898076377e-01 8.534777301194838017e-01
2.314798542166551787e-01 -2.457381554410252855e-01 3.306243308352779797e-01 -1.687319018002856608e-01 4.773910924046467774e-01 8.623382690148668761e-01
1.662226408847270742e-01 -1.895925413724193764e-01 3.827240414259096557e-01 -1.344622823619176510e-01 4.617377206707412030e-01 8.767657451861429196e-01
1.888818112735092258e-01 -2.185049142255278687e-01 2.753295995218931203e-01 -1.555080475343754709e-01 4.747546543886344006e-01 8.662708960183153062e-01
2.242736626583926030e-01 -2.883288042283480013e-01 3.661997414026481601e-01 -1.628890487559888911e-01 4.742348785322030302e-01 8.651984961723614420e-01
-6.314695934465699434e-01 -1.106066388074952445e-01 2.343916670145148040e-01 3.669175795165003362e-01 -6.115034656888030939e-01 7.010242515721802903e-01
-6.366357010471273004e-01 6.660195831191616234e-03 3.260951810707947152e-01 3.295133350555276563e-01 -5.893141492982252316e-01 7.376515406731640745e-01
-7.046567846642131094e-01 -5.414240170539167535e-02 2.814098165059333301e-01 -3.215487671661876323e-01 -4.487292396579910525e-01 8.338156030021661724e-01
-4.946215016031885181e-01 -3.335018384851544393e-02 3.513004653274062750e-01 -7.679761150513095824e-01 -5.828810898901926052e-02 6.378206511717710026e-01
-6.730371796381189320e-01 -9.075275565667794558e-03 4.729569141947561617e-01 3.759099533648938563e-01 -6.090850562709442251e-01 6.983602946822106139e-01
-5.558681902859483603e-01 1.231171740724144176e-02 3.840490380646331969e-01 -8.317229885046377724e-01 4.275340966877635984e-02 5.535422444173596634e-01
-5.760056999293688973e-01 3.948775694125551405e-01 3.366317166161687524e-01 2.383904941906013486e-01 8.196611952071370943e-01 5.208891411338579802e-01
-4.895302792996147900e-01 3.322153507924175408e-01 3.553329403581701462e-01 3.664925438482717901e-01 8.041732857529454437e-01 4.679621157582458113e-01
-6.223793344331540744e-01 2.276487435421146177e-01 3.385476190960923781e-01 -3.388135469078442097e-01 7.435328219924370874e-01 5.765104708950991030e-01
-4.957440435861346639e-01 2.805002894463246021e-01 4.026240756190722636e-01 3.998712938644404802e-01 7.869573504251012874e-01 4.698947509337412232e-01
-4.794786407273404771e-01 2.138521822765316882e-01 4.191309323045094848e-01 4.018724448770776836e-01 7.863476938130666838e-01 4.692076752179057952e-01
-6.030773060729119894e-01 3.270443965092069138e-01 4.291891356393464085e-01 -7.804140224903519663e-01 1.798811787013311347e-01 5.988294540597083326e-01
-4.582429342536113448e-01 2.886032813736169600e-01 4.611508522476365224e-01 4.089658020150346851e-01 7.790295979601251641e-01 4.752471549460192124e-01
-4.846579758964797424e-01 3.438254529111190450e-01 4.639422591821481534e-01 4.099604716053994458e-01 7.790710350289804520e-01 4.743213405487376466e-01
-4.272125895898241099e-01 3.231792981777186768e-01 4.821597414036605800e-01 3.926814353474131769e-01 7.869031562222960074e-01 4.760091522868904468e-01
-4.174941237632215918e-01 4.165004935107984863e-01 4.145745164712595354e-01 4.092209074518551870e-01 7.708135918879199799e-01 4.882465109605222953e-01
-3.739162888920595229e-01 2.264789796647088405e-01 3.258005581394274319e-01 4.746388636426351892e-01 6.352980555079964509e-01 6.091915378497854139e-01
-6.195352166387613213e-01 2.199866963335114500e-01 3.846091702541769020e-01 -8.445689649599427140e-01 8.615866527944428255e-02 5.284694388739578086e-01
-5.025996916343724585e-01 2.525343462095837599e-01 3.865668495543596594e-01 4.700583132726983693e-01 -1.178915276035292226e-01 8.747266829373230301e-01
-3.691142462164744842e-01 3.125255288403253617e-01 3.925872215064369897e-01 6.021352404845924378e-01 -2.591527682594889082e-01 7.551642171541270709e-01
-5.889923423245876366e-01 2.856822285502955694e-01 3.996374357708589176e-01 -8.451519139974864592e-01 8.516373337338258021e-02 5.276981909996399933e-01
-4.727713896407315097e-01 7.706470305256565845e-02 4.912319151562353770e-01 4.463542805677158110e-01 -4.963245492679042026e-01 7.446004284264741147e-01
-4.380522418824025488e-01 1.449256925068431456e-01 5.575047152936999373e-01 4.542102130724398057e-01 -5.358961277388000211e-01 7.116940512715057565e-01
-5.586280215115924097e-01 1.587075312880602551e-01 2.422853664909515037e-01 -8.467195895012312734e-01 8.003844105392726727e-02 5.259845859989847883e-01
-4.729522137776560053e-01 1.472485270253352518e-01 4.927817569680374987e-01 4.190073901207886364e-01 -5.571701892122311595e-01 7.169338792924853099e-01
-4.458679736677074734e-01 2.068785193845390502e-01 3.893084839870845082e-01 4.158804608098824462e-01 -5.719840226602190825e-01 7.070203109798146590e-01
-4.578805170010605274e-01 1.394130789066912457e-01 3.851918370384110335e-01 4.140862132104777826e-01 -5.694299374344561349e-01 7.101282661480234903e-01
-5.997266178566919015e-01 1.531689672178606076e-01 3.326401206345172001e-01 -8.500727983657824227e-01 5.480144663305656222e-02 5.238062990509871897e-01
-5.639121341631608830e-01 2.686777015902814814e-01 5.613565558931727928e-01 4.001299467239751162e-01 -5.843755829431985793e-01 7.059753563648420993e-01
-5.981862957286360194e-01 9.070822900003686073e-02 3.463040667099381853e-01 -8.476241826954109548e-01 5.307259560495212330e-02 5.279361178264750931e-01
-5.982078450771350919e-01 1.584202222800826232e-01 4.702966891569418384e-01 3.938696833608973380e-01 -5.858086417640396837e-01 7.083042480204093660e-01
-5.915775276176246100e-01 2.765834937459210607e-01 4.551809644882535144e-01 -8.411593375775868742e-01 4.508096871060287419e-02 5.389050705515293638e-01
-5.307757666417257658e-01 3.833249131945187793e-02 4.350481911176561356e-01 3.981339726111801647e-01 -5.943378400809046225e-01 6.987502212527770817e-01
-5.424935655789657751e-01 3.375859288043350781e-02 4.155878804257993608e-01 3.941099769566343003e-01 -5.928225611058108857e-01 7.023095735551297958e-01
-5.065239599510013013e-01 1.282294161126089072e-01 3.241247572777007369e-01 3.921459597471588787e-01 -5.959454411728887235e-01 7.007642809099436931e-01
-5.298415117377136552e-01 2.258469974783621492e-01 4.546768224171126027e-01 3.972104353401204602e-01 -5.931224334719029656e-01 7.003068248769822590e-01
-5.812007925822177956e-01 1.072269672431979681e-01 4.264154061950838348e-01 -8.254146108922639780e-01 6.605523213237327051e-02 5.606491116852955203e-01
-6.175751472354825689e-01 2.033594936109105189e-01 4.792604192592866963e-01 -6.961499549802996345e-01 -1.190870374709502785e-02 7.177976197759300403e-01
-4.472853999924530921e-01 1.771521113302989836e-01 4.478161077013140812e-01 3.908912626112001631e-01 -5.968076361294439858e-01 7.007315222478626149e-01
-5.571566590384036122e-01 6.070089219729428442e-02 4.169626143214629210e-01 -6.088628706814783742e-01 -1.271063709581910506e-01 7.830261650592195144e-01
-4.556920249802046685e-01 9.234415108661021832e-02 4.687600157382040833e-01 7.003032540472607648e-02 -5.633662530846808014e-01 8.232339997892674788e-01
1.334258716365048780e-01 -2.897136084752164331e-01 3.577066123592944624e-01 -1.640463180544515509e-01 4.719152023947915109e-01 8.662475669700093750e-01
2.055328855071281158e-01 -4.024171776042282933e-01 3.209657221585997533e-01 -1.675817241844482497e-01 4.830958838522825816e-01 8.593804353860690082e-01
1.294391371534408530e-01 -4.487631537714757979e-01 3.988663737189312442e-01 -1.427852055841761780e-01 4.803914799992728968e-01 8.653533445999922469e-01
1.640792075975083530e-01 -4.475558372639759641e-01 3.541701358245686326e-01 -1.697294110197482553e-01 4.801798250296704373e-01 8.605923905481411840e-01
1.555350495108115405e-01 -3.761301840856221546e-01 5.138418650505880425e-01 -1.638674031735798675e-01 4.852133586410502519e-01 8.589036446385699408e-01
1.713257746611347998e-01 -5.308378183612418866e-01 4.031948823471189214e-01 2.299361769703534286e-01 3.604876418221504286e-01 9.039789901395736127e-01
2.068480336943351594e-01 -5.040021739947966317e-01 4.249029780863000649e-01 9.847022482944321753e-02 6.223138363691900210e-01 7.765494857930818062e-01
3.557528600248814343e-01 -3.755882877087478589e-01 4.470751945688665741e-01 6.404677812632119105e-01 2.947172350376785488e-01 7.091845828382933314e-01
6.912168098110163528e-02 -4.047900019824302587e-01 4.438930829232930475e-01 -1.743959342229828291e-01 4.668191366019974753e-01 8.669867079884551186e-01
1.173885570728750161e-01 -3.426962704149157934e-01 3.917911451444355819e-01 -1.752736295443413361e-01 4.720858083290079277e-01 8.639526285397250982e-01
2.633276345441304955e-01 -3.181561758557232555e-01 3.783606142360995683e-01 7.826738164130598863e-01 5.540304510601185006e-01 2.836757945252597612e-01
1.512548390869678239e-01 -3.940745027241577825e-01 4.391631238529302150e-01 -1.733490595029600623e-01 4.688019145423784617e-01 8.661263582704544772e-01
-1.584249423581515770e-02 -4.082588867043722702e-01 4.064237966609374753e-01 -1.789836428870966445e-01 4.690664094992934574e-01 8.648361457861861723e-01
2.858838288538484984e-01 -3.753887211961383641e-01 5.367377160216394438e-01 -1.725018933152010492e-01 4.693927620972119241e-01 8.659754798453713764e-01
-7.141629111074340730e-02 -3.972826394438302988e-01 4.542861675044677083e-01 -1.727402293795998467e-01 4.674061506075976591e-01 8.670019051467366955e-01
1.371861949778114820e-01 -4.254249542137195084e-01 4.499456244335018895e-01 -1.695501491587052545e-01 4.715727350953556885e-01 8.653738512544426609e-01
5.933253622802711624e-02 -3.288086984436909277e-01 4.500366219103503762e-01 -1.755637496278490972e-01 4.685441956388801676e-01 8.658196732286261854e-01
2.497143687065470075e-01 -5.522582908259241474e-01 3.824350338161217611e-01 9.311683240708408249e-01 3.155451350368299601e-01 1.826384953992186144e-01
1.012583854608337247e-01 -3.184450006446813974e-01 4.611005617732321649e-01 -1.731688724474915453e-01 4.698075578658210683e-01 8.656173520600297655e-01
1.949217835519238551e-01 -3.996092370110650993e-01 3.158940515418472428e-01 9.429208203722906356e-01 2.896554282868700203e-01 1.643169479159002910e-01
-1.200396120733702131e-02 -5.617303730325429179e-01 5.159285272065835537e-01 -1.776567272535395092e-01 4.598385874947044094e-01 8.700497461136555977e-01
2.207020203033755942e-02 -4.079873830724113914e-01 3.547158860432085836e-01 -1.779709578614462884e-01 4.594233594185918035e-01 8.702048695441866322e-01
-4.300953687372516959e-02 -5.140831334915475503e-01 5.255250504913435705e-01 -1.752453690799770092e-01 4.624000211491622880e-01 8.691808103365357141e-01
3.227150100601985233e-02 -4.359913916525970934e-01 3.783165160636858260e-01 -1.775511868703382734e-01 4.624617754279724546e-01 8.686798502952292056e-01
-1.024725807069687411e-01 -4.249154632788983421e-01 4.408093230145014862e-01 -1.791446707803219518e-01 4.589078230682807069e-01 8.702360581231632919e-01
-8.521850651019306777e-02 -3.652797953944326714e-01 4.087630330954481472e-01 -1.765973896002729637e-01 4.601679570147979570e-01 8.700912672376366341e-01
-9.911420251820146632e-02 -4.724394546400311756e-01 3.953053081813633352e-01 -1.764903011743007566e-01 4.624156049941952618e-01 8.689205843166893928e-01
-2.145323487261452389e-02 -4.918850944944595516e-01 3.409476308507898290e-01 -1.868018813556385216e-01 4.562408009027109079e-01 8.700283838551745585e-01
-1.122232676309601607e-01 -4.284193830052310248e-01 4.522184809939887029e-01 -1.832731221289534418e-01 4.589465857201996957e-01 8.693555050500785253e-01
-2.148235040738978585e-02 -4.670910707160708109e-01 3.739153213814874199e-01 -1.790612039891248675e-01 4.609236352546399740e-01 8.691872569760860090e-01
2.871119734208303909e-01 -5.434313964376665806e-01 4.941339791950117855e-01 9.439627457230621577e-01 2.945882656040539338e-01 1.488357767990372282e-01
-2.669079969991307033e-01 -4.170790207975718644e-01 3.015023463215720234e-01 -1.752981686155865582e-01 4.533363403071438702e-01 8.739317562813166962e-01
-1.683278703356012596e-01 -4.299878110419775301e-01 4.430416804382598106e-01 -1.805167632645929554e-01 4.527798386648673734e-01 8.731575550146100095e-01
-7.256116379702758079e-02 -5.435645730431489797e-01 4.562822078842957430e-01 -1.867620864691724447e-01 4.536339366647283433e-01 8.713989755351693178e-01
-6.113212038106512897e-02 -4.226396075938597674e-01 4.035811691519931022e-01 -1.835424037169308964e-01 4.621012011690438515e-01 8.676258790031207146e-01
-2.356783105802616185e-01 -5.195177660285874577e-01 5.157686558392385878e-01 -1.767438797816134055e-01 4.495137907417595113e-01 8.756134723111085316e-01
-2.035625117334675660e-01 -6.113165964884714754e-01 4.667034320509160783e-01 -1.796155238373524643e-01 4.467187157886179372e-01 8.764591562422069382e-01
-2.841359596059109260e-02 -5.414155057078643418e-01 4.052024121267085444e-01 -1.833132033279225859e-01 4.511896974519436498e-01 8.733980343456694273e-01
2.604898404593531946e-01 -4.509542689084296008e-01 3.542553936215419585e-01 9.408887906413800906e-01 3.013239004088489326e-01 1.547003254288739915e-01
-1.906731373816883124e-01 -5.625895693213743831e-01 3.719070315693537854e-01 -1.790228962204374330e-01 4.465658615166362422e-01 8.766582766145259997e-01
-1.820170756929694045e-01 -4.418077726884912515e-01 5.279115025061777988e-01 -1.807860388681815644e-01 4.483824551431083716e-01 8.753682551190616890e-01
-9.088259194022618725e-02 -5.173005922694734471e-01 4.251855619023221511e-01 -1.791070387110023365e-01 4.485039823002504034e-01 8.756510986374607119e-01
-1.074545709985731123e-01 -4.458693352054488024e-01 4.214703795254709506e-01 -1.757511390310795008e-01 4.487237894725464860e-01 8.762182935151925367e-01
-2.529325717465240597e-01 -5.316261668874231461e-01 4.471703833760213298e-01 -1.838709794668036690e-01 4.439327866868902350e-01 8.769921002006404454e-01
-2.576587930398712145e-01 -5.304377150123508189e-01 4.195402121811252494e-01 -1.854563021320878857e-01 4.438838898254384713e-01 8.766829828124472757e-01
-3.138778481748868421e-01 -4.929197640820047743e-01 5.019205338757483092e-01 -1.853235191256587255e-01 4.453199621994858304e-01 8.759824909925597591e-01
2.635848301551133033e-01 -5.956905782838876062e-01 2.945543538624474378e-01 9.397163519298430412e-01 3.061010547827345829e-01 1.524313687420173757e-01
-2.634489935721201492e-01 -5.251594943405941684e-01 4.425268084910356503e-01 -1.822953362111649211e-01 4.454257490505038053e-01 8.765639237833461328e-01
-3.095329811140817289e-01 -5.179926683873488091e-01 3.941450008107907910e-01 -1.835538990030635420e-01 4.429947366978995715e-01 8.775326942164216604e-01
2.951504667096800372e-01 -5.851886974529451058e-01 3.562310738159998880e-01 9.413795722904562124e-01 3.038732313196079171e-01 1.465112970443496754e-01
-3.307321060685198821e-01 -6.200901655213708619e-01 4.276917324446445900e-01 -1.820537345397428286e-01 4.474043140398912821e-01 8.756059716097345236e-01
-2.874565049719021159e-01 -5.585228183070272134e-01 5.689044903226861960e-01 -1.823015361559489900e-01 4.455115702550009327e-01 8.765190190087747135e-01
-4.003080173036212552e-01 -5.477025377199803424e-01 3.893777102126486089e-01 -1.814777163778661384e-01 4.494474216792749277e-01 8.746787145027178356e-01
-2.598316106043025431e-01 -5.082884165437002721e-01 5.217151481981202599e-01 -1.794879600382993101e-01 4.495876341664379328e-01 8.750171606351014875e-01
3.053688402858992790e-01 -5.083838194894199081e-01 3.237374877887033708e-01 9.455177311368123672e-01 2.951188655453537146e-01 1.374811816399535147e-01
-3.681717805806407062e-01 -6.027238268397465681e-01 4.276484757900724798e-01 -1.847115538704678095e-01 4.509257647962099380e-01 8.732397130855366063e-01
-4.172296760582681618e-01 -6.411929869663165471e-01 3.177742224016730788e-01 -1.873819242596428403e-01 4.506890543860904708e-01 8.727928681636468733e-01
-3.441578766493563757e-01 -4.959955604357164649e-01 4.779212506755962098e-01 -1.875937280151790953e-01 4.504472128295827216e-01 8.728722138225202265e-01
-4.589576723222662524e-01 -5.832808393458138729e-01 3.767451434992491466e-01 -1.821267340134894719e-01 4.480363714113066997e-01 8.752675377564104187e-01
-3.082660510838926560e-01 -6.833671442150173192e-01 3.877136230113384374e-01 -1.811819634471949492e-01 4.502203440602493556e-01 8.743424603184325461e-01
-4.667165016132188704e-01 -5.785139036684178171e-01 4.899028547810796441e-01 -1.814330737817613226e-01 4.436498514790073178e-01 8.776427798488156684e-01
3.271667847874905610e-01 -5.983753616216208604e-01 3.221373987873455413e-01 9.468020858741391654e-01 2.920370834314283126e-01 1.352041126787366099e-01
-4.531014751634663273e-01 -6.759024521941695562e-01 3.790423657010715819e-01 -1.673673243196235061e-01 4.518993832673648403e-01 8.762277821164228264e-01
-4.718178810059578399e-01 -6.513940237248945220e-01 4.117663311391604464e-01 -1.706210688038340140e-01 4.493294061009004969e-01 8.769216246012235816e-01
-4.274192079351353257e-01 -6.178763657139938470e-01 4.860017085666271108e-01 -1.710795835378257634e-01 4.456167067824944872e-01 8.787249437297477428e-01
-3.633985140140704728e-01 -5.725240490715661767e-01 5.139081963985758783e-01 -1.740153291956514636e-01 4.453280857058751208e-01 8.782946893192909998e-01
-4.713572789087083770e-01 -5.264425104824485002e-01 4.735263579066074091e-01 -1.773265752614259783e-01 4.406509013995466573e-01 8.799898117602389380e-01
-3.930886727227415056e-01 -6.903757427324508367e-01 3.869193331562410521e-01 -1.796434461426298645e-01 4.405883751238661161e-01 8.795510877508545544e-01
-5.867518959225904718e-01 7.552436123440610383e-02 2.695587475918218567e-01 3.873263523126295738e-01 -6.015366635439322041e-01 6.986643967003234312e-01
-7.212867746856622686e-01 2.340303147077291840e-02 3.683163836071925434e-01 3.756535293159291022e-01 -6.085969554668693160e-01 6.989235807360800745e-01
-4.370358369889084105e-01 -6.849870186080898593e-01 3.622803613334539818e-01 -1.701385491608466694e-01 4.456847628413036499e-01 8.788731229594707317e-01
-4.875082188333663136e-01 -5.824553266198333468e-01 3.647059063996583306e-01 -1.746457626128152252e-01 4.374867583491086065e-01 8.821021448055643699e-01
-4.996243832911569371e-01 -5.306704331355311943e-01 3.841664387571006589e-01 -1.789570657830642231e-01 4.386446155249542067e-01 8.806618362784214282e-01
-6.033966149088473285e-01 -8.489241285935589243e-02 3.108091575803906825e-01 3.940145238800180083e-01 -5.999763216298960034e-01 6.962621406159194004e-01
-5.635800160252052438e-01 8.456863853135836162e-02 4.290244083028771360e-01 3.806287417656067928e-01 -6.055241694911240868e-01 6.989007376616621636e-01
-7.090138504960046273e-01 -9.510915457501664672e-02 2.726024151018956454e-01 -8.392323566837184279e-01 6.554305732326817791e-02 5.398084467029121702e-01
-5.038729494837060896e-01 -8.762164915689718558e-02 2.501976768175969701e-01 3.796905253769662925e-01 -6.061223713995040896e-01 6.988925352498801535e-01
-6.279633918498143119e-01 2.574659965741558920e-02 3.018710235593144997e-01 -8.390184360689021403e-01 6.750710742878197890e-02 5.398989297850963487e-01
-5.517928797288319531e-01 4.180933615193824227e-02 2.787621527766114826e-01 3.898658814227056180e-01 -6.009201553719322186e-01 6.977818866739589065e-01
-5.097752335948135816e-01 -1.911823561896550117e-03 3.100370819756020913e-01 3.898658814227056180e-01 -6.009201553719322186e-01 6.977818866739589065e-01
-5.586725602083372211e-01 1.236624826105870711e-01 3.096445373689635239e-01 3.974785244418547192e-01 -6.001857601519996477e-01 6.941094120657723687e-01
-6.151458055475916842e-01 5.418370791902030886e-02 2.863673660799335718e-01 -8.335690638209936054e-01 7.340182891083706085e-02 5.475169288279007063e-01
-5.334650819819610756e-01 3.637109051391054088e-02 4.151687127361758378e-01 3.982789380776423083e-01 -6.021318571267741948e-01 6.919617866015489449e-01
-7.615560068162816609e-01 1.444533211607127721e-01 3.801016783550545397e-01 -8.343736865397172187e-01 7.032860647131881915e-02 5.466940994028783862e-01
-3.908072074396204965e-01 2.120456901611076916e-01 3.226401284571858707e-01 3.989681228718746642e-01 -5.974163446982375669e-01 6.956422557748267455e-01
-3.983063909431848737e-01 5.604682948762606393e-02 3.452180434311392099e-01 3.856598442732724896e-01 -6.027831900025301115e-01 6.985119257145785410e-01
-7.125796588566802869e-01 5.937505396878983710e-03 3.331877115589754190e-01 -8.352898640326451574e-01 6.887755240426049475e-02 5.454784375382070172e-01
-4.227947573200527831e-01 -1.703899977138251254e-02 3.278571263993176887e-01 4.012186779033058981e-01 -5.952185757495614959e-01 6.962315847361326693e-01
-4.212930249529676652e-01 2.030355548102477092e-01 4.081133734161630500e-01 4.046986118690966139e-01 -5.924419392688697883e-01 6.965856603078812714e-01
-3.672814571512356130e-01 1.676193400788018595e-01 3.723346020386105737e-01 4.024530633028436943e-01 -5.915049634442270943e-01 6.986797621650427947e-01
-6.854745599188513117e-01 1.193886834160943211e-01 3.468284637551518057e-01 -8.360745803488618400e-01 7.044578931199761695e-02 5.440741556650934285e-01
-3.375363532816639811e-01 1.000401092944698811e-01 3.483473013686403386e-01 4.032275821629124901e-01 -5.894455843970096698e-01 6.999724423274957807e-01
-2.850784079343650079e-01 2.051051235268379624e-01 4.096978546805271071e-01 4.076125223327650149e-01 -5.835919356475355313e-01 7.023335990002784746e-01
-3.145183184012481092e-01 2.027600039693642220e-01 2.836778259783123146e-01 4.243879328314344446e-01 -5.750604911924827034e-01 6.994285624254432676e-01
-5.532740812599872271e-01 1.149187484993518527e-01 3.340480103186490579e-01 -8.380984435325946613e-01 6.750432929600480580e-02 5.413263012957514331e-01
-3.247626921216646423e-01 1.210838401267754494e-01 3.597658920680885108e-01 4.107113184926821647e-01 -5.764153773170542783e-01 7.064428679337351191e-01
-3.114636011343584476e-01 2.718063380130786300e-01 3.519583541238845981e-01 4.325001957025467192e-01 -5.876663573525966466e-01 6.838068683138456283e-01
-7.328388869137320016e-01 7.165366683646964829e-02 2.787208477825887654e-01 -8.373570993465507817e-01 7.068262368914716987e-02 5.420673896134585723e-01
-3.102160370797046318e-01 9.419918920167227872e-02 2.763610349918304010e-01 4.546053915157594605e-01 -5.542181011290809867e-01 6.972633895348863131e-01
-3.568184556987157308e-01 2.137257267487672752e-01 3.503048143109780965e-01 4.682327203077413791e-01 -4.838384590967087506e-01 7.393635541005081357e-01
-6.550871575328703900e-01 4.005675053261531504e-01 3.372987402562186432e-01 4.446897697156328155e-02 7.583026517588520310e-01 6.503841929372176089e-01
-6.423086320232631596e-01 3.445434198997885389e-01 3.339932115735511076e-01 3.684908540309940750e-01 7.925776972276810106e-01 4.858344207163332595e-01
-5.083440501025796587e-01 3.984869743626643368e-01 4.285001722544234948e-01 3.771528367323075392e-01 8.077128461983831276e-01 4.531618870016324019e-01
-5.213409948585504550e-01 4.245594273567994681e-01 2.823764519010281693e-01 3.911351321899744216e-01 8.070984071531177584e-01 4.422730712327299085e-01
-5.020548711510366413e-01 3.034969883899484300e-01 2.630651535681374775e-01 -7.268227492493896102e-01 3.579485011328316646e-01 5.861753677103107574e-01
-5.318598720466946039e-01 3.029260750876582309e-01 3.208378520199984263e-01 3.911563125538629060e-01 8.096947607178673900e-01 4.374827237906661059e-01
-4.557305911703591894e-01 4.541839398014913542e-01 4.387938923332096453e-01 3.928946687927844517e-01 8.089878823289746723e-01 4.372326445716160914e-01
-6.190790598947381040e-01 3.820579741031331356e-01 3.131520698448923556e-01 -6.383275322023960197e-01 2.578896374847020612e-01 7.252798746073187974e-01
-4.214579671693424179e-01 4.077354116740489753e-01 4.620962832476812610e-01 3.932993160489394180e-01 8.076694499986840636e-01 4.393013857641009934e-01
-4.832024989278512761e-01 4.364458233769581419e-01 3.454026532320613185e-01 3.956110611294205159e-01 8.059373469940640522e-01 4.404053599040586575e-01
-3.881073043613015860e-01 2.722103481993140561e-01 3.134830008792826028e-01 3.941930211185949440e-01 8.066801471467360818e-01 4.403169339245485148e-01
-5.429228643713421842e-01 2.392461483236315301e-01 3.649151734439908812e-01 -8.302281403731802678e-01 8.862357005560179968e-02 5.503336240528019507e-01
-4.988033656432980245e-01 3.148531398631174150e-01 3.344433721874182641e-01 3.980464041459925717e-01 8.040073390274048437e-01 4.417366397940254430e-01
-3.730215237957779095e-01 2.587986336641120433e-01 4.004690750370414332e-01 3.979826976207380684e-01 8.029644821312613701e-01 4.436866155635026399e-01
-6.580333300037659594e-01 3.132256982629482156e-01 4.182088916327986183e-01 -8.334249695258253432e-01 8.690936249361631838e-02 5.457559737481855189e-01
-4.449532309568048905e-01 3.008766013522633509e-01 3.818833672455264061e-01 3.986759760561347510e-01 8.030835092345615100e-01 4.428479912014847142e-01
-4.625814025020205666e-01 2.241712489288630039e-01 3.396366214805468520e-01 3.985258081786136053e-01 8.034589698943928049e-01 4.423017792320351749e-01
-6.172046012145311344e-01 4.066212716443464714e-01 3.644272018585468231e-01 -8.380914849431571056e-01 7.361538988340504686e-02 5.405399497151790467e-01
-4.131398433917862212e-01 2.715104407382842866e-01 3.324800735256973061e-01 3.965632018034865314e-01 8.026708061766203439e-01 4.454853576573997720e-01
-6.893393833543219884e-01 2.471379451225463042e-01 3.944518947800902953e-01 -8.383442891402650421e-01 6.918847234533218038e-02 5.407326586774860999e-01
-4.131865466706911572e-01 3.174416793235323442e-01 2.437444894425062070e-01 4.023520975713502645e-01 7.965075926848753651e-01 4.513185619662448134e-01
-4.185288879460516420e-01 1.363287672257039174e-01 2.684876057732176746e-01 3.878368569560114998e-01 8.149941682469487025e-01 4.305427715221178397e-01
-6.491242474760837711e-01 2.018803944071543011e-01 3.384771249310273844e-01 -8.382572636424276968e-01 6.591892240016790361e-02 5.412757667033600839e-01
-3.178601722975807897e-01 1.310660397131679089e-01 2.374993434250907420e-01 4.322175165945849606e-01 7.648063930347706041e-01 4.777647951889646971e-01
-1.754044650403343564e-01 2.309520545322329699e-01 3.162799801562743984e-01 2.627785162784114781e-01 5.522347857361013107e-02 9.632745292992785924e-01
-2.308525405599267666e-01 2.752694903353857248e-01 3.562893731782505458e-01 6.105577920652942581e-01 4.909067333627555318e-01 6.214738624330563566e-01
-2.278288866855205375e-01 1.963032726725563726e-01 2.867661849418324249e-01 4.452823337735529186e-01 -4.562540406265968018e-01 7.704257872378635907e-01
-3.816485901665558345e-01 1.117960210079524536e-01 3.061056841778093118e-01 4.378299207651226155e-01 -5.550018537982219780e-01 7.073032608176945679e-01
-6.315830064100589336e-01 2.389913426147481923e-01 3.328320005074125176e-01 -8.368372937661525679e-01 6.712020153115060006e-02 5.433214723426268433e-01
-2.413576995367023581e-01 1.587908887607295261e-01 2.981679389903992283e-01 4.292388345940328365e-01 -5.677356809277920302e-01 7.024458836649358773e-01
-1.875988031123349831e-01 1.085951263930531457e-01 4.052106151336509754e-01 4.224285346196791635e-01 -5.742995633704339742e-01 7.012375807467818856e-01
-3.394744805366383678e-01 2.093006576924563433e-01 3.449185331643148111e-01 4.213711726526667700e-01 -5.798949524906142905e-01 6.972576130335363942e-01
-6.739444001453416266e-01 2.050872740481825829e-01 2.372975161377737785e-01 -8.411816887073673144e-01 7.423710870147635921e-02 5.356325403437200983e-01
-3.861328277285073773e-01 2.381047020884891896e-01 3.636554793541266761e-01 4.186896455837647024e-01 -5.846495399885756061e-01 6.948984789680349161e-01
-2.844402105811186243e-01 1.259278188741500826e-01 2.691070352472528238e-01 4.030405753347124920e-01 -5.922498670219857875e-01 6.977093876724780319e-01
-5.992374760961088898e-01 5.643458403493548103e-02 2.402090394249369321e-01 -8.359710947464131792e-01 7.081082884085178331e-02 5.441857727535286404e-01
-4.765366747318288132e-01 7.791757899474882620e-02 2.429653680793913417e-01 4.030616793015887600e-01 -5.912168870758094386e-01 6.985727414628863929e-01
-4.187180794966356978e-01 1.343036984742695117e-01 3.523978625165605227e-01 4.028584293034937480e-01 -5.933199229670179653e-01 6.969049827268662956e-01
-5.013669943354339686e-01 3.288623389440718803e-02 2.858683558446613038e-01 3.994402694647658514e-01 -5.957982391264581290e-01 6.967581570270471314e-01
-5.149771155797534528e-01 9.609635091614501801e-02 2.879999589926955927e-01 3.849681447529098022e-01 -6.061869809335356241e-01 6.959431526153468939e-01
-5.517508838664491044e-01 1.646115253457046401e-02 4.274542926196017723e-01 3.866894245112110773e-01 -6.033121708819394469e-01 6.974852782940365037e-01
-6.860693250272766885e-01 7.450567178267539226e-02 3.958428044274774904e-01 -8.350927037300405198e-01 7.273340376949882780e-02 5.452797705333969347e-01
-5.109514685014401314e-01 -4.352735562288333193e-02 2.834263480903334576e-01 4.032618712543943884e-01 -5.983968943233560767e-01 6.923156939262364862e-01
-4.159084603131847357e-01 1.388398502778669386e-01 4.010925398159981281e-01 3.979732527996757696e-01 -6.001759407177359451e-01 6.938343680156138227e-01
-6.819256016245874852e-01 9.785300206988573057e-02 3.814899012673954037e-01 -8.366588227820328516e-01 7.177004423265984090e-02 5.430019106889265590e-01
-4.974621130667156721e-01 1.388196665143359432e-01 2.549845250797038720e-01 3.948110050025357975e-01 -6.026482925147450542e-01 6.934978773276453401e-01
-6.306665050815301043e-01 -3.523291103312033157e-02 4.034002811762076868e-01 -8.370238841369742611e-01 7.788389327990745403e-02 5.415949746367826334e-01
-6.608010721194088610e-01 1.629521002492151371e-01 2.971255005977148644e-01 3.903389644478648668e-01 -6.007893523197005425e-01 6.976300215537195593e-01
-4.552103723123518408e-01 9.454804732407681711e-02 3.544368772808522694e-01 4.144013879721595850e-01 -5.970290117104672944e-01 6.868972622035776077e-01
-4.907357051930685277e-01 4.452750550169037869e-02 3.035565744860901916e-01 3.945644395168880214e-01 -6.012335435144160467e-01 6.948648280218411299e-01
-5.769122788597987883e-01 -9.707545399099310607e-03 3.839983939905294297e-01 3.798550845848350788e-01 -6.062189547434286840e-01 6.987193239240150344e-01
-7.164613246034882144e-01 -6.499670552800212650e-03 2.251608319397538915e-01 -8.375466832864486566e-01 6.639861221248313794e-02 5.423161233193471986e-01
-5.038364463261548742e-01 -4.837698051865957360e-03 3.031867909247164539e-01 3.806735647297764813e-01 -6.039783038639612300e-01 7.002127145214781523e-01
-4.685979507591114812e-01 2.842434793096763196e-03 2.236015720456323019e-01 3.953551085914212559e-01 -5.986809255634170102e-01 6.966171742623029628e-01
-6.868909301615333529e-01 -3.457950908511548543e-02 2.295057809481181876e-01 -8.347204362270735922e-01 6.845363367140848421e-02 5.464026842742122358e-01
-7.008111687566126458e-01 1.326547741952942630e-02 3.757101276611086171e-01 3.823256747957903268e-01 -6.030765497183949719e-01 7.000898182174195572e-01
-7.049182394815274311e-01 -6.606450715102767102e-02 3.301475567595185123e-01 -8.303269097945362720e-01 7.199967112081553933e-02 5.526058905128958809e-01
-6.376607846845260275e-01 -1.777187797115619139e-01 2.506249882164100495e-01 3.792226265165525856e-01 -6.045336069239760635e-01 7.005207474710329896e-01
-6.289679135294014012e-01 -3.692707909037341169e-02 3.067835056159812779e-01 -8.069727083387713273e-01 3.625157290880273372e-03 5.905776039023192814e-01
-8.174027592218696681e-01 -4.355746501649263719e-02 2.444684260745751403e-01 -6.875002512530506982e-01 -4.668230407121808090e-02 7.246821144568108553e-01
-6.706783090122143687e-01 -1.065032239129366093e-02 3.408357233239943662e-01 2.673221114049096903e-01 -6.167445615431784711e-01 7.403816816756974006e-01
-7.002425943246786133e-01 3.329547250788437995e-02 3.976121282661644885e-01 3.900407834540114416e-01 -5.977678431708716156e-01 7.003868880222023918e-01
-6.964071727150402680e-01 -2.039717300457350724e-01 4.104340956835120791e-01 -5.891530730653613546e-01 -1.051501483807067566e-01 8.011504869830363695e-01
9.276977659845991875e-02 -1.226773911872615780e-01 2.658495618974475727e-01 -1.416417072254368137e-01 4.631904545470338364e-01 8.748669782262762373e-01
1.672695944664219780e-01 -1.592240666464977694e-01 4.400166132442503986e-01 -1.636171776040359072e-01 4.775031902286826502e-01 8.632613292128403781e-01
1.435279947352773866e-01 -1.577106475391367724e-01 2.981258944092617935e-01 -1.501525955485339403e-01 4.525413653890406063e-01 8.790110981448762129e-01
9.983905466171670573e-02 -1.384918872189965788e-01 5.256496271194479597e-01 -1.702697068080314680e-01 4.756322149442869240e-01 8.630076610614176857e-01
1.371702892604396984e-02 -1.617198990438928896e-01 3.134234919602728597e-01 -1.669114656682619546e-01 4.751042175773895759e-01 8.639540179133661235e-01
1.425025909756123255e-01 -3.597815837568389963e-01 2.895440033980968830e-01 3.169275079895792491e-01 4.361663278868118110e-01 8.422089343489829183e-01
4.575702308069778956e-02 -1.667211145381673476e-01 3.513550758044828859e-01 -1.699946761645448889e-01 4.791645753226802529e-01 8.611057541507588509e-01
7.538606359364334597e-02 -2.494394531144421834e-01 4.160500679435268911e-01 -1.677030777148511287e-01 4.779817237639590877e-01 8.622117776234565767e-01
2.187631037265587164e-01 -2.283233533221553646e-01 3.409228308918622607e-01 2.169130867846299493e-01 6.652056476834787846e-01 7.144579477279030533e-01
7.155173845110102127e-02 -3.190159030372466398e-01 3.927105961870814843e-01 -1.687629746316631763e-01 4.767333671143076379e-01 8.626959806753058402e-01
1.098585472836991483e-01 -2.922158510690652244e-01 3.615648776019821375e-01 -1.705276030208419946e-01 4.779354877224684106e-01 8.616832400502242306e-01
2.302017054533608276e-01 -2.326050024389760829e-01 3.493989461018333631e-01 2.319466162596081349e-01 7.424843077468583630e-01 6.284248721648327818e-01
