-2.433221292719959516e-01 2.378118183016452170e-01 6.307276093202820455e-01 -2.686598978234316371e-01 -1.064937861458169766e-01 9.573301065013218869e-01
-2.007198298926601565e-01 2.683106621539786962e-01 5.955320164536070937e-01 -2.680648622130145653e-01 -1.253614666792488841e-01 9.552097844550928585e-01
-1.340403888185041359e-01 1.650888111896615940e-01 5.894735270905867575e-01 -2.913995629209838456e-01 -1.696270135915391719e-01 9.414419636862779717e-01
1.920794726546142805e-01 -2.751411610998727997e-01 5.978468849151505893e-01 7.715851840383483595e-02 -6.375154390626802670e-02 9.949785443351492065e-01
1.173506225486037335e-01 -2.394288231222916341e-01 5.383074728327674752e-01 6.375336799580749725e-02 -7.715631909483826323e-02 9.949785980074781211e-01
2.171350363760542745e-01 -2.446641197987599881e-01 5.793974612249402911e-01 3.702421216635748413e-02 -5.178285262274465867e-02 9.979718151770177181e-01
2.613570699674649944e-01 -4.302944714597427556e-01 6.514309856368073470e-01 8.321165363572314774e-03 -2.221994332644674705e-02 9.997184765350501934e-01
2.066229819092159081e-01 -3.484136094866358002e-01 5.514391564294940373e-01 8.321165363572314774e-03 -2.221994332644674705e-02 9.997184765350501934e-01
-2.926559021091589274e-01 2.700766779858181366e-01 5.375307506262483326e-01 -2.051059279458713192e-01 -5.046718503215567170e-02 9.774377839823836789e-01
-2.794363185096327973e-01 2.288147404712450039e-01 5.123091091804088393e-01 -2.049239028956901798e-01 -6.570058993698250915e-02 9.765703387385519241e-01
1.271376699873662530e-01 3.031451510094623075e-02 6.689406238925539316e-01 -2.847582482354433231e-01 -2.360188993006757663e-01 9.290897799646593569e-01
-5.254582337490787403e-02 1.592647846808509932e-02 6.784905845315686301e-01 -2.835092951681323914e-01 -2.529231785529398868e-01 9.250147811272783072e-01
3.418747764592817984e-02 1.924916176936129070e-02 6.457318117443338057e-01 2.550001557227371540e-01 -2.550256261432525817e-01 9.327040530584296274e-01
7.606002661840327583e-02 6.947808053441888697e-03 6.077682380434810128e-01 2.576371350382951064e-01 -2.135439949558806394e-01 9.423492287191316263e-01
1.655918677482040580e-01 3.296940887116053820e-02 6.362182550677530912e-01 2.174236789377662071e-01 -1.779705865424183742e-01 9.597152776542190455e-01
-2.607584387712635898e-03 -6.023638794971261645e-02 6.717060418879207129e-01 1.803374977249646016e-01 -1.455041540906421016e-01 9.727830837636235461e-01
1.853310207145363320e-01 -1.569097522467119976e-01 5.826956539571956917e-01 1.468673361276392197e-01 -1.165459558139226859e-01 9.822662702964966019e-01
2.552298374454592400e-01 -4.226478873036412232e-01 5.525882992115045411e-01 3.704849790330035086e-02 -3.704954016175137504e-02 9.986264268368385544e-01
2.102638801301118521e-01 -3.614834115793373881e-01 5.697907238879184044e-01 8.322445683113636333e-03 -1.364287849282229056e-02 9.998722962280142124e-01
-4.818227798761182123e-01 2.282374077530149314e-01 5.970039991941425983e-01 -1.758930765383251438e-02 -1.459241497329155516e-03 9.998442313033123474e-01
-4.821311575416878936e-01 2.492278448563233773e-01 5.505605885988583692e-01 -4.839925311358651838e-02 -1.457756888207904084e-03 9.988270056635943916e-01
-5.235520271776969992e-01 2.400117409875837382e-01 5.585015321187812853e-01 -8.045954415862045794e-02 -5.701592263469664607e-03 9.967415681105349368e-01
-4.415104916018166570e-01 2.260661710545348868e-01 5.339816336984181122e-01 -1.122627754502300013e-01 -1.281901249285168597e-02 9.935958646084027679e-01
-4.725811898077020290e-01 1.502455398446402302e-01 4.968107325895729787e-01 -1.437612487519189242e-01 -2.269633034849781808e-02 9.893521010974812846e-01
-3.478541527671641376e-01 2.184053008852235855e-01 5.305706271546111186e-01 -1.747352499536500570e-01 -3.526817269066797461e-02 9.839836118649013530e-01
1.913831628801753448e-01 -4.671503312849569767e-01 5.469095755214677945e-01 4.662732341614257009e-03 -9.782644847256830728e-03 9.999412776692953031e-01
3.208276084392608363e-01 -4.775168829932006087e-01 4.425173703457506158e-01 5.148770505871713438e-04 -7.436734088282256905e-03 9.999722145578460175e-01
2.680033668949231007e-01 -5.715877023648467947e-01 5.857041980050590180e-01 5.148903145087931933e-04 -1.945385351918036375e-03 9.999979751798484529e-01
1.876091741286404491e-01 -6.453942969017892883e-01 5.338995610032821748e-01 0.000000000000000000e+00 -2.460287687003240992e-03 9.999969734876686944e-01
-5.295843675613594315e-02 1.247062143934288547e-01 5.864283841104277473e-01 -2.876550177895497717e-01 -1.698278602004526794e-01 9.425566766196233903e-01
1.233038988903318034e-01 -1.627532500247986513e-01 6.375914368627864093e-01 1.266622069066341560e-01 -1.368043131023640724e-01 9.824669283279368059e-01
-3.988488087240341651e-01 2.094371301696777710e-01 5.307516098345095301e-01 -1.746373375634839853e-01 -4.860895630576833604e-02 9.834322395038722631e-01
-2.933270533365698318e-01 2.811914459097845098e-01 6.007517838092542029e-01 -2.426489728687384884e-01 -8.491914947039662376e-02 9.663903010786949466e-01
-2.335877425117392214e-01 2.490564780940318079e-01 6.269734949239388344e-01 -2.422446659127094892e-01 -1.025520244617401933e-01 9.647800807000723733e-01
2.005855289444154199e-01 -2.191036047285777055e-01 5.824144426378350392e-01 6.383720679951870869e-02 -5.776623338856717860e-02 9.962870436315695022e-01
3.112450190804955108e-01 -2.959413900888538396e-01 5.763815828944099939e-01 2.840542640943429994e-02 -3.209322613217507891e-02 9.990811561564592047e-01
1.717691888630861197e-01 -4.371648199811637436e-01 5.473143817951349188e-01 2.840542640943429994e-02 -3.209322613217507891e-02 9.990811561564592047e-01
-2.250390213964031383e-01 1.970213932901370424e-01 6.027079523040415054e-01 -2.698467056689360932e-01 -1.252967207304576946e-01 9.547164433557308039e-01
-2.867575028785090407e-01 2.318169904541251825e-01 5.692593836571040455e-01 -2.691485982135305433e-01 -1.441719625426955420e-01 9.522465422863339857e-01
-2.007642458737777524e-01 1.120735013352825993e-01 5.207966307269318307e-01 -2.866385940567319213e-01 -1.889246363264481254e-01 9.392261698792785385e-01
2.192517661715178146e-01 -1.539694003927535582e-01 5.282848111152051995e-01 8.422281091302590006e-02 -1.001919696679334226e-01 9.913970381920497177e-01
1.377736499143200344e-01 -2.162337065453050489e-01 5.353886476177137643e-01 5.172030264225475904e-02 -6.987424357996001312e-02 9.962141337979109057e-01
-1.517468627051827834e-01 1.781406330915433212e-03 6.134371025566253133e-01 -2.799523251476508379e-01 -1.893141282157085603e-01 9.411625027073434735e-01
1.368220127633155980e-02 -1.093497253986226159e-01 4.987612385928717473e-01 1.571736713733817292e-01 -1.687565662696653979e-01 9.730455582180539409e-01
-4.283663026141916741e-01 2.448024432307567277e-01 5.718706811344349550e-01 -1.437152676641720861e-01 -3.397614549403251555e-02 9.890356633497013883e-01
1.185548724671601079e-01 -6.080076926467709031e-02 6.074394734510679683e-01 1.911912094949795304e-01 -2.043392163834415742e-01 9.600476061423453000e-01
-2.857217330522336396e-01 2.736480198857076385e-01 6.343244766021975956e-01 -2.158615969318733729e-01 -6.554258158591648453e-02 9.742217103765831165e-01
2.411606758903044323e-01 -2.526138682000652058e-01 5.490978706025132494e-01 5.177755842292774274e-02 -5.174887395223471548e-02 9.973169699190101989e-01
2.144293200749500528e-01 -4.458872986255603132e-01 5.760014413746157302e-01 2.086811258693846080e-02 -2.718633299216714413e-02 9.994125400331425046e-01
-3.618466473727938171e-02 3.635839754385195022e-02 6.812559595041189908e-01 -2.696214559825171886e-01 -2.080788989134835232e-01 9.402166996500432861e-01
-8.220596012478484371e-02 3.745279689940658047e-02 6.352830226467502950e-01 -2.685809077501146724e-01 -2.250932581244743380e-01 9.365881278016677802e-01
-1.863401713524461684e-02 8.640028578187827768e-02 6.400148849340853152e-01 -2.559249561713856647e-01 -2.413383165345855952e-01 9.360866593328452945e-01
9.471861015774410419e-02 -5.474014506066181979e-02 5.962772938799615341e-01 1.925468416700216179e-01 -1.676828911472701966e-01 9.668547780196322661e-01
1.586001055745698274e-01 -9.091477036345387008e-02 6.308189397147878630e-01 1.579751041670507672e-01 -1.361833072010150969e-01 9.780071437894527486e-01
7.685817550022353006e-02 -1.222907774967386535e-01 6.103005694000973591e-01 1.271119639554373626e-01 -1.083248879318630398e-01 9.859555097842604976e-01
1.628334138037122181e-01 -4.002951558951431954e-01 5.413934931007458040e-01 1.449251292597800167e-02 -3.355805054348993954e-02 9.993316888364996986e-01
-2.130443096717357654e-01 1.408037567932774459e-01 5.259052095479080924e-01 -2.464184737750919063e-01 -1.024408626605417122e-01 9.637343023052145075e-01
-8.258305141941393868e-02 1.674604997094812364e-01 5.610579710655527741e-01 -2.459216630623541067e-01 -1.203330603950412553e-01 9.617912924395859431e-01
-2.642957541721985271e-01 6.496602221093195073e-02 6.138231111128986672e-01 -2.666926981714513589e-01 -1.627916900269930633e-01 9.499336136805489605e-01
1.945636066004366449e-01 -1.252800329174422744e-01 6.125232626421835969e-01 6.972675454769812486e-02 -9.169091086474402685e-02 9.933433226055524701e-01
1.185344824457778279e-01 -3.155656989830244452e-01 5.964384140725013106e-01 4.090370381878694755e-02 -6.261022444832033129e-02 9.971995020097211837e-01
-4.522612905287548557e-01 2.161824617878284893e-01 6.460060454995671941e-01 -8.045472208815909743e-02 -1.234357715832227337e-02 9.966818317781526160e-01
-4.486570234176156524e-01 1.862814887550064413e-01 5.209748607292969957e-01 -4.839857645842698952e-02 -5.485087853334962189e-03 9.988130413686232556e-01
-3.152922519949200031e-01 2.349782861015062840e-01 6.286454386936909389e-01 -1.883260949883138746e-01 -4.848424033430905056e-02 9.809090479680863117e-01
-2.895730884942763761e-01 2.464669690879198460e-01 6.582839009849469347e-01 -1.881729976780252278e-01 -6.302471659352694433e-02 9.801116303988904876e-01
2.052519370036043622e-01 -3.050462502400153042e-01 5.020443983852431735e-01 4.094132544995506690e-02 -4.568245373353108790e-02 9.981166872121138844e-01
1.783405371912918369e-01 -2.866897349461873246e-01 6.063473262472600656e-01 9.264154409561587908e-03 -2.744898243079685676e-02 9.995802763193106788e-01
2.130120914086559014e-01 -4.261038734239153691e-01 5.232811040792799684e-01 9.266259158170593591e-03 -1.730179000283876486e-02 9.998073736995097827e-01
-5.730504923361248171e-01 2.538181216831643661e-01 5.776234760123007961e-01 -1.613046561704500892e-02 -1.372295448503128455e-03 9.998689538555436407e-01
-1.358347429735595191e-01 8.945288245728250098e-02 5.174139272134773426e-01 -2.619709080431231740e-01 -1.630102846972536212e-01 9.512091728016409675e-01
1.040376472582157930e-02 -1.642172772160308547e-01 5.891577711934515849e-01 1.361833072010150969e-01 -1.579751041670507672e-01 9.780071437894527486e-01
1.223927653989003300e-01 -3.834199094170950839e-01 5.518385996879769939e-01 5.203918157358955812e-03 -2.136282550480831863e-02 9.997582452384489171e-01
-5.910133936253324505e-01 1.450986711126964201e-01 5.380758731048125298e-01 -1.475845826453382401e-02 0.000000000000000000e+00 9.998910880239176846e-01
-4.651043498722128855e-01 2.544586944462368105e-01 5.962834146163956683e-01 -4.429340193706881451e-02 -1.371127020324560807e-03 9.990176247471990179e-01
-4.782932441040654847e-01 2.076112586860702769e-01 5.561641927523424123e-01 -4.429340193706881451e-02 -1.371127020324560807e-03 9.990176247471990179e-01
-3.982835365346197865e-01 2.168759163302251824e-01 5.847134855134833442e-01 -1.317336131576329061e-01 -2.177142790949796944e-02 9.910460433759961107e-01
1.965861656732092455e-01 -5.122671176610827937e-01 5.255528778267820611e-01 5.204708630826184422e-03 -1.235663988555244300e-02 9.999101081891346166e-01
2.536934861812770725e-01 -4.580582285961755096e-01 6.129912935605762447e-01 2.316735652839928706e-03 -1.524418739063290382e-02 9.998811166767347380e-01
2.231343647489338333e-01 -5.014453526990538812e-01 5.675708624623118093e-01 2.316940815808778576e-03 -7.436715112993297870e-03 9.999696630666273789e-01
2.933662739878082348e-01 -5.759810895318515644e-01 4.602881582368666957e-01 6.001130205286847553e-04 -9.153428429598035876e-03 9.999579264210802787e-01
3.292119202786173426e-01 -5.060021016943858641e-01 5.111878021208667855e-01 6.001363460940221765e-04 -2.460287243950124228e-03 9.999967934063805908e-01
1.738987506897933244e-01 -4.945076356604698464e-01 4.768712936338181940e-01 0.000000000000000000e+00 -3.060435954331226695e-03 9.999953168549188254e-01
-2.590327946582383078e-01 2.963195254971587866e-01 6.566803595049420794e-01 -2.222717225204594582e-01 -8.159613855904603030e-02 9.715643836308742731e-01
-1.915702086481643751e-01 1.104533745618053869e-01 6.088518400636582228e-01 -2.222717225204594582e-01 -8.159613855904603030e-02 9.715643836308742731e-01
1.330180504842793376e-01 -2.519448176572909870e-01 6.230552671642451967e-01 6.985095211020851680e-02 -6.979698711546593326e-02 9.951126695399374888e-01
-2.414568209485762618e-01 1.113095018245501555e-01 5.842465270290643220e-01 -2.219349632198458211e-01 -9.831395523876793052e-02 9.700923864797182938e-01
-1.534974011121766624e-01 1.303090074413493504e-01 5.660639188580780523e-01 -2.465228173429508673e-01 -1.203141009684975810e-01 9.616397546053491174e-01
-9.170742481803483004e-02 6.150870408764461117e-02 6.057898883398437073e-01 -2.611401226421620203e-01 -1.809325936152033354e-01 9.481926138259633152e-01
-1.660845083061839866e-01 4.024689205361162841e-02 5.893461143550255965e-01 -2.611401226421620203e-01 -1.809325936152033354e-01 9.481926138259633152e-01
2.271965222260886319e-01 -2.093826806652069605e-01 5.193761201023553431e-01 1.086669350411176987e-01 -9.995379548537697278e-02 9.890403106025745794e-01
1.963725299191436680e-01 -2.469899069626408650e-01 6.329966972075073972e-01 5.654979303080912706e-02 -8.307396386963906976e-02 9.949376047949731738e-01
-3.122662882283032681e-01 2.483397435666686859e-01 4.970629168203232195e-01 -1.602256603134504798e-01 -4.659292408026909776e-02 9.859801403693529975e-01
-5.164077115222256986e-02 4.617247926926447421e-02 5.639256735289406297e-01 -2.536548658802728617e-01 -1.813063202934310503e-01 9.501511602039522941e-01
1.125935475524223184e-01 4.196020165194352947e-03 5.950276868529605911e-01 1.676828911472701966e-01 -1.925468416700216179e-01 9.668547780196322661e-01
1.903389570438230038e-01 -3.885898997120224574e-01 4.240307204220068460e-01 3.136743300077652480e-02 -3.962321921042674666e-02 9.987222259699362059e-01
3.296875103447078348e-01 -3.107633478193182475e-01 5.140915546584264861e-01 3.136743300077652480e-02 -3.962321921042674666e-02 9.987222259699362059e-01
-5.484781500669459742e-02 1.072587191236436255e-01 5.091438056473954754e-01 -2.528111759929317359e-01 -1.982293510824849891e-01 9.469908308228163207e-01
2.765618039027066197e-02 -4.868431480855528459e-02 5.441350979606522920e-01 2.025734395502973295e-01 -2.305062181423472856e-01 9.517514827865909410e-01
-5.194511329753653817e-02 7.469673936582404972e-03 6.320093070155616832e-01 -2.420173161367830394e-01 -2.144346853209985471e-01 9.462797601244742340e-01
-2.975464150781632205e-02 3.999662901745443255e-02 5.605988743645631267e-01 -2.298772599795223526e-01 -2.150861405734525722e-01 9.491545698554709753e-01
-4.065768224883208048e-02 -2.868523956198420002e-02 5.181553470768167635e-01 -2.291245038742456830e-01 -2.291245115039946822e-01 9.460464681781950436e-01
-5.393786263275548304e-02 -3.681621210091207824e-02 5.634419720702865675e-01 2.043392098631472142e-01 -1.911912097608132466e-01 9.600476074772028579e-01
1.442337019134400933e-01 -5.062822512899933097e-02 6.390502431423511487e-01 2.043392098631472142e-01 -1.911912097608132466e-01 9.600476074772028579e-01
1.125029728774906562e-01 -1.728516956427266771e-01 6.704676561487840081e-01 1.368043762475701364e-01 -1.266586211915958493e-01 9.824673818083514698e-01
1.050874725153802675e-01 -1.116920930357323677e-01 5.830161786998089291e-01 1.368043762475701364e-01 -1.266586211915958493e-01 9.824673818083514698e-01
-4.846605055064897027e-01 1.213551046230163383e-01 4.794079391025473091e-01 -1.316953287856910126e-01 -3.247882970508596950e-02 9.907580259563969483e-01
-3.838039638863642300e-01 2.027564809145560587e-01 5.635138636075365248e-01 -1.975077659110808792e-01 -6.290698986881858301e-02 9.782808354610950108e-01
1.883913114435525615e-01 -1.928169310912151990e-01 5.613591402622019055e-01 5.663478083226956838e-02 -6.256209133782761334e-02 9.964328809947601284e-01
1.159050818334934063e-01 -2.494107656115549521e-01 5.073923234120772952e-01 5.663478083226956838e-02 -6.256209133782761334e-02 9.964328809947601284e-01
-4.036316688295590871e-01 2.485080457919065511e-01 5.327625023272481997e-01 -1.028320611033624182e-01 -2.087931579453632114e-02 9.944795731342027656e-01
-3.984008366950039792e-01 2.595798568208099177e-01 5.749579830285027615e-01 -1.028320611033624182e-01 -2.087931579453632114e-02 9.944795731342027656e-01
-2.605496066196189009e-01 1.164805727813948422e-01 5.562719554492909779e-01 -2.248332355342356204e-01 -9.824698365526746136e-02 9.694315583896825350e-01
-2.330565923986572530e-01 1.145412736894966949e-01 6.322360032087425141e-01 -2.244227348077001416e-01 -1.151760533856025503e-01 9.676615693660410855e-01
-1.230519872275665783e-01 9.733459347810602402e-02 5.404506770691847040e-01 -2.426186804196459046e-01 -1.557096922951894391e-01 9.575440813021440789e-01
-1.248485005441381662e-01 9.187290574410797439e-02 6.670437296630679080e-01 -2.426186804196459046e-01 -1.557096922951894391e-01 9.575440813021440789e-01
1.405966491029344567e-01 -2.127640728297718331e-01 5.826578221745664088e-01 9.153141256104892209e-02 -9.152877912603823995e-02 9.915868510152179294e-01
5.682097104157492196e-02 -2.908472242412444286e-01 5.637265723613962276e-01 7.562875050098394336e-02 -1.073848344426310553e-01 9.913368698022830827e-01
2.637522156914891003e-01 -4.241034703191296495e-01 6.041589043882863441e-01 1.600310519243847499e-02 -4.057982067581140939e-02 9.990481363668711756e-01
-3.769401282934455311e-01 1.600708289823361552e-01 5.783408327982596520e-01 -1.721401442498476653e-01 -4.649814370446696959e-02 9.839744373558086954e-01
-2.451413100555779601e-01 1.447071532586505227e-01 6.042100474048011094e-01 -1.720132399254213351e-01 -6.027252731974075406e-02 9.832490364810181349e-01
-3.001603854848837738e-01 6.414734134762756224e-02 5.783475414788219471e-01 -1.720132399254213351e-01 -6.027252731974075406e-02 9.832490364810181349e-01
2.334608312381989959e-01 -4.408771456104010333e-01 5.040443766551718774e-01 1.026293776276021932e-02 -3.318967566590012852e-02 9.993963765882234451e-01
-6.238974499965480591e-01 2.255648269720323673e-01 5.441177261152959632e-01 -4.429283127402203202e-02 -5.258058708989582671e-03 9.990047537005736222e-01
2.854392839375992641e-01 -4.849488800180591919e-01 5.480690040267219842e-01 1.026625180521973171e-02 -2.136198894920523714e-02 9.997190952972769828e-01
-5.104158701069380077e-01 1.322520263588597977e-01 5.242779904591822193e-01 -1.475844548270724768e-02 -1.316105998100447049e-03 9.998902220503687044e-01
-1.232593482185662948e-01 1.451019667213781505e-01 6.298739076253091485e-01 -2.363778664474942282e-01 -1.725880014993929623e-01 9.562106912141153936e-01
6.985962722592279489e-03 -9.334488680130337279e-02 6.061931794517066985e-01 1.779705808037816417e-01 -2.174236791670862701e-01 9.597152786664453483e-01
1.456051612463381550e-01 -5.359722593648723610e-01 6.595877133563478045e-01 5.776173534888021793e-03 -2.584972621464275144e-02 9.996491521898684951e-01
-4.774019361906107761e-01 2.142068986341268411e-01 5.247491324506281529e-01 -4.035708215282374917e-02 -1.315177032607146640e-03 9.991844555583734300e-01
-3.722294154720283688e-01 2.362486356799195497e-01 5.731398377687372259e-01 -6.712607979330854902e-02 -5.251352888347445881e-03 9.977306814488688946e-01
-4.185802025140481497e-01 2.102158999006369378e-01 6.056172684762484160e-01 -6.712607979330854902e-02 -5.251352888347445881e-03 9.977306814488688946e-01
-3.615312003241967220e-01 1.909301718196722286e-01 6.496638553873058664e-01 -9.379982670761083385e-02 -1.176095258276407644e-02 9.955216082556762602e-01
1.958114410200804123e-01 -4.638709089194609225e-01 4.803042937600116025e-01 2.545102796033853892e-03 -1.847544263960818056e-02 9.998260751105805255e-01
1.070633811198913599e-01 -4.913930192731625901e-01 4.387569838195271021e-01 6.291015168132961174e-04 -1.106948373269030575e-02 9.999385334915207313e-01
1.967160118420364368e-01 -6.147519495588059657e-01 4.872335116563929480e-01 0.000000000000000000e+00 -3.689565093479734489e-03 9.999931935315464759e-01
1.299528586044757239e-01 -2.373600736407115719e-01 5.954210813853725304e-01 1.170145376209091315e-01 -1.169892941453175711e-01 9.862155459334156493e-01
5.821335367879902634e-02 -2.528545337597690179e-01 5.831018094712178135e-01 9.827758699261851527e-02 -1.356450633201714551e-01 9.858711542041256326e-01
-2.122312641472346162e-01 1.301235570403062591e-01 4.956448576084377389e-01 -2.025721965495660692e-01 -7.818032932502251564e-02 9.761415580189766183e-01
-1.512222148377506403e-01 1.012882613993062730e-01 5.896746850630089076e-01 -2.234565903112837038e-01 -1.319592774460025819e-01 9.657400795982240549e-01
-1.645895366050010022e-01 4.530428644581634828e-02 6.466403186189808583e-01 -2.234565903112837038e-01 -1.319592774460025819e-01 9.657400795982240549e-01
-8.241727562036395283e-02 -2.107290025107124223e-02 5.962118520489240181e-01 -2.274947440084195971e-01 -1.885864401994530870e-01 9.553435486888691708e-01
3.540766901099841324e-03 1.381420181604765471e-02 6.648096168017563201e-01 -2.169666259286049670e-01 -1.890511794545543522e-01 9.576978306229991800e-01
1.191983540052754531e-02 1.265764088702086426e-02 5.669369057814553914e-01 -2.038099466994456599e-01 -2.038099534862305995e-01 9.575609685478568833e-01
4.521753058018840310e-02 -6.769296127022650378e-02 5.699185131617351407e-01 -2.032494900623174616e-01 -2.163390688954231200e-01 9.549277732157911425e-01
4.367983180202764104e-02 -1.591522758161068030e-01 6.507063139914049943e-01 1.793769679260649452e-01 -1.793208956163617473e-01 9.672992917256774126e-01
1.099776309141546615e-02 -2.385483613053465679e-01 4.640193068379157570e-01 1.463382664885383433e-01 -1.462790108032275549e-01 9.783596285413451721e-01
3.266623451967955172e-02 -2.391932404833402581e-01 5.042912172465030540e-01 7.580634846608329258e-02 -8.296768998274925422e-02 9.936648126763698574e-01
1.060163576803501706e-01 -3.121927991080473141e-01 5.209805562708076376e-01 3.428888667244654048e-02 -6.572320682426832650e-02 9.972485810145325091e-01
-4.361773040389707035e-01 5.042599724428242780e-02 5.967707731785103498e-01 -1.462893997654740597e-01 -4.452146179221763700e-02 9.882394704504275929e-01
5.673259508937464335e-02 -2.598606013638878887e-01 5.312345289772205659e-01 3.432367146829686660e-02 -4.794115029101929382e-02 9.982602524821422296e-01
-1.657859863171270987e-02 -2.374627534817782548e-01 6.897861147208526056e-01 1.246198275983170373e-01 -1.678600439223360552e-01 9.779022978926664722e-01
-3.811104933211724166e-01 1.716686877778325904e-01 6.048414056427058316e-01 -1.202004415665322429e-01 -3.105035684947618849e-02 9.922639412911923307e-01
2.324694900919542784e-01 -3.213150091553695908e-01 5.849642828943369954e-01 2.523674634360513827e-02 -5.701112194027015134e-02 9.980545268717037066e-01
-3.491671727340422415e-01 1.484927615357998498e-01 5.553704992601812274e-01 -1.796026460018447790e-01 -7.472026145342013093e-02 9.808974319863767999e-01
8.334319513321190864e-02 -3.013329253491327520e-01 5.950993382019582612e-01 6.152571625640832625e-02 -7.436667743458703905e-02 9.953311928832915267e-01
1.745173971463896967e-01 -4.094560019822706121e-01 5.812130591082058650e-01 2.525704626582199810e-02 -4.057207087778351429e-02 9.988573415050889803e-01
-2.878378816212635583e-01 1.657759486499333634e-01 6.309970836045402098e-01 -2.039518635081473130e-01 -9.393660526730442106e-02 9.744637251136691880e-01
-2.953429069876445379e-01 1.864694745503532591e-01 6.145074272222000866e-01 -2.039518635081473130e-01 -9.393660526730442106e-02 9.744637251136691880e-01
-1.713216265208082900e-01 7.369993987932374480e-02 5.978012290207812551e-01 -2.192893235825746912e-01 -1.483181802759865886e-01 9.643204394610314090e-01
8.581425474041538826e-02 -1.383123722389209553e-01 6.168066247070687069e-01 8.149379626976581414e-02 -1.242074372069386090e-01 9.889040771035512156e-01
-1.641257518170967933e-01 8.521001745151385309e-03 6.759441311957138376e-01 -2.129539663903214919e-01 -1.485313644033582625e-01 9.657064988841623787e-01
-8.944262516164476484e-02 -1.294811482876439823e-01 6.242132203654963130e-01 1.545747460288961483e-01 -2.039048323822027775e-01 9.667106429647331911e-01
-4.617713000905617204e-01 8.715147599955844204e-02 5.430961162097425188e-01 -9.378768154510631894e-02 -1.993054417197392264e-02 9.953927085323673873e-01
-1.978650527241562762e-02 -4.853650215483768654e-02 6.248863370280979268e-01 -1.789344376517985058e-01 -1.921601262426629042e-01 9.649129250376110578e-01
-5.979040978160934244e-02 -1.030647443995253917e-02 5.552503717794428084e-01 -2.035816283435417373e-01 -1.642720311410836853e-01 9.651783360528638500e-01
-1.211947585544217859e-01 -1.304297112524984044e-02 6.146866153544411349e-01 -1.921601260377874820e-01 -1.789344434194649336e-01 9.649129240088496484e-01
8.756978991819935887e-02 -5.277173083504708290e-02 6.429335933185008622e-01 -1.916902958384145150e-01 -1.916902958384145150e-01 9.625537184816036484e-01
-1.415672250828299214e-02 -7.411035885725476835e-02 4.871871504570273737e-01 -1.785334399665615968e-01 -2.030695387890000536e-01 9.627505249179192370e-01
3.184540337910005126e-02 -1.607335739749544412e-01 6.103624091467304558e-01 1.556715361910732953e-01 -1.671163860288666370e-01 9.735699699254092288e-01
4.329264140464322841e-02 -7.384335671171933513e-02 5.090841941523432945e-01 1.252522989219528038e-01 -1.352314981233806446e-01 9.828653537133518192e-01
1.070078050227520894e-01 -3.855475753048321352e-01 5.174234216266199171e-01 1.755018892056289456e-02 -3.318631167881219701e-02 9.992950813378445041e-01
-4.222465137043020511e-01 1.147813900145310539e-01 5.390437294972464377e-01 -1.564748998992739337e-01 -5.750969832601712101e-02 9.860062070291254477e-01
1.365048492293050864e-01 -2.487610222003778238e-01 5.896584589529034748e-01 4.869452170220769927e-02 -6.568386510437278225e-02 9.966516309228333759e-01
1.164590914503886021e-01 -4.934174022355067857e-01 5.692994525447939713e-01 1.120220794049766461e-02 -3.952739402670686630e-02 9.991556914008523638e-01
-5.310984469237837180e-01 1.196624952507574641e-01 6.030203639034514840e-01 -4.035661227392065009e-02 -5.001558152372693154e-03 9.991728220192045429e-01
-2.097368837906166406e-01 1.110346331362773165e-01 5.477269963435441591e-01 -2.020760059822972188e-01 -1.098738029973794772e-01 9.731870504795753218e-01
-1.854107633581510983e-01 1.207950678912989850e-01 6.825821742659569091e-01 -2.020760059822972188e-01 -1.098738029973794772e-01 9.731870504795753218e-01
2.005895435972630259e-01 -4.391293895862747876e-01 5.872144440943184440e-01 1.120722354487274988e-02 -2.584853398799954322e-02 9.996030469296732779e-01
-3.006681567134687483e-01 6.040395871406628592e-02 6.021741943424893106e-01 -1.835858048350476057e-01 -7.466439251159077972e-02 9.801640070691959306e-01
-2.679821702756526314e-01 1.577654327320497929e-01 6.189035481462576982e-01 -1.833599945673149989e-01 -8.955194112868174183e-02 9.789584067938531531e-01
5.235395742614761677e-02 -2.058225901614552378e-01 4.951546481381966514e-01 8.174106100297623412e-02 -9.717887636402683382e-02 9.919045644288229102e-01
5.197798256505904713e-02 -2.138935537580143875e-01 6.166864084580271355e-01 6.616088536944547682e-02 -1.126733552717491399e-01 9.914269777744285639e-01
1.014836771411892213e-01 -3.256023678313662573e-01 4.797252198339925222e-01 3.724967464194767902e-02 -7.709155662936462150e-02 9.963279347862984414e-01
1.963511726968066307e-01 -4.053534200252610908e-01 6.083133048889743932e-01 6.318798465753053782e-03 -3.073342241905510641e-02 9.995076435587479935e-01
1.194164112529461641e-01 -4.234141596688273390e-01 6.303401103251298210e-01 6.318798465753053782e-03 -3.073342241905510641e-02 9.995076435587479935e-01
-5.752124877846345186e-01 8.779858331971047980e-02 5.365319422683897388e-01 -1.221361029978243994e-02 0.000000000000000000e+00 9.999254110799690176e-01
-5.220380345717124948e-01 7.097944674125054865e-02 5.596127948013422948e-01 -1.221361029978243994e-02 0.000000000000000000e+00 9.999254110799690176e-01
-4.394718143215933237e-01 1.638475197482486545e-01 4.576944806885089867e-01 -8.512583553864870589e-02 -1.120084768795306940e-02 9.963072483601221885e-01
-3.682560407825923865e-01 1.919625967889921347e-01 6.301252474744971632e-01 -1.091891402513932990e-01 -1.989909006862653970e-02 9.938217938169812138e-01
-4.101032242853921983e-01 2.496930359103585184e-01 6.280462244472885258e-01 -1.330128762813643506e-01 -3.099920831682829309e-02 9.906294079155374410e-01
6.756761131979886759e-02 -5.489396582551953063e-01 5.546564058513392403e-01 2.831207988111709289e-03 -2.196337886533033384e-02 9.997547670554743915e-01
7.567410667477313113e-02 -5.428631216391038850e-01 5.992100300039843175e-01 2.831717603781175319e-03 -1.106944154205368597e-02 9.999347222890899722e-01
1.172870472539560421e-01 -4.700987506951952999e-01 5.974719611653738216e-01 7.160690152284290367e-04 -3.689564147558443540e-03 9.999929371558412550e-01
1.569378596084848032e-01 -5.727093981833901726e-01 5.597806677694689981e-01 0.000000000000000000e+00 -4.405641667431675103e-03 9.999902951136566687e-01
1.455749972137620474e-01 -3.594133206207906772e-01 5.245041881749523682e-01 3.730013998730945940e-02 -5.698959937580005269e-02 9.976777461284345172e-01
-1.541410529597612433e-01 1.003206103462063736e-01 5.302799786881906563e-01 -1.972080996959627297e-01 -1.256514457776742311e-01 9.722760305532002212e-01
-1.856038326819395984e-02 -1.531565423883622656e-01 6.198508155144198950e-01 1.325071450434829601e-01 -1.900242652287675860e-01 9.727962968354126883e-01
-3.718569159854950845e-01 9.094981780964586648e-02 6.289570481042944250e-01 -1.091630476833802682e-01 -2.955775439167187754e-02 9.935843035071546536e-01
-3.054669720796354682e-01 1.189881752236499057e-01 5.297157574776403255e-01 -1.627703972156283596e-01 -5.745042554752273489e-02 9.849899727381364878e-01
-2.191127613004634767e-01 1.730565859955755792e-01 6.330673915601705559e-01 -1.626269842260398280e-01 -7.110634539142390853e-02 9.841221223235554483e-01
-2.187039183447552770e-01 9.952957417397795270e-02 4.822678314166485292e-01 -1.968056240435887838e-01 -1.407177258028910471e-01 9.702917437501340503e-01
3.755542778295312828e-02 -1.087474074842491867e-01 6.073814817964370283e-01 -1.553111384947253315e-01 -1.800655331017430305e-01 9.713160423097403351e-01
9.410987506406680303e-02 -2.965421780914553884e-01 5.271622334420451583e-01 6.633158534478139634e-02 -8.714398665336473004e-02 9.939849326704133237e-01
4.500474498235375320e-02 -3.784990474321233700e-01 4.658533380038015759e-01 2.738873040282220270e-02 -6.687310462357164142e-02 9.973855048700709380e-01
1.070977202720368310e-01 -3.925353379843303236e-01 5.770238418692206217e-01 2.741818348698750116e-02 -4.826732089976436268e-02 9.984580656930129861e-01
-2.033462932159860737e-01 1.084816737582885576e-01 7.389441597192060174e-01 -1.839002490649301047e-01 -8.954274739166517838e-02 9.788579032645182698e-01
-1.301262882855519498e-01 1.756468267699509006e-02 5.741716376149992307e-01 -1.898070515826797700e-01 -1.409156299056390504e-01 9.716563530476126642e-01
4.463000771063632688e-02 -1.577109680428441796e-01 5.644417089093716200e-01 1.056672725537418367e-01 -1.239242579364599889e-01 9.866494847745833630e-01
9.911555708331229453e-02 -1.489175363100647964e-01 5.998793501374720671e-01 8.726404363369136274e-02 -1.421729736612214190e-01 9.859877444720207551e-01
-8.426356380488170261e-02 -2.411906199732676698e-03 5.154969020422156545e-01 -1.894020465993711821e-01 -1.550340438628564077e-01 9.695830598703235603e-01
2.179769187263466690e-03 1.118632787875284418e-02 5.481541996390918436e-01 -1.800655329571076713e-01 -1.553111435417687813e-01 9.713160415295429839e-01
4.956971849132155161e-02 -6.076894945395910907e-02 6.020179703623629308e-01 -1.796835651807729972e-01 -1.680992718098335559e-01 9.692556170695791895e-01
-4.903520669602298016e-02 -1.374773998084890814e-01 5.619648899370005557e-01 -1.684389191589550916e-01 -1.684389191589550916e-01 9.712140140180874903e-01
3.379393930966295700e-02 -2.103841186046452316e-01 6.551500719722481714e-01 1.333436028725284994e-01 -1.546014123380024252e-01 9.789371210021959868e-01
-3.941687285227565285e-01 1.163119813355129317e-01 5.071214555340355368e-01 -8.511584242349030938e-02 -1.897894348927109051e-02 9.961902895895795584e-01
1.737307002762408514e-01 -4.218046257079830497e-01 6.688925670953503877e-01 1.904643705359970393e-02 -5.662033988781773469e-02 9.982140904367917678e-01
-3.756464017902141350e-01 1.199000036201149227e-01 4.793945334401057967e-01 -1.416459198946439513e-01 -4.237880698005278696e-02 9.890098432756611047e-01
-2.956037953143556551e-01 1.507735643032618866e-01 5.295461226812595568e-01 -1.415611885605436437e-01 -5.467942674932989994e-02 9.884182263514220690e-01
-2.516252731914294660e-01 7.429076005333501431e-02 5.454052866552795420e-01 -1.811225853607205671e-01 -1.044469645998902380e-01 9.778984817751369407e-01
1.311097950440962279e-01 -3.202510188934426516e-01 5.868604291088421743e-01 5.248714087425541963e-02 -7.703875929578027359e-02 9.956455843366217584e-01
6.912554031516782160e-02 -3.083839472655092173e-01 6.255868316654357164e-01 5.248714087425541963e-02 -7.703875929578027359e-02 9.956455843366217584e-01
1.026558212169673828e-01 -3.866013350236916502e-01 5.873445327882529376e-01 1.906213538603900373e-02 -3.952269185683118108e-02 9.990368320652217582e-01
-5.727822868869670847e-01 2.692588016753204305e-02 5.476120732311946515e-01 -6.092501773530501624e-02 -1.070553181231076977e-02 9.980849331607849484e-01
-4.555614869798200739e-01 1.199990983695343183e-01 5.630733645208981786e-01 -6.092501773530501624e-02 -1.070553181231076977e-02 9.980849331607849484e-01
-2.392221568466511017e-01 1.056309023932735791e-01 5.484999097911251731e-01 -1.653337781119667282e-01 -7.107391926201310495e-02 9.836733399945124523e-01
-2.739281537410607203e-01 -3.704557919176066499e-02 5.258744819876803867e-01 -1.651531872448120664e-01 -8.499318031020211550e-02 9.825988927551453367e-01
-2.715724185248346023e-01 -4.700507558566616173e-02 6.620340936623122507e-01 -1.808252936909347242e-01 -1.189683105548533376e-01 9.762933750903523000e-01
-2.450907960256418217e-01 2.169951525586752417e-02 6.260230714726034984e-01 -1.808252936909347242e-01 -1.189683105548533376e-01 9.762933750903523000e-01
3.742167845974591484e-02 -1.307409630211356089e-01 5.698996114891086151e-01 8.760005553632110864e-02 -1.124866698698044065e-01 9.897843095198241015e-01
1.147267398707782909e-01 -2.766346128785986402e-01 5.775635114820100169e-01 4.016534739547177046e-02 -8.930220100954926188e-02 9.951943839087170618e-01
-4.952446966539757467e-01 6.747334102009595880e-02 5.470960208440642791e-01 -3.658864695203669498e-02 -4.774120103427620387e-03 9.993190074703158787e-01
5.384718219602480788e-02 -4.188045053836439990e-01 5.378641277618894101e-01 1.220784922928691216e-02 -3.073174573104853896e-02 9.994531145689213858e-01
1.566112391949438520e-01 -5.303014351458503750e-01 6.730534594615965593e-01 6.859649464831068383e-03 -3.607431183842774169e-02 9.993255671874925472e-01
-5.330438599324603954e-01 2.064882993819130153e-01 5.185630292572281919e-01 -1.101183836231149453e-02 0.000000000000000000e+00 9.999393678698136334e-01
-5.679122563033648374e-01 6.461923482336781599e-02 5.574966850775957550e-01 -3.302028167777536216e-02 -1.201359457114496796e-03 9.994539597867303504e-01
-5.041437510064608052e-01 1.332178703800678266e-01 6.594640064979930827e-01 -3.302028167777536216e-02 -1.201359457114496796e-03 9.994539597867303504e-01
-5.509297997839226468e-01 1.351744437766053131e-01 5.872529015265849361e-01 -9.866931169799676715e-02 -1.895511846195619549e-02 9.949397320507090692e-01
-4.672165077338110151e-01 1.194712745932667852e-01 5.424807727811344904e-01 -1.202376972092496360e-01 -2.951973089341407980e-02 9.923061431119919451e-01
-1.554617129071520498e-01 5.245005411949359153e-02 6.133962482192650834e-01 -1.755734062716364507e-01 -1.190833589843454665e-01 9.772375006226379224e-01
2.175765801356999152e-02 -1.940902384658410029e-01 6.420164325549970741e-01 -1.330555127161694717e-01 -1.676746275676710418e-01 9.768221177910950681e-01
1.429292543634856638e-02 -5.296270907606539513e-01 5.414380598752988050e-01 3.030444990917444646e-03 -2.579287616498131958e-02 9.996627150905924575e-01
1.419464792685601884e-01 -4.670750698003258150e-01 6.138874182338963648e-01 3.031190026722269375e-03 -1.318478581866724952e-02 9.999084824672395122e-01
1.917083944029195075e-02 -4.988285225621276742e-01 5.812543636731317687e-01 3.031190026722269375e-03 -1.318478581866724952e-02 9.999084824672395122e-01
8.810559138657958478e-02 -4.622869670814538923e-01 4.914927252319924444e-01 7.433670527910354181e-04 -4.405640450164663956e-03 9.999900188190122829e-01
1.787334416212536525e-01 -4.925572051825475306e-01 5.575812051484958509e-01 0.000000000000000000e+00 -5.148990164725681870e-03 9.999867438622792593e-01
-4.306726304917828929e-01 1.059230909954963079e-01 4.393791940487715153e-01 -1.201923129360224218e-01 -4.031778202393709876e-02 9.919315925827543179e-01
-1.482459719958691413e-01 -2.737302817209218142e-02 6.077448681515330575e-01 -1.752636400287712892e-01 -1.328772462856625813e-01 9.755133489109232281e-01
-3.026512666317243347e-02 -8.473153926400306402e-02 5.853683545325952808e-01 -1.460772713636242504e-01 -1.577501891313979054e-01 9.766147186173093075e-01
-2.198259333280828676e-01 -1.278719276730520549e-01 5.464704416697192535e-01 -1.673746487717963638e-01 -1.458427015042923214e-01 9.750464775416850527e-01
-8.197320659711077040e-02 -4.961151332812398229e-02 6.312018476704536196e-01 -1.577501891313979054e-01 -1.460772713636242504e-01 9.766147186173093075e-01
2.087170714265325355e-02 -1.705940555898424471e-01 5.731400853563466402e-01 -1.458428190510828171e-01 -1.673699681609816803e-01 9.750472634129204730e-01
-3.018384590052231725e-02 -2.054193268333272815e-01 4.928432432352243264e-01 -1.328771253719932821e-01 -1.752684916489662958e-01 9.755124937118806461e-01
1.291152033758014017e-03 -3.143299917050528247e-01 6.217224461042394346e-01 1.125808555790095422e-01 -1.418100932313478002e-01 9.834711223085376153e-01
6.697830968943890850e-02 -1.588453392076060733e-01 5.704790025722838998e-01 1.125808555790095422e-01 -1.418100932313478002e-01 9.834711223085376153e-01
-1.810484256813016113e-01 6.496895140687797277e-02 6.307557962975194332e-01 -1.646609935183650231e-01 -8.500027202961120409e-02 9.826808795170675070e-01
-3.297040076556738697e-01 1.022494264709995770e-01 5.233167667494985631e-01 -1.646609935183650231e-01 -8.500027202961120409e-02 9.826808795170675070e-01
-2.359145850594836780e-01 1.245236483978897218e-01 5.330408924570128049e-01 -1.464928109802034195e-01 -5.463978008790414814e-02 9.877015494384242533e-01
3.591490315095101360e-02 -2.787337080150014690e-01 6.657086533882621282e-01 7.113604234322690179e-02 -1.009096400327238602e-01 9.923491865408107238e-01
-3.504463377049168993e-02 -3.652376453307601412e-01 5.283459581827071316e-01 7.113604234322690179e-02 -1.009096400327238602e-01 9.923491865408107238e-01
1.564513456904867705e-01 -3.938121193970249845e-01 4.722152882147304664e-01 2.956035196087667891e-02 -7.747741403701439988e-02 9.965557866502436912e-01
-3.431583434267038712e-01 1.244314893302725378e-01 5.315346103296029190e-01 -9.864811906818124476e-02 -2.808317780958298135e-02 9.947260345082082900e-01
-4.747981608968444567e-01 9.256854643271877903e-02 4.668847289366765407e-01 -9.864811906818124476e-02 -2.808317780958298135e-02 9.947260345082082900e-01
-4.444695476703934833e-01 -2.173974346568995075e-02 5.252734437301562753e-01 -7.687539943440754864e-02 -1.799213558556560233e-02 9.968783556777982557e-01
-2.136316985182937223e-01 -2.031673395105138002e-02 5.139768764657804967e-01 -1.611188868737753743e-01 -9.890243262857077722e-02 9.819669103960206868e-01
-8.740143425140825539e-02 -1.226764865562424145e-01 5.965455464575925015e-01 -1.123556167684844342e-01 -1.550067160306190794e-01 9.815035065479777998e-01
-3.360106757996693116e-01 -1.866880775517559821e-02 5.320389504698235239e-01 -1.273249844815732279e-01 -5.184800374164501291e-02 9.905049887985287738e-01
-4.341138082617166938e-01 7.540557014642192135e-02 4.982034480789355735e-01 -1.273249844815732279e-01 -5.184800374164501291e-02 9.905049887985287738e-01
-5.974327023923859531e-02 -2.459622572960110665e-01 6.279149529684580067e-01 5.632177137498110830e-02 -8.923245528871141807e-02 9.944171292733910983e-01
1.095250275053577527e-02 -4.176057281733248638e-01 6.529029042229019808e-01 2.056743899744832918e-02 -4.636701046595637782e-02 9.987127118413663407e-01
-4.441574980160645225e-01 6.963238573842862877e-02 5.884329692210010787e-01 -5.500697137612999693e-02 -1.013871522413523595e-02 9.984344943728804544e-01
-3.330028107530990655e-01 5.693648244872284714e-03 5.725390586369836221e-01 -1.479471132166378378e-01 -6.745316479178747882e-02 9.866923138701523266e-01
-2.613676418540735735e-01 2.545535575780669829e-02 5.838764487521376223e-01 -1.478045713434164854e-01 -8.041870496532395329e-02 9.857416703080421616e-01
-9.968398713507693742e-02 -9.042558654124285833e-02 6.464640089245587973e-01 -1.608894597955201344e-01 -1.122486021185911953e-01 9.805686274040832373e-01
9.360584357781598364e-02 -1.358846444549605403e-01 5.770666400821722331e-01 9.338852409159070778e-02 -1.288055654561510166e-01 9.872627359905344901e-01
2.613392579638137980e-02 -3.738068470749851269e-01 4.959972359293822741e-01 1.313853322014803607e-02 -5.377961641902851558e-02 9.984663899213861438e-01
-1.354428368829315166e-01 1.117396624650063980e-02 6.541205850268441147e-01 -1.550023956824294891e-01 -1.123556975554002996e-01 9.815041795935189883e-01
-9.259641122027713334e-02 -6.906035487347397805e-02 6.296384174119015187e-01 -1.250456733057913328e-01 -1.467102581250003257e-01 9.812439450760434001e-01
-3.799545336417838870e-01 1.709288820913575369e-01 4.972789445514721463e-01 -3.301997290832645732e-02 -4.488313267486972527e-03 9.994446139897628090e-01
-1.784259732232434392e-01 -8.228755335525471393e-02 4.693887085606921472e-01 -1.467143883644984048e-01 -1.250455958666708833e-01 9.812433374047339063e-01
-8.772391148465535915e-02 -1.070459229903922838e-01 5.769540320508396158e-01 -1.366219008161154991e-01 -1.366219008161154991e-01 9.811569254888755642e-01
-1.858659762256524572e-02 -1.366938661847208469e-01 5.664967382839375398e-01 -1.364273210475962506e-01 -1.464883181417003799e-01 9.797595412752008182e-01
-5.418732567764733554e-02 -1.119715960980806058e-01 5.294934997475932992e-01 -1.248902519393693539e-01 -1.547731145516262619e-01 9.800243405051274337e-01
8.353427550076193697e-02 -4.533950804210944985e-01 4.648767389764149049e-01 1.314901142360699188e-02 -3.607204183363964950e-02 9.992626838307001602e-01
-5.857572977143653548e-01 1.146680843133457417e-01 5.892283338683356186e-01 -1.101183151768780726e-02 -1.114961327916750644e-03 9.999387463379260099e-01
-6.179310674774571854e-01 1.441072190016411125e-02 6.119866661204484970e-01 -9.896960339759132072e-03 0.000000000000000000e+00 9.999510238886868407e-01
-4.766610559918608714e-01 7.393925068848576643e-02 5.215277994414428964e-01 -2.964948193462827938e-02 -1.114538720267932740e-03 9.995597360960719602e-01
-4.439878326963222488e-01 1.171645573778699045e-01 5.581186676383482759e-01 -8.862297046105477305e-02 -1.797453280646675589e-02 9.959030501394441348e-01
-4.513552377602182419e-01 1.491376359881729230e-01 6.072083164668728994e-01 -8.862297046105477305e-02 -1.797453280646675589e-02 9.959030501394441348e-01
8.884438630444997653e-02 -3.831140372024881557e-01 5.952891878107016144e-01 3.289041122381358446e-03 -2.990728271548893230e-02 9.995472658404258581e-01
9.259479456107323758e-02 -5.249797184534221728e-01 5.459110516086975728e-01 3.290119170061208808e-03 -1.547208372408058474e-02 9.998748870439149172e-01
1.886358122886318545e-01 -5.211374142544575871e-01 4.906871648068437120e-01 8.284664666867941688e-04 -1.793306014309686142e-02 9.998388465133856151e-01
8.803092165061382479e-02 -5.245706406378151110e-01 4.979804280351057821e-01 8.285887299920715677e-04 -5.148988397181878708e-03 9.999864005871290651e-01
-2.601569629436760733e-01 7.847889373928798595e-02 5.464592377431088943e-01 -1.080395529789446168e-01 -3.819141214118566829e-02 9.934127395150375017e-01
-3.915714290742326742e-02 -3.461603471128170129e-01 5.434158018389911859e-01 4.322265061344015419e-02 -7.743884963327585247e-02 9.960597507385906546e-01
-9.526975582965999112e-02 -1.494632589391062250e-01 5.215040461594386834e-01 -9.321741323921453604e-02 -1.420959862170312893e-01 9.854538267062535883e-01
-3.004364460358809885e-01 9.479550474845433589e-03 5.897789292525174032e-01 -1.308888276185433963e-01 -6.376010115044462856e-02 9.893446135224713833e-01
-1.761599795592543316e-01 -7.252310652584373352e-02 6.401194682760049659e-01 -1.461798685863765768e-01 -9.316139700403891499e-02 9.848616147095619056e-01
-2.568924957559438060e-01 6.400311267944260030e-02 6.283415208061883250e-01 -1.461798685863765768e-01 -9.316139700403891499e-02 9.848616147095619056e-01
-4.301573681184769904e-02 -1.962073442996037920e-01 4.788772637292246226e-01 7.589380322730987505e-02 -1.156119992739610275e-01 9.903908300542629828e-01
3.442041955185045493e-02 -3.743767353211522875e-01 6.287679802092054349e-01 7.589380322730987505e-02 -1.156119992739610275e-01 9.903908300542629828e-01
7.107817959771883798e-02 -2.539955033723825251e-01 5.003148588627942539e-01 5.992105364718637583e-02 -1.314153498198443182e-01 9.895147665202065346e-01
5.615825458200469911e-02 -3.859642095735293932e-01 5.847933742917112987e-01 3.172401172928096535e-02 -8.887389978050169725e-02 9.955375517867750546e-01
8.850781278679779873e-02 -4.403620575663721448e-01 4.663147599403951737e-01 3.178140932616253800e-02 -6.561513025665001442e-02 9.973387572448220162e-01
-1.335432508437135735e-01 -2.036206060177085386e-01 5.671927735968343987e-01 -1.055053708399225354e-01 -1.355441557852113121e-01 9.851377561318034326e-01
-7.324326468430097936e-02 -1.464804747788912287e-01 6.613209347694523066e-01 -1.055053708399225354e-01 -1.355441557852113121e-01 9.851377561318034326e-01
-3.515611022753918347e-01 -1.051246158404091358e-02 5.745016066899101270e-01 -6.904698568226869115e-02 -1.703342510629765952e-02 9.974679825424677126e-01
-1.082298592427063666e-01 2.284415538295336834e-02 6.045751319472881802e-01 -1.419262771651734201e-01 -1.054101623884328987e-01 9.842487640405136462e-01
-7.677948409158272258e-02 -8.257509592894510253e-02 6.029527225116442235e-01 -1.355403560664760199e-01 -1.055054261945297250e-01 9.851382729956662532e-01
-1.236563897789266231e-01 -8.198939943421350296e-02 5.808035527494409545e-01 -1.269881536502493746e-01 -1.168697392134998153e-01 9.849951638910057206e-01
-4.294910750533628696e-02 -1.709077143486689987e-01 5.705583256989061880e-01 -1.268318328927622585e-01 -1.268281838352434965e-01 9.837826477175312112e-01
-8.860997442514230438e-02 -1.547619861950348397e-01 6.136090375155486276e-01 -1.268318328927622585e-01 -1.268281838352434965e-01 9.837826477175312112e-01
-1.016894126640598833e-01 -1.850468920962415054e-01 7.039705246994774068e-01 -1.167390116663844651e-01 -1.353729423222837791e-01 9.838933731061325627e-01
-5.604257100680738735e-02 -1.950740936535392822e-01 4.889642272625897568e-01 -9.316133622721935181e-02 -1.461840150792506898e-01 9.848610049990141890e-01
3.733202576241726606e-02 -5.069606291289797673e-01 5.641614878338406802e-01 2.207459493772976830e-02 -5.377115296536449929e-02 9.983092583799423325e-01
