-3.181379779664929575e-01 3.930035506618638763e-01 2.754795892073567121e-01 -4.232080544844066816e-01 6.599552137288217102e-01 6.207689251981518552e-01
-3.331183397800621671e-01 3.601759734068537000e-01 5.596103294526001415e-01 -4.232080544844066816e-01 6.599552137288217102e-01 6.207689251981518552e-01
-1.545989251072763804e-01 7.465980292071644486e-01 -3.943645727166138482e-01 -2.115774823021676354e-01 5.255051672821559050e-01 -8.240626724603108411e-01
-4.996496915795984872e-01 6.676948348188200821e-01 2.235237410568965410e-01 -7.437397573780456517e-01 5.665420683158080006e-01 3.547974888914691705e-01
-7.107170562473915654e-01 1.309511043812822684e-01 2.239486423694715955e-01 -5.565179594542236652e-01 6.979223623936948728e-01 4.507683849558564715e-01
-1.595027896350389440e-01 3.860335483817896596e-01 4.899793918862487274e-01 -5.033814143024961663e-01 6.556327316195919019e-01 5.628080249639756394e-01
-4.072959094043459016e-01 3.448940625293204776e-01 3.071534890646973048e-01 -5.033814143024961663e-01 6.556327316195919019e-01 5.628080249639756394e-01
-8.352890345560063379e-01 3.709390344441807486e-01 3.182380221299018208e-01 -6.207600169796266831e-01 6.292894063947566119e-01 4.676022287359079543e-01
-6.877969323032898097e-02 7.173451462910194198e-01 -3.398303639002434595e-01 -8.705500117943976157e-02 5.295238404652138353e-01 -8.438162887433606762e-01
-3.701051437753006407e-02 7.094234995308985603e-01 -1.835658842839682503e-01 -8.705500117943976157e-02 5.295238404652138353e-01 -8.438162887433606762e-01
-2.376640185834861252e-01 7.244048064877766091e-01 -3.493353691593110710e-01 -8.705500117943976157e-02 5.295238404652138353e-01 -8.438162887433606762e-01
-8.157378341273057165e-01 1.799368542085961475e-01 1.020766016842044460e-01 -5.356982084192453142e-01 7.431886496208754966e-01 4.008716260489263994e-01
-7.712986462502741114e-01 2.908700551752141927e-01 2.776730185667240502e-01 -5.356982084192453142e-01 7.431886496208754966e-01 4.008716260489263994e-01
1.434491930357267853e-01 5.146708048891145415e-01 -4.953884999166368042e-01 3.924277418063643053e-01 5.630516933625453468e-01 -7.273054778168026591e-01
-1.271163438864459094e-01 -6.150658871054798249e-01 2.871564151647174601e-01 -8.670526662109367955e-02 -5.387492042464021580e-01 8.379925367591488650e-01
3.489985849989893363e-01 7.286292714223262523e-01 -3.314140154876689670e-01 4.368952607298125512e-01 5.647724331756066585e-01 -7.001104411996255106e-01
2.392201641325754913e-01 4.576219252139085425e-01 -2.619538530446106628e-01 5.375065063895154704e-01 5.457040968602137054e-01 -6.428792999147789899e-01
-7.132716538047960408e-02 -5.343041599460476299e-01 5.179210959302908979e-01 3.161014287777268866e-02 -6.365664607890256788e-01 7.705737731494503029e-01
1.001046971053171641e-01 -7.088309903950359425e-01 4.842275662996029517e-01 1.059106871428676933e-01 -6.288247581803831920e-01 7.703001686669347370e-01
2.924757613303068937e-01 4.483837220435287763e-01 -4.188699304863949813e-01 5.541336186912821926e-01 5.815026866947858863e-01 -5.956429786397640092e-01
3.041044699498013371e-01 3.628350271959277507e-01 -2.639852716697758117e-01 5.541336186912821926e-01 5.815026866947858863e-01 -5.956429786397640092e-01
1.019811333926641389e-01 -5.887330957550553912e-01 3.121179476859909374e-01 2.029671151469737145e-01 -5.690753668590631253e-01 7.968422535252117633e-01
-7.618589198999645151e-03 -7.031877092762677250e-01 2.728796955710342531e-01 2.029671151469737145e-01 -5.690753668590631253e-01 7.968422535252117633e-01
-1.727738321194918075e-02 3.191328761139257120e-01 3.935739720648592788e-01 -4.732892454779546315e-02 7.405200159377798297e-01 6.703656307543365278e-01
-1.981218728759577552e-01 5.054508793683305523e-01 4.373498168890392890e-01 -4.732892454779546315e-02 7.405200159377798297e-01 6.703656307543365278e-01
-1.027616590571900357e-02 4.207577428130628294e-01 -3.577182202865130112e-01 2.465430600147929252e-01 6.101668451374904212e-01 -7.529362128716506897e-01
-4.117905026313046779e-01 -3.880842861524210763e-01 2.484006231014593280e-01 -5.464118913969844282e-01 -5.867249221999064623e-01 5.976519979130697768e-01
-1.619489126359094922e-01 -3.296263019882104128e-01 4.401832896126987582e-01 -5.464118913969844282e-01 -5.867249221999064623e-01 5.976519979130697768e-01
-2.135684858036284717e-01 -4.028441297102355323e-01 5.846111927293712318e-01 -4.833469404069464237e-01 -6.123066990245966679e-01 6.256646398261977993e-01
2.238145806110784092e-02 5.196865722396578624e-01 5.586110631762359890e-01 -6.632436863141483174e-02 7.738928043224662101e-01 6.298341095427852920e-01
-1.678686455640605035e-01 3.041585595209186921e-01 6.217578758110502424e-01 -6.632436863141483174e-02 7.738928043224662101e-01 6.298341095427852920e-01
3.839784394015700875e-03 4.007645188548279447e-01 6.216032584743654832e-01 -3.417768686151354679e-02 8.281568008755242349e-01 5.594534823239674104e-01
-1.068567902200348863e-01 4.621304538596779365e-01 4.889075478398648977e-01 -3.417768686151354679e-02 8.281568008755242349e-01 5.594534823239674104e-01
5.831881349815531967e-01 -3.721664535227990345e-01 1.613360423958780654e-01 5.862203248727737570e-01 -7.906369414053329159e-01 1.767454598887324979e-01
2.724490257436579244e-02 9.343688593677367260e-01 -2.290060911132299759e-01 6.784189668417863750e-01 6.899585982653323457e-01 -2.523981737435135875e-01
-2.685801358186478138e-01 4.041010202410104668e-01 4.338129290616613565e-01 -2.551186779253893921e-01 7.983682202790051141e-01 5.454563639945322340e-01
-1.047817876724908420e-01 2.677023032559200377e-01 7.339745229228740175e-01 -2.551186779253893921e-01 7.983682202790051141e-01 5.454563639945322340e-01
-1.729058300629977840e-01 2.269485254357584969e-01 5.830819906129846020e-01 -2.551186779253893921e-01 7.983682202790051141e-01 5.454563639945322340e-01
1.862570221839988938e-01 9.698679657250440789e-01 1.107946785575710802e-01 7.068317600693301284e-01 6.975444949486396817e-01 -1.175607950132186719e-01
4.918172009530298316e-01 -5.188186460466783778e-01 5.423028323131680317e-02 7.387744765467338937e-01 -6.624462398445180034e-01 -1.240050487639861587e-01
4.660455794141577512e-01 -5.751645456353007280e-01 -2.280277970028494749e-01 7.130571829576612952e-01 -6.557458289266796525e-01 -2.480863996226835844e-01
3.972716631769820927e-01 -4.558566035872316236e-01 -1.312980381649979100e-01 7.130571829576612952e-01 -6.557458289266796525e-01 -2.480863996226835844e-01
1.858600705836127576e-02 8.108095646033293136e-01 5.311318079810697923e-02 7.855681921616126662e-01 5.861044287509066253e-01 -1.984041684605165334e-01
2.588210145544088681e-01 9.998287609042455504e-01 3.374781725782773079e-02 7.855681921616126662e-01 5.861044287509066253e-01 -1.984041684605165334e-01
1.997622876293282945e-01 5.967649397186992610e-01 -4.852279320354884601e-02 5.974205034080674048e-01 6.888705259868067587e-01 -4.105437133050651166e-01
-8.860492654148881264e-02 6.256108711551657819e-01 7.157504410807015161e-01 -1.635746582817230454e-01 8.211985123178383583e-01 5.466958336543150665e-01
8.613265788916488197e-02 8.311009314473405407e-01 -7.543709188201959404e-02 6.131924403805223411e-01 7.852717362012657798e-01 8.569324001127134882e-02
-1.963688722831102296e-01 -7.537183143628288784e-01 -1.581782843053169962e-01 -4.464589316794100315e-01 -5.724792987919296028e-01 -6.877076957388076339e-01
-2.037510613651783153e-01 -7.717820086589053385e-01 -3.335155347672262849e-01 -4.464589316794100315e-01 -5.724792987919296028e-01 -6.877076957388076339e-01
-3.408469074100558410e-02 3.323981900366538844e-01 8.633240727484334798e-01 1.615137235108248318e-02 8.299673378586225336e-01 5.575781122489008590e-01
7.669584664347345489e-03 2.190626624996733773e-01 9.038099411584697984e-01 1.615137235108248318e-02 8.299673378586225336e-01 5.575781122489008590e-01
-3.876713045306749705e-02 1.088629485570385080e+00 -4.297215776435538842e-02 3.474956485015772562e-02 9.985077558728640001e-01 -4.212753499152003395e-02
8.898344652975344327e-02 9.193095359966474422e-01 3.594599657090746109e-02 3.474956485015772562e-02 9.985077558728640001e-01 -4.212753499152003395e-02
-6.206601519269323852e-02 -6.226589115893982340e-01 -1.824421651985890513e-01 -4.514418516644049667e-02 -5.955199134710161823e-01 -8.020710911166986090e-01
5.275434718528673739e-02 3.372206362008322023e-01 7.705681833354781629e-01 1.588918210584048737e-02 8.307623126605967467e-01 5.564004976227325816e-01
8.578924812667193533e-02 2.350388769114724330e-01 9.327933698466464030e-01 2.088879722892064139e-01 7.838627719429867025e-01 5.847435076978290125e-01
1.666627869261494421e-01 3.313092070850978121e-01 8.389892363851622070e-01 2.098625180154536363e-01 7.973538942054516632e-01 5.658484699348536040e-01
2.340737685393577405e-01 3.039197743949371144e-01 9.441441671768558974e-01 2.098625180154536363e-01 7.973538942054516632e-01 5.658484699348536040e-01
1.672693569543323711e-01 -6.955346399109300082e-01 -3.945262990629597732e-01 1.874053079888449991e-01 -5.302126616563692663e-01 -8.268940584844437502e-01
4.566288769038266693e-02 -6.688245315165244342e-01 -2.842045482211648100e-01 1.874053079888449991e-01 -5.302126616563692663e-01 -8.268940584844437502e-01
4.712099041266697153e-02 -8.770329461493278078e-01 -2.980672776503628940e-01 1.874053079888449991e-01 -5.302126616563692663e-01 -8.268940584844437502e-01
5.718027432502006957e-02 3.534612045973492545e-02 8.638071489303804640e-01 1.785427463676394211e-01 7.809841947992247624e-01 5.984865706039754762e-01
5.022588377206067822e-02 8.430140364414274723e-01 5.813570035571710704e-02 4.363480467058786227e-01 8.279546642807961154e-01 3.522661721364093168e-01
2.178350260081389211e-01 7.755607292882180648e-01 -2.197155332303844799e-01 4.990945284973714036e-01 5.515485421902500685e-01 -6.683553375501659621e-01
2.512640365794269193e-01 7.118220457832280523e-01 -3.111200588932313549e-01 4.990945284973714036e-01 5.515485421902500685e-01 -6.683553375501659621e-01
2.605573787126354013e-01 8.583049751193312371e-01 1.795538838150234628e-01 5.810161120436284632e-01 6.716909017162003837e-01 4.596211593229619363e-01
-8.191090596673966662e-02 1.541358582070605499e-01 7.931336743406727230e-01 -7.838050722143673904e-03 7.787080824559078351e-01 6.273374588518686457e-01
-5.390232062883334313e-02 1.470771108252854342e-01 8.194005435149893657e-01 -7.838050722143673904e-03 7.787080824559078351e-01 6.273374588518686457e-01
1.855995427950025145e-01 2.771673387845228764e-01 8.415195608162204799e-01 4.376472670069729565e-02 7.860201467167446943e-01 6.166498014693595486e-01
2.206648548407360577e-01 -5.968764605619532038e-01 -5.682105123988836493e-01 4.227652049404813095e-01 -6.033047807827657261e-01 -6.762343698572941264e-01
9.441408782040863756e-02 -4.883555761284579244e-01 -3.692058447628955853e-01 4.227652049404813095e-01 -6.033047807827657261e-01 -6.762343698572941264e-01
2.162531367817139838e-01 1.621993702464069598e-02 7.394534104549519427e-01 4.088026316867888199e-01 7.191000369801409109e-01 5.619390938003118174e-01
3.224754449645735321e-01 6.479799833352494209e-01 -2.695175354748627905e-01 7.319468325020869193e-01 5.566872711033358234e-01 -3.928779919792951270e-01
2.132878007122541164e-01 2.304267532657493511e-01 1.026658117624516420e+00 4.355793982476289239e-01 5.501086125642162816e-01 7.124963875030569938e-01
3.272506823186946412e-01 6.704123706296908347e-01 -1.580087975897244701e-01 7.832636128895550387e-01 5.275933405129362708e-01 -3.288516075216936785e-01
-7.623660688370480498e-01 2.811588312177613069e-01 7.763036607406349765e-02 -5.177106485648583778e-01 8.498826473229929013e-01 -9.836244274017841294e-02
-4.414000996730333970e-01 -6.433400437208565137e-01 4.443728264629295821e-02 -7.358498756034494992e-01 -6.253865579062503066e-01 2.596470946584233941e-01
-4.422778485285173700e-01 -4.657860532163113354e-01 2.957616225929783349e-01 -6.358253903376495098e-01 -6.109452093404305062e-01 4.716694013670520436e-01
1.771321482981529916e-01 5.964183964153991768e-01 -2.076087818184332023e-01 6.820972430625332761e-01 5.351624575820158602e-01 -4.983417451922611541e-01
1.629166117671533853e-01 5.365913107154229866e-01 -3.307133900536801119e-01 6.820972430625332761e-01 5.351624575820158602e-01 -4.983417451922611541e-01
1.820429233743400821e-02 7.633628817351784113e-01 -1.959830915237460447e-01 5.973767128887128575e-01 5.810584049573199739e-01 -5.527315740273314182e-01
1.238527035223747214e-01 7.358733136166045741e-01 -1.347520334654626895e-01 6.552547048361537785e-01 5.606694357818315932e-01 -5.062519684605363279e-01
9.454751045726184078e-02 7.855935305079314590e-01 -7.136291026478201738e-02 6.552547048361537785e-01 5.606694357818315932e-01 -5.062519684605363279e-01
-3.812166375201379021e-01 -4.400399029615599256e-01 -1.392813525613460224e-01 -7.944949827473476445e-01 -5.341261947702621304e-01 -2.889410501287971167e-01
-3.122775643388394085e-01 -6.238179163716297548e-01 -1.203566894207343391e-01 -7.944949827473476445e-01 -5.341261947702621304e-01 -2.889410501287971167e-01
-3.419162500047185360e-01 -6.300358302594316617e-01 -1.804279211736335709e-02 -8.219952710104551086e-01 -5.310632463382624069e-01 -2.056589478362526591e-01
-3.876293791365481023e-01 -7.096684268430113463e-01 -1.802598869382129043e-01 -8.219952710104551086e-01 -5.310632463382624069e-01 -2.056589478362526591e-01
5.027039618725003683e-02 2.115334336211260324e-01 8.295674404199332441e-01 3.447000946433516066e-01 4.789477661562243638e-01 8.073356687566994871e-01
2.492379999158362003e-01 8.505266836608833536e-01 1.003640536260125976e-02 8.247593686889033160e-01 5.381559276833234318e-01 -1.736668686283692475e-01
2.233171613920326704e-01 8.323116459444244164e-01 4.455962075731274841e-02 8.247593686889033160e-01 5.381559276833234318e-01 -1.736668686283692475e-01
-2.030200979137082307e-01 -6.598771199871796833e-01 -1.885773235125445813e-01 -7.568410750303004031e-01 -5.457290396473517546e-01 -3.596823632492403000e-01
1.232303074947840860e-01 1.470088311338975107e-01 -8.487166495693198032e-01 2.156157635123623351e-01 7.690793278214588247e-01 -6.016866543664354250e-01
-1.265884649138770968e-01 1.874183659482825393e-01 -9.661607153319061725e-01 2.156157635123623351e-01 7.690793278214588247e-01 -6.016866543664354250e-01
3.023250932253038759e-01 6.848903389222871230e-01 1.335959093206947473e-02 8.486952923098802781e-01 5.253833714881429584e-01 -6.073395899164507616e-02
-1.039591327790869435e-01 1.475104537518583947e-01 1.151998989527923900e+00 2.696379025405328811e-01 5.377460809712115708e-01 7.988269862201985427e-01
-5.489737729687854673e-02 1.094103251567934282e-01 9.773887727846038986e-01 3.511138977787529591e-01 6.162408905145315696e-01 7.049582935496742087e-01
-3.567592257789716781e-01 -5.391560457973672005e-01 -3.129916486051016467e-01 -7.061924520791471593e-01 -5.575622671955404730e-01 -4.363674355703117680e-01
-4.639269469296492532e-01 -4.428523939972072720e-01 -8.288265689727056240e-02 -7.718559918450972335e-01 -5.792968495027240872e-01 -2.620181062618375800e-01
-4.884616574862920002e-01 -5.485228252857223818e-01 -6.755084986182399720e-02 -7.521578519125365903e-01 -5.637720694929122534e-01 -3.412031938097845885e-01
-2.636449337250207359e-01 -5.157302949246858059e-01 -1.054464042889237119e-01 -7.521578519125365903e-01 -5.637720694929122534e-01 -3.412031938097845885e-01
-3.140357794111927614e-01 -4.499155334595667521e-01 -1.295040580228020155e-01 -7.521578519125365903e-01 -5.637720694929122534e-01 -3.412031938097845885e-01
3.094677763965139050e-01 5.033765259734934716e-01 2.800225068245559279e-01 6.290058132939384539e-01 5.478713560107095759e-01 5.515330127067801236e-01
2.348915915155007084e-01 6.656971768962135494e-01 2.016216431307957246e-01 7.097364308083841111e-01 5.479441882534941133e-01 4.427542945501434235e-01
4.523179029600736811e-01 7.193387780177917801e-01 9.179178752426278565e-02 7.097364308083841111e-01 5.479441882534941133e-01 4.427542945501434235e-01
3.454241921860895514e-01 5.769066661513957417e-01 9.096848293095657900e-02 6.234888162354568220e-01 5.573378362708969469e-01 5.483030478578279077e-01
5.372514778198743401e-02 2.376237491599336726e-01 7.323624709973240998e-01 2.475166889617896049e-01 6.622110835202842383e-01 7.072566504093714679e-01
1.495631265615572913e-01 1.796272312420969797e-02 9.746984730578380773e-01 3.821546806579093764e-02 7.219279236665920689e-03 9.992434438152774101e-01
-3.600282626684140341e-01 1.743237076694630627e-01 -7.761656265523068088e-01 -4.143508428870862348e-01 7.386444894162088604e-01 -5.317120435478485119e-01
1.020586637837946897e-01 2.212186222760699206e-01 -6.222906761765962802e-01 7.177040462395698484e-01 4.463447888429655785e-01 -5.344878216424373552e-01
4.445935046027652549e-01 2.002508502182621941e-01 -5.591551679329958002e-01 7.177040462395698484e-01 4.463447888429655785e-01 -5.344878216424373552e-01
1.630587886485273530e-01 5.832589128200794948e-02 -6.488067253275313639e-01 6.943191467743912160e-01 4.014231155037994991e-01 -5.973109782698663439e-01
9.222712894228644875e-02 8.353655220517892943e-02 -7.839002348378325546e-01 6.943191467743912160e-01 4.014231155037994991e-01 -5.973109782698663439e-01
-1.941567352659002987e-01 6.427423601985160495e-02 1.181892315936678983e+00 -1.613678934461649783e-01 2.317446519950336348e-01 9.592991291752787086e-01
4.334358433588991755e-01 6.047027935189833725e-01 1.380500877661416104e-01 7.648684447460067926e-01 6.148922286800514447e-01 1.920515798964016196e-01
6.053514298864530740e-01 4.919815266985801960e-01 8.703049452539632358e-02 7.648684447460067926e-01 6.148922286800514447e-01 1.920515798964016196e-01
1.202445828934698147e-01 -3.481804440537923373e-01 -6.612477354073996727e-01 4.586052642551228797e-01 -6.978588623516677192e-01 -5.501583588701755012e-01
5.695545769561660698e-02 -3.064756681199756749e-01 -7.960483789200125671e-01 4.586052642551228797e-01 -6.978588623516677192e-01 -5.501583588701755012e-01
2.592102706470029161e-01 -1.283913484018702478e-01 -6.105107194880250443e-01 5.065847318941862909e-01 -6.745611134347387905e-01 -5.369722652552745279e-01
2.140612118202383507e-01 -2.664436960974945756e-01 -6.871973337357996092e-01 5.065847318941862909e-01 -6.745611134347387905e-01 -5.369722652552745279e-01
-4.648560929810786890e-02 -5.457269800049763253e-01 4.501335342945621543e-01 -2.416724608127626683e-01 -7.164667551661088041e-01 6.544232654990581599e-01
-2.063960214459537035e-01 -4.961121977039899544e-01 5.282837333735687091e-01 -2.416724608127626683e-01 -7.164667551661088041e-01 6.544232654990581599e-01
3.279356266042815493e-01 5.449787060707631525e-01 -1.933363487193208718e-01 6.071949485207343011e-01 5.641528120111845013e-01 -5.595050484050846373e-01
2.007042405836440557e-01 9.020573056956013858e-01 -2.492838151050023598e-01 6.071949485207343011e-01 5.641528120111845013e-01 -5.595050484050846373e-01
2.620692207255072015e-01 5.855765347985077973e-01 -1.261547219307757595e-01 8.459078468409901852e-01 5.307261106611010915e-01 5.262803545051468468e-02
3.894389823874144230e-01 5.589991544005958879e-01 -5.862102511932537618e-02 8.459078468409901852e-01 5.307261106611010915e-01 5.262803545051468468e-02
5.636062989819781155e-01 -4.372573741724942176e-01 2.537262203009935102e-01 6.140166395255901577e-01 -7.413456581320265748e-01 2.709062228050394538e-01
5.930982379080738109e-01 1.602950882230178564e-01 4.613989688945878687e-01 5.477571046405896871e-01 8.635467816750232173e-02 8.321688674027316601e-01
7.274250977321904399e-01 -1.093315378975931174e-01 4.927251054627372895e-01 5.477571046405896871e-01 8.635467816750232173e-02 8.321688674027316601e-01
6.249814604833993092e-01 1.837934244990094834e-01 3.403758594106540136e-01 5.993054674946264315e-01 8.530425882017271533e-02 7.959623986459336553e-01
5.019320049604989453e-01 6.684597040985895688e-02 3.697088611963824656e-01 6.669292978549467010e-01 1.025754349271368465e-01 7.380268232335572831e-01
6.026370754133986152e-01 5.101794478873383776e-02 4.747407508914248675e-01 6.669292978549467010e-01 1.025754349271368465e-01 7.380268232335572831e-01
-7.582239235106638664e-02 5.467261598997751049e-02 8.877474259098334652e-01 -7.626897574484117759e-02 4.213862045052341188e-01 9.036684734965062527e-01
-1.062539220404149359e-01 -5.446784441699770163e-03 8.870981998547463609e-01 4.917024157462024413e-04 6.518870015622449943e-01 7.583159601531013205e-01
3.703534945177784921e-01 1.792781346076546822e-01 4.615950327539446452e-01 7.280648943110678006e-01 2.367487792594314133e-01 6.433284737915636597e-01
3.366066364164297942e-01 2.562481527326103681e-01 4.778415351674383249e-01 7.280648943110678006e-01 2.367487792594314133e-01 6.433284737915636597e-01
4.913688118663164794e-01 2.917588758418172556e-01 4.081765699079933363e-01 7.280648943110678006e-01 2.367487792594314133e-01 6.433284737915636597e-01
7.376889110736514210e-01 3.753542417352767613e-01 -4.784418602454389158e-02 5.466360684465857434e-01 8.222498215847764413e-01 1.584116144007851334e-01
-5.031314951693514059e-01 -2.079725178571708022e-01 1.603343053362024651e-02 -5.337498489991648887e-01 -8.267055312931427258e-01 1.779580378142313069e-01
-6.964554310490086442e-01 -2.417350358643812203e-01 4.143974222210883296e-04 -5.337498489991648887e-01 -8.267055312931427258e-01 1.779580378142313069e-01
-5.586063335472547520e-01 -4.037373713737583691e-01 1.765676971248322513e-01 -5.337498489991648887e-01 -8.267055312931427258e-01 1.779580378142313069e-01
-5.639910820141699199e-01 -3.251657887084277720e-01 -2.074865773248643630e-02 -5.337498489991648887e-01 -8.267055312931427258e-01 1.779580378142313069e-01
8.356145896940203599e-02 3.405771462639835268e-02 9.634180170025082868e-01 8.865013915922125010e-02 6.039911594936929751e-01 7.920453472374641146e-01
3.295210360422154983e-01 -4.152121507677827283e-01 3.632867093325177210e-01 6.388336830365813901e-01 -4.874928279483609628e-01 5.951825502455749817e-01
3.207182777735390067e-01 -3.290909758819211550e-01 4.537931292652616633e-01 6.388336830365813901e-01 -4.874928279483609628e-01 5.951825502455749817e-01
3.518533549792323689e-01 -2.717258313071521658e-01 5.994910996445406148e-01 6.388336830365813901e-01 -4.874928279483609628e-01 5.951825502455749817e-01
2.959534948057127024e-01 -3.153098895166759341e-01 4.778479697089087486e-01 6.165109967823364512e-01 -5.090591554886182424e-01 6.006437938243136543e-01
2.521437272344871916e-01 -3.083039306316289196e-01 4.770940901103675191e-01 6.165109967823364512e-01 -5.090591554886182424e-01 6.006437938243136543e-01
3.166951563425233207e-01 -3.727117937160155936e-01 4.206089781209519929e-01 6.827526667097475466e-01 -4.761386988638838802e-01 5.542027927978495638e-01
2.893149483852365256e-01 -2.966449981785162504e-01 3.903981777299223577e-01 6.827526667097475466e-01 -4.761386988638838802e-01 5.542027927978495638e-01
-3.056658684334908824e-02 1.586994419221002817e-01 9.879498368841101996e-01 -1.744165192294611436e-02 4.703372516032640061e-01 8.823143762472006602e-01
4.709281638615803178e-01 1.933346943921686045e-01 5.302196566154778745e-01 7.738394580173401094e-01 -3.112818928390464340e-02 6.326164154108985249e-01
4.032448387909404741e-01 2.845327428737037118e-02 5.145047725897629043e-01 7.738394580173401094e-01 -3.112818928390464340e-02 6.326164154108985249e-01
9.419362471511043278e-02 -4.487847287472980229e-01 5.578491139951953226e-01 6.037936885875866411e-03 -7.841375949672725332e-01 6.205576326797567210e-01
2.211818592954787471e-02 -4.475655708895327489e-01 6.347355111998046473e-01 6.037936885875866411e-03 -7.841375949672725332e-01 6.205576326797567210e-01
4.383320723002015473e-02 9.325460045681420729e-01 7.517095735275114432e-02 -6.196268278042996180e-02 9.283549482397412955e-01 3.664938144381690299e-01
-2.409358841361155523e-01 -5.358073962034033411e-01 3.882495895818549037e-01 -1.804827282182004111e-01 -7.192793346254765519e-01 6.708675156807392126e-01
-1.098180155750532183e-01 7.664749998743569659e-01 1.643205123079657937e-01 -1.514042641003230105e-01 6.924140549359720787e-01 7.054356989402821299e-01
2.172577003948408247e-01 -7.437851785846743002e-01 7.461064414319917848e-02 7.720958493645655452e-01 -6.065220159390173338e-01 1.897341391929256715e-01
9.063714741046419165e-02 -2.406375155719029379e-01 8.752940456746539644e-01 -5.023115181744749469e-01 -5.395255951026077801e-01 6.757183369854862232e-01
-8.205029074490725882e-02 1.069094900589339980e+00 1.295322057544582017e-01 -2.455608146895469635e-01 7.154527734613945755e-01 6.540850214118989481e-01
6.134914662398829877e-02 9.141317530744513808e-01 2.527611027362162699e-01 -3.346589282710799584e-01 7.955252824322321947e-01 5.051167456534869649e-01
-5.771926634360153852e-01 -2.173810510101557569e-01 3.282526680700865729e-01 -5.504256735625097097e-01 -5.595023179274981606e-01 6.196682452062670654e-01
-1.036253048539964361e+00 -2.001937499819167465e-01 2.251112220905719385e-01 -5.821458945413829911e-01 -4.998988090704583054e-01 6.412545034216526885e-01
-8.610790835289713341e-01 -1.866091860609878916e-01 2.101123168740687830e-01 -5.821458945413829911e-01 -4.998988090704583054e-01 6.412545034216526885e-01
1.697078775012839380e-01 5.537395285678475831e-01 4.382608988428158825e-01 3.692444365853029264e-01 5.543459946112072600e-01 7.458948078042328955e-01
1.879077096840064964e-01 4.988576867101470191e-01 3.973984987280074765e-01 3.553905098283562380e-01 5.951014499671553049e-01 7.207994518386722227e-01
2.665556137026534600e-01 5.685508611816496582e-01 2.323002712356140032e-01 3.553905098283562380e-01 5.951014499671553049e-01 7.207994518386722227e-01
-4.582845707913549282e-02 5.058673247009445317e-01 -5.960361279707129256e-01 -3.132815007929387607e-01 7.192231303101043194e-01 -6.201393311892565707e-01
-8.385804446152830272e-01 -3.992660855456787172e-01 1.954951781733782756e-01 -5.257860432503699277e-01 -8.399804652219036161e-01 1.340964383147976169e-01
-5.939750492357579459e-01 -2.800266128081334571e-01 1.696151011374616435e-02 -5.257860432503699277e-01 -8.399804652219036161e-01 1.340964383147976169e-01
-5.267910603845394890e-01 1.782199031716407700e-01 -3.664172795550484363e-01 -5.184137737308786020e-01 6.028291121089774940e-01 -6.065016247299023222e-01
-7.702338623440159182e-01 3.638058966683557216e-01 -3.183518654315316554e-01 -5.184137737308786020e-01 6.028291121089774940e-01 -6.065016247299023222e-01
9.366702003849647351e-02 3.959624105121997695e-01 3.589113146751563566e-01 4.749021833149078553e-01 6.251255038816905252e-01 6.194239426107102098e-01
4.136348797675021283e-01 4.611216741816414055e-01 4.589433429749263937e-01 4.749021833149078553e-01 6.251255038816905252e-01 6.194239426107102098e-01
2.213338213123457465e-01 5.047131013750087991e-01 3.627653067593110681e-01 4.908271555457078827e-01 6.038408912806955131e-01 6.280643927148273908e-01
3.790504568850480149e-01 4.730612458145326271e-01 3.492817233364490792e-01 4.908271555457078827e-01 6.038408912806955131e-01 6.280643927148273908e-01
-3.385086717387474908e-01 4.964695230650486568e-01 5.945864170088204226e-01 -4.156066656413964222e-01 6.218155078973006678e-01 6.637895552152524026e-01
-2.939596515746533689e-01 5.293781969980152491e-01 3.105308106711142657e-01 -4.156066656413964222e-01 6.218155078973006678e-01 6.637895552152524026e-01
-2.224913179125446172e-01 4.433432730951046841e-01 4.600559239616355822e-01 -4.507419296489877381e-01 6.192534382911217827e-01 6.429283723875706125e-01
6.119441770475537307e-02 8.840953565026490324e-01 4.116894480681356772e-01 3.071894373674662893e-01 5.275509348333987658e-01 7.920382949872225575e-01
1.916991184749956556e-01 6.893522226526063168e-01 1.412902811349143195e-01 3.071894373674662893e-01 5.275509348333987658e-01 7.920382949872225575e-01
-6.608106418213950395e-01 -8.205093515644366897e-02 1.962224364381176533e-01 -5.817589186990270722e-01 -4.395484737727547442e-01 6.843637188792086601e-01
-9.773319444672832201e-01 -6.712274025921560749e-03 3.100562877831069541e-01 -5.522632213020680636e-01 -4.363686126559420675e-01 7.103434157404371341e-01
-7.155116647683692488e-01 -1.707726754888333198e-01 2.824414384061533778e-01 -5.522632213020680636e-01 -4.363686126559420675e-01 7.103434157404371341e-01
-7.643905015023951810e-01 -1.290165242160593861e-01 1.073227644319305063e-01 -5.522632213020680636e-01 -4.363686126559420675e-01 7.103434157404371341e-01
1.541220503929198182e-01 5.898660218205526995e-01 4.320818453728846320e-01 5.155884594013165900e-01 5.242964016440584407e-01 6.777033449491518535e-01
9.149970051882358457e-02 8.437302607476455663e-01 1.669946150633697113e-01 4.125299987889779474e-01 5.414326867308915103e-01 7.325773992135807822e-01
2.166959512675834254e-01 7.166457244084121214e-01 1.885198366561241234e-01 4.125299987889779474e-01 5.414326867308915103e-01 7.325773992135807822e-01
-3.234658796705067174e-01 6.027643097194189670e-01 4.605225016025394358e-01 -5.868106145118119343e-01 5.361595886938949063e-01 6.067834853948013141e-01
-2.086720206021712709e-01 5.108278370836183413e-01 2.780719608941614185e-01 -5.868106145118119343e-01 5.361595886938949063e-01 6.067834853948013141e-01
1.766612159410538285e-01 9.264351312047859333e-01 1.974676488652779005e-01 3.928593560759564007e-01 5.688206723137668730e-01 7.225680376906380431e-01
-5.516631149668646539e-02 9.497130072937937095e-01 1.213336723711170295e-01 3.928593560759564007e-01 5.688206723137668730e-01 7.225680376906380431e-01
-2.473397180021887354e-01 5.491918993982197739e-01 3.725401408987035756e-01 -5.647625000110708671e-01 5.474776922748345598e-01 6.175042469835059222e-01
6.931304978329791422e-03 -6.799717035929516706e-01 -3.091962094727068733e-01 1.419719684694419060e-01 -5.300275956208789774e-01 -8.360111889498020865e-01
4.048631735223728184e-02 -6.975764045487352627e-01 -3.586292290223814239e-01 1.419719684694419060e-01 -5.300275956208789774e-01 -8.360111889498020865e-01
-8.195520140010301713e-01 -1.608492834641741531e-01 2.786146384788588115e-01 -5.336714719315789335e-01 -2.827820813956482549e-01 7.970125811352836154e-01
2.234092634755731888e-01 8.141041948308505027e-01 -2.500652648651722765e-01 5.394331852236905478e-01 5.389217604753544499e-01 -6.469738594144033295e-01
2.250897925201878480e-01 7.410454181621285441e-01 -1.839448457303183848e-01 5.394331852236905478e-01 5.389217604753544499e-01 -6.469738594144033295e-01
-7.859444406016522500e-01 -8.528038956720888908e-02 1.132617277188278926e-01 -5.463600549081472080e-01 -3.505875501155749641e-01 7.606438457679951526e-01
1.161051133477600528e-01 6.746997090355337789e-01 -1.480394357275646999e-01 5.547843717920847295e-01 5.680007099602111253e-01 -6.079387257774898634e-01
9.580322399936128108e-02 5.006334173579818358e-01 4.810762331835894412e-01 -1.747649773273599882e-01 5.774501720216488332e-01 7.975014116175189738e-01
-2.064996208318928828e-01 4.418973701611695337e-01 3.012869663161106271e-01 -1.747649773273599882e-01 5.774501720216488332e-01 7.975014116175189738e-01
4.688895312114119696e-01 -4.601629463080877391e-01 1.313751340833004544e-01 6.216343297609832064e-01 -7.642915092888997730e-01 1.715495522917759863e-01
-9.057860939335929396e-03 9.459949369477524961e-01 -2.155944076861749659e-01 2.490649593966568209e-01 5.790384371313079814e-01 -7.763254049206904650e-01
2.996438624688779195e-01 7.660722492535007033e-01 3.583272540212852075e-02 8.171048303480272779e-01 5.695242752586707757e-01 8.934089832214148208e-02
-8.946328611513774953e-02 4.871591881520655476e-01 -4.960892037104935870e-01 -9.344435463200009839e-02 6.670684868295692072e-01 -7.391128374384506872e-01
-1.099446642848907196e-01 5.723526895094885880e-01 3.464715376008211112e-01 -1.158774103968355090e-01 6.708037249944801550e-01 7.325263055298785186e-01
-9.341941725135873009e-02 4.025681253857883446e-01 4.919931956823199726e-01 -1.158774103968355090e-01 6.708037249944801550e-01 7.325263055298785186e-01
-1.731826014793256818e-01 9.031227891700315258e-01 -1.450833778344577940e-01 -5.996060917199794726e-01 5.678194286556160764e-01 -5.639624377682446177e-01
-4.542929366809903557e-01 5.370637313844499605e-01 7.085090737088535484e-02 -7.282029443661575119e-01 6.761353013520289279e-01 1.120782141277239380e-01
-4.747967254744360210e-01 4.645597155143800783e-01 1.123496345153187914e-01 -7.282029443661575119e-01 6.761353013520289279e-01 1.120782141277239380e-01
-1.329639504844990772e-01 6.403217673720824621e-01 2.828150640815775829e-01 -2.768103492249081587e-01 5.399070221433077688e-01 7.949065592900401711e-01
-1.235522418598270777e-01 5.418685026183728271e-01 4.327701275235971701e-01 -2.768103492249081587e-01 5.399070221433077688e-01 7.949065592900401711e-01
-1.032638790965791503e-01 8.927749380989312700e-01 2.559709780917849287e-01 -2.768103492249081587e-01 5.399070221433077688e-01 7.949065592900401711e-01
1.968504932551563835e-02 5.335797977078540200e-01 4.647277234022859083e-01 -1.150526096868699777e-01 5.534327579365480032e-01 8.249091340547679563e-01
-8.387736804022118964e-01 -8.158930555465608581e-02 3.015808081995673962e-01 -5.325142989816987749e-01 -4.734797729575088848e-02 8.450956693925433250e-01
-1.557703405718413869e-01 5.804141965308398099e-01 4.323743821147375543e-01 -6.354766232931455261e-02 5.313546972528295775e-01 8.447626177334276454e-01
-1.891559220176937117e-01 8.142831498696035952e-01 3.617582126376076013e-01 -6.354766232931455261e-02 5.313546972528295775e-01 8.447626177334276454e-01
-2.359494846703549531e-01 6.300652730154365777e-01 2.792491748739981960e-01 -6.354766232931455261e-02 5.313546972528295775e-01 8.447626177334276454e-01
1.935111699413069042e-01 -5.050772998978736439e-01 4.073093102454347081e-01 5.099112401260640359e-01 -6.008149609050694728e-01 6.156394317664677374e-01
-6.427473604199554491e-02 7.107149878225476058e-01 7.833796598758543950e-02 -8.118645372447491626e-02 5.199898134379320469e-01 8.503054472672912922e-01
1.527310988011122000e-02 6.759841591415597373e-01 2.039253414691698241e-01 -8.118645372447491626e-02 5.199898134379320469e-01 8.503054472672912922e-01
-1.263136972109919764e-01 -3.797998108956840424e-01 2.967161886619489874e-01 -2.573604732319950128e-01 -6.041868316131309147e-01 7.541378251507410146e-01
2.851526217667930962e-02 -5.445910229480969145e-01 4.020746327597085612e-01 -9.745475371623349425e-02 -6.737992971377085860e-01 7.324596085483747743e-01
-4.227385011928082303e-02 -5.763802330263636531e-01 2.943145639571153049e-01 -9.745475371623349425e-02 -6.737992971377085860e-01 7.324596085483747743e-01
-2.691305886958187399e-01 6.944312145344012643e-01 3.257974089941384488e-01 -2.417834030503731579e-01 5.636737670472005135e-01 7.898181248567287538e-01
-8.945957269215365493e-01 3.272574229412553715e-01 -2.272243234980669824e-01 -6.038968136475275639e-01 4.884172040153120786e-01 -6.298867146465531031e-01
-8.468491721747923862e-01 9.318362712056793562e-02 -2.511047976329815468e-01 -6.038968136475275639e-01 4.884172040153120786e-01 -6.298867146465531031e-01
-7.600266282371211934e-01 -7.100050971607776984e-02 -2.046591362682484982e-01 -6.038968136475275639e-01 4.884172040153120786e-01 -6.298867146465531031e-01
4.139238110663284176e-01 -4.831633366425787113e-01 -3.083063721629433207e-01 6.164737030982458954e-01 -5.818809561562277022e-01 -5.304476658927343991e-01
3.256053934606435440e-01 -4.765256386808168765e-01 -2.691445478519337020e-01 6.513726455971596829e-01 -5.362747990991975078e-01 -5.367709161447482558e-01
3.023874524179876455e-01 -4.552868554230802278e-01 -3.171195526390695463e-01 6.513726455971596829e-01 -5.362747990991975078e-01 -5.367709161447482558e-01
4.180354922424318609e-01 -7.072893767544088384e-01 -3.176489743494988471e-01 6.513726455971596829e-01 -5.362747990991975078e-01 -5.367709161447482558e-01
4.114183427140943317e-01 -5.519406504316918260e-01 1.241952401237775699e-01 6.945988991589936434e-01 -7.022044848900437231e-01 1.563369140267981683e-01
4.681460690624934529e-01 -4.967102708266354916e-01 1.204386339803108774e-01 6.945988991589936434e-01 -7.022044848900437231e-01 1.563369140267981683e-01
-5.848273572431177403e-01 -6.673383645841163281e-04 4.127759758096073983e-01 -5.318259480457718791e-01 -4.860991485747622604e-02 8.454574129799589111e-01
-6.172986014830298407e-01 -6.809695233300420980e-02 3.199824923544028477e-01 -5.318259480457718791e-01 -4.860991485747622604e-02 8.454574129799589111e-01
8.990705534710715652e-01 -1.135945605723196611e-01 -2.124917278715881819e-01 6.490031620590335226e-01 -1.622884796215448289e-01 -7.432747439671976153e-01
9.194021946006967205e-01 6.593389796625853672e-02 -1.532943206886943355e-01 6.490031620590335226e-01 -1.622884796215448289e-01 -7.432747439671976153e-01
4.670272305631790744e-01 -5.017737646281968944e-01 5.486769578172161904e-02 8.209835662251404598e-01 -5.700730923420311846e-01 3.166470236469284133e-02
3.596909391386015620e-01 -4.994049177915573234e-01 1.562406702161989736e-01 8.209835662251404598e-01 -5.700730923420311846e-01 3.166470236469284133e-02
3.218270984196492379e-01 -6.783062179147678616e-01 -8.094993536117117694e-02 8.209835662251404598e-01 -5.700730923420311846e-01 3.166470236469284133e-02
-6.125128319160564327e-01 -2.356850846631237950e-03 4.027755792003052115e-01 -5.320636150494966188e-01 -2.990718549710818380e-02 8.461760276656995483e-01
-7.680171404984266204e-01 -3.023537437476164769e-02 4.536257375583021556e-01 -5.320636150494966188e-01 -2.990718549710818380e-02 8.461760276656995483e-01
-8.955876275456083890e-01 -1.108113555305073467e-01 -1.089197834628724895e-02 -7.285558808403383990e-01 -6.849210444904273443e-01 -9.459984519050194593e-03
5.357260591772838865e-01 -1.160804126078217591e-01 -3.033782290230267464e-01 6.282507668888319685e-01 4.043617963042412528e-02 -7.769593871499916871e-01
-1.375597049814542006e-01 -3.544464699617213554e-01 -2.857374637416645324e-01 -3.030728182809772076e-01 -6.148536532459449866e-01 -7.280809377461692211e-01
5.794836064603218206e-01 6.621663833782974462e-02 -4.048056343617060793e-01 7.226058695787226371e-01 1.798039474888175060e-01 -6.674663270291741890e-01
-1.002851050136992050e+00 5.386365606876641898e-02 -7.025281053717126467e-02 -8.202520614495530937e-01 -5.332323795277913447e-01 2.070018963944248724e-01
4.520433538836174381e-01 6.387110801171559660e-02 -3.764978119531218193e-01 6.663506985345954980e-01 1.336480701059439002e-01 -7.335631805914287762e-01
4.632845671520112174e-01 5.345106042180874928e-02 -4.951939979993497110e-01 6.663506985345954980e-01 1.336480701059439002e-01 -7.335631805914287762e-01
3.415721769257091256e-01 8.480815210075900445e-01 1.599861204772277112e-01 7.952825984838592932e-01 5.947839325574004743e-01 1.172930608361570370e-01
2.527620882405338665e-01 9.198004495420828430e-01 5.329366233403934339e-02 7.952825984838592932e-01 5.947839325574004743e-01 1.172930608361570370e-01
2.456084176279829112e-01 7.509756353194838585e-01 6.396554224053399573e-02 7.952825984838592932e-01 5.947839325574004743e-01 1.172930608361570370e-01
-1.011838622124917819e+00 -8.336648344247279963e-02 -7.242806096199871924e-02 -9.422798517746213687e-01 -3.345737550953909456e-01 -1.300320502672092787e-02
-1.015744221031558592e+00 -1.001644244031518749e-01 -4.805505543488967218e-02 -9.983867815349910524e-01 -5.380867890418215144e-02 -1.812348009595647971e-02
-6.526658884439244801e-01 -5.931479802009715502e-02 5.547143998258180497e-01 -5.335736318717584359e-01 -1.355578536235080012e-01 8.348192904408527903e-01
-8.418055552428242994e-01 -4.160463204256947822e-01 -8.972984011726106712e-02 -6.524020011953217679e-01 -7.424851539465743278e-01 -1.519454672087033331e-01
-8.751147705958408629e-01 -1.298415124578355395e-01 8.548748364439999470e-02 -6.467615973949203401e-01 -7.480160529284710647e-01 -1.489007075083322584e-01
-3.883856970953152299e-01 -5.615061520326336542e-01 -3.488004614859290808e-01 -5.212893314011847190e-01 -5.863913517613625892e-01 -6.200021093083374346e-01
-8.071648065419441131e-01 -1.763485139180965833e-01 -4.556055424902302753e-02 -7.384008360458862441e-01 -5.710570894545894394e-01 -3.586892888146915870e-01
-2.590365785303789248e-01 -4.912907296181824868e-01 -2.874730882686567512e-01 -6.212415367384175324e-01 -5.465754458600270427e-01 -5.615284810352918488e-01
3.726382653110570931e-01 -2.635309972303813697e-01 -4.016271315743429327e-01 5.650446707493277376e-01 -4.833496541961899706e-01 -6.686535963009601069e-01
-7.205521605470956992e-01 1.516033605977550325e-01 6.183282138083214807e-01 -5.230176045181080813e-01 -1.071776677208155226e-01 8.455563451988674650e-01
-6.728317189768829865e-01 -1.378498439097308736e-01 2.744689094614911062e-01 -5.230176045181080813e-01 -1.071776677208155226e-01 8.455563451988674650e-01
-1.122351199418563317e+00 -7.584221812950785180e-02 -9.819437615278663045e-02 -8.334602394434496020e-01 -3.587451861479784010e-01 -4.202926607526237257e-01
-8.784459593357691887e-01 -1.198395874665819372e-01 -1.728828148101111406e-01 -6.819623492661209818e-01 -5.472646244038695817e-01 -4.852100422080366515e-01
-9.102775808996322882e-01 -1.966248812728946249e-01 -1.414790392615273840e-01 -6.819623492661209818e-01 -5.472646244038695817e-01 -4.852100422080366515e-01
-8.309004247501917684e-01 -2.035130688770226681e-01 1.384770553558484774e-01 -5.885712790493262681e-01 -8.081421902923797695e-01 -2.213706727810114613e-02
1.989141863044815162e-01 -5.315851103358283369e-01 -4.949452575207871075e-01 2.725710689631494210e-01 -6.138991994392183349e-01 -7.408324947598970978e-01
3.517070962174452808e-01 -4.668099924716455074e-01 -5.898299779339708504e-01 2.725710689631494210e-01 -6.138991994392183349e-01 -7.408324947598970978e-01
-1.072705052916188631e-02 -5.899533460558722409e-01 -5.221818559959829908e-01 7.148246646274585003e-02 -6.723651789197393480e-01 -7.367600173493599192e-01
-9.704477227910015547e-01 -1.862861165316739009e-01 2.867688870344852620e-02 -6.551723388469092857e-01 -7.554537161302078419e-01 -6.236120182447394376e-03
4.095628329159048397e-01 -1.946717642481979316e-01 -3.047969957270892372e-01 5.707972594995064375e-01 -4.899468520141243566e-01 -6.588949618484745141e-01
5.539288636118735454e-01 -4.148693814526074330e-01 -5.161486724063177878e-01 5.707972594995064375e-01 -4.899468520141243566e-01 -6.588949618484745141e-01
4.507850656996804095e-01 -4.323482612787942214e-01 -2.922035806987834938e-01 5.707972594995064375e-01 -4.899468520141243566e-01 -6.588949618484745141e-01
-7.581838006531887997e-01 -9.349026149166456134e-02 3.586924019571314237e-01 -5.397461443681877968e-01 -1.831959698116764346e-01 8.216528076288881488e-01
-7.257372044239014386e-01 -6.182242941486733312e-02 2.825682813429995499e-01 -5.397461443681877968e-01 -1.831959698116764346e-01 8.216528076288881488e-01
-7.054344613899878880e-01 8.441532139883316244e-02 4.429288029877570532e-01 -5.397461443681877968e-01 -1.831959698116764346e-01 8.216528076288881488e-01
-7.215750873777762031e-01 2.674304924638674086e-01 -2.788972676300508491e-01 -5.487178247317230362e-01 5.494729519996298661e-01 -6.300700150320587278e-01
-8.223352968532743335e-01 2.343932815613380960e-01 -1.954622209218365714e-01 -5.487178247317230362e-01 5.494729519996298661e-01 -6.300700150320587278e-01
-6.496744338332639535e-01 -3.289872661675984911e-01 4.236463951660721095e-02 -5.413910013777115671e-01 -8.372264063263882283e-01 -7.712151565575026124e-02
-8.138455111874260961e-01 -1.099488768368543368e-01 3.341591955525743951e-02 -5.413910013777115671e-01 -8.372264063263882283e-01 -7.712151565575026124e-02
4.276009784129992664e-01 -3.189472001494969011e-01 -5.459164517555308294e-01 5.845900258430134500e-01 -5.464857896046758645e-01 -5.996730637981155798e-01
4.845655751098270625e-01 -3.830614605663823502e-01 -5.477718595695740822e-01 5.845900258430134500e-01 -5.464857896046758645e-01 -5.996730637981155798e-01
2.136324559925178446e-01 -1.956921376818426261e-01 -4.005745487898575985e-01 5.845900258430134500e-01 -5.464857896046758645e-01 -5.996730637981155798e-01
-4.754024292249527384e-01 -6.811986727375863443e-03 2.304929548695706654e-01 -6.775675643466811948e-01 -8.866012831919230924e-03 7.354070910467006561e-01
-4.008034076796102574e-01 -1.051021623385261783e-01 4.852419803982213065e-01 -6.775675643466811948e-01 -8.866012831919230924e-03 7.354070910467006561e-01
-4.924885373131073218e-01 -4.514974773670544228e-01 1.323621816369600079e-01 -6.317664742798221322e-01 -7.633730670028661125e-01 1.346576494324796536e-01
-3.754993272151013195e-01 -2.886228433703633134e-03 3.925918028769301293e-01 -6.580864143623839091e-01 -1.525501814770679754e-01 7.373267344691729619e-01
6.245242830310087090e-01 -6.547612361760316024e-02 -1.851362221227297045e-01 6.357475045322894536e-01 -3.452657732059665197e-01 -6.903742871323153008e-01
-5.918750473329692507e-01 -3.724297126169638927e-01 2.325356918251393901e-01 -5.647538974175038140e-01 -7.294661877241332970e-01 3.859172402458319606e-01
-1.651028547179780870e-01 -8.798692300629672447e-01 2.316219606888935412e-01 -7.201365670827131193e-01 -6.110133847347016811e-01 3.287338869440878386e-01
-6.036784270172662614e-01 -4.096456147135914549e-01 2.185712875900812646e-01 -5.496995033610104775e-01 -7.706840297170202136e-01 3.222989021759050665e-01
-5.502254890371786056e-01 -4.737848163276081603e-01 1.760114718671947076e-01 -5.496995033610104775e-01 -7.706840297170202136e-01 3.222989021759050665e-01
-5.133072591399366891e-01 -5.419020569210475369e-01 2.943181446058714124e-01 -6.058277415768044127e-01 -7.213248321787456563e-01 3.356534433284622532e-01
-5.384031501729158453e-01 -3.470429706943642945e-01 1.462155257416240528e-01 -6.058277415768044127e-01 -7.213248321787456563e-01 3.356534433284622532e-01
-3.596512753813848606e-01 -5.451211753279412431e-01 2.709996511484051296e-01 -6.058277415768044127e-01 -7.213248321787456563e-01 3.356534433284622532e-01
-5.201690128858763584e-01 -3.618099390529152526e-01 1.844178309484832412e-01 -6.692903856149976516e-01 -6.944680199138270060e-01 2.641297958207214358e-01
-4.322437105557303538e-01 -4.696081639210343828e-01 2.179420300822770273e-01 -6.692903856149976516e-01 -6.944680199138270060e-01 2.641297958207214358e-01
-5.049826597727221644e-01 -2.863650145178275319e-01 2.610819783269042738e-01 -5.689204919406115613e-01 -6.059951739642783775e-01 5.559670160918329662e-01
-3.419037551560496491e-01 -3.233963635668202219e-02 -6.258229554190007926e-01 -8.346551645029430810e-01 -1.573251142171536721e-01 -5.278253165632779131e-01
-2.511155534174979720e-01 -8.617668759814854640e-02 -7.484360764454431880e-01 -8.346551645029430810e-01 -1.573251142171536721e-01 -5.278253165632779131e-01
-6.959454327942620200e-01 -3.704772110982936240e-01 1.660411861034894465e-01 -5.315406383528964440e-01 -7.801124577085070122e-01 3.299834891436054241e-01
-5.512844138363779400e-01 -3.099396330491698826e-01 8.708815378072082281e-02 -5.315406383528964440e-01 -7.801124577085070122e-01 3.299834891436054241e-01
-5.645199038541940384e-01 -3.487337194924039485e-02 3.650409262980494063e-01 -6.052796947702746566e-01 -2.082401473487177079e-01 7.682919576118102389e-01
-3.382771101562958016e-01 6.906350788807298635e-02 -8.177464277838367712e-01 -7.375461209176228383e-01 3.808120529262481457e-01 -5.576808225727900581e-01
-8.846065370627234636e-02 9.501972437173859809e-02 -7.462068581133697309e-01 -7.375461209176228383e-01 3.808120529262481457e-01 -5.576808225727900581e-01
-7.229646336442278054e-01 -4.645824666068987252e-02 1.892796275969635400e-01 -5.462339177154450498e-01 -6.918873710749263717e-01 4.721444407003682620e-01
-2.642957399211490199e-01 2.660689998598426698e-01 -8.690877969132884129e-01 -7.855468462954338094e-01 2.864427189110724803e-01 -5.485131913255419933e-01
-3.287239342532538577e-01 2.062842010064917242e-01 -4.930906992527785415e-01 -6.805176992359559529e-01 4.858446329070051917e-01 -5.484985448495358629e-01
-4.186823751931505466e-01 8.632795357497127786e-02 -5.227525694789899591e-01 -6.805176992359559529e-01 4.858446329070051917e-01 -5.484985448495358629e-01
-1.612825529233342103e-01 -1.417478958885728668e-01 -6.348003015056291609e-01 -2.695221104139553514e-01 -7.910648798766729550e-01 -5.491577076065786711e-01
-1.268767488656140086e-01 2.262590373023828372e-01 -7.392295961421454509e-01 -2.055266311477926544e-01 8.267506189690010387e-01 -5.236814088006304102e-01
