-2.473824693894742521e-01 -4.724053171585551603e-01 -2.900468203352071783e-01 8.680336722508043001e-01 -3.355142739506996596e-01 -3.659886826311958274e-01
-2.598444596195957357e-01 -4.288808615635589794e-01 -3.092264788339861847e-01 9.286633986255082851e-01 -2.606029256392834448e-01 -2.639515243402968392e-01
-2.335236697959904295e-01 -2.455918656058089788e-01 -3.749577722070787655e-01 2.136250025039970468e-01 -6.678593907922573125e-01 -7.129713826204822080e-01
-1.764225290150530090e-01 -2.794252521361899610e-01 -3.616571958250911489e-01 2.672516638832783675e-01 -6.381932587662716427e-01 -7.220013245257279610e-01
-2.233564040066938761e-01 -3.952197224148187304e-01 -4.405786273313171408e-01 -6.970552051543921213e-02 -6.186684384060120445e-01 -7.825538343973137412e-01
-1.829664266850467846e-01 -2.052443069297330558e-01 -4.363185658134160483e-01 -5.180555292943164192e-01 -4.614578924601253629e-01 -7.201910038690049198e-01
-3.377448005364652728e-01 -2.822901025479516712e-01 -4.112784088899093526e-01 -9.855169001346381075e-01 -1.232062822604158142e-01 -1.165188892865898634e-01
-3.195550349120337419e-01 -2.581484069381826396e-01 -4.648837137378772910e-01 -9.939329708391725360e-01 4.516100789187506986e-02 1.002882487882124501e-01
-3.553058038147855480e-01 -2.190426044450809462e-01 -3.741712408568086401e-01 -8.979502222065226524e-01 2.190918841515051285e-01 3.816859242075871794e-01
-2.369636988982983805e-01 -2.254407130319628916e-01 -3.674686101831720619e-01 -8.967155399661984605e-01 2.459119521863098179e-01 3.680061849412958885e-01
-3.193267902171407213e-01 -3.387196040060364011e-01 -3.556604693122952798e-01 -7.769345277604093880e-01 3.175810342007974740e-01 5.436129379343923596e-01
-3.186887455757922982e-01 -1.845450283554719850e-01 -3.573949002766207417e-01 -8.380355795863541069e-01 2.402354100536801818e-01 4.898809193096865799e-01
-3.380699334850205129e-01 -2.037805685303941128e-01 -3.607078703435693812e-01 -3.455981685839499828e-01 4.212514340706062788e-01 8.385160315491155814e-01
-1.476245812176909811e-01 -2.050013739556849623e-01 -4.791349153445934594e-01 -9.536392184731461164e-02 3.749620278422636233e-01 9.221221177730836160e-01
-1.306613159132373192e-01 -3.144083875213249946e-01 -3.769301253847321398e-01 -3.203712211191466208e-01 5.332082547602411404e-01 7.829758857935311678e-01
-2.726745149808496027e-01 -3.162113882728124770e-01 -3.362806010985123772e-01 -4.427134204474187928e-01 6.892975131958470891e-01 5.734751656852875579e-01
-1.460211835645154610e-01 -2.975047794796711886e-01 -2.413035958639922762e-01 -1.780183052337931393e-01 6.409015104897526349e-01 7.466958797620631971e-01
1.278729772456307923e-02 -3.331362369618255936e-01 -1.878862327848652425e-01 -5.771601285428697159e-02 6.354893290771204128e-01 7.699494622956205570e-01
-1.991058782696844554e-01 -2.074603489114072163e-01 -2.975475220718050706e-01 4.799870457284812764e-01 4.985666425174675731e-01 7.218335950215287733e-01
-9.848865155306593677e-02 -2.432104657999702990e-01 -3.018021847978634153e-01 4.823084270847303734e-01 4.524923556469030994e-01 7.500861612136101586e-01
-2.031270666679325931e-01 -2.498137502186750236e-01 -4.448519238818811061e-01 5.354560912661141536e-01 4.795068222373147782e-01 6.952409522991916946e-01
-3.435916078145306168e-02 -3.150221003099813455e-01 -2.601632381701969865e-01 6.637219532297253810e-01 4.276578300636801333e-01 6.136627324403386430e-01
2.392625371220161862e-02 -2.455322669094271992e-01 -3.353086273003016982e-01 6.245623747584916341e-01 4.685711145785512177e-01 6.247903253241422483e-01
-4.269751397779641966e-02 -3.577650748668012026e-01 -4.246150919496440856e-01 6.244856232226257964e-01 4.897544436579218674e-01 6.084063537682428136e-01
-1.424610199587402759e-01 -3.211739167619973023e-01 -3.679883705770072844e-01 5.911760185828930370e-01 5.016322784967399695e-01 6.315662849002059431e-01
-1.890407364198563034e-01 -2.536164624066719053e-01 -2.862725281777493969e-01 5.784223062697112505e-01 5.619529558478971731e-01 5.913006942524586806e-01
-6.797960170446849804e-02 -3.789348241647223503e-01 -2.351161185117333630e-01 6.218759487708395151e-01 5.363770006523842504e-01 5.705874319607121548e-01
8.092904612004038489e-02 -1.476424260197860272e-01 -4.186794698199466369e-01 6.654059006677421895e-01 3.566602606510426154e-01 6.557655418126825397e-01
-8.641422378380572700e-02 -1.747358671876550751e-01 -2.740815611397672269e-01 6.189392945735385787e-01 3.888706323940147591e-01 6.824176000765876937e-01
-4.533965888698494179e-02 -1.568600625928198988e-01 -2.830986036700782749e-01 6.281412177564773547e-01 3.285975287637743492e-01 7.053100556817194500e-01
-3.089334128929186948e-02 -3.019314477929686547e-01 -4.785258640726342549e-01 6.644035294043203477e-01 3.068552145436286294e-01 6.814747445228369616e-01
2.203632957184170280e-02 -1.798161843896765588e-01 -3.374003805380510479e-01 7.531246606372115071e-01 3.480540204962628836e-01 5.582666427044268298e-01
6.441552335150084463e-02 -2.204316515597771475e-01 -3.319505287249409076e-01 7.838214151990385847e-01 3.486173502201065921e-01 5.138968108491119846e-01
-2.197430798977358102e-02 -3.650956555316823282e-01 -4.291435542376042522e-01 8.146310892373834767e-01 3.485394120547831154e-01 4.635692684943862329e-01
1.125684547074872477e-01 -3.736858456654053584e-01 -5.815513348080418865e-01 8.455482790046540131e-01 2.624943482841878839e-01 4.649137823200416020e-01
1.293696740804330114e-01 -4.272425580262496636e-01 -4.605492821059251063e-01 8.611951726265308915e-01 2.692125516500243343e-01 4.311235051337874435e-01
1.330090534318628115e-01 -3.565632545367701245e-01 -4.976175222843859380e-01 1.000000000000000000e+00 0.000000000000000000e+00 0.000000000000000000e+00
1.482354431708826636e-01 -5.273369410471622221e-01 -6.381828192401561850e-01 1.000000000000000000e+00 0.000000000000000000e+00 0.000000000000000000e+00
1.410801049004536400e-01 -4.504401207791740025e-01 -5.687005758617607043e-01 1.000000000000000000e+00 0.000000000000000000e+00 0.000000000000000000e+00
1.869650740633737040e-01 -3.813231325462651533e-01 -6.212796748592641638e-01 9.997004730204106515e-01 1.525417551236961551e-02 1.913829595875533168e-02
2.152645101266258687e-01 -2.884107375684720753e-01 -6.701438890337743093e-01 8.997837194425418739e-01 2.496285489157020199e-01 3.578754612884014197e-01
1.124666950867169724e-01 -4.020329464413422427e-01 -7.093628563591671821e-01 8.730635507301881537e-01 2.634944722570491393e-01 4.102812443633945261e-01
-4.455010654988890428e-02 -3.398322587035256248e-01 -5.890440864013207767e-01 8.328881052157549592e-01 3.319325717794990860e-01 4.428523139625183958e-01
1.991548957844176126e-02 -4.526427973428497897e-01 -4.283061162020775914e-01 8.473751368606556866e-01 3.120303557003734074e-01 4.296422169106331457e-01
1.526654247399488185e-01 -4.105147585309647518e-01 -5.080189729929487363e-01 8.469321090462563761e-01 3.204102647892107525e-01 4.243150538033832464e-01
1.136471359510861368e-01 -3.740290050500685859e-01 -5.537722032422129903e-01 8.968339405236847028e-01 3.222184765781925253e-01 3.030909706282728378e-01
1.115823138800459274e-01 -5.293747450761920881e-01 -3.427160528295447595e-01 9.260360848185337224e-01 2.573374264477878426e-01 2.761061726278333794e-01
1.832054037195864904e-01 -7.126025921053437129e-01 -4.386098214422671226e-01 6.377834155451512776e-01 -6.537274090334977972e-01 -4.072748329247840582e-01
1.786495771294721591e-02 -7.210586716764609827e-01 -5.123654172962932574e-01 1.000000000000000000e+00 0.000000000000000000e+00 0.000000000000000000e+00
1.839327421212452185e-01 -7.076619879880053920e-01 -3.784371364528570925e-01 1.000000000000000000e+00 0.000000000000000000e+00 0.000000000000000000e+00
-2.419862588295962347e-03 -7.296991595920699902e-01 -2.847636708303799558e-01 4.252195414844271021e-02 -9.044775296165533662e-01 -4.243963734931466836e-01
2.004016682556036821e-03 -7.895928879095359676e-01 -2.599996329291683894e-01 9.955380009395906615e-01 -8.762130241972500289e-02 -3.502279325631272450e-02
1.483877673707103551e-01 -5.348126727533895064e-01 -3.455910368287413714e-01 1.000000000000000000e+00 0.000000000000000000e+00 0.000000000000000000e+00
5.189283299329501553e-02 -7.390450339421739123e-01 -3.776626935086874748e-01 1.000000000000000000e+00 0.000000000000000000e+00 0.000000000000000000e+00
1.645809324818670316e-01 -6.080029977171370614e-01 -2.915005685389078227e-01 1.000000000000000000e+00 0.000000000000000000e+00 0.000000000000000000e+00
4.172041854984288867e-02 -8.207267087253302673e-01 -2.265370951681905942e-01 3.918518175738226338e-04 -9.502382811871876722e-01 -3.115237638103589557e-01
1.306754306408533517e-01 -8.381588704061376793e-01 -2.536931415774652532e-01 -1.015741343822196691e-01 -3.760046697431101426e-01 -9.210337580978654737e-01
-3.159063495373967689e-03 -8.752357651601307964e-01 -1.937761496218968760e-01 -4.515592275393362498e-02 -9.432287889234312050e-01 3.290598644415298479e-01
5.153198588987945722e-02 -9.471451150770212601e-01 -1.693728446495629536e-01 -1.000000000000000000e+00 0.000000000000000000e+00 0.000000000000000000e+00
8.622126592109574661e-02 -7.873077266588861534e-01 -4.100092587561631197e-01 4.489700700834503566e-02 9.373750760598530407e-01 -3.454160180759969778e-01
-9.216734471657106464e-03 -8.421271251282748116e-01 -2.458137376975675081e-01 4.918514179823706839e-03 5.644653719208290177e-01 -8.254420949530881790e-01
5.294491674548898463e-02 -8.740604962693478974e-01 -3.584473873251085574e-01 -9.970614396522295975e-01 7.626461859981634173e-02 -7.224507488236462348e-03
1.266122906948971005e-01 -9.826060278802174475e-01 -2.611722811528088273e-01 -1.000000000000000000e+00 0.000000000000000000e+00 0.000000000000000000e+00
-2.320322888756083668e-02 -7.909968853732558536e-01 -3.174914443420362442e-01 -9.847919377347230663e-01 -1.351211435968249497e-01 -1.092113360680818795e-01
5.442762591915005499e-02 -8.675894561523053161e-01 -2.022178647611579949e-01 -1.638271884579250732e-03 -9.577650427449865278e-01 -2.875472812615804674e-01
-2.497530266566072576e-03 -9.597863829117493362e-01 -2.572338576245279396e-01 8.052703427705827980e-05 -9.594356286901388753e-01 -2.819277707416477652e-01
3.260306041959907392e-02 -8.989052088119001693e-01 -1.936121807357266689e-01 -1.000000000000000000e+00 0.000000000000000000e+00 0.000000000000000000e+00
8.760225982221606089e-03 -9.064701949001046088e-01 -2.240329352647520145e-01 1.348229481222989190e-01 9.819023032186662281e-01 1.330061637424761189e-01
1.205955740228751849e-01 -8.400064892699351526e-01 -3.396126182659704451e-01 7.365003535445391325e-02 4.866070467858701898e-01 8.705109156757436795e-01
9.101622423404384654e-02 -9.121994761997112011e-01 -3.077701973545242664e-01 1.000000000000000000e+00 0.000000000000000000e+00 0.000000000000000000e+00
2.556687575171401328e-01 -8.400228522172122902e-01 -4.272140222987029223e-01 9.992977680823005304e-01 -1.192857287296636253e-02 3.552013309303742733e-02
-1.188443327261849702e-02 -7.839040066688464092e-01 -2.014749019723035273e-01 7.514409204160596434e-02 -6.695015562885460181e-01 7.390000213521361605e-01
8.723663172510409680e-02 -8.892941410366376198e-01 -2.328749308101615567e-01 -7.333786219310076127e-02 -9.861184505959246227e-01 1.489696592036070522e-01
6.581117817274216575e-02 -7.644605451927380946e-01 -3.862705578900495484e-01 -1.000000000000000000e+00 0.000000000000000000e+00 0.000000000000000000e+00
5.388176618333616330e-02 -7.423819253761245740e-01 -2.406390058059545423e-01 -9.933740573829114018e-01 -1.130797886227835058e-01 -2.051690823781601725e-02
4.915418786657317629e-02 -7.315385090242924049e-01 -1.898212341672101400e-01 -9.863307979755093768e-01 -1.599016181290513205e-01 -3.978730305896706343e-02
-4.861204650847946590e-02 -7.543726048698231601e-01 -2.963040023386015465e-01 -9.641436402173946263e-01 -2.572151791826606804e-01 -6.532528320935890309e-02
5.102318045898857762e-02 -5.191768695926192168e-01 -9.867098303830626471e-02 -9.472724519721121839e-01 -3.037637986956631120e-01 -1.019924327424494015e-01
1.074447259163301138e-01 -6.886302557204563302e-01 -2.747258858241484747e-01 -9.506459345311268905e-01 -2.859875920400477001e-01 -1.203470164091145211e-01
-6.023591969311216376e-02 -5.810096066158046968e-01 -2.450189584522827202e-01 -9.651123664208725028e-01 -2.474309730651404748e-01 -8.565064944027785121e-02
1.217659606336133141e-02 -8.331369262175409851e-01 -2.112072254408218219e-01 -9.792374370977979803e-01 -1.899281068513713755e-01 -7.086152703682081777e-02
1.681425204741523738e-01 -6.982485724793493498e-01 -2.546937902808860676e-01 -9.871036378470735562e-01 -1.516300362610670804e-01 -5.132972094742797864e-02
-2.770626850137274805e-03 -6.511163013061848082e-01 -1.472844323576403824e-01 -9.662267898843749370e-01 -2.345627111890018490e-01 -1.067057872348115555e-01
7.724012902614847687e-02 -6.131264314983835284e-01 -3.730860694076152395e-01 -9.576485851948478567e-01 -2.713201526750428361e-01 -9.640830890902325756e-02
-6.196258373625221361e-02 -5.692036160511466658e-01 -2.469745801719560319e-01 -8.715488125664733188e-01 -4.189601255807279823e-01 -2.547058705396308409e-01
-9.123222264917475732e-02 -5.566032007526408032e-01 -3.387983056385683867e-01 -9.058468993811722436e-01 -3.620403211454657488e-01 -2.199277170945133919e-01
-3.511059212424679637e-02 -5.231285136263182922e-01 -2.712698570193454173e-01 -9.247577604165786447e-01 -3.303965499454543098e-01 -1.888417441495773563e-01
-1.273580819726390922e-01 -5.709471871681389699e-01 -2.929439716565315766e-01 -9.279560139212975622e-01 -3.268231362006494556e-01 -1.791208359495571889e-01
-3.313520087839410405e-02 -5.219661635148004075e-01 -2.304107465251034603e-01 -8.994033376055716733e-01 -4.098109375332821824e-01 -1.520810040144733311e-01
-9.876220086713060134e-03 -5.599662612849726218e-01 -2.115048317725821969e-01 -8.712175675295164012e-01 -4.663009838543446528e-01 -1.534383996411027018e-01
-1.057360837960938799e-01 -5.201176591854790310e-01 -2.528615209415659981e-01 -8.488190188766873145e-01 -4.984986446712444952e-01 -1.760834303793242239e-01
-1.083524285493556727e-01 -5.818418004344394490e-01 -1.860434666687663108e-01 -8.180281388841170731e-01 -5.429370830708126761e-01 -1.898664999949840893e-01
-1.001264242724493186e-01 -4.203479485365476664e-01 -2.081525673027951051e-01 -8.029881725730412256e-01 -5.587210691578996524e-01 -2.074626751655851975e-01
-1.655906479783644525e-01 -4.989288757560083609e-01 -1.511410659221846253e-01 -8.032681928973933738e-01 -5.663232382237205487e-01 -1.844944447054039649e-01
-1.373621479492378727e-01 -5.099639112064504598e-01 -2.354005519879118769e-01 -8.025494688480123706e-01 -5.786373211535029704e-01 -1.452349841466276659e-01
-1.259385897908841812e-01 -3.853021326183064255e-01 -1.069105804186342712e-01 -7.540677944640733488e-01 -6.278011489138178858e-01 -1.929960589612602917e-01
-1.530152504488548892e-01 -4.726941796989653777e-01 -8.270625725633772019e-02 -7.390291877909527241e-01 -6.276650872286616556e-01 -2.446883688843459470e-01
-1.366955922074243046e-01 -3.600460964776061590e-01 -1.574474181422494956e-01 -5.057434745595640324e-01 -8.379460409524662756e-01 -2.051096545570377516e-01
-6.975735902600768701e-02 -4.926583210053273043e-01 -1.900226716063080079e-01 -7.257183744718341822e-01 -6.346179657075606828e-01 -2.656932038181555322e-01
-4.605919105107796063e-02 -5.513136562607753310e-01 -2.336116010236363172e-01 -7.624510415432944610e-01 -5.840793076359410696e-01 -2.784237267925728787e-01
-8.863669419757461143e-02 -4.948266741262470902e-01 -1.646774266504374140e-01 -2.852012624304783306e-01 -8.630604097546330511e-01 -4.168776427469174650e-01
-1.455833040970618553e-01 -4.276081229386107796e-01 -6.523941124902318811e-02 6.993735574369069896e-01 -7.125277104067254674e-01 -5.639937110106130191e-02
-1.013142897606230525e-01 -5.184888004948112750e-01 2.331144331753682436e-02 3.723661431450094317e-01 -9.191288756743769550e-01 -1.286295663557412150e-01
-1.388511684642514399e-01 -4.763202202098626437e-01 7.858130456255547902e-02 3.006285341149626533e-01 -9.316144080446362441e-01 2.042475928855236322e-01
-8.557911285184258143e-02 -5.107465334832711479e-01 2.714205107911021320e-01 -2.249639855448622994e-01 -9.281613896488863924e-01 2.964922258218908313e-01
-1.895980720382378915e-01 -3.163193223917477592e-01 1.959243141036731417e-01 -2.347906264168561630e-01 -8.229721164971269820e-01 5.172912692236544263e-01
-1.184120791733875022e-01 -3.756700594128342674e-01 3.546506210330719888e-01 -6.278732400690629767e-01 -6.458779075495474364e-01 4.343004984392662138e-01
-1.512809352274509522e-01 -4.299991949107164202e-01 3.295184208779085022e-01 -8.037408490686591689e-01 -5.104167434292269379e-01 3.057374618287619361e-01
-2.942919942484667484e-02 -4.633368572204653035e-01 3.526134210306929861e-01 -8.351161531257670356e-01 -4.350273052771521654e-01 3.366485622302874403e-01
2.137284935417699608e-02 -6.440737982935560435e-01 2.478058399210797125e-01 -8.927270227694061866e-01 -3.784148610748786501e-01 2.446234979206871329e-01
2.831962355289517272e-02 -4.677590741581639233e-01 3.821907864133328725e-01 -8.989110331232285089e-01 -3.691324266598970949e-01 2.360089110976650861e-01
4.769509119049185342e-02 -5.796680882854989836e-01 3.394948087146156812e-01 -8.992737150596201712e-01 -3.751240185785617576e-01 2.249194435533307390e-01
-4.138518581625852399e-02 -5.311704867232402982e-01 3.420422072011166104e-01 -9.189192535546194529e-01 -3.435996280635791877e-01 1.937180968345258159e-01
9.786125700952980067e-02 -5.169902645683990272e-01 4.362276992326099556e-01 -9.426626684551689950e-01 -2.823665470584817427e-01 1.779219677365622143e-01
-2.713294288986028979e-02 -5.084104570886756047e-01 3.383522011051908751e-01 -9.366460242640020084e-01 -2.914371622789598271e-01 1.943157370704340081e-01
-1.117265544021407431e-01 -5.441063849105438610e-01 4.676742092014529728e-01 -9.458840862963421303e-01 -2.600859544854361993e-01 1.940582169626778042e-01
-4.195197513091024344e-02 -4.560989165037631077e-01 4.245936139483568739e-01 -9.467179369686464785e-01 -2.458458437981860256e-01 2.080503999250848945e-01
1.464160930456684384e-01 -4.903643978777376122e-01 4.153420774023715567e-01 -9.465312606850732058e-01 -2.370666908857583244e-01 2.188103210966113876e-01
-4.867795466894703910e-02 -5.287357802019674313e-01 4.533367400654914059e-01 -9.262524741370339321e-01 -2.799886942389735456e-01 2.523146552489130556e-01
-4.867955204815834630e-03 -5.193541920569719750e-01 3.933303608297706311e-01 -9.245365242449496979e-01 -2.695967679440332554e-01 2.693506971425891350e-01
-1.418828640815788245e-01 -2.764752968423720425e-01 4.428235565700841536e-01 -7.967993473667911442e-01 -4.335971530693730203e-01 4.208376276974175600e-01
-1.242491225669209165e-01 -4.438839207492643046e-01 2.453077247038938924e-01 -7.759240235949899089e-01 -4.873897888367808018e-01 4.004910777355717433e-01
-1.530324622146531643e-01 -3.655496410729451862e-01 2.140303878141909810e-01 -6.470382159843404146e-01 -5.417897195444226766e-01 5.364750197835662648e-01
-1.196384661055338305e-01 -4.935209868863714711e-01 3.122940790600141070e-01 -2.216184731581182232e-01 -6.833324691780355842e-01 6.956593914568489634e-01
-2.226960624381950637e-01 -3.702608069697826410e-01 3.678554717756807313e-01 5.772901469596705137e-01 -7.212692529448634371e-01 3.827620030510352489e-01
-2.745819709955170662e-01 -4.518925829033259012e-01 1.088442768972405494e-01 6.602684128348750292e-01 -6.911972090144985481e-01 2.937550701912782780e-01
-8.468027784688395010e-02 -3.685781078415550360e-01 8.543887232516636510e-02 4.685040914246434429e-01 -8.314431873196773681e-01 2.986739737206195455e-01
-1.836123195755537951e-01 -3.970400003772246444e-01 8.236099270869545741e-02 2.401759622973567154e-01 -9.407678043869538431e-01 2.393145322864634328e-01
-3.014663918817021560e-01 -4.161204870865974348e-01 8.208787889367574753e-02 7.769971916194129413e-01 -6.166634527874321758e-01 1.264972340086045477e-01
-2.784943129345417989e-01 -4.471556200975110307e-01 -1.783283677467936701e-02 7.899449686885154920e-01 -6.062661908807969180e-01 9.180551311653015190e-02
-2.661171633995526031e-01 -4.311585988752740239e-01 6.718804703865215167e-02 9.142246524142879638e-01 -3.989507771032277383e-01 7.093350665732743587e-02
-2.001105680079373339e-01 -4.765526440394745045e-01 2.922608248941685472e-02 9.323514996023932744e-01 -3.507642236631922095e-01 8.766493362300847858e-02
-1.469960003317572483e-01 -5.123921727686273631e-01 1.201090279994249110e-02 4.548988889910228206e-01 -8.568754665208360155e-01 2.425519236564259440e-01
-2.577146326542845700e-01 -3.891560998199032895e-01 8.208930546327786182e-02 8.781627765804513874e-01 -4.064575938276107081e-01 2.522347364031792827e-01
-2.535898015800435168e-01 -4.065250641571024892e-01 1.387128774760865990e-01 9.394593451432038389e-01 -3.120981570475022671e-01 1.414598147554807783e-01
-1.383798754437953749e-01 -3.261917649542372399e-01 3.102905541044820303e-01 5.301322482544706949e-01 -6.945039877128447170e-01 4.864401406253570093e-01
-2.902826874479867980e-01 -4.025349956657744976e-01 2.331818881012647782e-01 7.423946803160306196e-01 -5.303428469556561442e-01 4.093734277178091019e-01
-1.281440588300204741e-01 -2.465432626763097712e-01 2.907675504225540331e-01 3.696731455851824943e-01 -5.583373664797042224e-01 7.426985597304365250e-01
-1.281459690205640212e-01 -2.441603432521243511e-01 4.524891899991488331e-01 2.285462036479614101e-01 -5.464172638605114818e-01 8.057262603100985299e-01
-9.195444753083821532e-02 -2.436309261077310162e-01 3.680107518327336846e-01 -4.841986562713787579e-01 -3.831235938365500360e-01 7.866180605037984552e-01
-8.610952608176390688e-02 -2.577066381972992759e-01 3.745515739123529975e-01 -7.648785247107796614e-01 -3.317088304596732540e-01 5.522047575232732486e-01
-1.323419295979514076e-01 -1.615613213826788130e-01 5.437395360838100933e-01 -7.637341673870172709e-01 -3.099864920431818494e-01 5.662318397232901646e-01
3.142904985976679999e-02 -3.103455955030685054e-01 5.173158638103526608e-01 -8.393404907853027064e-01 -2.543374004134045796e-01 4.804373291900189136e-01
-1.125768416789391102e-01 -1.696683128469890223e-01 5.300190542553974149e-01 -8.089723517097389127e-01 -2.026592665694058049e-01 5.518088037017577774e-01
-1.506978728081423968e-01 -2.865776488272733236e-01 4.311332564471328510e-01 -8.032206373157545487e-01 -2.186851770646445481e-01 5.540879001767481382e-01
-1.043504081827359431e-01 -3.682439223349777135e-01 4.799129371543717215e-01 -7.625817536703728416e-01 -2.445821124564094007e-01 5.988728239245617591e-01
-8.871355842347297682e-02 -1.691575528826712582e-01 6.139402804195274177e-01 -7.273433676551162019e-01 -1.960367380496605694e-01 6.576786623138712873e-01
-1.318858300984795395e-01 -9.205997018743293514e-02 5.261308592730602474e-01 -7.778800767203785105e-01 -1.839348917621315971e-01 6.008914559501999930e-01
-1.052025809993377414e-01 -1.817747129429235498e-01 5.470790847104075594e-01 -7.725317669677703725e-01 -2.107135655984601341e-01 5.989945427952060308e-01
-7.340954004372311770e-02 -1.633343753345867788e-01 3.906634136513119637e-01 -8.228694387986013048e-01 -1.534977568464704900e-01 5.471054060547900777e-01
-1.257178317800762279e-01 -2.024442704114784441e-01 6.528301921791092033e-01 -8.390608098902089251e-01 -1.414369075707464507e-01 5.253309037960844918e-01
9.942731077959790498e-02 -2.847706513570924525e-01 6.736821656089851951e-01 -8.711512321653219759e-01 -1.611531952839880266e-01 4.638158884154381378e-01
1.060652562717536926e-02 -1.991874521262135822e-01 6.629667830787911997e-01 -9.243695635167658020e-01 -1.679639136878644246e-01 3.425332593230612233e-01
-3.332552808935870803e-02 -2.134452505839912195e-01 5.362597246220208724e-01 -9.165199298523319937e-01 -1.719847783446986356e-01 3.611266456538496095e-01
-2.609443536609055286e-03 -6.932426281216907960e-02 6.023273689224203364e-01 -9.288981553817315939e-01 -7.166896301467977348e-02 3.633342492372783616e-01
3.597112183594354529e-02 -2.430224248977516932e-01 5.359952415207716037e-01 -9.468447820901634282e-01 -9.396999526696482585e-02 3.076598748913443315e-01
2.733064597317778899e-03 -1.610329608160704640e-01 7.378566271281091771e-01 -9.795857274149361027e-01 -4.397022253415103915e-02 1.961591756080962035e-01
-1.721031177823356684e-01 -1.968490577248700468e-01 5.929539403163524014e-01 -8.696370315743535695e-01 -8.469441351309059396e-02 4.863725831440547931e-01
8.079232466002399249e-02 -2.828827402465814225e-02 5.723831552343567886e-01 -8.385929299974407281e-01 -4.918910796062407609e-02 5.425332518992226349e-01
-1.795493071803474505e-01 -6.711771872506626380e-02 6.363190135310280438e-01 -8.014113376212678164e-01 -2.700080558511886147e-03 5.981074966066449727e-01
-1.722627274062357161e-01 6.129630995072210542e-02 5.448581445076176033e-01 -8.032478805729331706e-01 1.750303411984111338e-02 5.953876771916687405e-01
1.245661712282414429e-01 3.664366109187841558e-02 6.261139664416175421e-01 -8.386711267267797920e-01 1.465857738679278433e-02 5.444408758569007079e-01
8.690052153262760315e-02 -1.505026927946726684e-02 6.905826719644770906e-01 -9.742601458733405329e-01 2.345807818112179144e-02 2.242027803817463472e-01
-1.768627958753579144e-01 -5.568443143446055038e-02 7.196965807032575935e-01 -9.900745875917337235e-01 5.102434219500910813e-03 1.404502622642410103e-01
3.756838815555333527e-02 2.058815588254336165e-02 7.817192326718118700e-01 -9.651769826006233455e-01 -5.815942386320410717e-03 2.615331089405605325e-01
-1.076395961555242919e-01 1.213763643581442647e-02 6.218778078233274664e-01 -9.647976700054533561e-01 -1.324055097572468878e-02 2.626597490326745277e-01
-2.439848155386670908e-02 -7.925472268526893849e-02 6.594479441209398773e-01 -9.461014645833994985e-01 -2.429949897003830239e-02 3.229575096865704986e-01
1.802175232545658035e-02 -2.661816559088168999e-03 6.698633909623791238e-01 -9.465496914141895424e-01 -1.622431895354353726e-02 3.221497371692177425e-01
1.643167289297156330e-01 -1.224979498212966506e-01 6.658322839223421719e-01 -9.248784197182027267e-01 -2.276136996155499193e-02 3.795811227880453442e-01
-8.500754653845192521e-02 -2.294493947812790285e-02 7.480173627176845974e-01 -9.851270735546363566e-01 -1.576697642762313334e-02 1.711024587900740468e-01
3.603212112861367555e-02 5.269153391138266251e-03 7.859003516004258172e-01 -9.792312439565746818e-01 -3.660680305438774457e-03 2.027135177509400699e-01
6.447132935617831684e-02 9.268106443203152911e-02 6.636170651694346390e-01 -9.921556871935176547e-01 2.343366553398658868e-03 1.249864032715360118e-01
1.771477824236105114e-01 1.093562182382573633e-02 7.591455939827337351e-01 -9.965914346820085035e-01 9.243254365409710530e-03 8.197606093971816776e-02
3.775753510060318729e-02 5.705063750924762450e-02 7.602055320459932819e-01 -2.051212553746140921e-01 7.027706488729501544e-02 9.762102256913565146e-01
1.495880239988462701e-01 9.387616448773700162e-04 7.842881000629805532e-01 -1.000000000000000000e+00 0.000000000000000000e+00 0.000000000000000000e+00
1.400227797490471993e-01 1.138067143832773576e-01 9.361819142003469096e-01 -1.000000000000000000e+00 0.000000000000000000e+00 0.000000000000000000e+00
-6.004781464109106015e-03 8.559763085420987738e-02 1.008483893924518426e+00 -1.000000000000000000e+00 0.000000000000000000e+00 0.000000000000000000e+00
1.880136542346207973e-01 1.004127711146406421e-01 9.151064757105483727e-01 -7.306637694399196192e-01 5.967283705451895126e-02 6.801247007319415339e-01
1.463746134305893287e-01 2.596867295589989633e-01 9.614191644325236208e-01 1.000000000000000000e+00 0.000000000000000000e+00 0.000000000000000000e+00
1.214341344498054281e-01 -5.047868802760761830e-02 8.996343052206939861e-01 1.000000000000000000e+00 0.000000000000000000e+00 0.000000000000000000e+00
1.025031291746455742e-01 1.492274782757429252e-01 8.402891621783150633e-01 1.000000000000000000e+00 0.000000000000000000e+00 0.000000000000000000e+00
9.400973761272947427e-02 9.591937284283616472e-02 8.508638403876441769e-01 1.000000000000000000e+00 0.000000000000000000e+00 0.000000000000000000e+00
2.806065382579489564e-02 -9.121413502379979721e-03 8.746480529474833787e-01 1.000000000000000000e+00 0.000000000000000000e+00 0.000000000000000000e+00
2.526428477872046940e-01 4.196326997802377057e-02 7.641965529085986697e-01 4.767770364053167120e-02 9.320836452636442615e-02 9.945044179680079255e-01
9.517459425492974523e-02 1.902953821883973939e-01 7.649826029176974851e-01 9.975843094183962645e-01 2.576254583980424132e-02 6.451229986656174809e-02
1.238996773634770954e-01 3.198401182936265741e-01 7.405272477503140882e-01 1.000000000000000000e+00 0.000000000000000000e+00 0.000000000000000000e+00
1.651593493422285064e-01 2.792272626824168213e-01 9.564751456777120797e-01 1.000000000000000000e+00 0.000000000000000000e+00 0.000000000000000000e+00
1.080929795531606757e-01 3.603901584367674715e-01 9.179653450244233959e-01 1.000000000000000000e+00 0.000000000000000000e+00 0.000000000000000000e+00
1.952506384311478160e-01 2.830700476110381558e-01 8.614450167169710459e-01 1.000000000000000000e+00 0.000000000000000000e+00 0.000000000000000000e+00
-2.896460825857435917e-02 5.140010720468922711e-01 8.758583952677574391e-01 1.000000000000000000e+00 0.000000000000000000e+00 0.000000000000000000e+00
1.940406800810558774e-01 4.063882539590523146e-01 8.368514498342504160e-01 1.000000000000000000e+00 0.000000000000000000e+00 0.000000000000000000e+00
1.971554873352424631e-01 4.932170038951745328e-01 8.229030965069989989e-01 1.000000000000000000e+00 0.000000000000000000e+00 0.000000000000000000e+00
1.264356448965897051e-01 5.020778745690814837e-01 7.277267502831517021e-01 1.000000000000000000e+00 0.000000000000000000e+00 0.000000000000000000e+00
1.073571227769434949e-01 6.111137392761551990e-01 8.798362027848452005e-01 5.779574299029871520e-02 4.974510505716532860e-01 8.655646159457754951e-01
4.624561003933713027e-02 2.420222080746187443e-01 7.621680090172769928e-01 2.862500136010385273e-04 4.998584305690165208e-01 8.661070762036351400e-01
9.786856169394519966e-02 4.775596605948422835e-01 9.598491427518929253e-01 6.021824484270443117e-02 4.570083347530149442e-01 8.874216274997698273e-01
-3.636720011293134713e-02 5.322224914099052961e-01 8.392598190867734953e-01 -9.772345780314065143e-05 4.580095568451530430e-01 8.889472629400644310e-01
2.514546508551972481e-01 3.716344425341183144e-01 7.706210811948600581e-01 4.949496210894275411e-02 4.605237298107979771e-01 8.862664063400945702e-01
2.608583659384811071e-01 3.802173410399903863e-01 8.043462566273160697e-01 5.693321387653486193e-02 4.026135365064907323e-01 9.135978050430207942e-01
4.426621763121142694e-02 3.714011428925212965e-01 9.701713390769127754e-01 3.773475124965098475e-04 4.141521009278332222e-01 9.102076108811201216e-01
1.089544300980347935e-01 3.068787617997011385e-01 9.315671585186215964e-01 6.791597348324880656e-02 3.362905583156142186e-01 9.393061699646155782e-01
1.026788266842369179e-01 3.428386988078496733e-01 9.474146988622100807e-01 -1.772476525426317992e-02 3.241992060035496226e-01 9.458227675010520974e-01
1.495469686374062412e-01 2.847612075951327926e-01 8.803227186227938761e-01 3.407865596835690791e-02 2.778266388442069967e-01 9.600265641928461546e-01
1.285337935750856808e-01 1.271920662855953177e-01 9.984350684832438150e-01 -4.743475884710530999e-04 1.824566002439783619e-01 9.832137936490590313e-01
7.263502536624635852e-02 1.350959559205715810e-01 8.915118266003269065e-01 3.792748665231134020e-02 1.753075596151743021e-01 9.837828852434925553e-01
1.877310050909388739e-01 -1.690198978101642435e-02 1.112675303277617989e+00 2.200823060713214498e-05 1.421567231852663982e-01 9.898441622643765481e-01
2.062173117344704987e-01 2.497821825288047970e-01 9.886661919701870138e-01 -7.332270526376931663e-01 8.160173758496994112e-02 6.750698080223669351e-01
1.147028747490344558e-02 2.096408924483419145e-01 1.013669143136005868e+00 -6.283120232608567779e-01 1.967703330625063252e-01 7.526655548464530332e-01
7.143738584405372183e-02 1.401059341093336408e-01 9.767237464503204514e-01 -6.609883239840705915e-01 1.357159971384877262e-01 7.380214113949778998e-01
9.885041844226878649e-02 1.870468046614746083e-01 8.632437062943729700e-01 -6.927169036017144510e-01 1.769733286779044679e-01 6.991593040224204358e-01
6.847276598223593636e-02 2.835399355590729198e-01 8.569548016751257213e-01 -7.132180026300800613e-01 2.313088244731292265e-01 6.616768912733903552e-01
3.022571914374253335e-02 3.457379365302761798e-01 9.719582115811570278e-01 -6.340433078243090659e-01 3.022835272873329870e-01 7.117680471431242495e-01
-3.350106880714034951e-02 3.229746001446877623e-01 1.034693026983426689e+00 -7.447171927732315622e-01 1.994508268100702864e-01 6.368796357811552511e-01
1.540151659103425053e-01 3.022908462543323904e-01 1.035221010424835830e+00 -7.033575473285926805e-01 1.944926191641196678e-01 6.837110367008764067e-01
1.453003238194019164e-01 1.817165769182021717e-01 1.002401318953706433e+00 -7.358562307853276918e-01 1.652512857249726907e-01 6.566640085924109194e-01
6.254096837845149470e-02 1.552359798449134964e-01 9.029808940859842536e-01 2.398649378738652594e-05 1.890305321099014779e-01 9.819712100438054980e-01
1.519295378402434338e-01 3.741129935055747535e-01 9.061879634880926071e-01 5.281504625849651417e-04 2.364500901332856342e-01 9.716434921991964346e-01
-8.617376763379830384e-02 3.289880804241590573e-01 8.349743835744301013e-01 3.379746418158591806e-05 2.355774993782192017e-01 9.718555657320878671e-01
4.612214764270392009e-02 2.304753290505810182e-01 9.612639316759707953e-01 6.096785675120654224e-02 2.246863768649282889e-01 9.725219547621924976e-01
6.448843974783133315e-02 3.170673116625396526e-01 9.545249887747360162e-01 -3.819029551440188044e-03 2.866300356277254879e-01 9.580337351520217259e-01
6.340613857829362210e-02 3.369939274447694144e-01 8.506826293526320582e-01 7.290149501774955895e-03 3.410218174897240995e-01 9.400271132878278424e-01
-1.083749204783252262e-01 4.188658371633925404e-01 1.012876616294046794e+00 -4.127269071189372085e-05 3.715125070318727185e-01 9.284279484243553870e-01
1.808585150719868861e-01 4.629179618216374692e-01 8.672697782993273874e-01 5.691875307622669411e-02 3.697115514977223905e-01 9.274015442284935240e-01
2.207435144521173453e-02 3.303000229516990238e-01 8.126248580833483892e-01 -4.998528398058361982e-05 4.152362782386544993e-01 9.097135981923004655e-01
7.131109513909832109e-02 3.907345906765674615e-01 8.909977808011585454e-01 -1.867362050495193979e-02 3.935724073454946459e-01 9.191039419312208025e-01
1.084519242066570299e-01 2.702969170202852989e-01 8.603862823615378019e-01 -6.946497316743490691e-01 2.923267816840717237e-01 6.572722441994549580e-01
1.189412688204972424e-01 5.079218661593392081e-01 8.140017801280887699e-01 -7.153501934607242596e-01 3.189026883897188580e-01 6.217516996788302608e-01
3.232609131883727727e-02 4.414614069748794001e-01 7.867569561548659607e-01 -7.501794534966523820e-01 3.072824825672642035e-01 5.854983035490050058e-01
-1.667792095737855723e-02 5.042637366572721991e-01 8.970610292177449985e-01 -7.255168999836013599e-01 3.483158758723330917e-01 5.935497270267037218e-01
-4.517476377330797987e-03 5.235708730862377314e-01 7.863459348912181790e-01 -6.740068243985355423e-01 3.803520387251412838e-01 6.332828177850956530e-01
2.327912229075208839e-02 5.472727109002913926e-01 8.395999196961524413e-01 -9.988839878580425546e-01 3.378103463491441329e-03 4.711016045189943269e-02
1.045484988236757007e-02 6.863414575345747615e-01 8.414516158468526852e-01 -7.505115367682746452e-01 3.599100497344147054e-01 5.542537228362964807e-01
1.290386988459231721e-01 6.593545326099197190e-01 9.259232241788311057e-01 -7.535713834706156966e-01 4.078518036676176406e-01 5.155454162915750205e-01
1.014482332718875945e-01 7.191907119293746709e-01 8.398209533815446104e-01 -5.391378189543984296e-03 6.606031881901477387e-01 7.507158988553723766e-01
-5.476177317984211312e-02 7.385483315497163304e-01 7.768413279053101306e-01 -7.941059929538596797e-04 6.534950791189410024e-01 7.569303474977079338e-01
2.151678520192106814e-01 6.600809926954295248e-01 7.444421434817595218e-01 -6.714774148912243668e-01 5.212861268833932638e-01 5.266676895442792272e-01
-3.732360829944758596e-02 7.314705601079181108e-01 7.208066815110821812e-01 -9.999523899627611456e-01 1.960182775800969890e-03 9.559052842604654626e-03
1.692733885843081265e-02 4.024623615353989381e-01 7.055012609217956587e-01 -1.000000000000000000e+00 0.000000000000000000e+00 0.000000000000000000e+00
8.483860284916765193e-02 4.597070764328544112e-01 6.908491487106438456e-01 -1.658831007973739224e-02 6.110601814551186450e-01 7.914103124225360109e-01
7.602121593273583611e-02 4.626721866335706257e-01 5.448834597375671329e-01 -9.995260547040076826e-01 1.925739974879607866e-02 2.401704650359961363e-02
4.208005478906239744e-02 4.304888993323452429e-01 6.266163254922391124e-01 -9.945304133375063582e-01 6.096587025804038606e-02 8.480813410521757800e-02
-1.656022568906576758e-02 3.696077232142169211e-01 6.305408421593917678e-01 -9.816164831697689053e-01 1.046841582909670276e-01 1.595941946698772596e-01
5.068982848693873861e-02 3.343344244259027209e-01 6.436911493663309836e-01 -9.888192277260720031e-01 8.635323302889003072e-02 1.215716004035186093e-01
9.045639658725682097e-02 5.542805745195504841e-01 8.068570009332732829e-01 -1.000000000000000000e+00 0.000000000000000000e+00 0.000000000000000000e+00
-6.616089636903091376e-03 1.398343689742317097e-01 8.248752448549833138e-01 -1.000000000000000000e+00 0.000000000000000000e+00 0.000000000000000000e+00
1.338552722830656933e-02 3.177881991305934184e-01 9.349785796257045201e-01 -1.985562675011120770e-01 2.458406530067255291e-01 9.487559127432374506e-01
-6.881578844119098926e-02 1.379885289192639142e-01 7.837998263914213171e-01 -9.996945745437877395e-01 3.950812593631154376e-03 2.439566985276557173e-02
-3.465894723503427227e-02 1.509790813504826024e-01 7.297136451826674586e-01 -9.996044745785719332e-01 3.924385124675248276e-03 2.784768579057610161e-02
2.948700957895001099e-02 9.865117046552375479e-02 7.523378944426385440e-01 -9.998323856274292654e-01 2.141705292901842795e-03 1.818278716264205147e-02
1.271486018917329930e-01 5.945564178598325422e-02 8.095272144811761494e-01 -9.985957982956948920e-01 1.042446635716347964e-02 5.193998582356396110e-02
9.991547117017937629e-02 1.519322803897398544e-01 7.951085632568537509e-01 -9.998326419918159846e-01 3.064202546898910952e-03 1.803603810200092583e-02
1.067444508236375517e-01 1.930733175867515583e-01 8.596153566572958260e-01 -9.967271667115169542e-01 1.068426415966447843e-02 8.012990477093016872e-02
-5.389248869302545875e-03 6.211680795196226901e-02 7.986996302174117490e-01 -9.965355206720080128e-01 1.689672808107724536e-02 8.143375601753793935e-02
4.000720458812562913e-02 1.654718928964123981e-01 7.374979148334019907e-01 -9.762629163662830400e-01 5.373186905990632450e-02 2.098180268121140057e-01
9.963499889984013536e-02 9.605038046631088344e-02 6.927836204141711862e-01 -9.647722265801134123e-01 4.005474908907295101e-02 2.600195529091267055e-01
1.334490244670671344e-01 1.529100700290068060e-01 6.870182236956521304e-01 -9.479234340706441664e-01 4.531071896596353121e-02 3.152587855817894913e-01
4.583756044494315812e-02 2.441226022266084761e-01 7.603605384408778090e-01 -9.643978682028164773e-01 8.525596591763176524e-02 2.503361182117254113e-01
-5.672847192460556826e-02 1.292666092414565537e-01 6.912530025186534033e-01 -9.650733352549408783e-01 9.845558256349620785e-02 2.427755256239531867e-01
1.333995776662798838e-01 1.908488453593251422e-01 8.087122017284268383e-01 -9.967850292125522982e-01 2.754026283733489525e-02 7.524054399445480323e-02
5.219245688184930010e-03 2.961492389627444211e-01 7.564740364051764088e-01 -9.995469511444488031e-01 8.573435786195581637e-03 2.885114653972614684e-02
1.191620368411727277e-01 3.794939076103132636e-01 7.609532646962867686e-01 -9.969265810903360503e-01 3.433074547911879604e-02 7.041868949633844910e-02
1.731337699304124483e-02 3.854404493227806539e-01 8.073726066850368532e-01 -9.967902691437738882e-01 3.691077601357466154e-02 7.104050924900801034e-02
7.541891118880139633e-02 5.004772023150328986e-01 6.907045564562372952e-01 -9.998359528633730120e-01 8.989682021172619789e-03 1.572427991830556079e-02
1.027722343269444893e-01 3.622301725798335870e-01 5.883472690752410417e-01 -9.951014715245783959e-01 5.831856495337090635e-02 7.982484795725174054e-02
1.688173584686788326e-02 2.802757764773544658e-01 6.343255375020263598e-01 -9.787991496813892578e-01 8.755547239928562764e-02 1.851655039037439499e-01
2.107654934941524671e-02 3.159577062540183112e-01 5.284762983725933561e-01 -9.467162733003087194e-01 1.487275055231238041e-01 2.856718869074172940e-01
-2.557251571401349816e-03 4.982092341456642592e-01 6.573031238793332065e-01 -9.784033242699994304e-01 1.072257412464763249e-01 1.767189165640119519e-01
8.654756778649307092e-02 3.494408188786532476e-01 5.221965601317115624e-01 -9.470391406237491649e-01 1.701541617618356483e-01 2.723314659780572411e-01
2.220585758698836662e-02 3.027938953260729815e-01 5.188497562780582939e-01 -8.725394998558890780e-01 2.639011685199620927e-01 4.111337914171411811e-01
2.076130451855038028e-01 2.633389282542564769e-01 5.894582969584838406e-01 -8.984505817946097928e-01 2.009792837459129511e-01 3.903765868720959209e-01
-1.045197882874250583e-01 2.970755393218667550e-01 4.098420296769265669e-01 -9.035917226309778671e-01 1.890519961435729313e-01 3.844233883973665056e-01
-1.046076213803374538e-01 1.132471965265252067e-01 4.759378442557655187e-01 -7.330880086641429205e-01 3.541729148417007145e-01 5.806406099691743261e-01
-1.518105789973842878e-01 3.392700193039366319e-01 3.767717910577114138e-01 -7.014269425301011829e-01 3.875971886478817297e-01 5.981376627877003083e-01
-1.239498286860425680e-01 2.363230426625499703e-01 2.852033209589172058e-01 -6.085312868886983972e-01 4.740998411614203434e-01 6.363324708737567725e-01
2.755533809171600845e-02 2.569267560247588955e-01 4.443615918703297529e-01 -7.161665430728362258e-01 3.000976681247864986e-01 6.301165544319314860e-01
-1.285154131399535160e-01 2.003243434732715211e-01 3.381347842455051933e-01 -5.041814743368465690e-01 3.129450933209960151e-01 8.049014905575940793e-01
-4.908037538364789371e-02 2.611825447696289326e-01 3.965141973949498633e-01 -7.366718611931816207e-01 2.790497258298835215e-01 6.159917365033725778e-01
-1.040051485986372842e-01 1.354862375176608125e-01 4.420564783000220377e-01 -7.257067479661302167e-01 2.392973234751372136e-01 6.450476780316776182e-01
-8.169948224303055784e-02 2.943269046211072215e-01 6.020141519293400467e-01 -7.648734642480793378e-01 2.281193164890152059e-01 6.024368524034090511e-01
-3.455124755694969491e-02 2.603120277919885872e-01 4.659139123248486336e-01 -7.923253749876323360e-01 2.034029361645544876e-01 5.751936593099283845e-01
-1.527284588565039070e-01 6.011926049996418886e-02 6.279960986517524324e-01 -8.413762481546949168e-01 2.046106076950772457e-01 5.002204596573200934e-01
1.291774761701631191e-01 2.218302458420202405e-01 4.400840808385750869e-01 -8.708147319745651593e-01 1.911770081923212794e-01 4.529161667623486931e-01
5.755152422827802816e-02 1.428635252756250140e-01 5.716416733764656533e-01 -8.692778310252458063e-01 1.607679900605294698e-01 4.674502175204774956e-01
9.529365983896478931e-02 2.020615565027912008e-01 5.856857192850537519e-01 -8.978617964052796330e-01 1.478360852548222804e-01 4.147151871494616504e-01
3.428876409518366586e-02 9.857972140574286501e-02 4.129055908752944370e-01 -9.003907534314312677e-01 1.349888580744530164e-01 4.136115319124150647e-01
-6.974196546181669898e-02 1.200394867081355371e-01 5.930529369725519029e-01 -9.093417758553494767e-01 1.336526434361020033e-01 3.939981035319602420e-01
-7.480738147271047411e-02 2.885975785434332641e-01 4.637640071954542975e-01 -9.246110466980694831e-01 1.184124390893302459e-01 3.620399240316128364e-01
-2.535831655425803410e-02 -1.471383138457121875e-02 6.455243790576379315e-01 -9.004302907694302638e-01 7.879945386273656815e-02 4.278036202930192711e-01
6.674079612788652582e-02 1.570170792034930596e-01 6.395196800693656591e-01 -8.722585912363646221e-01 3.824647884759952571e-02 4.875470816958221709e-01
-1.434172987247839537e-01 2.627102887526983621e-01 5.181115386606679474e-01 -8.075215796567934978e-01 1.098753987033179447e-01 5.795138437935573039e-01
-1.484061676726482482e-01 9.631668397050727193e-02 3.282293290278128772e-01 -8.040318304352385148e-01 4.245875476116293262e-02 5.930683517024757379e-01
-8.569207199821053667e-02 8.720661060935069875e-02 4.254987452124716629e-01 -7.654152863309462429e-01 9.805886370237905381e-02 6.360219325623241993e-01
-1.125378886498795000e-02 1.712750365028998800e-01 4.988413936675018534e-01 -7.835691619274248731e-01 1.353701038307331683e-01 6.063780202688825449e-01
-1.125474543172854530e-02 1.039828962775019849e-01 5.504178319285617516e-01 -8.383876453459159217e-01 1.692893350025027888e-01 5.181189797582610446e-01
-9.739845982019990078e-02 1.788242638992462441e-01 4.846691318946154126e-01 -8.362714574475538232e-01 1.634723208195010546e-01 5.233802153161983828e-01
3.251050830789049828e-02 1.618533155219222253e-01 6.093691362877271533e-01 -8.335129102600764561e-01 1.357528977046277008e-01 5.355626753187477940e-01
1.486312980243951337e-02 9.168042076766899640e-02 5.241381680831372902e-01 -8.426844046953769762e-01 1.218550037179607914e-01 5.244371765541551156e-01
-3.316971816028740916e-02 2.894539314073871772e-01 4.979444621845214858e-01 -8.707188527462126348e-01 1.334855413477915032e-01 4.733183809270525844e-01
3.718272802773620739e-02 1.591664221412941449e-01 5.342630658368177077e-01 -8.027891561978991453e-01 1.628586170046101012e-01 5.735910054720269047e-01
2.190523041864408937e-02 1.502418898523757984e-01 6.149952077052082133e-01 -8.031559694853385167e-01 1.385318105499714070e-01 5.794388890519972524e-01
-7.595601862248843594e-02 2.719968489576063408e-02 6.734915295035274196e-01 -7.310777655844964418e-01 1.272217642011212457e-01 6.703282206363793128e-01
-8.096352881559455705e-02 1.364196454588205432e-03 5.229223171200576559e-01 -7.221718273277429878e-01 9.136545018700313603e-02 6.856531239090468688e-01
-1.101554745925530654e-01 6.797583704271928373e-02 4.009419999890575514e-01 1.242977017554655478e-01 2.425624568028031391e-01 9.621400812189967455e-01
-3.837848499810485592e-01 9.201762677809098567e-02 5.351118739964821902e-01 1.283941027154722470e-01 1.943176755160304636e-01 9.724996634292145670e-01
-1.961906334223535164e-01 -4.557654046676834492e-02 5.729879705478891916e-01 8.212345327402816864e-01 2.983008545552821855e-02 5.698105020413076760e-01
-1.558267871229796209e-01 7.696058300918544315e-02 3.873349861067225675e-01 4.005904447727703932e-01 1.647404260070648718e-01 9.013256279479491262e-01
-1.394973844723246814e-01 2.120414890372587791e-01 4.024711903020385950e-01 7.868335208008176984e-01 3.811092026924826626e-01 4.854366963542097180e-01
-2.821537040266410279e-01 3.217464555302136375e-01 3.740077528317475308e-01 6.872596405628156324e-01 4.341014652731756684e-01 5.824346352176795749e-01
-2.038413330096360832e-01 3.189721012332073502e-01 4.703062472741916800e-01 3.188206386053448194e-01 5.475919935660230609e-01 7.736254965948762274e-01
-3.899552488482970203e-01 2.232336669160958909e-01 4.186596377400045865e-01 4.727824477021803640e-01 4.906861246381068464e-01 7.319179491120377801e-01
-2.334406102288282825e-01 1.915956497292115035e-01 3.403742304693265219e-01 7.705317357132879241e-01 4.173265933477233181e-01 4.817876697710846146e-01
-1.761234709669000087e-01 4.188944983809427813e-01 4.485724738323169092e-01 9.371603960205709960e-01 2.437865691138506596e-01 2.495966763606125294e-01
-2.151862294020686073e-01 3.679675765484871075e-01 4.146620579983630872e-01 9.373162398601101453e-01 2.313010644609008182e-01 2.606493508024884109e-01
-1.908616941981552406e-01 2.027488241057971430e-01 2.119767886963864756e-01 9.322205413923773110e-01 2.028526934452724029e-01 2.996925874427010528e-01
