2.034534747014736245e-01 5.415686508951592648e-01 6.109641452211880819e-02 7.853813201870757377e-01 1.846750056610548807e-01 5.908225826636077649e-01
-4.046958393801308729e-01 5.349616261130747397e-01 4.619933776665701569e-02 -7.505571812883473637e-01 -1.007720080430297566e-01 6.530765039499326630e-01
2.132061456182389458e-01 5.148356079943181562e-01 4.702287189551008356e-02 8.223013166755838155e-01 1.673243169203244562e-01 5.438962378622859140e-01
-4.073059810916787593e-01 5.079786778305962480e-01 5.120228651615823384e-02 -7.796901345600396604e-01 -6.309569934317879603e-02 6.229785123053143137e-01
2.113725463655229120e-01 5.097467438350302693e-01 6.030389771628005824e-02 8.231904680795230078e-01 1.243640205898824680e-01 5.539774757566729990e-01
-4.106526831388064847e-01 4.971922803851386297e-01 4.516385695386482962e-02 -7.922798787442244528e-01 -2.297930656224092885e-02 6.097249750559308179e-01
-4.045216432156866770e-01 4.581672457222626949e-01 5.114971383444203573e-02 -7.959330598728990847e-01 1.917274913558802280e-02 6.050809614356974508e-01
2.119906567046660473e-01 4.727949715781018525e-01 3.678729654790776488e-02 7.533351996473683920e-01 -8.126669762542181041e-02 6.525962004404546324e-01
-4.038420973087700760e-01 4.665554296316595795e-01 5.021462188858938358e-02 -7.959034857581532840e-01 3.743198629411124273e-02 6.042652461958231136e-01
2.127543090463372699e-01 4.485248260777342511e-01 5.219216053521521376e-02 7.146513396427051079e-01 -1.635711769982961528e-01 6.800867097674230255e-01
-4.028408501316270152e-01 4.344965856124318737e-01 4.333350408187255226e-02 -7.979546462930848794e-01 1.138373450865376307e-01 5.918694461812724628e-01
1.991893452498499362e-01 4.360132590313612888e-01 5.642655905442098274e-02 7.128697510955837036e-01 -1.962629877667073364e-01 6.732737612634298596e-01
1.950539556579106992e-01 3.818388369786868131e-01 4.842780699372756237e-02 7.995834187802058901e-01 -4.527000922463528254e-02 5.988463765245303216e-01
-4.085350379226359574e-01 3.539513920511371814e-01 5.110661348664401887e-02 -8.447199520492043590e-01 8.076423801135851344e-02 5.290797108833739104e-01
1.998946709931992971e-01 3.451709827424329080e-01 5.937255546734358791e-02 7.899080030708189870e-01 4.720595032916233280e-01 3.914143227281505766e-01
-4.162584041735940543e-01 3.362666043293526252e-01 5.032772672439551898e-02 -8.601745519612112867e-01 1.646867930556792856e-02 5.097337763580709336e-01
2.150929133149822314e-01 3.485748414954170649e-01 4.291524656019128636e-02 7.998539835414115728e-01 4.740393599438844086e-01 3.681308058787363668e-01
-4.244742209067958183e-01 3.210250058243001581e-01 5.229546864980597759e-02 -8.773506265944885918e-01 -4.318567054724133103e-02 4.779025798985011564e-01
-4.134707255745715404e-01 2.824222772807176152e-01 4.569449276464615517e-02 -8.870066432608373352e-01 -1.069650822876261481e-01 4.491967119006360920e-01
2.377627423688976338e-01 2.844832254932386228e-01 4.300858462739248766e-02 9.195721446248799058e-01 2.225794028519715584e-01 3.237985179954636084e-01
-4.052306018525657083e-01 2.500460429231047277e-01 4.272197750835901586e-02 -8.887715496853141328e-01 -1.424472687394823800e-01 4.356534265888734603e-01
-3.978781233945624107e-01 2.301772246371065200e-01 4.933295187230938433e-02 -8.762275300832337299e-01 -1.923776279336912309e-01 4.418327328241332119e-01
2.483512010900963685e-01 2.272324079212487968e-01 4.611732135307259478e-02 9.722443747931431846e-01 2.364285059844237202e-02 2.327700395211329265e-01
-3.958747774363388650e-01 2.124307862845332406e-01 4.160772511198564810e-02 -8.744730548234683765e-01 -2.141686657999610499e-01 4.352340278254627770e-01
2.440893861360452777e-01 2.081966153321452295e-01 5.714281583310373142e-02 9.767303221815561987e-01 -8.053022977468222640e-03 2.143199163681196728e-01
2.430906813464590588e-01 1.967143093387016539e-01 5.219737021839068736e-02 9.796218717747359195e-01 -3.045442279237081662e-02 1.985283769967066680e-01
-3.920751002000558150e-01 1.814285233095576100e-01 5.121529376051781046e-02 -8.635337554237531021e-01 -2.625220534044033771e-01 4.305712771656804994e-01
2.451314924814963214e-01 1.612812161783890585e-01 4.585520746302887418e-02 9.836950513821799413e-01 -6.300653161984093309e-02 1.684464985075332377e-01
-3.753078842275587856e-01 1.696705315349971710e-01 4.622441742196654185e-02 -8.547078345960972268e-01 -3.059216376099120893e-01 4.193882081343251467e-01
-3.784912491356771103e-01 1.425634470790691222e-01 4.491435079406679715e-02 -8.636304483047890779e-01 -2.985285873127781486e-01 4.062303919180667022e-01
2.286598427296974712e-01 1.197237258778717367e-01 5.602671615289114143e-02 9.736815285612071547e-01 -1.452855810933522396e-01 1.756029067671666943e-01
2.268422618448010519e-01 8.537526497424656469e-02 5.047288518031128185e-02 9.520929029381771658e-01 -2.441573857812481263e-01 1.841365665565136978e-01
-3.605192426762088842e-01 6.374754223227352412e-02 5.512853094480632543e-02 -8.930360838669796353e-01 -3.054998989533784237e-01 3.303882029537439369e-01
2.242946527284524483e-01 5.565887518353003494e-02 5.263761045316994736e-02 9.301285603109744615e-01 -3.073228522318787737e-01 2.010311562666260154e-01
1.954628714522085309e-01 -1.033079365178362838e-02 5.736859306036556222e-02 8.088176157934440225e-01 -5.425186494932632275e-01 2.269087467115688539e-01
-3.211374953309834579e-01 -3.679242670771623591e-02 4.598459916786339780e-02 -7.921927198507733303e-01 -5.108722731539852013e-01 3.338266243694685276e-01
1.681292584875672680e-01 -4.158338770650688021e-02 5.441628415450980305e-02 7.420358419017654139e-01 -6.228517716494512690e-01 2.478678677970947153e-01
1.506242873848413488e-01 -6.437378448390471131e-02 4.402094233221497122e-02 6.958347006494988163e-01 -6.676103662180544740e-01 2.647838142527169647e-01
-2.541325523497812711e-01 -8.316137830213599091e-02 5.054839932000125546e-02 -4.974159021523628654e-01 -8.079638870723118149e-01 3.158667083960438049e-01
1.225003747308929525e-01 -8.803375651495587428e-02 5.323558684739310848e-02 6.273998936295934747e-01 -7.304991316489986009e-01 2.697042679188335623e-01
-2.247487444958903291e-01 -1.033307822101248719e-01 3.460926436311138887e-02 -3.744923538625459791e-01 -8.829051504873295375e-01 2.832560187205829250e-01
-2.168893908055533060e-01 -1.030694447658401652e-01 4.867617041871517836e-02 -3.224190257661519454e-01 -9.143846136728273066e-01 2.448402542524405201e-01
7.980068615400191800e-02 -1.024946127153526093e-01 3.142905392950985644e-02 5.248287861324006931e-01 -8.092363619194956614e-01 2.639910146086222875e-01
-3.335106552684159731e-02 -1.352149918693215380e-01 5.006057680078804945e-02 -4.083123489206249429e-02 -9.834063250457738548e-01 1.767620154817061140e-01
-2.298182114606388271e-02 -1.446375626657283031e-01 6.350403184426324510e-02 1.505573499906163668e-02 -9.810269434392476784e-01 1.932859567839450565e-01
8.955883007511952418e-03 -1.352182911444426983e-01 5.781394149365506885e-02 6.797884423066163917e-02 -9.740816327052170820e-01 2.157402363107122634e-01
1.898223627765736540e-02 -1.346607754250191968e-01 4.651034643213772246e-02 1.390890196832267611e-01 -9.616061841230695295e-01 2.365751281513509274e-01
4.714548488398378340e-02 -1.329937394910249704e-01 4.413757028741259469e-02 3.014235842224119444e-01 -9.166316609121095693e-01 2.625456552449917380e-01
-1.265489536516559710e-01 -1.950219031316290097e-01 4.396675342331094610e-02 -1.283454270301997990e-01 3.545766823082127095e-01 9.261764560404979196e-01
-1.149088560866142888e-01 -1.970072200450953825e-01 4.450489807080634103e-02 -8.288055091828391840e-02 3.462585866205216134e-01 9.344708692468911559e-01
-1.384268295758128708e-01 -2.181856201011590501e-01 4.613242376266440958e-02 -1.521674367445454146e-01 3.285161257003361701e-01 9.321599789464445340e-01
-1.613186332056792682e-01 -2.315621259219365902e-01 5.363423243536980661e-02 -1.682722768522211532e-01 2.823602210526731660e-01 9.444348290962457648e-01
-8.124090270618394838e-02 -2.282917676665700557e-01 5.344702539164122163e-02 6.633768531177147709e-02 3.451631144734015888e-01 9.361953513634309054e-01
-7.448914532184071347e-02 -2.372282549412965957e-01 5.701693672410566155e-02 1.606097949152932025e-01 2.754589129689104521e-01 9.478010767261524361e-01
-1.802371858895126244e-01 -2.471871861534180592e-01 5.159256772548932723e-02 -2.023622262580579423e-01 2.477821297079532692e-01 9.474458008674023768e-01
-5.309805819509758051e-02 -2.434023871736121780e-01 5.281660460366412874e-02 3.154128253759758693e-01 2.348739369209479899e-01 9.194286178619842653e-01
-1.900266932624847249e-01 -2.427943740666237415e-01 4.163127558466354211e-02 -2.224018093108178218e-01 2.403092257665013776e-01 9.448750770481667560e-01
-1.662806750192651339e-01 -2.425882996408436354e-01 5.424758490210860457e-02 -1.807932542064925319e-01 2.574920216322127975e-01 9.492163388970833449e-01
-6.574344680275635844e-02 -2.440422372039599552e-01 6.492538134298612984e-02 2.454646876659021537e-01 2.503146027175172095e-01 9.365306651548855887e-01
-2.794635559043739600e-02 -2.508856433779428352e-01 4.503614342229445011e-02 4.142706728992111564e-01 1.962098420232462614e-01 8.887527819753070490e-01
-1.755583774914604434e-01 -2.544142229040302072e-01 6.516255646674423696e-02 -2.085528910422597415e-01 2.704879210151245328e-01 9.398627432890565014e-01
-4.030025697801214307e-02 -2.598809084469689279e-01 5.239852853943993694e-02 4.643907269323802045e-01 1.676024867119084716e-01 8.696267355522138143e-01
-2.376849058724685160e-01 -2.657165122613962538e-01 5.275191001910482097e-02 -2.278182161053832477e-01 4.756945121863743742e-01 8.495961343405042943e-01
-2.513908116578051910e-01 -2.781364712428631703e-01 4.894438900871754539e-02 -2.159969348571557091e-01 5.789146604538347729e-01 7.862589522822200916e-01
-2.009678333994906752e-01 -2.688337542024430982e-01 6.284884917234212498e-02 -1.910388675223551880e-01 3.626606273593661056e-01 9.121301554378558052e-01
-1.850563667643460863e-01 -2.705640274681486157e-01 6.566318627312905942e-02 -1.926960423713817427e-01 3.380265107996333618e-01 9.211983028919625838e-01
-2.711898198181120767e-01 -2.809698524911815043e-01 5.464160114736395929e-02 -1.534165033001436973e-01 6.202589945976083596e-01 7.692477859155144593e-01
-2.407884569109934592e-01 -2.758008911915181272e-01 5.346465326366280080e-02 -1.630763758379291384e-01 5.343558632160601007e-01 8.293792299606891349e-01
-2.237263982179690247e-01 -2.767156568409627759e-01 5.237346741096894631e-02 -1.880255448928587203e-01 4.713611323683957743e-01 8.616641325714604616e-01
-3.114795205946260803e-01 -2.903283434003493535e-01 4.344848690158489846e-02 -2.161951414197018917e-01 6.990502451719956545e-01 6.816072296795918639e-01
-3.027147695169516428e-01 -3.065124318298219630e-01 5.108442577242885974e-02 -2.006795758981446687e-01 7.038855948910340832e-01 6.813756505205008640e-01
-3.193322063684814888e-02 -3.007591434413789955e-01 4.362325450838418217e-02 5.012139199130682954e-01 1.667722796491245829e-01 8.491004729865662126e-01
-3.416765768736692022e-01 -3.197889028385644261e-01 5.439545813281059655e-02 -2.318699198971295172e-01 7.622864375138953541e-01 6.042811658733645563e-01
-1.504874606212651227e-02 -3.075683505886425695e-01 5.016297109358228146e-02 5.241315120993456089e-01 2.213014755541257428e-01 8.223817939023335688e-01
-3.580565897338086612e-01 -3.242258818152441990e-01 6.440685098226103800e-02 -2.457645817744420480e-01 7.832484589104080630e-01 5.710705927989153663e-01
-4.079857947553642283e-01 -3.381811571583623888e-01 6.454923367570587767e-02 -2.474511511948450371e-01 7.983234414932357526e-01 5.490424487548681842e-01
-5.389216166598095187e-03 -3.300861203401678212e-01 5.332905423369196235e-02 4.660530374128394326e-01 3.287100434643843161e-01 8.214281914104903937e-01
1.508161610395057986e-02 -3.482779968294646422e-01 6.152043004448921881e-02 4.358675041373886727e-01 5.788251831983529661e-01 6.891885998276788827e-01
-4.634314125575433319e-01 -3.438321380936487648e-01 4.709147430207265977e-02 -2.137809457487444276e-01 8.596030592058049313e-01 4.640908185245576356e-01
2.100515264154197148e-02 -3.511596031166946408e-01 5.433380861011199298e-02 4.383154249752821419e-01 6.528877709568668974e-01 6.177516869776329411e-01
-5.376254934913192729e-01 -3.606718698598419537e-01 5.312148440227374563e-02 -1.044663768949247867e-01 9.090687606280271060e-01 4.033370359248830139e-01
-4.982851530120619432e-01 -3.638891813580130696e-01 5.030805546511322307e-02 -1.363750526900337212e-01 8.869527964485012239e-01 4.412670187947135281e-01
-4.913353588743436529e-01 -3.505012393008706262e-01 5.096153047507201439e-02 -1.828384982432055827e-01 8.724754776416135948e-01 4.531629116269416668e-01
-5.937309813493303334e-01 -3.699361356871428974e-01 3.957482000320763915e-02 -2.642081802865910989e-01 8.665509520744288929e-01 4.234188055915196203e-01
-5.731515094282855216e-01 -3.652052788155766838e-01 4.883485704288335894e-02 -9.693032514353980278e-02 9.130435338137449230e-01 3.961767502371595917e-01
-5.448935930162148722e-01 -3.549107341653005010e-01 5.066679989306901999e-02 -9.441869139471874284e-02 9.116664903112734475e-01 3.999366464314484393e-01
4.206039025410468479e-02 -2.894651070712176422e-01 -1.705062163529139432e-02 8.403941342442456941e-01 1.577787466565264141e-01 5.185012692668747869e-01
-4.590327652265787095e-01 -2.897555445892756598e-01 -2.294213346570855849e-02 -3.539529556909744024e-01 8.282949585671840476e-01 4.343325532006667711e-01
8.467049078708478727e-02 -3.939588706683767039e-01 5.885091150934258775e-02 4.557504357903792713e-01 7.969418794599558709e-01 3.964532520231264789e-01
1.339963693633230701e-01 -4.137358438839153219e-01 4.108255462608752934e-02 5.199618474089573450e-01 7.794536781648304657e-01 3.494161427787517149e-01
1.924981994452349965e-01 -4.642025445698106378e-01 5.142792058218088880e-02 4.241121158215394038e-01 8.465838871329319781e-01 3.215970075424711139e-01
2.008977343099479229e-01 -4.575528991214379837e-01 3.953545335331458410e-02 4.104275509116364629e-01 8.488435956562386808e-01 3.331872980262962636e-01
2.174001750742376726e-01 -4.685882543461494798e-01 4.845940371792999829e-02 4.028005119284466806e-01 8.537957201257393436e-01 3.298251292505643972e-01
2.713908042191994219e-01 -5.084301106071860143e-01 5.393570861492152924e-02 4.649336895616183463e-01 8.206616888351513373e-01 3.321912954742461399e-01
3.038367710825526369e-01 -5.046766911206082007e-01 5.930019982396400602e-02 4.806287158714613317e-01 8.083154573220828754e-01 3.400325851061070659e-01
3.054293689412349577e-01 -5.193401075291297353e-01 5.205720048921508303e-02 5.026546477731501650e-01 7.931064028834501345e-01 3.439775265585308106e-01
3.172233196863830651e-01 -5.299775378296944783e-01 4.472254970261867191e-02 5.200668192100487142e-01 7.786710556588847254e-01 3.510012687097022743e-01
3.407902698460657520e-01 -5.241781289011380185e-01 5.245831775042242989e-02 5.295724902604910245e-01 7.716715472840287582e-01 3.522442344050151219e-01
-4.051834904071469068e-01 -2.738899003920988173e-01 -2.022482139230787762e-02 -3.476095683359482491e-01 8.011679212606571676e-01 4.871319635829426953e-01
3.663202853683484306e-01 -5.504667104051245152e-01 4.542645266469254317e-02 5.658533019908597028e-01 7.374072825011040999e-01 3.688367394124101306e-01
-3.829604356097606188e-01 -2.586618243420431007e-01 -1.102386743428608422e-02 -3.502047499178324030e-01 7.693085053804494811e-01 5.343417040474077728e-01
-3.942312886817205819e-01 -2.683415311161173600e-01 -2.956470497008844428e-02 -3.496931224299115737e-01 7.873915271064518828e-01 5.076704671006465608e-01
3.875777923093797206e-01 -6.424750975087829552e-01 3.963607135617836646e-02 8.047384874880463279e-01 -4.516371809243401869e-01 3.852529345276504702e-01
3.564658549819336719e-01 -7.026080021511542650e-01 4.768351703347845083e-02 8.342430531443806307e-01 -3.867340410355604718e-01 3.930334715830798298e-01
3.166169943393420394e-01 -7.761177221812101124e-01 5.001980740477907778e-02 8.947213192746042987e-01 -2.432685911553265912e-01 3.745586114252533738e-01
3.183699854723519573e-01 -7.984056099393637140e-01 4.755909390723140479e-02 9.064214641774263059e-01 -2.263966296565187164e-01 3.565735483159394592e-01
3.186827641819254819e-01 -8.016342493751051901e-01 5.751275689596650059e-02 9.215419094225698604e-01 -2.019975725708329228e-01 3.315983863852403069e-01
3.196622947044162055e-01 -8.167049994359325549e-01 5.300678894794735169e-02 9.370785189957151484e-01 -2.085081405661896314e-01 2.800146506067623942e-01
3.072637350175272952e-01 -8.400214212286876148e-01 4.943306197644557753e-02 9.391136967077707842e-01 -2.270183046639926705e-01 2.579305216591314953e-01
2.412124067293763274e-01 -9.195525069107260974e-01 4.703696976310322436e-02 6.521634864953104183e-01 -7.124983948372783926e-01 2.588992549942601418e-01
1.579184461317244825e-01 -4.090437943357427275e-01 -8.365367397479556155e-02 4.748742565603162324e-01 8.192088764469032114e-01 3.215451091322791832e-01
2.969609827651232825e-01 6.399992108890977249e-01 -3.368669005114281467e-01 6.614040813232945348e-01 1.018796640612574939e-01 -7.430781757390362285e-01
-5.058519760784986330e-01 3.300832749414263079e-01 -7.354225033927018484e-02 -7.442070099601472144e-01 -4.943183830317855465e-01 4.492274062465674289e-01
-5.180088632695040163e-01 3.587405248696017845e-01 -7.292233627507217764e-02 -7.976934225717920990e-01 -3.661076863163043593e-01 4.792184946408293844e-01
2.558858721617459642e-01 3.829407149826944412e-01 -7.733928968767740664e-02 9.818301506778293053e-01 1.200957590173023920e-01 1.469236668682383229e-01
-5.200674957385801322e-01 3.886187016876050393e-01 -7.358419890215771308e-02 -7.519166006405791913e-01 -2.518991829114639591e-01 6.092357731860897907e-01
-5.429820737074433357e-01 4.083740298383293221e-01 -7.792570812185008189e-02 -6.985983848476394753e-01 -1.891316107791322088e-01 6.900648741186298230e-01
-5.449778799608185897e-01 4.283929150614146364e-01 -8.498591932765553469e-02 -7.119533569775516879e-01 -1.181334250502820982e-01 6.922188319991621208e-01
2.498089623116396263e-01 4.399368890017228972e-01 -6.665733296269348018e-02 9.911550712137344732e-01 6.296169369237746005e-02 1.168223006736487518e-01
-5.422408778079759184e-01 5.128077675727151785e-01 -8.138366462925195055e-02 -8.960317330676427217e-01 1.770198779459097038e-01 4.071745278720313999e-01
2.403712724957650648e-01 5.210274543751626242e-01 -7.332550411404120672e-02 9.907523769327053476e-01 -2.093047004137118042e-02 1.340583567930090647e-01
-5.393445594565617895e-01 5.264905996408546507e-01 -7.719319021046412710e-02 -8.583644190952663955e-01 1.844855580064384548e-01 4.787228873976039356e-01
-5.409310184868619809e-01 5.629855763318906137e-01 -9.014535151950468783e-02 -7.686346576130655972e-01 5.185742437619287465e-02 6.375825990827487244e-01
2.551311948368875093e-01 5.606677922351849253e-01 -6.296263508669538989e-02 9.778319212852025766e-01 6.448084643118139059e-02 1.992158481627598066e-01
2.562522187322041622e-01 5.880076864996329755e-01 -7.417452295359722170e-02 9.722416070087310791e-01 1.110195295578564056e-01 2.059633988305496488e-01
-5.279078366996209359e-01 6.012600830902659066e-01 -7.006904613844620877e-02 -7.320659225410156568e-01 -1.158343582652655301e-01 6.713135530431705300e-01
2.368857588502034095e-01 5.968840735884792803e-01 -6.396269823891717610e-02 9.631099714933756273e-01 1.635556025803933944e-01 2.137024746571593303e-01
2.341877106595142699e-01 6.139485170401974834e-01 -7.473511541333544006e-02 9.458063709819627407e-01 2.297606440727877064e-01 2.294784413516604560e-01
2.254186731878560779e-01 6.575738913065248825e-01 -7.325883761091457613e-02 8.863544241719941708e-01 4.029664122567260254e-01 2.280217212102279845e-01
1.937413828951913830e-01 7.266544213610222069e-01 -7.654789979620239826e-02 7.739870493346818758e-01 6.011538011170086682e-01 1.988923197731993220e-01
1.676849175203104225e-01 7.240784058659219813e-01 -7.668537289837872029e-02 6.376952612672881493e-01 7.554269897142030787e-01 1.505815957166825592e-01
1.302629123455260607e-01 7.608705259010779542e-01 -5.745069291976206277e-02 4.971313054040141788e-01 8.526539875143105407e-01 1.607533600371911786e-01
9.786945902106193584e-02 7.954384405451568885e-01 -7.297176567139594672e-02 9.077793549351047542e-01 3.934345349025764604e-01 1.454163316123684158e-01
1.008988036696504276e-01 7.931077614870429837e-01 -7.886409953735297462e-02 9.935695073769922336e-01 1.077242637611798837e-01 3.485852847945313665e-02
3.356073737284581693e-02 9.191398353877514582e-01 -1.579097233580817328e-02 2.323161908260014119e-01 8.987965654674130445e-01 3.717444301991347233e-01
-2.574094301949353750e-02 9.156956697200319129e-01 -2.122832916952221982e-02 -4.293984119686934386e-01 7.256496471220273969e-01 5.376333261902962457e-01
4.400297284941928622e-02 9.180667995045749263e-01 -1.644205269958510379e-02 4.015428902913106834e-01 8.364052478745845898e-01 3.730811822973053582e-01
6.849503696367484351e-02 9.166915776638627777e-01 -8.046874439298636397e-03 5.200260452531314526e-01 7.976369606112700961e-01 3.055293624599824120e-01
-2.596779584142104857e-01 9.020581341536380027e-01 -1.463211047329666253e-02 1.829583653460788717e-01 9.403524715512606713e-01 2.868160835750434012e-01
7.585971138512483114e-02 8.886190309332189230e-01 -9.928972709299587265e-03 7.345347094558239975e-01 6.342849246973722988e-01 2.411252680792637937e-01
-2.821215522136927834e-01 8.774903311118975591e-01 -7.870980970866425092e-03 -8.485474027338616443e-01 2.959975353750503579e-01 4.385803966954216482e-01
-2.072269332829229649e-01 8.766065962717223270e-01 -1.896769819215449876e-02 3.607322077094746171e-01 9.281180577353363992e-01 9.202795893985352138e-02
-2.762610297826421091e-01 8.642953615824308100e-01 -1.149886978510042054e-02 -9.106233563690621091e-01 1.029820768484079885e-01 4.001996935070449846e-01
7.758719740602264270e-02 8.637215193040630457e-01 -6.945040520271784402e-04 8.790139122132742955e-01 9.166582950609471203e-02 4.679016112779202374e-01
-2.814594410294578020e-01 8.561820944645792686e-01 -4.003092294152610017e-03 -8.961404621686560601e-01 9.310841597077720855e-02 4.338929533186269283e-01
2.111901438701847822e-01 6.285383261970982627e-01 -4.826656331108829523e-01 8.009045539227718224e-01 5.415145541068268065e-01 -2.555658099125361904e-01
8.748260916791743280e-02 8.424054766472879319e-01 -7.069451876494497675e-03 6.564770066562075623e-01 -1.459677108453689143e-01 7.400887562463495106e-01
2.067008860288004624e-01 6.332657819781658537e-01 -4.853077595762028129e-01 8.022660395443875769e-01 5.054118976794405027e-01 -3.176916987864646935e-01
-9.828081264176488641e-02 8.622971969460468955e-01 -6.870525860163676120e-03 -3.694541398022652690e-01 6.640662533866801276e-01 6.500151149749870960e-01
-2.795428819204761606e-01 8.308770635420307249e-01 -2.432837718570436680e-02 -6.406226534123395933e-01 2.580252710583927356e-01 7.232050714909129541e-01
6.119705185860645907e-02 8.420120967590892791e-01 3.576669663501027760e-04 4.124478636799336351e-01 -2.221604890647434216e-01 8.834769249077040199e-01
-3.666313084044151571e-01 8.139301588215825944e-01 -2.419129069777457841e-02 -1.872161088437972742e-01 6.188254403862026853e-01 7.628926549130027324e-01
7.268973357968594451e-02 8.218332611996099768e-01 4.271432255613797843e-03 6.080160078485906672e-01 -2.629312094132284505e-01 7.491219615765909445e-01
-2.902274543277192365e-01 8.157133508807083988e-01 -1.355147865895237926e-02 -4.252539987835664559e-01 3.863660641232473103e-01 8.184621561272683588e-01
-3.513571006992282642e-01 8.212696420397761488e-01 -4.981996192634042218e-03 1.480967897183015358e-01 4.621620526091989589e-01 8.743417970125785255e-01
-3.085866818011108736e-01 8.197292336574723004e-01 -2.059917926880155958e-02 -2.669946080435249905e-02 5.028319445017102041e-01 8.639717439716335656e-01
-4.135565681803788918e-01 8.052254312219399024e-01 -8.068810116649227648e-03 -4.666457576232706517e-01 6.035987801949875831e-01 6.464597817647487199e-01
-3.165592749956506746e-01 8.059375623794728938e-01 -1.367996477373062576e-02 1.373799086602752184e-01 3.654410277939195706e-01 9.206408723826127183e-01
-4.159483880641714482e-01 7.954381854228932403e-01 -2.976198871591865733e-03 -4.756183761366525320e-01 6.039438756529581509e-01 6.395615336638204029e-01
-3.208208053195256149e-01 8.065726228923146834e-01 -1.470396097586699341e-02 6.494024431748665616e-02 2.771491252476866451e-01 9.586298175220856477e-01
-4.211200041478708189e-01 7.860429141809794906e-01 -1.797423335753025458e-02 -4.796966655523802192e-01 5.657784146474644782e-01 6.706607895031061473e-01
-4.437305175287391545e-01 7.747323413185482899e-01 -1.140620334180417889e-02 -4.745340896170145983e-01 5.727532724273244336e-01 6.684093706069224039e-01
-4.511673449389971280e-01 7.565874504064377115e-01 -9.639274546367865640e-03 -4.477393491379056401e-01 5.968886635319338163e-01 6.657727829977931888e-01
1.134026787815361204e-01 7.476428544239652751e-01 -1.588938575294340100e-02 4.282487474808100436e-01 8.324466386120622508e-01 3.516185492043842342e-01
-4.625223811207372360e-01 7.336808112737343013e-01 -1.689969167372772432e-02 -4.564035057836917098e-01 6.659097717007742556e-01 5.901355910820651474e-01
1.175348790410061239e-01 7.385332430359590195e-01 -2.085585257039620014e-02 4.644002838909926378e-01 8.129283573155147158e-01 3.513970150616879673e-01
1.751031142913993532e-01 6.944409643845298463e-01 -1.147157105852388177e-02 7.053264834649631831e-01 5.951336196543467461e-01 3.851370229931996292e-01
1.899013488949409245e-01 6.733576162377460372e-01 -8.687696131084738510e-03 7.991217174478961738e-01 4.498828499858716912e-01 3.987604569057899284e-01
2.003992971703066894e-01 6.596012509322761730e-01 -7.162328934978594470e-03 8.268124894990018792e-01 4.001233131134976362e-01 3.953257410181391096e-01
-5.160907024552439104e-01 6.658138344949343645e-01 -7.759799321338538627e-03 -8.111245888878739763e-01 -2.768591658450964554e-01 5.151950151049937698e-01
2.122017967554915008e-01 6.518239595236938744e-01 -1.168810465917351389e-02 8.459728162666985130e-01 3.538159277552934689e-01 3.989289202407514945e-01
-5.007310654570379382e-01 6.281100772731323945e-01 -3.482903486130374537e-03 -6.394606490379052266e-01 -6.098630816716255065e-01 4.681421791998763293e-01
2.165251909200801850e-01 6.254728407005853974e-01 -1.737947929579922862e-02 8.694651744336318044e-01 2.893698939685167004e-01 4.003690483937832889e-01
-4.984135577405953144e-01 6.198866866734854542e-01 -1.285462050381224776e-02 -6.106362354608106946e-01 -4.636517949774944802e-01 6.419894087571825780e-01
-4.809075418455184270e-01 6.071104697058259392e-01 -2.322883475424812605e-02 -6.018771467254464547e-01 2.121354832654354095e-02 7.983068868655918138e-01
2.262440181520889437e-01 6.101333523493432942e-01 -9.944850959218492700e-03 8.843316822420814738e-01 2.420823273223687011e-01 3.991912105508786390e-01
-4.927292359604751315e-01 5.828205762220636243e-01 3.488662347922945675e-03 -5.521467399805500831e-01 4.462627102801262069e-01 7.042610105225808326e-01
2.347889003448720424e-01 5.536101522022174315e-01 -1.828616135520504463e-03 9.396040538937845410e-01 1.000140421066549601e-01 3.273246298216107020e-01
-5.118126372212519204e-01 5.350400165886601833e-01 -5.123137000760486989e-03 -5.225134082978102334e-01 2.779095821320168302e-02 8.521780335062609790e-01
-4.921807536782789039e-01 5.362591677458277140e-01 -5.301205808643182603e-04 -2.236568491630009092e-01 -2.465872294980092916e-01 9.429593586528397520e-01
-5.126208495205101245e-01 5.303499405403769851e-01 -1.026925992938930096e-02 -3.701089362017423445e-01 -2.247352017029601856e-01 9.013952875731847669e-01
-4.905232440599107124e-01 5.341027187998657055e-01 2.806831320398793517e-05 -9.505560394536848035e-02 -3.380317553325677959e-01 9.363220410443001684e-01
-4.976960390262673561e-01 5.084190299445346950e-01 -1.205826494245494825e-02 -8.176634696488865872e-02 -4.006638783285423333e-01 9.125692966053309263e-01
-4.754668038989283696e-01 5.128381044967523783e-01 -3.985489359941685877e-03 -1.361739435635033468e-01 -3.462520264199109299e-01 9.282058991918059609e-01
2.277111430774449163e-01 5.225922734368456668e-01 -6.632053795966342050e-03 9.641005794449931665e-01 6.603203174014143917e-02 2.571961187461763720e-01
-4.978012673384054065e-01 4.999345401509782683e-01 -1.168345380550568462e-02 -1.282374979700007800e-01 -3.322271609702857065e-01 9.344411472254515738e-01
-4.712768522845268149e-01 5.015094099509060932e-01 2.638744268375970911e-03 -2.409582033487124020e-01 -2.125474903527491410e-01 9.469755585989051427e-01
-4.825820926672154121e-01 4.883794077051407667e-01 -9.363687538851080822e-03 -4.075225332203814554e-01 -3.081223031111138613e-02 9.126751839405398137e-01
-4.784501508406780457e-01 4.789620486306063185e-01 -2.124613400326950952e-02 -3.320172955314669161e-01 -3.753971842331111503e-02 9.425260129082215776e-01
-4.674764966073019501e-01 4.811199621116486469e-01 -1.090178272987035908e-02 -4.633419369187795067e-01 2.152464002559286715e-01 8.596413418799832007e-01
-4.662724420457274865e-01 4.512206122718067092e-01 -1.524791623326660073e-02 -4.594939539927364036e-01 2.456265673214885759e-01 8.535413848607360521e-01
-4.796924907000903460e-01 4.544941100305934234e-01 -4.552686654400381339e-04 -5.347048478347211642e-01 2.575154816547081116e-01 8.048456388713250975e-01
-4.839682604175306602e-01 4.134683069747610018e-01 -2.837446880982708204e-03 -6.250092059056047145e-01 1.300907086853303474e-01 7.697011758124019387e-01
2.382775279533204393e-01 4.257486989941263733e-01 -2.570352189825180975e-02 9.683442621633444602e-01 -3.362320036531225159e-02 2.473436280410760413e-01
-4.651372383050811354e-01 4.042271260309411307e-01 -6.891894660452192040e-03 -4.720976868382101843e-01 -3.479186658022559997e-01 8.099854171948958070e-01
-4.622074377380228083e-01 3.797504095212109743e-01 -1.625459095322038042e-02 -4.341222693665173216e-01 -2.695010782060931476e-01 8.595970126087096874e-01
2.294404948381431331e-01 3.560470900879951772e-01 -1.450114722046902047e-02 8.814514056182264357e-01 8.163619592266578573e-02 4.651655093070949376e-01
-4.669675208723853554e-01 3.368868293738391251e-01 -9.918451963879658384e-03 -6.912040455274860440e-01 -1.105973081190688850e-01 7.141464855918936427e-01
2.434705091222004458e-01 3.596291780336944854e-01 -1.518613107043719976e-02 8.802639697946811337e-01 1.591669264077563706e-01 4.469913120176015053e-01
-4.623937270828961665e-01 3.418891091324090525e-01 -5.605121765813681801e-03 -7.237502572062922690e-01 -1.459432846700550179e-01 6.744524615223382868e-01
2.427797795432782291e-01 3.234184171827881871e-01 1.226758943567157062e-02 9.143024425760694074e-01 2.333021333354358129e-01 3.310908607626728006e-01
-4.542697037368403912e-01 2.964566650390396685e-01 -5.002264145112195019e-03 -7.805115147332348791e-01 -2.607818213271697050e-01 5.681501711995828874e-01
2.475451101436114132e-01 2.925184100858591596e-01 -8.057691553675236373e-03 9.667364712576830277e-01 1.256203684431856094e-01 2.228006242640296342e-01
2.562595607200807701e-01 2.693613585807485555e-01 -2.192628228223043180e-02 9.794542483819080880e-01 7.059285768034716246e-02 1.889074476328392038e-01
-4.455051318601493948e-01 2.700194545071217256e-01 -1.220676802355076182e-02 -8.571380243203524651e-01 -2.604508333343868443e-01 4.443869605193498384e-01
-4.187042238346951883e-01 2.219844865742918727e-01 -1.002076466858053266e-04 -9.063062408839246409e-01 -2.187284368439901261e-01 3.616170193044490611e-01
2.498731001614894476e-01 2.251840152248689719e-01 -4.268850454121215707e-03 9.918234241788994598e-01 -6.492992096557828607e-02 1.098653749524694662e-01
-4.135605859042635890e-01 2.181120498975602506e-01 -2.841818428854386326e-03 -9.076184224445272841e-01 -2.366770447372123221e-01 3.467171408133251642e-01
2.524790998275803222e-01 1.998248510039032089e-01 -1.391862558728532671e-02 9.915429829859689903e-01 -8.468055464326537662e-02 9.834488576736208354e-02
-4.257730727241528790e-01 2.033084161263813971e-01 -4.087249827511728675e-03 -9.038143042354793710e-01 -2.732850544935924164e-01 3.292946741898062912e-01
2.537157948298963128e-01 1.797507303221929920e-01 -1.258197611673074132e-02 9.909331401129264361e-01 -1.133787109153413381e-01 7.208869354559487019e-02
-3.964597219056234523e-01 1.614015656278858790e-01 -1.647854681241767844e-02 -8.872856231844309383e-01 -3.324358533706864849e-01 3.197039666377621825e-01
-4.122346561889883021e-01 1.519981715232421038e-01 -5.599344973013323581e-03 -8.800720574494650394e-01 -3.550623097679842521e-01 3.152838877565571352e-01
-3.996540472470461736e-01 1.399485076764601932e-01 -1.524386480440987311e-02 -8.752972591414934778e-01 -3.780707180352065877e-01 3.015248585170592355e-01
-3.952167364466706578e-01 1.259336117570014069e-01 -2.360371496845632341e-02 -8.265744673956514355e-01 -3.896399371327432526e-01 4.061469798493974603e-01
2.399313455566728370e-01 1.000451266040063431e-01 -1.640590200042607583e-02 9.753766612855360174e-01 -2.177275107990778724e-01 -3.514398470176633565e-02
-3.902207188303691843e-01 9.739810758103527311e-02 -1.517680857984124790e-02 -8.833957755678889523e-01 -3.534843209225382310e-01 3.076698532042745349e-01
2.281468922056643367e-01 7.073113730519674236e-02 -8.904664712696234996e-04 9.617580777214487231e-01 -2.697477161651837818e-01 -4.751388808770898309e-02
2.234636989428986920e-01 5.335807345390161660e-02 -1.243557726836569226e-02 9.496309617037945738e-01 -3.094453077562637211e-01 -4.944328145620620341e-02
2.276549721164464746e-01 3.967626460736206617e-02 -7.828881674433461543e-03 9.303365606254881959e-01 -3.651703776445096583e-01 -3.353325594843580004e-02
-3.660919391395292544e-01 3.723446884968655696e-02 -1.912290628469161952e-02 -9.277291133315584970e-01 -2.881013893079950594e-01 2.373105175836991154e-01
2.077273050236765894e-01 2.144921001029768265e-02 -2.136941284145842807e-02 9.046689489258065153e-01 -4.253855755279594142e-01 -2.492398407604734523e-02
1.938797254925367641e-01 -1.243957293166758800e-02 -5.498675852327846066e-03 8.471364364603299890e-01 -5.313229943472128625e-01 -7.465500599750209479e-03
-3.338584405370433328e-01 -2.160538663361424513e-02 -2.053208710896521280e-03 -8.451607564790784011e-01 -4.165814851188106571e-01 3.349076917061150627e-01
1.840548971054046246e-01 -2.699447454745392341e-02 -1.515639563382687079e-02 8.209845447486472381e-01 -5.709483350054160855e-01 -1.541440365267878268e-03
1.705132001631995409e-01 -3.513391272421031997e-02 -1.250848784970081361e-02 7.972833001426234967e-01 -6.035089001281195298e-01 1.078641645009743508e-02
1.552643403577097514e-01 -5.670605872203436648e-02 -1.519733955644860489e-02 7.810433257284999931e-01 -6.241481202460121835e-01 2.025949970590987942e-02
-3.179990155296721355e-01 -4.747238690492286417e-02 -8.142233527415210920e-03 -7.317333280246540728e-01 -5.866763391924563198e-01 3.469541896125508673e-01
1.328310968073613541e-01 -7.908389927158585020e-02 -2.965366728884565213e-03 7.343296028793282471e-01 -6.762610289786311624e-01 5.857520823566018248e-02
-3.055370662138625626e-01 -6.392783322852178818e-02 -1.730487051996551506e-02 -6.745305959729867018e-01 -6.469396673669691733e-01 3.556368117665025808e-01
-2.242738504698245094e-01 5.837016208431442532e-01 1.682241782881077896e-01 -4.229137530955195401e-01 2.254009011657172601e-01 8.776892338386886872e-01
-3.103333394879648210e-01 -8.053711390693990557e-02 -2.674824350693702155e-02 -7.011002925289010479e-01 -5.040041409425362051e-01 5.044186809870007115e-01
-2.900909790494939910e-01 -7.979741601171982945e-02 -2.222356525568016869e-02 -6.449567059719787387e-01 -3.157283389925593653e-01 6.959500437378922655e-01
-2.777513863804371153e-01 -1.124290269391763353e-01 -2.767201041165567171e-02 -5.063917464317553296e-01 -6.679380076129881605e-02 8.597127353515571224e-01
8.295164206815869301e-02 -1.236677917261317511e-01 -8.848609002625280537e-04 5.241182772929723344e-01 -8.334163850496264514e-01 1.752631180204771710e-01
-2.664381304445234688e-01 -1.319216079805613229e-01 -2.338682449848887568e-02 -4.484271817808092031e-01 2.205737073624286226e-01 8.661756763269876647e-01
-2.910760417186471494e-01 -1.339426927725404504e-01 -2.331912114828194743e-02 -4.764206603948595298e-01 2.274220503140652327e-01 8.492953346038540907e-01
-2.996366253884350517e-01 -1.490260847108617337e-01 -1.439880373235732924e-02 -5.515757960162507301e-01 1.781636135773147778e-01 8.148753696401140889e-01
5.503225864381446064e-02 -1.417915552885896102e-01 -1.352350706109284838e-02 2.698920002885275005e-01 -9.412158790551300447e-01 2.031525958355845096e-01
2.953863612784299666e-02 -1.477742949249991333e-01 -5.448350691834431131e-03 2.745332459632133237e-01 -8.611433646385106000e-01 4.278593254797267709e-01
1.926654107563964546e-02 -1.535784104228868630e-01 -1.408760622061689879e-02 7.402276411004217183e-01 -3.254459291112449804e-01 5.883434257096988862e-01
-2.881061481523350953e-01 -1.698849068502432669e-01 -1.598968358526663483e-02 -6.774399197829604757e-01 5.761784742970584711e-02 7.333180338311769964e-01
1.325274092176922242e-02 -1.891877015436790599e-01 -8.825974483257911438e-03 7.085155819494097784e-01 1.988440833092417759e-01 6.771016915263144975e-01
1.476556209897378000e-02 -1.947772600614443572e-01 -1.840729350656829938e-02 7.240818561710323786e-01 2.140582741223502894e-01 6.556557944864614962e-01
-3.070067574185850745e-01 -2.052485423336437853e-01 -2.105095943801149269e-02 -6.493726263285756195e-01 1.744992247653325002e-01 7.401791760995618530e-01
2.158751499311229588e-02 -2.161196162751353178e-01 -1.265232283945684488e-02 7.330586361840930598e-01 2.007914448646823669e-01 6.498521613298448019e-01
3.148514555746545485e-02 -2.176733555863164249e-01 -1.846409089741652201e-02 7.472709414090829005e-01 1.871853594024575351e-01 6.376109953184273538e-01
-3.040664184921826330e-01 -2.349328828045568474e-01 -3.089429282622840542e-02 -4.951322414326803645e-01 4.615738406738211230e-01 7.360663374312589324e-01
-3.278545805611602915e-01 -2.511572704931412381e-01 -1.873426877615574568e-02 -3.940375711795049418e-01 6.625051522383413882e-01 6.370410628496477878e-01
-3.384465597513642843e-01 -2.476476879189329905e-01 -1.168924005442918516e-02 -3.593340751155101875e-01 6.917541045819696199e-01 6.263826955263677165e-01
-3.519389200346237923e-01 -2.727715583147976020e-01 -2.238983880602798612e-02 -3.628926128478965341e-01 7.316074863647330506e-01 5.771130196378380095e-01
4.663745728066154284e-02 -2.557181817975873184e-01 -1.811105709874666694e-02 7.464418729776850503e-01 1.826434835036610249e-01 6.398952165778498680e-01
-3.663035743809406886e-01 -2.762473885205675717e-01 -1.914999922850981612e-02 -3.414232132922360163e-01 7.528793345828823647e-01 5.626747701676704239e-01
-4.410951906272739254e-01 -2.912277103296567748e-01 -2.038396747262193401e-02 -3.428684281456274574e-01 8.119869108093442645e-01 4.723542078305695280e-01
4.606534912282449212e-02 -2.824382457212555875e-01 -1.186596454716455813e-02 7.614888611253304296e-01 1.852609797386315371e-01 6.211385383055294529e-01
-4.544579626616569445e-01 -3.137596685917409256e-01 -7.517729951120087975e-03 -3.224578701290738980e-01 8.211838608721491184e-01 4.708269200406157151e-01
-4.699920096407837478e-01 -3.234056701320560112e-01 -2.016949147770935938e-02 -3.282665827385553015e-01 8.421603131401839137e-01 4.277932416819818506e-01
-4.776882468526136294e-01 -3.281100474819585444e-01 -2.112247414771215720e-02 -2.914174516514873026e-01 8.510678916744177647e-01 4.367600172106125833e-01
1.178946641871796847e-01 8.175707460304400265e-02 -4.592148433481563208e-01 8.153931338869158107e-01 -5.136301756176002709e-01 -2.670544511988278691e-01
-5.551512808113728825e-01 -3.394449156606904050e-01 -2.007558624176098566e-02 -2.043658849562194901e-01 9.384519834107726277e-01 2.784644679280431356e-01
1.414330496179895258e-01 8.475414110059346917e-02 -4.694188639444589750e-01 8.362478598214008185e-01 -4.767619822024834475e-01 -2.709013275539374765e-01
6.833814502460650031e-02 -3.541878887984253321e-01 -3.698153666946928271e-03 6.490056772134180640e-01 6.553352524790136968e-01 3.864289556995179065e-01
6.828261480278030593e-02 -3.519803388685113776e-01 -5.874334306721305625e-03 6.126846996756032393e-01 7.150567375300040940e-01 3.366174696838575842e-01
1.098192723376006791e-01 -3.841765212838791910e-01 -1.147420141728087810e-02 5.525283039934385521e-01 8.049207982343853374e-01 2.163677005836458778e-01
1.234165236740235039e-01 -3.958870084665659927e-01 -3.721852774840796879e-03 5.678823292346605323e-01 7.925491136015654359e-01 2.222061265410781028e-01
1.604150527707651208e-01 -4.076411256448072007e-01 -7.758025007741117633e-03 5.444085150028525888e-01 8.074932786917641270e-01 2.270990393198834834e-01
1.772458224234166324e-01 -4.245356456157549641e-01 -9.487147888500902654e-03 5.028506978268902916e-01 8.323020459699449480e-01 2.332691149064806957e-01
2.216918627260385799e-01 -4.513940061570081430e-01 -1.812896787829928330e-02 4.000041258280049861e-01 8.823853558170888789e-01 2.477756710416159636e-01
2.565077077361064828e-01 -4.654084511118470879e-01 -9.678780399390924521e-03 4.051854543012386456e-01 8.679292769840372124e-01 2.872690686040966224e-01
2.824694989162619962e-01 -4.852997503775817179e-01 -1.096089841839142411e-02 4.245090643050751789e-01 8.453524984462824632e-01 3.243011065251822922e-01
2.857640221564694549e-01 -4.754106895786880949e-01 8.935872100888911027e-04 4.253768181777340951e-01 8.357640322341670647e-01 3.472074955709812949e-01
3.330034680852607121e-01 -5.031501190794641643e-01 -1.745691419874144390e-02 4.644664073837896923e-01 7.858961410052173191e-01 4.082134392264698541e-01
3.549081662239647050e-01 -5.137835567370726553e-01 -1.333392858905015771e-02 4.781440545833540168e-01 7.701325864230632590e-01 4.222251323594011230e-01
3.648554721255727884e-01 -5.253311220503028567e-01 -1.588677809500264188e-02 4.980252984225553847e-01 7.511757752166668967e-01 4.332502243031897127e-01
3.838464486861258296e-01 -5.311227354123042588e-01 -1.060616176842926577e-02 5.304966587987890447e-01 7.233293862196801260e-01 4.420044049943190889e-01
3.887334646198852273e-01 -5.331077657178734386e-01 -1.711901128087283536e-02 5.580198680293600999e-01 7.024854392837023287e-01 4.417329900277761623e-01
4.130332924853459819e-01 -5.567120099355066243e-01 -1.588395805673444711e-02 6.199371644112071644e-01 6.523905567226796487e-01 4.359638444651852129e-01
4.121419598350092306e-01 -5.683202144513318510e-01 2.943741953171935197e-03 6.724965475896184097e-01 6.100198421755432809e-01 4.190753937326426870e-01
4.264203880772590716e-01 -5.833848128530223498e-01 -1.705261049269288232e-02 7.848760205212371721e-01 4.343760188768538422e-01 4.419130079952858781e-01
4.291670550914102877e-01 -5.987987216545556102e-01 -1.125284026246562569e-02 8.654495311257711654e-01 -4.423969883914918855e-01 2.351212745293821405e-01
4.246763314673421830e-01 -6.083745891968589392e-01 -1.325859484848367423e-02 8.309342832910396881e-01 -5.258629284008407012e-01 1.817041479584284303e-01
3.918260543060509415e-01 -6.635812308778352708e-01 -1.118081946493636181e-02 8.471386435732989328e-01 -5.104274392740278943e-01 1.477157669341694346e-01
3.843565669987558109e-01 -6.836991556174292217e-01 -2.152492250167229240e-02 8.586299995417892017e-01 -5.018242725850057262e-01 1.045319249387336030e-01
3.754080620406913260e-01 -6.981250574707960066e-01 -2.124129164319004531e-02 8.707044914341621755e-01 -4.812841781777388861e-01 1.011890726914501659e-01
3.469194292797309620e-01 -7.574341848235577324e-01 -1.239233999483557724e-02 9.272824459738520098e-01 -3.668057720910567476e-01 7.483843230208747643e-02
3.275060576481967911e-01 -7.737574847568233771e-01 8.391040376583367572e-04 9.375521056686322297e-01 -3.407745237867192412e-01 6.977659417203420367e-02
3.308107865420921168e-01 -8.068098131580641041e-01 -1.330498132377419193e-02 9.545196199015648642e-01 -2.923001197227479975e-01 5.876168167300402367e-02
3.130530512657097586e-01 -8.842855231336554933e-01 -8.138705074346727977e-03 9.383908129643394602e-01 -3.368212877491715829e-01 7.729231697339482288e-02
1.486052004294150519e-01 -3.882848150675233811e-01 -8.016303338671829093e-02 5.011463971562610809e-01 8.060379571970457402e-01 3.148890283495323628e-01
3.077271180078220980e-01 5.916803357514603956e-01 -3.375269714590691805e-01 7.253796855039355007e-01 -1.033671125174974725e-01 -6.805435709107880982e-01
3.079572251399735894e-01 5.780235124336957631e-01 -3.343126300108132387e-01 8.186632807795197753e-01 3.726711280677467292e-02 -5.730633429267311119e-01
2.160744714650788267e-01 6.386337215368874665e-01 -4.942359753920960164e-01 7.363836268155293796e-01 5.433728867462216394e-01 -4.030943563324660417e-01
2.012122783716368268e-01 6.539622945810172894e-01 -4.757854547661585221e-01 7.076099897668644001e-01 5.618645113215613440e-01 -4.284814736946290781e-01
8.389113764715630528e-02 8.739589789894622873e-01 -5.940957099955260917e-02 8.321009322198575919e-01 3.982533536550250663e-01 -3.860081668842894054e-01
-1.212063041060044144e-01 8.943902704182054020e-01 -5.903442979899020671e-02 -1.134099947218459165e-01 8.593282309510501538e-01 4.986914522906218949e-01
-1.495990456532292345e-01 8.917508557259458124e-01 -6.606338669336485336e-02 -8.940608583912301732e-02 8.790118263746340421e-01 4.683425679013787368e-01
7.458833923923145759e-02 8.909811751884334496e-01 -7.175803237065482565e-02 7.355626298192549095e-01 4.868119084406915542e-01 -4.711282027364881442e-01
-3.809483464232926164e-01 -6.359194129672756102e-01 2.575445210928623552e-01 -6.013854891434198269e-01 -3.253068173595635715e-01 7.297334910959761833e-01
6.081810514884775087e-02 9.009842278679883742e-01 -6.486553508399656165e-02 4.415058254596271881e-01 5.816290135131972905e-01 -6.832132146884150048e-01
-9.460105197540369382e-02 8.898113144240474837e-01 -7.597214842879269903e-02 1.912147199400760639e-02 8.824276664710926088e-01 4.700593396106118593e-01
2.575239177093167631e-01 4.468884062830507653e-01 -5.471248211634580638e-01 8.934580604417898808e-01 1.820373523442256336e-01 -4.106033324062277057e-01
-6.267022473012912043e-02 8.991822191386911189e-01 -7.509445618283967783e-02 -6.904504503605601862e-01 5.979641628821562582e-01 4.070835731217138376e-01
-7.934427347632319605e-02 9.031501231505753013e-01 -7.159022805177239768e-02 -8.982605288532341525e-03 9.604425246782357650e-01 2.783333785084480261e-01
3.034760726650857499e-01 5.226969528579367141e-01 -3.430713580178182953e-01 9.899332664170552576e-01 4.571118045648862871e-02 -1.339500504745471665e-01
3.097333390386777241e-01 5.146935194522491708e-01 -3.365295073780470991e-01 9.753549120641641368e-01 -2.022677763370148152e-01 -8.815067877212279246e-02
1.232790473767621103e-01 -3.661838044901712386e-01 -9.712311201331999544e-02 5.971780392746168786e-01 7.483727584717554393e-01 2.886461567135438777e-01
1.015491607274542352e-01 -3.484582190606572705e-01 -8.115663605889852916e-02 7.978824581305306030e-01 4.984154452653489775e-01 3.390658150396851367e-01
2.914542859623748816e-01 -9.042086892296008482e-01 -4.599243443013635579e-03 6.874654159760704708e-01 -7.200764528591298008e-01 -9.424013940281426860e-02
3.196593386248904878e-01 -8.293867428620793625e-01 -4.569316726796276984e-02 9.544454153859458501e-01 -2.962638495448293163e-01 -3.552014219605663381e-02
3.339619058386272266e-01 -7.972477016790058268e-01 -4.864722816414612794e-02 9.509627140125785916e-01 -3.078682048586389719e-01 -2.978397211504407380e-02
3.344363974354502278e-01 -8.029879351908898455e-01 -3.110443008429514267e-02 9.481171839954563030e-01 -3.170377625566880853e-01 -2.368253629945939881e-02
3.470845711824498414e-01 -7.608439994215604463e-01 -3.848458822861974826e-02 9.412437997605076490e-01 -3.374832935361334330e-01 -1.285052514122993900e-02
3.400652945719924714e-01 -7.520422215919099207e-01 -5.400034072831980808e-02 9.315321504767349881e-01 -3.633004035576960500e-01 -1.614525945920088079e-02
3.775676229468696299e-01 -7.158578632050764945e-01 -4.006230510250143734e-02 8.913424880169618092e-01 -4.532878485374799427e-01 6.220564604190824583e-03
