-4.189197949581502378e-01 -2.285753395659825826e-01 -4.664416673433061100e-02 -4.000196215274277600e-01 8.095723532114815768e-01 4.296241465614772381e-01
3.395508848744466929e-02 -2.226495288868670652e-01 -5.132072419622697723e-02 8.343789395885536919e-01 1.510587645826437786e-01 5.300877614262057280e-01
-4.509562755061249928e-01 -2.655992350890669096e-01 -4.732675814752977661e-02 -3.733651843599951614e-01 8.521343695932643847e-01 3.666953166672801134e-01
2.931289700584435026e-02 -2.537247294087327520e-01 -5.603586806336804949e-02 8.334359055442398523e-01 1.508890573573903604e-01 5.316174223249749975e-01
4.448330350465420219e-02 -2.540979063775295477e-01 -4.515495059420860519e-02 8.376127045456043252e-01 1.522025650695826848e-01 5.246325727307041831e-01
4.652521246395668192e-02 -2.689822086014635460e-01 -3.862602418115254621e-02 8.386097646427305152e-01 1.509816406695230762e-01 5.233910649090246503e-01
5.836113556632629984e-02 -3.489840721524714029e-01 -5.901015580385741977e-02 8.030759295913099116e-01 4.592974171182833132e-01 3.796247277766913175e-01
6.839682858616424888e-02 -3.652103339625122347e-01 -5.451209150721344349e-02 7.385877495680993610e-01 6.006922544000066200e-01 3.060342328756185948e-01
7.858704928541926371e-02 -3.680612205829366657e-01 -5.439582714698376620e-02 6.514238880570835111e-01 7.170218603811504554e-01 2.480454994635987453e-01
1.215685847236412098e-01 -4.060127711120053440e-01 -6.295175804074140680e-02 6.243654634741941933e-01 7.635151765407240942e-01 1.649616416402361063e-01
1.550462798993555991e-01 -4.454773138838359348e-01 -4.331017482657675138e-02 6.190014498987922442e-01 7.692303237531191717e-01 1.584989401916130636e-01
1.908921013783559661e-01 -4.724698554931247574e-01 -6.074631048958605700e-02 5.351087829757957826e-01 8.263072367285175801e-01 1.757126657706958306e-01
2.428308940245433034e-01 -4.897873199840535041e-01 -4.385102775203502529e-02 4.888703234770884754e-01 8.467655004741980740e-01 2.097474529764013218e-01
2.781017704161563575e-01 -5.156435580724169077e-01 -5.096820893113287315e-02 5.340829991515281261e-01 8.134507045444450135e-01 2.303330225856786428e-01
2.866866699115693251e-01 -5.322446544011357750e-01 -5.079336029328983260e-02 5.423128127553729083e-01 8.041832980311016676e-01 2.432818042706363093e-01
3.346979430746727657e-01 -5.443229241837608257e-01 -5.154638328016949295e-02 5.885668720402766896e-01 7.622043946843403139e-01 2.695060256480421579e-01
3.610880081058050473e-01 -5.837950875272015505e-01 -5.073539295770770896e-02 6.376771219878624164e-01 7.160182343475279820e-01 2.840524180061232973e-01
4.125947850928893823e-01 -6.209829512137328145e-01 -5.571258993840474266e-02 6.283053556273138218e-01 7.381995711012349082e-01 2.455479043200890776e-01
4.095525918440793278e-01 -6.468886121971908487e-01 -5.126319590559336170e-02 8.698940685763780767e-01 -4.098293806555200480e-01 2.744525245049651563e-01
4.014215744871482139e-01 -6.720474424865976459e-01 -4.969473461969123318e-02 8.278395476581926760e-01 -4.983870003614075395e-01 2.574724863045315670e-01
3.947863720830047107e-01 -6.883462821657583275e-01 -5.142263716368078441e-02 8.312894477908504554e-01 -4.940527080091689505e-01 2.546954567721805285e-01
3.654573450297300408e-01 -7.530218845592832055e-01 -5.809203891655642660e-02 8.671339392554826553e-01 -4.410928518760937611e-01 2.313348815355852073e-01
3.332284241321045171e-01 -7.936837642661602743e-01 -5.253184833314279711e-02 8.952364259517692213e-01 -3.875306788116921752e-01 2.199357056706609248e-01
3.249884986848080581e-01 -8.161185948651595856e-01 -5.405437825699754839e-02 9.296037621992602196e-01 -3.397974505652034960e-01 1.427394055416006113e-01
3.291039194594757578e-01 -8.299964304376082902e-01 -6.023932510018865927e-02 9.471671835024377817e-01 -3.050914417011484914e-01 9.896230947574881365e-02
3.211174271974365224e-01 -8.508954049286947541e-01 -5.427886756253784417e-02 9.482529192959793241e-01 -3.091259128892520636e-01 7.250910995895040734e-02
3.128323264789710234e-01 -8.831440370507855908e-01 -3.326172638760527961e-02 9.555311040969599601e-01 -2.901789026449208553e-01 5.250251006413271526e-02
3.009718322386760181e-01 -9.246600663133057729e-01 -4.715120992150160367e-02 9.003686173745025778e-01 -4.327656821663990461e-01 4.527932404727306320e-02
2.137587219972728048e-02 -7.941943217648111952e-02 1.538812184748671319e-01 1.744011871701175442e-01 -8.295875099154700338e-01 5.304420696983823680e-01
4.033555864689544745e-02 -7.862122331988634361e-02 1.461919269497296558e-01 2.255477601181862801e-01 -8.549796506403998242e-01 4.670524648221963671e-01
-9.465032466697632929e-02 -7.565521495071392266e-02 1.504311507899452893e-01 -2.477733071883052030e-01 -7.554392374355446416e-01 6.065640500291560322e-01
9.767394159035142076e-02 -4.493385406483470929e-03 -3.924445341421709532e-01 7.931943820927410682e-01 -3.053626478583129078e-01 -5.268741078374175046e-01
9.503512436263963914e-02 2.929850652985396819e-02 -3.873604653406657050e-01 8.243608194954221702e-01 -2.842266165371070685e-01 -4.895349525138161240e-01
1.132482207274951302e-01 3.192957619895265414e-02 -3.961449220570747998e-01 8.372940632212455547e-01 -2.997332121916661540e-01 -4.572730619703313515e-01
2.618777787366780019e-01 2.484750688668057872e-01 -2.592931836872660600e-01 9.187668747235233635e-01 -2.243256120379902574e-01 -3.248775918627667680e-01
2.768643303410125434e-01 2.718698649284604918e-01 -2.770573198602867548e-01 9.388348663609379363e-01 -1.923193251980588325e-01 -2.856612869473266203e-01
2.800894310866520187e-01 3.142282992600671232e-01 -2.707456397860135699e-01 9.669569701328800670e-01 -1.424906726443030680e-01 -2.114015754927441038e-01
2.768972761037833963e-01 3.435354726628164213e-01 -2.643042357138853937e-01 9.795975444094692230e-01 -1.555768297224543184e-01 -1.272183203805516971e-01
1.404304879476062085e-01 9.217955134323381206e-01 -1.149049499814018965e-01 8.501204592552814576e-01 3.566595583547855219e-01 -3.874134279936085612e-01
1.491780112355899635e-01 8.314856758934791037e-01 -1.196956593137540603e-01 9.984485775732104829e-01 -5.461197787339546611e-02 1.086139101534153162e-02
1.545402927038496410e-01 7.986423798916835182e-01 -1.129723991623275969e-01 6.103247053175884229e-01 7.828481266251516857e-01 1.210477786598716105e-01
1.700860842000621875e-01 7.987284002064485300e-01 -1.053705587818845185e-01 5.492897919587610422e-01 8.228118423368653289e-01 1.458128820101795287e-01
1.801955214072571976e-01 7.979921182019094061e-01 -1.140071929443453452e-01 5.557234363845798830e-01 8.204443912536558692e-01 1.343222361090372907e-01
2.014498534848708777e-01 7.874147981122285866e-01 -1.091501649842491900e-01 6.079078205496888376e-01 7.809517842548758804e-01 1.433959287555020556e-01
2.098824426211891025e-01 7.694348224573266393e-01 -1.244011925385312273e-01 7.024151104797391465e-01 6.944317960468847639e-01 1.561329344143437547e-01
2.198119663727956252e-01 7.252652096413222393e-01 -1.058226352550224181e-01 7.812422007336524699e-01 6.032801164668282201e-01 1.603549963942809131e-01
2.433178403801157241e-01 7.386538715465182925e-01 -1.043711410591627448e-01 8.184625656383704984e-01 5.506552739276333597e-01 1.640054814460153720e-01
2.578663977517203776e-01 7.056425199851207308e-01 -1.022171512912915942e-01 8.795238502191889962e-01 4.441982797958514695e-01 1.706624889131172496e-01
2.206491623394909729e-01 2.440754303964760563e-01 -3.816425894332119984e-01 8.062209296078960419e-01 -5.912830911845279314e-01 -1.980198832059535188e-02
2.691505082576092778e-01 6.969233934989400581e-01 -1.165407192826823091e-01 9.084229451246988996e-01 3.828169630485733221e-01 1.679848968605084647e-01
2.610407473871889650e-01 6.794211545394061025e-01 -1.173339705579247855e-01 9.217662208649172184e-01 3.469842785155889953e-01 1.730576335658869924e-01
2.364850757642775747e-01 2.678329663119233262e-01 -3.724073175187561646e-01 8.611562225350812838e-01 -4.993859863341328365e-01 -9.499261572456413338e-02
2.593345816002265991e-01 2.769111495710691040e-01 -3.820960058022501160e-01 8.727528139008460251e-01 -4.398392663793564972e-01 -2.117638911123061185e-01
2.742100359236950280e-01 6.420124746831115115e-01 -1.167193877558242443e-01 9.620224322333008615e-01 2.239377875682516117e-01 1.560919830707550027e-01
2.835909455611848040e-01 6.050102119410114554e-01 -1.226895820253585956e-01 9.883621379684992547e-01 9.612400650788266443e-02 1.179002103611763580e-01
2.799018286706196346e-01 5.870314576384383365e-01 -1.130944728872804311e-01 9.948215755688574191e-01 3.582033255557862811e-02 9.511538549732130587e-02
2.842562058576108552e-01 5.432522694318221435e-01 -1.201026204603289071e-01 9.985516609236694263e-01 -2.361302645115362017e-02 4.834258421307625203e-02
2.812836095829966965e-01 5.000132398914667320e-01 -1.068418730080181456e-01 9.992645388011260899e-01 -3.750405523079868020e-02 -7.989201200238131226e-03
3.825442430812652228e-01 -6.024800991174412701e-01 -3.648874496249129851e-01 6.044935857609000651e-01 -6.464281667037946599e-01 -4.655299454019048433e-01
2.827728954393911587e-01 4.673071656603287605e-01 -1.093122306083412348e-01 9.994583588404216679e-01 -3.238110144366879856e-02 5.869685963148120640e-03
2.890674979897577268e-01 4.494297476192152252e-01 -1.069282942162215477e-01 9.993689262262385187e-01 -3.107332484862275479e-02 1.721039733031127714e-02
-2.190902264533732546e-01 7.969533919516809117e-01 8.305996257841651020e-02 -2.976264965855309752e-01 6.034493960269954327e-01 7.397751651447063148e-01
2.812566107852754738e-01 4.357105296029710750e-01 -1.124269617996200288e-01 9.975101319147954282e-01 -1.065584499503795420e-02 6.971362632060759679e-02
2.775168992575786642e-01 4.020397185504362980e-01 -1.100044019007905827e-01 9.962360049643089743e-01 2.898495126612996714e-02 8.169268640982049745e-02
6.749021051091941281e-02 7.797896999432661902e-01 6.607412056870327899e-02 6.024908930378010119e-01 -7.408524751578612899e-02 7.946798725946427888e-01
-4.359077734428743467e-01 2.220907478634729371e-01 -4.589338771248346882e-02 -7.927191267350655046e-01 -2.879295484779952896e-01 5.373015552012230245e-01
2.864288823822595531e-01 3.952778865642233574e-01 -1.137016706746237088e-01 9.829132486431195748e-01 4.550230293536467602e-02 1.783566260877548215e-01
-2.584190403200258279e-01 7.890682459439194441e-01 6.831076026611311580e-02 -3.286042465447430727e-01 6.642040406686697818e-01 6.714553160949533472e-01
2.751755146027246024e-01 3.850177538729520621e-01 -1.086495272907452569e-01 9.830524684075487851e-01 4.224686273872464704e-02 1.783901537264902804e-01
2.865239990742311504e-01 3.431678855283842866e-01 -1.142241879520356218e-01 9.808877090024237244e-01 8.646049781421720482e-02 1.743097376674471732e-01
7.077391845199196285e-02 7.727718216896647396e-01 6.718398966238199599e-02 6.021855240106736007e-01 3.597554744348490097e-01 7.127051236564438952e-01
2.891315938287786214e-01 2.661362463229693942e-01 -1.173804012548959053e-01 9.982524749301012745e-01 -4.959558208678806202e-02 -3.212902945001946953e-02
2.898167708994262015e-01 2.365442017523267104e-01 -1.156145705784060729e-01 9.869870410298396957e-01 -1.291550794255637569e-01 -9.578907191187271963e-02
2.745230827528064022e-01 1.772929179564325386e-01 -1.270109383614484166e-01 9.664019694061359855e-01 -2.029701472706681442e-01 -1.577033697955279312e-01
2.813543787823936659e-01 1.318660516104617209e-01 -1.124138091832612707e-01 9.558290931541800761e-01 -2.333115997959425703e-01 -1.787636486557483972e-01
2.726478034093908764e-01 1.272651223343914395e-01 -1.088823531795564542e-01 9.478807998752230013e-01 -2.560605604240933642e-01 -1.896179807486801372e-01
2.357823853297592864e-01 6.545879848895307107e-02 -1.083676418486661935e-01 9.133896093420168505e-01 -3.368258331652914661e-01 -2.286214768094743943e-01
2.373725773207860934e-01 3.115165084116311781e-02 -1.094067008173485317e-01 8.841138443868253871e-01 -4.077310827187188846e-01 -2.282500259552435740e-01
-4.154812289370460321e-01 7.497025162128162501e-01 4.974264379175212525e-02 1.075910386072204267e-01 3.185051622986365127e-01 9.417954289550033442e-01
1.839483483384269369e-01 -3.706579664353861631e-02 -1.175447973506714983e-01 7.887185166125511016e-01 -5.834499933084407175e-01 -1.936729378640119625e-01
1.788289695849422656e-01 -6.137812976720586483e-02 -1.215711527115729967e-01 7.698938987220631525e-01 -6.203065995826226864e-01 -1.499436801762089877e-01
1.663175145031425550e-01 -8.731538663914259479e-02 -1.153734765098851089e-01 7.324447507138952540e-01 -6.728837720096767505e-01 -1.036924130189337268e-01
1.340913725906823506e-01 -1.187510497027555317e-01 -1.151599995060686721e-01 7.063680708290595023e-01 -7.076511725233751715e-01 -1.655193461578698469e-02
-2.838050408033291339e-01 -7.482108867149400711e-01 3.114440765644952980e-01 -3.041299382467385626e-01 -1.032886163103720611e-01 9.470144890141458660e-01
9.106577599514617538e-02 -1.370009311946943364e-01 -1.119222130770771706e-01 5.612725601055587044e-01 -8.217005359869986592e-01 9.890066951861949118e-02
-3.006930444716264250e-01 -7.396276636888492462e-01 3.114722420522017532e-01 -3.440271191518199378e-01 -1.125322161510504265e-01 9.321919553483781762e-01
-2.457965995033569440e-01 -7.358764895410624396e-01 3.099134353119876728e-01 5.274414821492231509e-01 -9.045649447105227198e-03 8.495432061609997643e-01
8.242399750539253223e-02 -1.503155573333911088e-01 -1.173402152068285659e-01 4.740056668730757150e-01 -8.588557264626562882e-01 1.941274552826409150e-01
-2.510396196960133497e-01 -7.404385259527436203e-01 3.150044499413951482e-01 4.287373076390869620e-01 -3.384955546793849690e-02 9.027948430474167507e-01
6.663864735758905089e-02 -1.591167709805375308e-01 -1.246573985626071440e-01 6.740536165697553761e-01 -6.706355656619956696e-01 3.096767024792925205e-01
6.214346995145380442e-02 -1.650462870054328623e-01 -1.178306961754549270e-01 8.687255435655619751e-01 -2.233837424356835410e-01 4.420584051594850239e-01
6.804380157757480840e-02 -1.891691047134792802e-01 -1.183222064465759837e-01 9.419987666129262527e-01 9.330506705668203948e-02 3.223856202768259349e-01
6.437038628303191901e-02 -2.096153854703263486e-01 -1.091251499947982900e-01 9.418355037870268509e-01 1.444281745150460539e-01 3.034573878034418359e-01
5.475171314964290964e-02 -2.316808653636301396e-01 -1.187909900801272650e-01 9.484060050507538975e-01 1.423870942977965570e-01 2.832877776415704263e-01
7.801076411049327752e-02 -2.364636449236740545e-01 -1.221678388419519951e-01 9.579715522168674724e-01 1.067599029039891234e-01 2.662570717842738799e-01
6.090398235115195014e-02 -2.596414493325326367e-01 -1.303392309634970603e-01 9.617166022853983476e-01 7.941618206981983230e-02 2.622865740255918565e-01
7.440157557619883621e-02 -3.146472134057449743e-01 -1.146215978221467036e-01 9.615143355153360494e-01 1.483112069555859169e-01 2.312876315108075009e-01
1.044150204652821295e-01 -3.763217388083233139e-01 -1.189105390787666972e-01 6.983544709151472407e-01 7.029894347610845529e-01 1.345618354776557113e-01
1.546666721592990790e-01 -4.078873006689222591e-01 -1.074049631625105944e-01 5.949423447716621904e-01 7.880970297556508797e-01 1.579451743103199579e-01
1.677183175941361903e-01 -4.275440535299169786e-01 -1.075824576083947992e-01 5.494066563783699397e-01 8.111946769928101153e-01 2.002885966441177168e-01
1.832909001656431724e-01 -4.379502221413888452e-01 -1.180229299633872159e-01 5.410656648625237208e-01 8.148057847852905322e-01 2.081813617673345940e-01
1.934145485243976559e-01 -4.487785746408864407e-01 -1.096001489996901584e-01 4.767301751839695401e-01 8.485046446313163626e-01 2.297133172198453366e-01
2.157529683318617775e-01 -4.676103787107058762e-01 -1.171244722246822939e-01 4.556973790076718211e-01 8.566381386179845459e-01 2.418904674241071084e-01
2.238733202325689509e-01 -4.722211351205318208e-01 -9.920347868238688083e-02 4.328032073454278206e-01 8.675086588873144322e-01 2.451736333031013515e-01
2.430494982771170542e-01 -4.912980264423648658e-01 -1.027704086064676059e-01 4.353798181735697437e-01 8.648652620323267204e-01 2.499049668512099143e-01
2.657838455030581692e-01 -4.984231595289995709e-01 -1.215953540461752053e-01 4.486765197481299983e-01 8.497988009779785523e-01 2.766430524757413356e-01
2.902023923601543265e-01 -4.946946399524393412e-01 -1.101016700359577771e-01 4.724407146019264925e-01 8.305529377453203521e-01 2.949264124981669233e-01
3.102211192020302155e-01 -5.074213996099014023e-01 -1.054691854968150960e-01 4.864638438768938977e-01 8.183540509233517835e-01 3.060221821009990739e-01
3.481125532014938684e-01 -5.347385652723518623e-01 -1.109563305426644747e-01 5.319008396077942180e-01 7.803224662644351328e-01 3.289047665624700856e-01
3.467113162402334359e-01 -5.405159141626315611e-01 -1.107474445813800140e-01 5.552785321664678309e-01 7.596807335684363505e-01 3.384537409454582146e-01
3.801909437333841901e-01 -5.685466405757427788e-01 -1.105271906128524328e-01 6.073795564059706331e-01 7.117041316757901637e-01 3.529409347407807540e-01
4.111742076370081267e-01 -5.901101880974140013e-01 -1.101947382662366304e-01 6.943428342253972207e-01 6.326263937285526717e-01 3.430333431575552372e-01
4.126458322209282659e-01 -5.980110644046332524e-01 -1.196906377269113531e-01 7.339606099550730622e-01 5.960017532530765827e-01 3.257049787056319201e-01
4.291481463447393563e-01 -6.157307309968578224e-01 -1.125913111355996282e-01 7.870936642398892458e-01 5.342494465647923407e-01 3.083197894372622927e-01
4.321844105798504643e-01 -6.377976562623332013e-01 -1.199685168756050163e-01 7.181253942000387358e-01 4.010253211083998903e-01 5.687482835446131535e-01
4.330426154162576591e-01 -6.681291537408374781e-01 -1.055799740232922085e-01 8.111130498896107488e-01 -5.776252982128736724e-01 9.189469605620599613e-02
3.980719926997026148e-01 -6.719212112785906132e-01 -1.077302143252981681e-01 8.230703054996209023e-01 -5.655103110821712020e-01 5.247247149226730994e-02
4.005698604027240206e-01 -6.846648749916018906e-01 -1.149202907006738467e-01 8.247580631477610114e-01 -5.654855159128617803e-01 -5.182330733559685400e-04
3.677653901975363460e-01 -7.244326166263730382e-01 -1.145717161902611719e-01 8.319554955632277871e-01 -5.515201223950448872e-01 -6.062679271987624768e-02
3.697266152865666400e-01 -7.547807668471009368e-01 -1.156898495822710898e-01 8.649281678334753698e-01 -4.955323836429745832e-01 -7.966756711070989427e-02
3.484213288071215109e-01 -7.732295672044118273e-01 -1.117979001970560021e-01 8.908195185804905769e-01 -4.432520795524609314e-01 -9.984076967072173792e-02
2.959960611530986219e-01 -8.796957121918832501e-01 -1.243774036525939486e-01 9.312811101854698848e-01 -3.344459738017679928e-01 -1.444347064230260269e-01
2.985004222679968344e-01 -8.804587813300842614e-01 -1.105214684649081375e-01 9.269998796263975160e-01 -3.391482200335952935e-01 -1.601552622322743036e-01
2.803666341099988468e-01 -9.372800565679543228e-01 -1.157117583966087437e-01 9.040080277671523890e-01 -4.040009065439307268e-01 -1.398311597757297686e-01
2.686976153683447999e-01 -9.369743468981781565e-01 -8.174412812064202338e-02 5.878522267943002699e-01 -8.067842010422452415e-01 -5.940549134220210470e-02
8.881691413460217344e-02 -7.304118462710823545e-02 1.397765770497362003e-01 3.867622098017934329e-01 -8.782186572266955649e-01 2.813307362663619582e-01
-1.177550606455187027e-01 -7.905162392113666836e-02 1.525643465896698858e-01 -2.769857658424428881e-01 -7.307386427408829599e-01 6.239390367062215281e-01
1.126199317640789455e-01 -5.748360816422379282e-02 1.467425032146215669e-01 4.616098865319919198e-01 -8.576772623265482842e-01 2.265083361467271350e-01
-1.591633940851264750e-01 -4.953918544069173951e-02 1.561299157323176590e-01 -3.586128713575040261e-01 -6.855767494023211617e-01 6.335466274676815335e-01
-4.022740807348494929e-01 7.175017718542968659e-01 5.561884900063054221e-02 9.312354755373938864e-02 -1.719049242637535613e-01 9.807021473948549506e-01
2.771269316277558681e-01 3.855213898872886791e-01 -2.541353712414999855e-01 9.221498340607907629e-01 -2.294133743915889034e-01 3.114629788464766125e-01
2.927116812940953605e-01 4.126169673305983276e-01 -2.779989379558031048e-01 3.890353712510692397e-01 -1.494427587521544309e-01 9.090205397965923639e-01
8.240076802240110798e-02 9.452926408096373745e-01 -1.280208800390956192e-01 2.438473999562624783e-01 7.320931285276693901e-01 -6.360645381540618315e-01
1.148494238211263951e-01 9.382307020485297633e-01 -1.300868826758864172e-01 3.641409995862049942e-01 6.715433291293264606e-01 -6.453145663335523308e-01
1.197941551824892314e-01 9.345283751826993779e-01 -1.258885908424101641e-01 6.302842890804054576e-01 4.962484693036767758e-01 -5.970587673354823544e-01
1.400885127693037302e-01 8.737128917321875798e-01 -1.291827710518271000e-01 8.814521963705079788e-01 1.699668782221795127e-01 -4.406282853165627289e-01
1.406070445876918817e-01 8.138279082871209269e-01 -1.425728678616340339e-01 8.891460537605554437e-01 4.571178359793523494e-01 2.150765239595819889e-02
-2.456658103863395004e-01 -1.651429665369863187e-01 1.996580815139635187e-02 -2.343839628118070950e-01 2.148624045265921934e-01 9.481024760529235262e-01
1.972440025785676121e-01 7.898266315768855961e-01 -1.358532519391942306e-01 5.922422340452664358e-01 8.034924534615948133e-01 6.040706451516095199e-02
1.975699664821405910e-01 7.834397531092002209e-01 -1.265148212130361716e-01 6.192984899344360361e-01 7.832685070140861239e-01 5.440428553755682906e-02
2.164767117929811135e-01 7.863302732437666975e-01 -1.291363488175442109e-01 6.701622845154943109e-01 7.401892131293208443e-01 5.479453604119982613e-02
2.293786162775570681e-01 7.570029934409563399e-01 -1.498371554194017352e-01 7.139065405877303983e-01 6.977083754707338326e-01 5.950188319749837723e-02
2.400683677739652300e-01 7.501797405779178085e-01 -1.477635254950283306e-01 7.880569805264779903e-01 6.096459780755620894e-01 8.542819710014637469e-02
2.670940270636056324e-01 6.888710403751886480e-01 -1.406388508528886860e-01 9.153581728759826452e-01 3.849615423905400902e-01 1.180001111416390663e-01
2.942894222585935027e-01 6.490314182844163504e-01 -1.378267567440066566e-01 9.743278457170130302e-01 2.000033268792945351e-01 1.033630412558495110e-01
2.885609839147733613e-01 6.309071483371072597e-01 -1.400460285396078752e-01 9.865660860695140144e-01 1.376704663563421693e-01 8.794430345797001058e-02
-3.167658918859431183e-01 7.464633111585365910e-01 6.245925369432151625e-02 -3.700567270302001499e-01 5.109227273121779156e-01 7.758968910206960334e-01
2.840727945356058548e-01 5.101145809393561326e-01 -1.458942629236138766e-01 9.977890999430932828e-01 -6.363410540920334812e-02 -1.917322778047296158e-02
9.487561902711109940e-02 7.395247170451475505e-01 6.789927506803374035e-02 3.968126408130936977e-01 6.479986876781137495e-01 6.501057059112625991e-01
2.899312055842327984e-01 4.972335752855026048e-01 -1.285389170117914592e-01 9.987291266083900831e-01 -3.845169258936625284e-02 -3.258218840187471210e-02
2.834308625987399521e-01 4.654698393998605299e-01 -1.308206657615496593e-01 9.989051607087859885e-01 -3.249467976375129685e-02 -3.365376199484253206e-02
-4.260256402228192463e-01 7.520763229130048577e-01 6.422931703747990217e-02 3.014907513330144367e-02 2.320268706683990545e-01 9.722420298240744829e-01
2.811718731563020990e-01 4.523618713306138406e-01 -1.381409723819959079e-01 9.996770551296976226e-01 -1.186215498887745363e-02 -2.247386762965355653e-02
2.858528515809535819e-01 4.463132200396688343e-01 -1.422390927656304038e-01 9.998072349434643513e-01 1.898940862978440794e-02 -4.989520477487094895e-03
2.764072006990939689e-01 4.178318641302669056e-01 -1.327087866127331928e-01 9.987276396127590106e-01 4.476669121217924374e-02 2.321734764007995361e-02
2.829414406790572434e-01 4.040605254474098906e-01 -1.308459086652734304e-01 9.967843320681005759e-01 6.743918942125537441e-02 4.327760475990798106e-02
-3.391883689618519493e-01 7.464819383298222366e-01 5.742183001051064800e-02 -3.003077681659969689e-01 4.227639364425580526e-01 8.550356123710582956e-01
2.848439685903457197e-01 3.694260486447018543e-01 -1.360122088735488677e-01 9.960981723940008914e-01 6.733455646087685431e-02 5.704812406686275011e-02
-2.906197431702446932e-01 6.649088404653165085e-01 1.162556962219437190e-01 -4.659264092841234328e-01 2.731258355720214137e-01 8.416144361135261542e-01
7.869215456495355643e-02 6.699202424358655650e-01 1.298958748727395973e-01 4.570042121439380489e-01 2.850829742037538361e-01 8.425407099374132569e-01
2.930467407748655329e-01 3.323320566357380046e-01 -1.405235544401461922e-01 9.984582973729154709e-01 4.996327144721235403e-02 2.418056892363840832e-02
8.610828310476273395e-02 6.645436932360626603e-01 1.082172636602480725e-01 4.677062854133754999e-01 2.673534339267450433e-01 8.424802501853676517e-01
2.863732745579165573e-01 3.249408955324752379e-01 -1.267192326607490260e-01 9.987240746592827012e-01 5.024893651675826217e-02 5.026636538923986292e-03
-2.990061951160129516e-01 6.558992892478539005e-01 1.113251431709397776e-01 -4.818506973892728307e-01 2.345415683252967121e-01 8.442808526509301137e-01
2.909461166777717045e-01 2.941301738464519588e-01 -1.320659422147416606e-01 9.966237792120895556e-01 -4.317326623386234796e-02 -6.983632143599899367e-02
2.886402630076796982e-01 2.634682267293134150e-01 -1.281003787413527439e-01 9.901270839962673653e-01 -9.353177304019598404e-02 -1.044038551443653151e-01
2.971035947097193097e-01 2.481517963401049798e-01 -1.375183115071988427e-01 9.854065800211717630e-01 -1.194954841053788158e-01 -1.212217032110970566e-01
2.923408786633033829e-01 2.278543963632690406e-01 -1.355047226639256863e-01 9.752666242807999097e-01 -1.656221725837441205e-01 -1.463704461719429750e-01
2.580801324127500185e-01 1.445676886743787193e-01 -1.354912189512856580e-01 9.481738347900989794e-01 -2.537933957608795033e-01 -1.911943808996474925e-01
8.527156445341314839e-02 6.249262454890562868e-01 1.175986959887819067e-01 4.885684371541228477e-01 2.009673905511868142e-01 8.490659515914089628e-01
-4.134695997025809588e-01 -7.413008262758310485e-01 2.425269963194197909e-01 -6.760117653125633508e-01 -1.955820860307493358e-01 7.104616392057016006e-01
2.350805199594862560e-01 5.436596978670020508e-02 -1.435912204268995629e-01 9.046306582891419090e-01 -3.499875787236870206e-01 -2.432119791919889473e-01
8.019728911265174010e-02 -7.362823293404593405e-01 2.545147940966864253e-01 4.678581751098635499e-01 -1.263629733108558584e-01 8.747234574189194367e-01
2.337459849478479013e-01 4.091246681740508262e-02 -1.340705253018287801e-01 8.798077416337988232e-01 -4.045246802763148852e-01 -2.495959150478624933e-01
1.990133666330409778e-01 8.934737538596949913e-03 -1.370660838595864073e-01 8.187113055349620749e-01 -5.122252613323911019e-01 -2.594938917242595733e-01
1.947730896434161640e-01 -3.120790481738938693e-02 -1.410362014321341062e-01 8.028804361662479350e-01 -5.531877423196928101e-01 -2.221853437307165779e-01
1.566190874682986400e-01 -8.159801182847917222e-02 -1.352344605098282360e-01 7.660743091763275725e-01 -6.323287932523646848e-01 -1.152842142013411758e-01
1.195350153441396834e-01 -1.128036130849000007e-01 -1.434440260450480231e-01 7.412083431260632072e-01 -6.704668900682623223e-01 -3.292933953951655141e-02
1.034193350636614800e-01 -1.218418800750986075e-01 -1.409504091685581662e-01 7.203507192421805261e-01 -6.925046504713653350e-01 3.914269232954300376e-02
6.935836275875570389e-02 -1.867588481443670234e-01 -1.468393798024963948e-01 9.393778025050688596e-01 1.806709557331393282e-02 3.424075411235745769e-01
6.748528865741781901e-02 -1.979684234010214983e-01 -1.379167730246340928e-01 9.401319656994223672e-01 1.111872671277338853e-01 3.221634347637952200e-01
7.893423104030064530e-02 -2.139918556779425718e-01 -1.319303878809414687e-01 9.492302748215590835e-01 1.106864080750964568e-01 2.944663044044605882e-01
7.291725749192985717e-02 -2.479535761890988288e-01 -1.498633334536502437e-01 9.547716553958824903e-01 1.017673398012179792e-01 2.793823448294284750e-01
7.887090168003799140e-02 -3.264186371617003868e-01 -1.487527462784423715e-01 9.444917667091969893e-01 2.406120007717620912e-01 2.236988325922812937e-01
9.800972694089657433e-02 -3.569844073340888158e-01 -1.394348132315627597e-01 7.482728542805461291e-01 6.315011031634216732e-01 2.032094787410913816e-01
1.334871575609050398e-01 -3.873439074490242495e-01 -1.409597398821865466e-01 5.203218524624013686e-01 8.292698801634619254e-01 2.039034960557873644e-01
1.537949173070548847e-01 -4.168687901017780750e-01 -1.257295329354007896e-01 5.443386520256658923e-01 8.040769872434504473e-01 2.390724377597240879e-01
1.837226528920780366e-01 -4.396209784996166769e-01 -1.350922208241602251e-01 5.134086503424633019e-01 8.178897368763091702e-01 2.597459067356636120e-01
2.009872441800764631e-01 -4.436851294727464090e-01 -1.338826996102713551e-01 4.909513489399496278e-01 8.317746182125427268e-01 2.590709506514045080e-01
2.795150604347989010e-01 -4.856929524981231094e-01 -1.208722341730475158e-01 4.433010439062188279e-01 8.556686472899573959e-01 2.670493409777136007e-01
3.019348915645879150e-01 -5.063566094526116279e-01 -1.347559953206972638e-01 4.683041914662392502e-01 8.406052156256986763e-01 2.721654932536903271e-01
3.246011053228621823e-01 -5.129321430473409160e-01 -1.450371783784965840e-01 5.048084537275465689e-01 8.186548861577712666e-01 2.738112532662053122e-01
3.486338305383989700e-01 -5.305576145370274332e-01 -1.439744402209036656e-01 5.272817548821822076e-01 8.024745318860159182e-01 2.793001551068062249e-01
3.764376762461815185e-01 -5.430219254456695177e-01 -1.328416421750926169e-01 5.738576393634569062e-01 7.626520085574775010e-01 2.984113328736795467e-01
3.933775119689362221e-01 -5.702532771180273130e-01 -1.353918853203477379e-01 6.370864461958822833e-01 7.073112020008588408e-01 3.063196428530192139e-01
4.138015308348200194e-01 -5.899958133877007960e-01 -1.235968155018677406e-01 6.753270864641311988e-01 6.669378325003135766e-01 3.148448091800963855e-01
4.142271026451744276e-01 -6.691810922925505167e-01 -1.342484263481622531e-01 7.890807982780825292e-01 -6.136190029637440535e-01 -2.869168852829894270e-02
4.170156025997273086e-01 -6.740676719001379436e-01 -1.418491318803816181e-01 7.887594435031519691e-01 -6.134344931808226598e-01 -3.945456704343804077e-02
4.069794944650161339e-01 -6.945131832167009689e-01 -1.281320611408941768e-01 7.925988211433148134e-01 -6.065449484077045650e-01 -6.237254430695202828e-02
4.032319331623721581e-01 -7.129099279605810580e-01 -1.319892629863391453e-01 8.027407530418668724e-01 -5.905446481396433578e-01 -8.285108303094891602e-02
3.877718292603802852e-01 -7.176628910000936168e-01 -1.416652277232200441e-01 8.146515073175387700e-01 -5.709602203915380425e-01 -1.017219167913603339e-01
3.605410945411834378e-01 -7.536663986731996223e-01 -1.447555875357162958e-01 8.499276433573547118e-01 -5.111706071120125650e-01 -1.277795425009405628e-01
3.604579084914472098e-01 -7.711775309367904230e-01 -1.335081788313014772e-01 8.660366883222907486e-01 -4.793514063772170153e-01 -1.421361448891307333e-01
3.470150955240801083e-01 -7.821773521420628539e-01 -1.371902537332656269e-01 8.755891233328353396e-01 -4.567344249648848109e-01 -1.572811245929820745e-01
3.378098263163874515e-01 -7.988214526970677243e-01 -1.454513116512144710e-01 8.905504925046554554e-01 -4.245197668738885932e-01 -1.634098767916272454e-01
3.314308055095152583e-01 -8.048697957971541195e-01 -1.388881760782818831e-01 8.940295511291516117e-01 -4.151920015505743411e-01 -1.683055660286839894e-01
3.289234296545825442e-01 -8.126122933588657560e-01 -1.415107650610063772e-01 9.060072744723687288e-01 -3.856328942435490736e-01 -1.744651526250832196e-01
2.978752288469793119e-01 -8.739813848295109322e-01 -1.398933594966399463e-01 9.101017183200845739e-01 -3.526337150600584724e-01 -2.176334655189099132e-01
3.006722273982565530e-01 -9.155589393385012986e-01 -1.279945664229237279e-01 9.055979535481352150e-01 -3.420175164992437788e-01 -2.508313475965849859e-01
-1.965401673247884617e-01 -2.954520552171092593e-02 1.377307853868284526e-01 -4.402808313717492816e-01 -6.337512759072820856e-01 6.360126648208298539e-01
-2.144324725565827927e-01 3.887012959781256660e-04 1.503827170644349565e-01 -4.840208832391103000e-01 -5.954753211553598380e-01 6.411964804046826893e-01
1.491568591871927640e-01 -1.279849105936437491e-02 1.472186601739357559e-01 8.771693876916495380e-01 -3.298196219222219172e-01 3.489883698516887955e-01
-2.330032001213803716e-01 3.215271557172233279e-03 1.495956663058452540e-01 -5.369912225132876804e-01 -5.708393552881497746e-01 6.211142064048239542e-01
3.041095832670767107e-01 -7.439179941936491236e-01 5.228095161584591505e-02 4.603744961114932255e-01 -6.938082429250740368e-01 5.537918791200446833e-01
2.765733321443858417e-01 -7.385283743931519984e-01 5.273336893644411938e-02 2.773133346151921419e-01 -7.261348172237725995e-01 6.291466773813565450e-01
-3.375913484657702135e-01 -8.802116395448665587e-02 -2.851579745929214149e-02 -5.679451244857571801e-01 3.686960756480405638e-02 8.222402128398217380e-01
2.852003469090830801e-01 5.528676450303113832e-01 -2.644004027828901759e-01 9.625148758956615369e-01 -1.977504182882720840e-03 2.712216863688561852e-01
5.291070619639749728e-02 9.446733813026848559e-01 -2.051155622464665984e-01 5.995021389775707643e-01 7.609311902181987719e-01 -2.481550102545442560e-01
7.104458207128516722e-02 9.309135673212073359e-01 -1.969675641921674325e-01 6.541261216759214348e-01 7.053540297313130036e-01 -2.731203208899249946e-01
8.128773186406651474e-02 9.183170199585620752e-01 -1.755325654229709653e-01 6.658536650276710711e-01 6.925057247497675705e-01 -2.776233382805146643e-01
9.411484219667669293e-02 8.885101905408606671e-01 -1.984025838811662168e-01 7.389423636048328969e-01 5.979013977861518114e-01 -3.106092429330921112e-01
1.156395930995194749e-01 8.665362252215595973e-01 -2.097382550749793684e-01 8.558388971978240223e-01 4.798508820243607143e-01 -1.930878376896263127e-01
1.339824543448343286e-01 8.407212923890717837e-01 -1.808174912491363473e-01 8.329215273662294861e-01 5.509733976979687142e-01 -5.167247119176054948e-02
1.602783086397807366e-01 8.137758906565073502e-01 -1.939632527138933915e-01 4.987413919285569874e-01 8.065611791278813891e-01 3.173579813097617830e-01
-1.550304292288705588e-01 -1.750059534470474465e-01 2.119419827950917018e-02 2.851017678606018041e-02 3.656584754210067123e-01 9.303123395787098460e-01
1.975887542867010016e-01 7.910623114182442350e-01 -1.890556408513187348e-01 7.216857077745729709e-01 6.627843608910334305e-01 1.997163742715607204e-01
2.071428074373492800e-01 7.730387521395633010e-01 -2.010944073792578779e-01 6.884811433404901537e-01 7.239260949605772488e-01 4.387167992795345389e-02
2.228600415818616787e-01 7.548516514613003991e-01 -1.990545653493551448e-01 7.174746994665625044e-01 6.963232297301567009e-01 -1.907918665795479626e-02
2.384242983686939155e-01 7.440347805290691285e-01 -1.902030266815770421e-01 7.378532310175291986e-01 6.747973414055270514e-01 -1.487136540554177475e-02
2.614524035518094869e-01 7.155374587214395898e-01 -2.084209915317650763e-01 8.209242434291162960e-01 5.659826079930426745e-01 7.580945851097137256e-02
2.789506678755741542e-01 6.898687810847631274e-01 -2.148085358442292647e-01 8.768077723888230146e-01 4.605064223526821876e-01 1.383544912551917527e-01
2.877394481856260233e-01 6.279669700373283758e-01 -2.033388857195096988e-01 9.978422078882472901e-01 6.541944500381720318e-02 -5.587877244575613876e-03
2.950424336844491013e-01 6.043706376892602483e-01 -1.939411046009230366e-01 9.996598684593734907e-01 -1.219228422343522937e-03 -2.605112039514755756e-02
2.787649836431460026e-01 5.679652211934966832e-01 -2.037295771952066792e-01 9.951773417258961141e-01 -8.623952180811168822e-02 -4.674188051081133027e-02
2.782564956679455803e-01 5.509505364918083625e-01 -2.064762795384704197e-01 9.924939489591333430e-01 -1.115090303524910037e-01 -5.021451413040203815e-02
7.420243664436190767e-02 -7.446333521724810556e-01 2.430322461375722942e-01 4.726775887666729847e-01 1.406479393052516812e-02 8.811231915285262506e-01
-4.091287189537761160e-01 -7.474146106803797318e-01 2.499916269176030992e-01 -6.782215565552370817e-01 -1.448114338092858500e-01 7.204478946196525291e-01
2.828414055041628128e-01 5.144083951040083758e-01 -1.997170750519347837e-01 9.926863426824921177e-01 -1.085870731807867529e-01 -5.275104349383299279e-02
5.307945275868986013e-02 1.244827544482674485e-02 -4.671816782205263086e-01 6.932460561678622790e-01 -5.819633513159333527e-01 -4.251218217556381740e-01
8.173485397561708332e-02 3.211235433565798325e-02 -4.733747580132673383e-01 7.236910214240188655e-01 -5.836032763115338584e-01 -3.683456547710364237e-01
2.793106250434642113e-01 4.941825040639850064e-01 -2.084507842726410487e-01 9.958138619767589184e-01 -6.397214916431744058e-02 -6.528641839028144489e-02
8.609894467292932008e-02 4.312479177826498977e-02 -4.606332310894960536e-01 7.638751082223346200e-01 -5.738063231615144755e-01 -2.953660822406324882e-01
2.748276583528445061e-01 4.045183338099422876e-01 -1.995763184883575236e-01 9.923498701265281996e-01 6.694175642834858386e-02 -1.037330058667452481e-01
2.865142327856700089e-01 3.741065331126792182e-01 -2.058257794421782250e-01 9.922012768327137522e-01 3.508223352417533247e-02 -1.196071199489726622e-01
2.844800454350217556e-01 3.465478583875786778e-01 -2.012429438777073032e-01 9.929948417012900430e-01 1.368323173776641276e-02 -1.173627433380819984e-01
-3.412827270762275322e-01 -6.272437630561518429e-02 -4.597235461663829598e-02 -5.678662283490090168e-01 -1.221282067613600336e-01 8.140102258656986001e-01
2.864689467974992909e-01 3.233733343980595976e-01 -2.040553496639415099e-01 9.888325983281054388e-01 -5.382555103653250544e-02 -1.389708693910388093e-01
2.762909580863583403e-01 2.425689941745312883e-01 -1.970097093894094820e-01 9.718964289532739942e-01 -1.644961332598882386e-01 -1.683993869656861819e-01
2.798337357685051208e-01 2.150606032515771093e-01 -1.987556578609580571e-01 9.646312789982961489e-01 -1.948519217772495260e-01 -1.775365431617503542e-01
2.723895508491283590e-01 1.844688621429735609e-01 -1.977274756518973831e-01 9.493040994146537681e-01 -2.456337295772271223e-01 -1.961779746263963842e-01
2.477567817852565635e-01 1.344348207327017430e-01 -1.926081743233579724e-01 9.234551684686109763e-01 -3.010812394362952227e-01 -2.378668515958316243e-01
2.500342325974887481e-01 1.360965123251619280e-01 -1.965821143357301681e-01 9.077406531581985183e-01 -3.277436424653835667e-01 -2.618988572473159304e-01
2.476079355246224856e-01 1.343407367290656573e-01 -2.080016763252752199e-01 8.972354907747190911e-01 -3.444029370617905927e-01 -2.763242498179651063e-01
2.304647607282573063e-01 1.099523487192885507e-01 -1.991944580459176772e-01 8.758427907650666588e-01 -3.639326497934636251e-01 -3.169423169587299305e-01
2.285305467491784148e-01 9.121467613304347355e-02 -2.064924592186564711e-01 8.579272326180770181e-01 -3.756700783771229069e-01 -3.504751856328979231e-01
1.981203955662080018e-01 4.993650374321009777e-02 -2.026210128087763407e-01 8.188266379930614347e-01 -4.049985471464533915e-01 -4.068158228513757413e-01
2.410088078984007065e-01 1.523886176482956989e-01 -4.568099558583102460e-01 8.961763150489547858e-01 -3.917867204864249331e-01 -2.082574800475808507e-01
1.975744290246589652e-01 2.816520986699957638e-02 -2.034104285634179554e-01 8.049085060024978588e-01 -4.319897248947123791e-01 -4.068257299510656955e-01
2.024343308385417872e-01 1.284916282843936823e-02 -2.008452109740352376e-01 7.905074790034960497e-01 -4.642908897327126527e-01 -3.994144405886490001e-01
1.754104587308082108e-01 -2.802268701255335864e-02 -1.941659682472670345e-01 7.922003934408008430e-01 -4.861349865538876491e-01 -3.689055590262796946e-01
1.772116930387703237e-01 -2.911863006627809017e-02 -1.953028825502735322e-01 8.073428044738727438e-01 -4.760224230927002087e-01 -3.487122721918694546e-01
1.565771048157569567e-01 -6.093896604400528272e-02 -1.973886097109762705e-01 8.296079055821816706e-01 -4.787229330561195151e-01 -2.873587937782519086e-01
1.270318470085160523e-01 -9.682027975326169822e-02 -2.077306829463387294e-01 8.741488807775418257e-01 -4.729967351335823689e-01 -1.101717876243404060e-01
1.141530854836200204e-01 -1.064957584442089850e-01 -1.951976984741711496e-01 8.625157975795114673e-01 -5.004745400325281146e-01 -7.477789583164788645e-02
1.191560486408488884e-01 -1.273387791519445256e-01 -1.968492914557747608e-01 8.632649996543089177e-01 -5.037175512318828874e-01 3.228264166392443013e-02
1.059586252461483802e-01 -1.451803026991072831e-01 -2.134980974108621754e-01 8.614206667220042357e-01 -4.965298923143093845e-01 1.068293076948369225e-01
9.116431394338354866e-02 -2.342593093524989734e-01 -2.066656461026185054e-01 9.930285847279106681e-01 2.395145538765888760e-02 1.154147204566895735e-01
9.919833340950179323e-02 -2.734015495999480572e-01 -2.003715149124775108e-01 9.928237370553637531e-01 4.740676489307902447e-02 1.097890057418967752e-01
9.499451126905238130e-02 -3.011144843423742556e-01 -2.074404996631464826e-01 9.908499572911195763e-01 -6.087912098110043885e-02 1.204578547241946518e-01
8.328559079670372345e-02 -3.366897238300073925e-01 -2.000698049153927793e-01 9.611295089073826903e-01 2.094738219812569968e-01 1.798632397462528176e-01
9.606971125852090121e-02 -3.534411261236060642e-01 -1.950438296544368399e-01 8.853016570066332136e-01 4.178476848721540127e-01 2.040693224085641799e-01
1.420525738624362211e-01 -3.793630081054165104e-01 -2.019247769841169826e-01 5.735630048399289471e-01 7.975552825346302610e-01 1.868985039536099069e-01
1.834631255149040963e-01 -4.277185313690026747e-01 -2.072570174276284760e-01 5.151223302723310082e-01 8.314914707353012746e-01 2.080166314246275072e-01
1.909536626622180822e-01 -4.325085445997596256e-01 -1.985392294059567797e-01 4.999011668224368488e-01 8.408493354214420235e-01 2.075360656148361460e-01
2.217871676772396328e-01 -4.310152502837022448e-01 -2.037488740174344393e-01 4.713305562367885448e-01 8.571021206885059973e-01 2.079025287695783486e-01
2.302737529628573199e-01 -4.363278841654624762e-01 -2.016037726687060216e-01 4.590223063423476968e-01 8.645382133874908170e-01 2.046269773830357575e-01
2.655740026183958657e-01 -4.741693699796421524e-01 -2.013013649538537841e-01 4.535372467180165401e-01 8.695111065348924972e-01 1.955873243641002290e-01
2.928540813417619404e-01 -4.714932182703537866e-01 -1.919019694601196147e-01 4.679777554220416191e-01 8.626027345730824525e-01 1.921284537417292104e-01
3.138726451986066368e-01 -4.941563003201032700e-01 -1.985446861696364973e-01 4.899625608481004146e-01 8.498787648165641029e-01 1.940174581862234848e-01
3.267194460432089054e-01 -5.010747016304751833e-01 -1.999140995978345436e-01 5.065880421011378365e-01 8.389532104746119101e-01 1.988116350581057568e-01
3.835496903415019365e-01 -5.292117076976475820e-01 -2.119662158030687915e-01 5.691295943780712019e-01 7.928074068185682055e-01 2.180548566225236906e-01
4.120147162886776959e-01 -5.639819903299978510e-01 -2.069730799926518261e-01 5.962234922384858082e-01 7.692513364589533831e-01 2.297170621853287242e-01
4.352627083482685233e-01 -5.634155449540111382e-01 -2.079342090259911346e-01 6.994010443812765931e-01 6.706970832172416408e-01 2.469890719895594389e-01
4.538272953499871698e-01 -5.885744478520091860e-01 -1.945740304059714043e-01 7.962578178744285085e-01 5.660835316435104403e-01 2.133610148922813754e-01
3.686927645807062670e-01 -7.157173013734893230e-01 -2.045775486510624519e-01 7.618510228585777533e-01 -6.078418311198618973e-01 -2.238555947708079363e-01
3.634330203290020989e-01 -7.466462498909883783e-01 -2.038712556192455450e-01 7.979938069549217250e-01 -5.478933197131028443e-01 -2.510354442610578940e-01
3.421892951154224538e-01 -7.578731788266870328e-01 -2.121345292672790483e-01 8.133786884325588940e-01 -5.191164667950896039e-01 -2.625513342299232167e-01
3.455189381509838897e-01 -7.710294076500574523e-01 -2.022890823834093410e-01 8.238543298488056887e-01 -4.948052666317676040e-01 -2.764630016889070285e-01
3.276298272616325336e-01 -7.821821264474652091e-01 -2.070870988794020484e-01 8.314872162363299291e-01 -4.722692110257323272e-01 -2.925590565213990191e-01
3.022532604967897440e-01 -8.108726362207286931e-01 -2.065534656611531517e-01 8.329898888940703294e-01 -4.465113418392080979e-01 -3.267345506817332379e-01
2.946490696260944397e-01 -8.199855653492842400e-01 -2.086210350003747382e-01 8.368457067964475415e-01 -4.128133397448504605e-01 -3.595475066594910896e-01
2.872144121529202621e-01 -8.437215296589206659e-01 -1.972386553221748828e-01 8.365676604068975619e-01 -4.059137064162980923e-01 -3.679519160226143448e-01
2.814909077946489702e-01 -8.515021439134239367e-01 -2.034127389407669739e-01 8.364097112515445076e-01 -3.893119594066379863e-01 -3.858173054530761314e-01
2.848404767543382676e-01 -8.708456938884588938e-01 -1.937140940083438567e-01 8.387615193312403239e-01 -3.716011681827914304e-01 -3.979845292148103120e-01
2.792620294191679453e-01 -9.057489851721539642e-01 -2.046516628067762689e-01 8.398718687923508730e-01 -3.575897829025911356e-01 -4.083439618445728336e-01
3.301150703509936890e-01 -7.078133163565344388e-01 6.704008523861949842e-02 6.147073590839027268e-01 -6.810776491515327935e-01 3.978292328553993396e-01
3.531141636263089301e-01 -6.965465171371174602e-01 4.894942708389689312e-02 7.725566149716901476e-01 -5.043734484440115518e-01 3.856989774010035066e-01
3.749123652334313550e-01 -6.350246377413019117e-01 6.274167826967480543e-02 7.609415002042172471e-01 4.052521576761341504e-01 5.066939134880081852e-01
3.454145722521074768e-01 -6.345821798336339636e-01 4.953251643784875591e-02 6.637097036309898002e-01 6.231907294297948097e-01 4.136698491053269477e-01
3.277647456537530757e-01 -6.051826494048349048e-01 6.273278900105028200e-02 6.074802834705498311e-01 6.808260160258698956e-01 4.091987794420730018e-01
3.271383312201260884e-01 -5.991593016497545054e-01 7.573529453652672050e-02 5.906867860649608337e-01 6.950172441150981317e-01 4.099270071011437144e-01
6.102885864603403016e-02 9.067410208979848063e-01 -2.642615521738238549e-01 6.869682089015241022e-01 6.841099114114290725e-01 -2.450883699143608929e-01
7.266119037676554981e-02 8.818689955696128457e-01 -2.726353430789242860e-01 7.089973659590542709e-01 6.603889566785989818e-01 -2.474048523373668929e-01
1.805832126054833231e-01 8.351258379984742852e-01 -2.796615599453980416e-01 4.621167079201935479e-01 8.105764992439519201e-01 3.597414170406602052e-01
2.012503976414268259e-01 8.355624172207640754e-01 -2.762265484483689693e-01 7.306532379963126544e-01 5.753395457788762490e-01 3.676006703863039515e-01
2.210716723847681031e-01 8.092303090465329252e-01 -2.647817145003589223e-01 8.184754321163093538e-01 3.768747936381821595e-01 4.336627225646658701e-01
2.305452008984662793e-01 7.845811087989905674e-01 -2.693337134329876759e-01 8.143824605294258667e-01 3.572871111015208379e-01 4.573041965943101528e-01
2.224605283664159716e-01 7.760734597075211738e-01 -2.712836163174819903e-01 7.550966378197973006e-01 4.097411703071000555e-01 5.118019547721617268e-01
2.581129640838540906e-01 7.407011894372704797e-01 -2.664643487626636165e-01 6.091639656839464845e-01 6.216067599669531374e-01 4.924675612419504023e-01
2.740338946452245406e-01 7.238064715064609356e-01 -2.686158692498815670e-01 7.793853638297244535e-01 5.307920831411234719e-01 3.328937054417139274e-01
2.847863152669511955e-01 6.933630359569499246e-01 -2.657759890545902115e-01 9.988739672672181102e-01 2.077399738575085378e-02 4.265253273212888524e-02
2.874127514493837743e-01 6.253772543282670737e-01 -2.738543272134058015e-01 9.889410733825964028e-01 1.461140547473928908e-01 2.542117979468851846e-02
3.056152249304524005e-01 6.077241829324826483e-01 -2.754366127895903071e-01 9.768080151310769565e-01 1.557356477031854591e-01 1.469438995336491416e-01
2.935035810463621497e-01 5.858127042863260359e-01 -2.701407663331718556e-01 9.762416940126716902e-01 4.035392961402255868e-02 2.128936711975611407e-01
