-4.973321129784653571e-01 -2.294282717718770237e-01 1.593065186129343225e-01 -1.243747330270563722e-01 -9.914929765978122145e-01 3.837451161459263377e-02
-5.361094391630523148e-01 -2.316695247599954155e-01 1.800881638410558594e-01 -1.322347775716644358e-01 -9.904120338921800215e-01 3.997457594681399357e-02
-4.575733687984599452e-01 -2.428039810092384732e-01 1.463255540962931922e-01 -5.254484500167292405e-01 -7.714044209923547335e-01 -3.589417022978338423e-01
-4.386583817697760623e-01 -2.477227652228568278e-01 1.622853015896542073e-01 -8.222323454107095531e-01 -5.537357315941040525e-01 -1.315701703135856160e-01
-2.263492019407634670e-01 -2.154863718248853088e-01 1.848887478483764168e-01 7.265571908992669581e-01 6.866101448058602452e-01 2.609899236065684261e-02
-2.080641952882830992e-01 -2.353826573580957149e-01 1.684143982902519265e-01 6.213562928191587176e-01 7.833431764926616081e-01 1.702425376981167929e-02
-1.804847518461880906e-01 -2.325421066613441168e-01 2.237023868682222749e-01 6.530235352748544608e-01 7.551711314475596515e-01 5.724355514241984133e-02
-1.399466202027547235e-01 -2.871727959345727332e-01 1.935630827000482390e-01 4.747865971149464182e-01 8.759885172160780664e-01 8.498120324863936426e-02
-1.682120381040981272e-01 -2.755681139875961749e-01 2.428447280039792155e-01 5.417696193509167202e-01 8.138321191128734533e-01 2.101498547432583408e-01
-1.729047348693224517e-01 -2.593923365045682772e-01 1.878322473738669729e-01 5.210998121128335159e-01 8.460512972900656736e-01 1.124819459725270726e-01
1.695639616927280269e-01 -2.510045498128908315e-01 1.751963819599196281e-01 -5.082613756007025030e-01 8.583132948183993527e-01 7.048873676315392522e-02
1.722446117705077051e-01 -2.518512759035713700e-01 2.010795615259581837e-01 -5.050407431302841310e-01 8.497483715446912944e-01 1.512003731329910339e-01
2.194941063351559252e-01 -2.287385915705694717e-01 1.871756448892163416e-01 -7.051098197670762069e-01 7.088686946582606341e-01 1.803651300930964041e-02
1.968660978711600507e-01 -2.549641385715548658e-01 1.855021574399697282e-01 -6.280004599689251732e-01 7.768655062449221216e-01 4.577562108414486020e-02
4.382584158514174488e-01 -2.484233313955612754e-01 1.659823122577777366e-01 9.057470743373162714e-01 -1.478326185489917399e-01 -3.971998920220651819e-01
4.730975611535599978e-01 -2.285206417741098839e-01 1.462219474118394424e-01 1.399504192590287355e-01 -9.812597477628552944e-01 1.324506986376435547e-01
4.475132882122688782e-01 -2.382576643286173357e-01 1.621748190741364171e-01 3.759448710566342666e-01 -9.214613346256381732e-01 9.784918352315681578e-02
4.669543589434448361e-01 -2.377332195032890727e-01 1.653866259695405405e-01 5.650337090745709556e-01 -6.980259155344364919e-01 -4.398826307684186587e-01
5.006116683240865450e-01 -2.337374824263592776e-01 1.922841625657752962e-01 2.245024810410208016e-01 -9.646536071562149539e-01 -1.379929498450153114e-01
5.550090884011288361e-01 -2.168600751897599155e-01 2.320193994285230654e-01 2.714041693966264268e-01 -9.461623596513801804e-01 -1.763988832534360562e-01
-7.916444749869591124e-01 -1.589547312072935870e-01 1.986377565890923291e-01 -3.113659563494667326e-01 -9.444378384862679443e-01 1.053015216507709600e-01
-7.507403615524640417e-01 -1.811164544979127766e-01 1.922911522291815833e-01 -2.343325678484373953e-01 -9.636287322715535453e-01 1.284831272435250915e-01
-7.494976877932654213e-01 -1.854405656393667279e-01 2.266738902618718465e-01 -2.424395434039662012e-01 -9.608089635710896914e-01 1.344217367672535524e-01
-6.785598047394389987e-01 -1.967487579715953838e-01 1.752257846481671544e-01 -1.671361028456833930e-01 -9.769096285449105910e-01 1.330905736023476615e-01
-6.877449761361821290e-01 -1.977228875318679802e-01 1.592510685216736999e-01 -2.241826410282550530e-01 -9.658496033581053242e-01 1.299103042663938834e-01
-6.991491363699947614e-01 -1.976354298478540383e-01 1.792078583622324639e-01 -1.941270898643239762e-01 -9.745704245047004388e-01 1.119247991355653421e-01
-7.216485209047038829e-01 -1.979503323591809139e-01 1.665583386942152133e-01 -1.941270898643239762e-01 -9.745704245047004388e-01 1.119247991355653421e-01
-6.828734522549027020e-01 -2.004128350036779860e-01 2.260152731668345905e-01 -1.951964676102737883e-01 -9.729853790013331949e-01 1.232793222000481415e-01
-7.190657321957421022e-01 -1.915382039091176325e-01 2.187469969627635069e-01 -2.044187728925575265e-01 -9.701340341704947079e-01 1.305868333071237841e-01
-6.023287311066315430e-01 -2.156622003712332092e-01 1.758799659654238789e-01 -1.034239636453802569e-01 -9.918960307935854592e-01 7.379531041881796927e-02
-6.369914398838649738e-01 -2.053388680065149630e-01 2.018609175051546967e-01 -1.409708633780028253e-01 -9.812716663560191455e-01 1.312750261296562471e-01
-5.925128391538937445e-01 -2.031964084160180761e-01 2.266730979195417384e-01 -1.852024054679140275e-01 -9.811603321440454106e-01 5.499519648009797146e-02
-6.535991160496440466e-01 -2.036971841977064934e-01 2.168023189299204956e-01 -1.941410772473894375e-01 -9.765418986617407926e-01 9.314055122955523791e-02
-5.612168978839959799e-01 -2.044055323807684177e-01 1.619393378385158566e-01 -1.192420801482285686e-01 -9.857524295807847947e-01 1.186316732475069108e-01
-5.612548547118190179e-01 -2.187352783574995074e-01 1.923758129085098301e-01 -1.598594225923848366e-01 -9.868530017670579246e-01 -2.379323247851669945e-02
-2.455295304733140505e-01 -1.983212726802819070e-01 1.457205857600609444e-01 7.460239118849916196e-01 6.647415954812413430e-01 -3.958451885356416289e-02
-2.567216088612994662e-01 -1.605548399255332381e-01 1.583463113860810179e-01 7.996702980687827589e-01 5.956623724255114549e-01 -7.558936739380248127e-02
-2.330221973954979542e-01 -1.743336092559393258e-01 1.754315464708465500e-01 7.996702980687827589e-01 5.956623724255114549e-01 -7.558936739380248127e-02
-2.165438960203907304e-01 -2.284402699871603826e-01 1.463653901198058160e-01 6.775386820815180178e-01 7.351260233308606340e-01 2.304482816153139574e-02
2.453533086846055866e-01 -2.024907004696037405e-01 1.450042993176580697e-01 -6.949480563078594963e-01 7.185836252094430776e-01 -2.616816032476551590e-02
2.526942187619932167e-01 -1.884381187251329970e-01 1.837654998558173602e-01 -7.770559336584516030e-01 6.293865966208888052e-01 -7.522496936985918585e-03
2.347669949218195440e-01 -1.927025467885847554e-01 2.087045303117930906e-01 -7.951817258438795832e-01 6.055556385576709166e-01 -3.143869423116329304e-02
5.790060406468283682e-01 -2.144934831199979686e-01 2.045171118885479866e-01 2.350246216801929189e-01 -9.695635490032449288e-01 -6.862908747983234581e-02
5.943847116422296128e-01 -1.883378792627090348e-01 1.829155301440117121e-01 1.052497920659944547e-01 -9.909629283402721089e-01 8.315621399112482770e-02
6.544876508239431123e-01 -2.136349947511516911e-01 1.729971345009391204e-01 1.221565272097790422e-01 -9.860681252302746502e-01 1.129045404972618127e-01
6.932686642452505765e-01 -2.146467812197062619e-01 1.205480624523021654e-01 1.221565272097790422e-01 -9.860681252302746502e-01 1.129045404972618127e-01
6.245443516742597012e-01 -2.172497205421230482e-01 1.895890209658575298e-01 1.502047460970928061e-01 -9.839386789094840546e-01 9.645315130034443074e-02
6.354347654268159840e-01 -1.974634521475288340e-01 2.374587858245459926e-01 2.006481334551123985e-01 -9.793709668145427205e-01 2.393399050988486571e-02
7.072221649493772855e-01 -1.957042968934455673e-01 1.562058605941889222e-01 2.380404826703062249e-01 -9.651322642774752270e-01 1.088872860380009633e-01
6.882415382773644508e-01 -2.021894337058345037e-01 2.004555173319357564e-01 1.953007990974727770e-01 -9.722699386556130641e-01 1.286420003672957280e-01
6.935503252606821656e-01 -1.947081211647938570e-01 2.041302998761170273e-01 1.953007990974727770e-01 -9.722699386556130641e-01 1.286420003672957280e-01
7.403099101764341050e-01 -1.836173723379735112e-01 1.580985179156157439e-01 2.931813055915680200e-01 -9.527479198824916340e-01 7.947404111537921534e-02
7.376430646228130383e-01 -1.912314342664323263e-01 1.828193415926876730e-01 2.341029545937101108e-01 -9.662106318145653461e-01 1.078555590546619453e-01
7.762477344598863738e-01 -1.704648266726813410e-01 1.837020163689803975e-01 3.009331269224309602e-01 -9.502573630718511577e-01 8.031311878155376893e-02
7.939562936866760845e-01 -1.695737871802324159e-01 1.478207501287082670e-01 3.571754544835625267e-01 -9.338518785145518697e-01 1.861084923648128817e-02
-9.052591624603906206e-01 -1.101590607895348711e-01 1.727154371115564579e-01 -6.536784123908800925e-01 -7.531344603167353657e-01 -7.411489632697453034e-02
-9.160967788113306698e-01 -1.134130974311374079e-01 2.135316766030586066e-01 -6.226224497626292598e-01 -7.754920959992882556e-01 1.046579862896889479e-01
-8.696038405694135331e-01 -1.150633082610979380e-01 1.752972190324349200e-01 -5.238137960927023995e-01 -8.503253810153619252e-01 -5.065425376049285250e-02
-8.522465700832939639e-01 -1.335095441960651441e-01 2.305173129307753754e-01 -4.970284698795551237e-01 -8.627631276229431601e-01 9.274958621721839103e-02
-8.947049276483725055e-01 -1.345827794680349299e-01 2.197876137434199018e-01 -5.546772766657634968e-01 -8.272546908331015469e-01 8.934648983189753813e-02
-8.157118830557170686e-01 -1.479516267417203546e-01 1.856921865587956855e-01 -4.446568023425497285e-01 -8.946085450300544917e-01 -4.422532407690830947e-02
-8.268104098029973592e-01 -1.563154751013305088e-01 1.947032944353804251e-01 -4.544285125236000034e-01 -8.875293683333306261e-01 7.606804421981179509e-02
-2.906468904246565232e-01 -1.108817293506148410e-01 1.722267506952123439e-01 9.250972424014856088e-01 3.794515932305185801e-01 -1.454580681804901014e-02
-2.784366675612798270e-01 -1.366826268531594613e-01 2.002453414764544526e-01 8.723219325428368531e-01 4.868542836293952014e-01 -4.502613148426767159e-02
-2.806038755161105458e-01 -1.505149531790807849e-01 1.708564748745439454e-01 8.723219325428368531e-01 4.868542836293952014e-01 -4.502613148426767159e-02
2.615532517916322464e-01 -1.723842788728531528e-01 2.518212950744723733e-01 -8.800220556251293624e-01 4.729100374416530528e-01 -4.378673429539817891e-02
2.609476304242305256e-01 -1.569731764094080828e-01 1.842815328686551180e-01 -8.703847886362353625e-01 4.867655887220601607e-01 -7.409170902821968219e-02
2.956551073124870643e-01 -1.115699272228495159e-01 1.250753446162230220e-01 -9.615034805040535426e-01 2.686629623262857813e-01 -5.771715215302938157e-02
2.765824932700234329e-01 -1.417174981327815331e-01 1.448117070301786491e-01 -9.251576524791546019e-01 3.607988774316676639e-01 -1.179300135813952377e-01
2.969899095518809817e-01 -7.935458556871186064e-02 1.934330156555255364e-01 -9.451918653962128047e-01 3.265134813629474997e-01 -1.133171247237051886e-03
2.856898326333239257e-01 -1.179276185450833514e-01 1.945468877272067687e-01 -9.169893320547005677e-01 3.958040674963044792e-01 -4.969612712530914467e-02
8.103784180610036358e-01 -1.585512114543074780e-01 1.938178825739939048e-01 3.650218038718561209e-01 -9.277691436640927991e-01 7.748224805032626061e-02
8.262569162412534141e-01 -1.596164563041421458e-01 1.998126673462630176e-01 4.585649956582401043e-01 -8.885521691130053856e-01 -1.389919139848001459e-02
8.875767857123361138e-01 -1.199689426676890242e-01 1.600225378286677658e-01 6.580765384672515594e-01 -7.102113794784602474e-01 -2.500701221223007309e-01
8.654809337124795832e-01 -1.414125222866446374e-01 1.807400398825340093e-01 5.136885410487325165e-01 -8.535955787877628209e-01 -8.659486514342898400e-02
8.848422785248496458e-01 -1.337147210073442727e-01 1.838562651710990425e-01 5.370399345959748771e-01 -8.435567523806262180e-01 -3.378789752615207450e-04
8.962401302295157635e-01 -1.058542213748324273e-01 1.985665417280218226e-01 6.264553659527003493e-01 -7.755441764003683236e-01 -7.800580055702623083e-02
-9.251681684304733366e-01 -5.796477497865887979e-02 1.711231012114836358e-01 -8.115859675678485097e-01 -4.780606830913216587e-01 -3.358365681834217242e-01
-9.300929029684510407e-01 -7.254596794313530883e-02 1.806899636988551494e-01 -8.384400866177714740e-01 -5.115097786956588344e-01 -1.880850006010628683e-01
-3.095696486046370377e-01 -8.007190543186853970e-02 1.516978627764094811e-01 9.749063599982401573e-01 2.217382856145190262e-01 -1.974137603399787194e-02
-3.060246058285305826e-01 -6.531279120509343727e-02 1.402609731099393464e-01 9.894171849554528331e-01 1.404129528821361494e-01 3.657645113657776587e-02
-2.965130036971666549e-01 -9.322508019100632370e-02 1.797284398437171138e-01 9.717795827382540441e-01 2.355706317226016755e-01 1.228495188753884505e-02
-3.151956538124762730e-01 -4.125942318250259977e-02 2.119842531226192595e-01 9.727807081765970088e-01 2.013104429277233209e-01 1.147684598122780536e-01
-3.111057335174856608e-01 -4.212862274548219432e-02 1.803884352436091187e-01 9.861163335299132360e-01 1.516523247744166747e-01 6.764724041700176382e-02
3.093389646779911573e-01 -9.202928232286385068e-02 1.528192459701223638e-01 -9.757699881539526610e-01 2.187744240899942294e-01 -3.268268980145725387e-03
2.902769554857400625e-01 -6.692271689211670704e-02 1.709522205043461085e-01 -9.715631413927930948e-01 2.362111493336939705e-01 1.641204488852162149e-02
2.923394988695964258e-01 -6.222357891053512807e-02 2.223009984244154746e-01 -9.622638091755093548e-01 2.675176372282361270e-01 4.982645203966186431e-02
3.201668697694136645e-01 -3.190210895274384756e-02 2.104756880084789339e-01 -9.646352335928544131e-01 2.316384029486343310e-01 1.257875844058762016e-01
9.378758147058071648e-01 -7.977089206792872811e-02 2.211750962468718995e-01 8.253118853311707248e-01 -5.602498575017147431e-01 -7.057187187836831688e-02
-9.621004140849911401e-01 -8.651130493154600420e-03 1.691218862995565175e-01 -9.049734124398475243e-01 -1.399089141292976790e-01 -4.018066929807648791e-01
-9.664637864665405198e-01 1.653702306518323173e-02 2.062756633650485449e-01 -9.770657662814244970e-01 -5.641364687317523829e-02 -2.053289770279911608e-01
-9.473188506801930586e-01 1.915032963869508706e-02 1.821672860970955099e-01 -9.377174305685544997e-01 1.378585698951469429e-01 -3.188746385562407082e-01
-3.056883840014494869e-01 2.423343827644405812e-02 1.676877698745658507e-01 9.944695648239900709e-01 -4.127984404624285286e-02 9.657255880581040730e-02
-2.970190410287706917e-01 -1.602392314267740356e-02 2.082760465597557065e-01 9.929863074904493603e-01 7.169098172862106710e-02 9.401380896054196967e-02
-2.912897295982198598e-01 2.117708169621706701e-02 2.139668988144101947e-01 9.812691860937934329e-01 -6.560530440557708898e-02 1.811262776536740615e-01
3.042273333315237416e-01 -3.727356840414265335e-03 1.806653789006963384e-01 -9.960063077375801432e-01 5.242743358568829198e-02 7.226893630441108551e-02
3.122755692194232324e-01 2.417215081058023476e-02 1.677525712956871584e-01 -9.941946044118956660e-01 -3.078499224334402956e-02 1.030988497067330256e-01
9.562328009785694416e-01 -4.593763782296414466e-02 1.703352215461690078e-01 8.997677218914544861e-01 -2.379274565992393897e-01 -3.657985402355772853e-01
9.530394922036969918e-01 -6.308691054333135165e-03 2.034879216879879049e-01 9.785785984896289147e-01 -8.813197720867299578e-02 -1.860555862406808314e-01
9.442178578156437130e-01 6.835863675007407790e-03 1.722348170035918336e-01 9.384843780381568745e-01 6.499501438681036525e-02 -3.391499967318178932e-01
-9.653951711629713550e-01 4.694665478804134484e-02 2.248613012464232008e-01 -9.395490334796736676e-01 3.224495118178139497e-01 -1.152125254295923995e-01
-9.471529578185602372e-01 5.744134830478443005e-02 1.967184726810858597e-01 -9.057556463819402826e-01 3.547147216083266774e-01 -2.319141550694153453e-01
-9.469787508796887465e-01 6.576003318602034742e-02 2.270999942498689028e-01 -8.280106038369149379e-01 5.475721871808325592e-01 -1.206778345829371407e-01
-3.181882288193113029e-01 5.465031264105807418e-02 1.797691029786407380e-01 9.751377697619715290e-01 -2.190065046856800035e-01 3.380060486159372490e-02
-3.107113750515904105e-01 4.824253423404301078e-02 2.502522555682680228e-01 9.700794006551253235e-01 -2.275057482255524177e-01 8.477671230310995787e-02
-3.001793773085263961e-01 7.036948253779093387e-02 2.153891823101840575e-01 9.497231495912408228e-01 -3.126864256754302573e-01 1.591032145549703750e-02
2.885894994280230885e-01 7.982216634550845513e-02 2.015840786323085387e-01 -9.866788829623387436e-01 -1.573711808500063425e-01 4.122006009294681972e-02
2.962476954320001910e-01 5.198905140226546540e-02 2.309461238721605414e-01 -9.758651727341952631e-01 -2.019029352351191520e-01 8.320077756789588663e-02
2.808725392948062116e-01 7.665998475509194776e-02 2.064907548647183788e-01 -9.565313422868848559e-01 -2.911417697178866337e-01 1.686004591889578644e-02
2.930980427482432482e-01 8.990854348130240814e-02 1.860873511935756397e-01 -9.669348407727718087e-01 -2.547822513405734179e-01 -1.109135255788953021e-02
9.555629223886006329e-01 3.583312542563588110e-02 2.075479312820675548e-01 9.421763289308729972e-01 2.835003690211816973e-01 -1.786933293864022276e-01
9.541174021442897502e-01 5.906510191917073438e-02 1.925795184658348758e-01 8.618384946725221596e-01 4.869399581010078748e-01 -1.418586842783679247e-01
-9.268989057284909849e-01 1.002255840838117834e-01 2.206338519907242723e-01 -6.674859919319147128e-01 7.443941920821360858e-01 1.843196595732228202e-02
-9.121720773894360645e-01 7.616681269277576771e-02 1.873498907915751299e-01 -7.417749659130041806e-01 6.501621253827991609e-01 -1.644965369315803672e-01
-8.573624612864186867e-01 1.491461908757931165e-01 1.598316652624475476e-01 -5.472801837574307049e-01 8.277187614134643434e-01 -1.239598825047584507e-01
-8.765426584668613019e-01 1.097118689077748455e-01 1.635886292396089847e-01 -6.070703291618025910e-01 7.785288219251131903e-01 -1.592434892963480453e-01
-8.815151859727726746e-01 1.410350578639220365e-01 1.834690196456243427e-01 -5.386065519296173720e-01 8.326512554654004195e-01 -1.288210735492487657e-01
-9.028059043094753822e-01 1.342285746278291669e-01 2.058619433135413790e-01 -5.823557413293859453e-01 8.128818040024383684e-01 -9.217551868195276998e-03
-8.531314083509183854e-01 1.524100881704295030e-01 1.958855364624913498e-01 -4.769101057219025663e-01 8.789335116228033096e-01 5.712548181974501892e-03
-2.771920891089735828e-01 1.071070765863137569e-01 1.743360523461890688e-01 9.344928782407304624e-01 -3.539701819150716244e-01 -3.779114753968693813e-02
-2.813078263832157755e-01 9.273879827894755679e-02 2.108958406974586197e-01 9.344928782407304624e-01 -3.539701819150716244e-01 -3.779114753968693813e-02
-2.922762798361607239e-01 1.212828055474308858e-01 1.447878083794169601e-01 9.461377255384606499e-01 -3.153807708565061207e-01 -7.320091315594866310e-02
-2.852113428563194386e-01 1.505461618634801602e-01 1.543777803634768797e-01 8.604542822058171003e-01 -4.921889227148240065e-01 -1.317895769417792018e-01
-2.636041744511969931e-01 1.724170681279207640e-01 1.890515787165687189e-01 8.829936327991749767e-01 -4.683822916029799499e-01 -3.066387693780536425e-02
2.760657577997659984e-01 1.500766467112975844e-01 1.888752116365878253e-01 -8.737286448313615894e-01 -4.844990382789400862e-01 -4.311539293494331959e-02
2.826662122972809499e-01 1.189489316040432537e-01 1.898047756630085736e-01 -9.131368666391292965e-01 -4.035530994423485729e-01 -5.767112548708400177e-02
2.831946163629427970e-01 1.085347752063352267e-01 1.597877919095046506e-01 -9.394471554796371970e-01 -3.389606049183460090e-01 -5.044551887538936685e-02
2.917362537496273056e-01 9.431065732128429691e-02 2.232989249686782307e-01 -9.345708401604420068e-01 -3.552401042418728561e-01 -1.954003735997113592e-02
2.907252616343387608e-01 8.743547383550445695e-02 2.083490396727486760e-01 -9.345708401604420068e-01 -3.552401042418728561e-01 -1.954003735997113592e-02
8.275516375308060724e-01 1.501970080171126654e-01 2.384957823970304813e-01 4.352118838361512809e-01 8.901027892629674865e-01 1.353057305293226820e-01
8.268517583308137020e-01 1.449137152257165273e-01 1.909378909559961979e-01 4.010510841158033690e-01 9.159802821927178762e-01 1.175374679359024628e-02
8.184569278401843118e-01 1.703201530443876899e-01 1.503329928457582398e-01 4.751093672777482735e-01 8.773608516416487868e-01 -6.714927498922473870e-02
8.812811104651200322e-01 1.327184642528610181e-01 1.791190603838372086e-01 5.689489700853165299e-01 8.197405892160058993e-01 -6.574523428092104993e-02
8.871269831520992577e-01 1.294407976966354401e-01 2.013051384115603637e-01 5.863054520578302453e-01 8.086325158357209331e-01 4.857335916380146890e-02
8.595350195569503304e-01 1.325623348418449865e-01 2.023252627699958506e-01 4.930780006921786085e-01 8.699723570186316257e-01 -4.709910492840532585e-03
8.659687790752537140e-01 1.261384715815846436e-01 2.235853326706181143e-01 5.164770719018668688e-01 8.505729203114266168e-01 9.887942876334530895e-02
9.280029277861193693e-01 7.257622444697017783e-02 1.808009569551287110e-01 7.962152499274515183e-01 5.423967305206662814e-01 -2.680430236052742110e-01
9.246426988466103225e-01 1.028017627260189304e-01 1.930944053583550923e-01 6.604137080687703110e-01 7.403214678552071382e-01 -1.256099455758524774e-01
-8.082811662127168395e-01 1.729196492018981457e-01 2.050855699707095359e-01 -3.517708459153289779e-01 9.315357347766251017e-01 9.218702076858291405e-02
-8.046649114928433599e-01 1.632463175170435765e-01 1.795593766204601760e-01 -3.331164243445259854e-01 9.401758504822014251e-01 7.143401152103145968e-02
-7.638310065718629804e-01 1.765338839214017075e-01 1.519714614015164056e-01 -2.811325932366656732e-01 9.542686399801796338e-01 1.016652731782382718e-01
-7.596015593867624371e-01 1.903736138518686838e-01 1.954207334287640652e-01 -2.549411332218297632e-01 9.629521359313254480e-01 8.791019563661094105e-02
-6.803744577977303143e-01 2.118517761015880907e-01 1.500423141070968136e-01 -2.114589916996476304e-01 9.639309206693066345e-01 1.616238689271828899e-01
-7.191770949107926247e-01 1.978454352001448591e-01 1.435453517667475143e-01 -2.470135299086473335e-01 9.592474965346072802e-01 1.372171870946142513e-01
-6.775225499207624402e-01 2.120225663053141030e-01 1.830108970580530126e-01 -1.615743853756839710e-01 9.813412971169808152e-01 1.042256041634278679e-01
-7.346942752946034050e-01 1.878260340171641896e-01 1.839913222163709339e-01 -2.032106370487840319e-01 9.730965092729072508e-01 1.085754144873965488e-01
-6.186124270388753121e-01 2.094474371135030544e-01 1.540108763343526477e-01 -1.033146217624427016e-01 9.862575602421260745e-01 1.289267768748305620e-01
-6.600933712256583652e-01 2.346783888501409454e-01 1.465474986054986772e-01 -1.464823932079797886e-01 9.767033883920288595e-01 1.568228286430018437e-01
-6.316850771352721106e-01 2.147838348997116731e-01 1.897167255215478909e-01 -1.219662209911396566e-01 9.904316301784682475e-01 6.457109941113091389e-02
-6.600450252426333098e-01 1.946653456421786887e-01 1.750798251564198438e-01 -1.458296065951292797e-01 9.852607922416136699e-01 8.941418853704165282e-02
-5.880030222449165178e-01 2.275444547178524513e-01 2.073902044057248928e-01 -1.698516372876478775e-01 9.848539272742393713e-01 -3.483049300846361579e-02
-2.555514898985316030e-01 1.796106212726981954e-01 1.485917918624125034e-01 7.879360259239788222e-01 -6.091589343164254267e-01 -8.990112231559728440e-02
-2.691100296996085661e-01 1.855520008162373224e-01 1.945349621335894785e-01 8.274567625765248957e-01 -5.589095835675220725e-01 -5.417917923663437274e-02
2.019486710279600195e-01 2.276944145079124182e-01 1.712958675446848711e-01 -6.786498747739733162e-01 -7.340799511349703765e-01 2.368486459640302758e-02
2.398739680949126818e-01 1.809053969629678127e-01 1.753120111357955035e-01 -8.167518915549022429e-01 -5.700973067641140757e-01 -8.891236394221334327e-02
5.784004054285246665e-01 1.978063419990549188e-01 2.174795614503826635e-01 1.609452891897956150e-01 9.863808107656996116e-01 -3.390442509192795328e-02
5.672399623266932700e-01 2.234065622730299627e-01 1.725179512229590428e-01 9.272910224988595296e-02 9.933790159849918977e-01 6.781920227059236306e-02
6.662273292177780526e-01 1.995551351934565509e-01 1.917021079299084385e-01 1.388927447257187753e-01 9.823752924751183446e-01 1.250903281512286691e-01
6.236243815545632341e-01 2.089431111772569183e-01 1.710629940182293585e-01 1.148190529192437692e-01 9.881511687819685141e-01 1.018521120132390712e-01
6.245735225149721126e-01 2.004862347341612727e-01 2.458884271046327674e-01 2.448049375969347519e-01 9.692821736162716695e-01 -2.371941057186267854e-02
6.278258452063768535e-01 2.087156469138165271e-01 2.099894978546567037e-01 1.691864979223333398e-01 9.843063715424085203e-01 5.016867410839531000e-02
6.884371213188053007e-01 1.968289815461908010e-01 1.512975117280477011e-01 1.954072983242567951e-01 9.737762756417142063e-01 1.165150323304569718e-01
6.912830266160963077e-01 2.114651313052590131e-01 1.852437388947912600e-01 1.954072983242567951e-01 9.737762756417142063e-01 1.165150323304569718e-01
6.753769335570162236e-01 1.820745505784037988e-01 2.162752450259840808e-01 1.812464574456958133e-01 9.781470254209031490e-01 1.018730500359375790e-01
7.532924356917273245e-01 1.873852888069466593e-01 1.724794630080632440e-01 2.730834120488273564e-01 9.586203626208450457e-01 8.045154089543474218e-02
7.241485313583844174e-01 1.881277118490519151e-01 2.044510004004850834e-01 2.231604198381229309e-01 9.678018477848679968e-01 1.164431639980117866e-01
8.126132222758071233e-01 1.780400041175606296e-01 1.729961332869072999e-01 4.031519365839623670e-01 9.150533553351692939e-01 1.207778615678878516e-02
7.657047600774055107e-01 1.796599825932397587e-01 1.646964828707138118e-01 3.050934771848439753e-01 9.497941916668508622e-01 6.934669173922042296e-02
-5.524652960163369819e-01 2.209235571131082931e-01 1.929967017746680447e-01 -1.682493597445522959e-01 9.842468113626368087e-01 -5.431728332704134632e-02
-5.102388820965421123e-01 2.270385234359368898e-01 1.579470843132938507e-01 -1.823885253663100336e-01 9.830068333103620937e-01 -2.078440472654329366e-02
-5.278395837708140803e-01 2.269104952309005940e-01 1.880893655572712653e-01 -2.435931873773520273e-01 9.472797038973119754e-01 -2.081430317055156798e-01
-4.667797074622598297e-01 2.396725570641681513e-01 1.919623197149775973e-01 -4.184488431196615732e-01 8.536967795519677660e-01 -3.100038294512111881e-01
-4.456338479755342363e-01 2.738407169476607672e-01 1.734512663458683823e-01 -8.719046683071897119e-01 1.474349953140346170e-01 -4.669530720970577753e-01
-2.093931396860201077e-01 2.377390761376882156e-01 2.107175155571602010e-01 7.096922769078137794e-01 -7.043375850247765024e-01 1.566647435988235276e-02
-2.272418820959882790e-01 2.054839232318678710e-01 2.219654217271354868e-01 7.637928036788403929e-01 -6.451528423129567757e-01 -1.995903564628366891e-02
-2.157488688388524700e-01 2.145413707577520646e-01 1.709979463061710447e-01 7.075235301923619158e-01 -7.064267251837708095e-01 1.928046084177107225e-02
-1.852893320918483910e-01 2.565956792614855764e-01 1.833275434819627570e-01 5.791103525100983473e-01 -8.083011535180276708e-01 1.062094385497611981e-01
-1.701361413498394259e-01 2.585073132907225180e-01 1.759533435780007427e-01 5.086429913528734970e-01 -8.580870901361937753e-01 7.049009213499853044e-02
-1.678070000404181250e-01 2.773858025859265997e-01 1.843253613811630387e-01 5.323509554658815146e-01 -8.398221598852980696e-01 1.063071022093820123e-01
-1.381902799140526106e-01 2.836516236841613026e-01 2.179753383362390828e-01 4.346540865594400449e-01 -8.641634265152224881e-01 2.535693146077585558e-01
1.728374191559644835e-01 2.664856909815848662e-01 2.097561029119560938e-01 -5.189368991142793153e-01 -8.463714704757986373e-01 1.198325026955980172e-01
1.402220895733127803e-01 2.715318439236715231e-01 2.049680774642779757e-01 -4.420592946590742311e-01 -8.795317029177076584e-01 1.760896463969388315e-01
1.392984485147434615e-01 2.725333478512574348e-01 1.938011842482569302e-01 -4.743004094114650626e-01 -8.776215918321762510e-01 6.942235361952087125e-02
1.929894273568870666e-01 2.431001702488529703e-01 1.341571250523312386e-01 -6.238547436091724796e-01 -7.813637621232245589e-01 1.661114436077985521e-02
2.054285170828304974e-01 2.460757179429880204e-01 2.273644460910547449e-01 -6.582055342215147320e-01 -7.506573853133917673e-01 5.726224405865171924e-02
2.167925904126959680e-01 2.325053863206457960e-01 2.012421790443500724e-01 -7.374784437273144144e-01 -6.749962414735605210e-01 2.248597416401627858e-02
4.672286626586309999e-01 2.319220009999280185e-01 1.660352336282540919e-01 4.037844539406033606e-01 8.944464950524395608e-01 -1.921550994491030284e-01
4.655153114291414873e-01 2.410240791785501491e-01 1.804850222399945470e-01 5.371631999505547261e-01 6.521472425083936209e-01 -5.349389411022335006e-01
4.842538728218303001e-01 2.363234233619953273e-01 2.037374371247631100e-01 4.484620114998789098e-01 7.838107059889003470e-01 -4.295609402851521263e-01
5.226664625681048948e-01 2.299577443948439825e-01 1.568479542395400383e-01 1.210468563010158594e-01 9.895011584101798263e-01 7.896275124736502893e-02
4.951632887951336048e-01 2.321677364421562972e-01 1.936984849566031897e-01 3.103272640640323821e-01 9.103487348689899283e-01 -2.737922024108093710e-01
5.481531697269890202e-01 2.242876481521413057e-01 1.875567011951694008e-01 2.304130976531308106e-01 9.630090235408965693e-01 -1.397262502491845582e-01
4.859412136547413552e-01 2.153321890666586025e-01 1.519610620958762592e-01 1.802078094982559053e-01 9.832856691343418998e-01 -2.596994938135193873e-02
-4.306300254247956150e-01 2.993786418976345787e-01 1.569122153491586957e-01 -9.590628818630593244e-01 -2.454640571631884205e-01 -1.412295481601155700e-01
-1.110111962186805940e-01 2.860549400305498757e-01 2.073154293074735699e-01 3.882434689887963586e-01 -9.159618928533268534e-01 1.013943767084554692e-01
-4.094393732412110465e-02 3.110668133652089162e-01 1.626847030700402097e-01 1.803703640331190683e-01 -9.801216708235300779e-01 -8.263196815187022481e-02
-6.503141004479827403e-02 2.938057236917921422e-01 1.628616655702206928e-01 2.375788885129062888e-01 -9.711016323237463554e-01 -2.275722810729599588e-02
-9.264032719752192391e-02 3.025555025065566062e-01 1.976580496517551799e-01 2.235913483131991841e-01 -9.746825100966080013e-01 9.557569049574286433e-04
-6.773333910874533570e-02 2.984662035410907688e-01 2.274361305546568346e-01 2.225573395979662250e-01 -9.749194006697879944e-01 -6.267285990564670914e-04
-1.402946342048472413e-03 3.251980295970594015e-01 1.752560526057807821e-01 9.827374028934889039e-02 -9.861225057126246085e-01 -1.338083543602430203e-01
7.713934029116367719e-05 3.146789869143524765e-01 2.043547209280926202e-01 -3.585957054259900079e-02 -9.981110265312246321e-01 -4.988456592259021827e-02
-3.817134526022324809e-02 2.934823514067441685e-01 1.907014165339812051e-01 4.602436683720018129e-02 -9.981983159540697148e-01 -3.849519039690501437e-02
8.228330682120657547e-02 3.033050322772926077e-01 1.327597262645217879e-01 -2.705693896698820322e-01 -9.626670620760465757e-01 8.020783474247309905e-03
7.801918870044553811e-02 2.998720752487471497e-01 1.874478693953249842e-01 -2.340608460420617876e-01 -9.718637449892844060e-01 -2.638904176883460559e-02
4.898471531787801370e-02 3.193686223298075610e-01 1.514630230591795523e-01 -2.340608460420617876e-01 -9.718637449892844060e-01 -2.638904176883460559e-02
9.811341113370593281e-02 2.992852903740287340e-01 2.148002684961873299e-01 -1.989775779293093960e-01 -9.798893810297706342e-01 -1.499081140160467979e-02
4.285619918310774185e-02 3.106321056889704835e-01 1.691522515759572298e-01 -1.508649341563064183e-01 -9.884151458876674345e-01 -1.659129355639174866e-02
1.102461383247839710e-01 2.816976234165084469e-01 1.744918010443961276e-01 -3.343025440502648826e-01 -9.422292504756208942e-01 2.111512703419681988e-02
1.215561835011354508e-01 2.955521147771797419e-01 2.187120806962382091e-01 -4.097858034329835974e-01 -9.060253387954350091e-01 1.058001926529488351e-01
4.323615776185203985e-01 2.933948324097840898e-01 1.626536675144106547e-01 9.759079692477711232e-01 -1.425302690869857392e-01 -1.651930929327342368e-01
4.268912447047505387e-01 2.864620854952449891e-01 1.780070477444285204e-01 9.546628259505554048e-01 -2.432558845486715304e-01 -1.715968046921120815e-01
-4.775165822443505625e-01 3.832776399560418046e-01 1.935857905482181451e-01 -9.547441742455771152e-01 -2.779634774429130539e-01 -1.058294238478793836e-01
-4.671420417496313648e-01 3.771347412654588171e-01 1.644418371699929438e-01 -8.783333653005862551e-01 -4.397802440029819349e-01 1.874135437593149600e-01
-4.453178033112529244e-01 3.434005266845487903e-01 1.783320961517376735e-01 -9.396406803013023223e-01 -2.762411546090995373e-01 -2.019064546346581446e-01
4.643259071942469340e-01 3.332298872503092757e-01 1.805366911843669098e-01 9.416177662163606188e-01 -3.006365818841626458e-01 -1.515705379640727990e-01
4.713148446904609767e-01 3.532641512317510335e-01 1.485550307351984622e-01 8.985773735464097633e-01 -4.135228174965726589e-01 1.468250086331761572e-01
4.576948066547883442e-01 3.915205630783861190e-01 1.851409798625019698e-01 9.311021908683051462e-01 -3.634408294181649124e-01 -3.097537202486287666e-02
-4.853545400732336978e-01 3.998609269518498821e-01 1.593009885201704112e-01 -9.040327427346073197e-01 -3.826423460540005483e-01 1.905508726561851163e-01
-5.007669707177380136e-01 3.843513181589128247e-01 1.775996379359049415e-01 -9.312519915984815988e-01 -3.641877131507088028e-01 1.170631171285944037e-02
-4.787419017717680636e-01 4.323765687086254528e-01 2.203923849848414829e-01 -9.426434444922576761e-01 -3.265779266278762138e-01 6.906659391637494372e-02
4.735901962140059429e-01 3.991532685147151649e-01 1.580647178511448148e-01 9.134243056099424773e-01 -3.870491994874381003e-01 1.258926332123046499e-01
4.897859396125028852e-01 4.472809331923258136e-01 1.677324373190699491e-01 9.206850087719125053e-01 -3.774910614396365660e-01 9.919482423917032332e-02
4.821636477652397335e-01 4.289858976320306549e-01 2.284067158506513651e-01 9.484413987529665135e-01 -3.168390116964983627e-01 8.482558499805869720e-03
4.769679562318210886e-01 4.525938842468176238e-01 2.289238191614932083e-01 9.510815267739184398e-01 -3.026672809975060607e-01 6.193905426279321114e-02
-4.943547730373620830e-01 4.549313088414604356e-01 1.510004688368627446e-01 -9.313289740151274865e-01 -3.409611817592672067e-01 1.279523922920310919e-01
-4.889727959412510927e-01 4.506920166058284716e-01 1.912683297591882825e-01 -9.235137711684454631e-01 -3.602792750211430972e-01 1.316098721695132256e-01
-5.250614336873712373e-01 4.798508298779343706e-01 2.363427492531241791e-01 -9.451357515005521792e-01 -2.972525293356987341e-01 1.354966606194264178e-01
-4.916394146170660062e-01 4.883563273461387078e-01 1.914592837117693458e-01 -9.329266571833382260e-01 -3.438480102486249912e-01 1.068475463676328840e-01
-2.069892886071961896e-02 5.112060057190545015e-01 1.641200671746786410e-01 2.982923289128070476e-01 8.768288695417775225e-01 -3.770846324764006718e-01
2.866473133740395085e-02 5.290143836110074993e-01 1.628483841110782149e-01 -5.905935040493514032e-01 7.839830328121886183e-01 -1.912326259750448398e-01
5.023523894813335389e-01 4.845737203619385758e-01 2.451574860236232223e-01 9.381996124827636230e-01 -3.237274104603295455e-01 1.224011881226716170e-01
5.139228462130043251e-01 4.948256689427288357e-01 2.113145816507224495e-01 9.464307635121023132e-01 -2.962792671637433650e-01 1.284032932864808685e-01
5.236439258131009300e-01 5.108240768153244904e-01 2.657731798644437093e-01 9.464307635121023132e-01 -2.962792671637433650e-01 1.284032932864808685e-01
-5.412479160491534547e-01 5.673165778188603570e-01 1.373542113516809382e-01 -9.775678402544429879e-01 -2.047594463839030043e-01 4.934254570673316659e-02
-5.523062675522389942e-01 6.096133180187046641e-01 1.791166238130516841e-01 -9.782748829188449013e-01 -1.957467383448118492e-01 6.827494326243030431e-02
-5.155989525624024017e-01 5.145944262379070766e-01 2.112689021545262891e-01 -9.452756019563878231e-01 -2.968151086167556962e-01 1.354799898243725653e-01
-5.262138325844434306e-01 5.306804247880005931e-01 1.917766836617773585e-01 -9.452756019563878231e-01 -2.968151086167556962e-01 1.354799898243725653e-01
-5.208228076191513400e-01 5.209503601804809092e-01 1.662454334431801017e-01 -9.456895634016543317e-01 -3.012950513517131390e-01 1.220350019631942645e-01
-5.341357823408577898e-01 5.609697728889265766e-01 2.265856837668154544e-01 -9.489702041576610902e-01 -2.778540382852395241e-01 1.491733388697577822e-01
-5.096880646964717723e-03 5.270298372576397439e-01 1.725919176873492444e-01 -1.188314071328246124e-01 8.411480232531239887e-01 -5.275880018122045545e-01
3.031746780308276767e-02 5.307255709104066188e-01 1.778523832109868419e-01 -5.743944422089162227e-01 7.323137828819425987e-01 -3.657698021442543634e-01
6.414504763696217415e-02 5.658947041423565416e-01 1.771910335937773584e-01 -6.746720758481745683e-01 6.887221321668489660e-01 -2.654795938189307702e-01
5.187827886451825687e-01 5.339116176162268523e-01 2.104746611717595861e-01 9.438363713739145178e-01 -3.041804089302925229e-01 1.290239624826423348e-01
5.206956632930193063e-01 5.021883345344626548e-01 1.567892639194279347e-01 9.438363713739145178e-01 -3.041804089302925229e-01 1.290239624826423348e-01
5.161039799891863344e-01 5.250374677203119012e-01 1.760457465546812483e-01 9.559732665566189613e-01 -2.789627104347782161e-01 9.107645039168831003e-02
5.093920068003867652e-01 5.501469110003293084e-01 1.804443778890005012e-01 9.738355105757759977e-01 -2.190939491199220546e-01 6.035097182858632087e-02
5.319809745021863989e-01 5.950300516514246407e-01 1.948691501346548061e-01 9.782016431975765203e-01 -1.987809104829764140e-01 6.006408971357300730e-02
-5.463054734524492861e-01 6.036886401330699981e-01 1.451937838704583650e-01 -9.929540291908186544e-01 -1.156186308149178277e-01 -2.597360433599370938e-02
-5.504422344712093240e-01 6.290016661897144257e-01 1.667820886938642944e-01 -9.961650201963496709e-01 -4.295865399128735718e-02 -7.622208724814019676e-02
-5.560625944281293309e-01 6.582912804004047436e-01 1.895543157609456408e-01 -9.985051848543210484e-01 -5.223277174542531598e-02 1.609762016039472526e-02
-1.020894874050758822e-01 6.309139762277246044e-01 1.811614158339661940e-01 7.707507568436549050e-01 6.366769497829461999e-01 -2.420190984234133619e-02
-1.122394064414696802e-01 6.465308771047494352e-01 2.184143176060702185e-01 7.654828404073609205e-01 6.432931731820399346e-01 -1.448842224884217857e-02
-1.197226757351392973e-01 6.469411279829287986e-01 1.375507493119806912e-01 8.041426211800787316e-01 5.725845851931494757e-01 1.596920085690619051e-01
-1.307726729484999240e-01 6.525879170433399601e-01 1.773733707122148173e-01 7.886579467524876819e-01 6.056380366652781566e-01 1.059302202790946973e-01
-5.786868407714666068e-02 5.472364888822205398e-01 1.708324366333300592e-01 7.370980092154236774e-01 6.703694714004339028e-01 -8.538908961314738144e-02
-8.361209850572143276e-02 5.635986879958296836e-01 1.716567063190597153e-01 8.124721508083745380e-01 5.822806849672083063e-01 2.895182334383500714e-02
-8.887217416164976125e-02 5.958583238066772481e-01 2.124750032729095794e-01 6.954471874890362226e-01 6.964802581822981953e-01 -1.768288985881789899e-01
6.697913303607849755e-02 5.761489844952953909e-01 1.671010014482154915e-01 -8.191579047674497627e-01 5.716532407367133084e-01 4.682840390420104498e-02
1.021149060026686622e-01 5.770209307676028576e-01 1.828089853395956366e-01 -7.970972421766755467e-01 6.033434508456427814e-01 -2.475210770842972349e-02
1.002658239409062596e-01 5.924266519891547844e-01 1.739385502098892977e-01 -7.911546331749934602e-01 5.940281275352410351e-01 1.456191268436840269e-01
1.298874402946261497e-01 6.447160131489523271e-01 2.200662839381101188e-01 -7.338336064999926300e-01 6.789120112851791955e-01 2.380585860511239341e-02
1.208352875454885428e-01 6.292955103908918213e-01 1.806515981541787219e-01 -8.004060140993702888e-01 5.928053860509655548e-01 8.906170255797102309e-02
1.116111108563691834e-01 6.220063237425342839e-01 2.195336972995597102e-01 -7.529922887006940124e-01 6.578225888185452730e-01 -1.649408370773466914e-02
5.382683052912087263e-01 6.190912426574881611e-01 1.621862866839884620e-01 9.915530586985548123e-01 -1.296654363913218588e-01 3.066984021581629308e-03
5.417696653111530036e-01 6.339932624653451532e-01 1.832483228521409324e-01 9.948298457669061401e-01 -1.012930004555043506e-01 -7.301097870518605433e-03
-5.539523854243146861e-01 6.716635380094896357e-01 1.726951716806279791e-01 -9.944534176576717011e-01 4.405958922712505804e-02 -9.550472609307494865e-02
-5.533316568222556020e-01 7.205541110493818291e-01 1.917984644793878091e-01 -9.881816318708114277e-01 1.261722976135439822e-01 -8.704949022285758675e-02
-1.842749207041937121e-01 7.060589182899777994e-01 1.909449589957857019e-01 7.464346126751008059e-01 6.550893129698041051e-01 1.170186354104432447e-01
-1.698494097667785918e-01 7.087881008348155820e-01 1.521110796966407552e-01 7.440549996793968113e-01 6.588201173883554418e-01 1.110774971652059157e-01
-1.368604010096444723e-01 6.739213859341491863e-01 1.946620323725165858e-01 7.800149814110753921e-01 6.163414210451442221e-01 1.081659903959275026e-01
-1.567091900271471716e-01 6.646726979918559097e-01 2.197779427989914880e-01 7.800149814110753921e-01 6.163414210451442221e-01 1.081659903959275026e-01
1.203320636355026257e-01 6.476978842958009963e-01 1.717640171056396270e-01 -7.789223614593941969e-01 6.216615728627227222e-01 8.256417894199995222e-02
1.489508688469312614e-01 6.683538252696151760e-01 2.130315633070077874e-01 -7.623777770165677259e-01 6.415948583560773244e-01 8.447581217319982683e-02
1.553336881679695802e-01 6.881709831901622332e-01 1.639773967361579654e-01 -7.723208295629452325e-01 6.127512370994118163e-01 1.675006198685382308e-01
1.599782649266319468e-01 6.846778337430220462e-01 1.338899686442301395e-01 -7.310991522368208706e-01 6.615426430174775607e-01 1.668992542465429496e-01
1.752415555940509684e-01 7.125882215721072166e-01 1.802817823356687721e-01 -7.298309091089074663e-01 6.713320237672900648e-01 1.290742343528723246e-01
1.840278324130111276e-01 6.950097174714678916e-01 2.259830440319720302e-01 -7.510507577921260447e-01 6.486217904523189359e-01 1.233390942495583842e-01
5.479178519610835574e-01 6.797826099529065136e-01 1.806726661040589099e-01 9.952198237217313448e-01 5.026389623028312825e-02 -8.373197243011276658e-02
-5.346481494767224563e-01 7.618303199200606723e-01 1.504604120519519028e-01 -8.604934613484762629e-01 3.753274756211156249e-01 -3.445000566333760728e-01
-5.400793863037357534e-01 7.472371466642376836e-01 2.010966877639602801e-01 -9.305928167285841823e-01 3.302118787043424319e-01 -1.579782409564940981e-01
-5.203475608583594259e-01 7.947518193303066969e-01 2.489483434916693882e-01 -8.335601401384939990e-01 5.523814473418325877e-01 -7.226991409740684408e-03
-5.247912287171053736e-01 7.955628653624745583e-01 1.786475456377062121e-01 -7.774335911921128606e-01 5.826111924442052281e-01 -2.369835642505103424e-01
-2.273646468443214219e-01 7.602506135233439988e-01 1.721559939043731391e-01 6.551375242402470711e-01 7.533113769775792168e-01 5.759161092123627618e-02
-2.042095765628350323e-01 7.258061175028694967e-01 1.511379621493625647e-01 6.662085832787545403e-01 7.413150107626624852e-01 8.135218733180207829e-02
-2.075928671588442853e-01 7.285392760994807704e-01 1.763349764677680231e-01 6.790078568307233997e-01 7.296584373172112503e-01 8.091288657533494966e-02
-2.216423653978084884e-01 7.553937929394144435e-01 1.427048810812840407e-01 6.790078568307233997e-01 7.296584373172112503e-01 8.091288657533494966e-02
-2.325703027185677951e-01 7.583876213486836493e-01 2.106105890158254945e-01 6.870059896954863188e-01 7.135093565902750345e-01 1.375760450829195125e-01
1.901346569895407401e-01 7.255665831041455682e-01 1.976316733689197913e-01 -7.215144584173892595e-01 6.804036190457096733e-01 1.283269320297275307e-01
1.861643573163943299e-01 7.226308137022606770e-01 1.572280293282724006e-01 -7.215144584173892595e-01 6.804036190457096733e-01 1.283269320297275307e-01
2.154360943610490187e-01 7.398177737112424657e-01 2.315827317837815813e-01 -7.215144584173892595e-01 6.804036190457096733e-01 1.283269320297275307e-01
2.145485090590181221e-01 7.599116261978607900e-01 1.470793956753679022e-01 -6.731756509717804482e-01 7.384178558467654474e-01 3.966879258794236279e-02
2.112184680482958876e-01 7.317789165994704748e-01 1.653994173066348494e-01 -6.883147948528968163e-01 7.192640164139951775e-01 9.424445807909677397e-02
2.459549487024184355e-01 7.669757797897394092e-01 1.863434814089605929e-01 -6.774323336107470617e-01 7.297546172258182473e-01 9.243176951837007993e-02
2.740344554518830411e-01 7.994293624974183610e-01 1.836730727375530670e-01 -6.085274612973471386e-01 7.893298793993751561e-01 8.156390337872167218e-02
2.523908170121931804e-01 7.702022659107997660e-01 1.987845032434737980e-01 -6.466797180961642022e-01 7.542604755601336475e-01 1.135626576426722739e-01
5.228077643974947675e-01 7.719278878177254777e-01 1.796966458638496189e-01 9.115994533741524908e-01 3.606804634938719500e-01 -1.972207896287612172e-01
5.177100948830961613e-01 7.873274696577188259e-01 2.276155035175038421e-01 8.569964452288649781e-01 4.941084602594136288e-01 -1.463349663107237075e-01
5.213877801528380429e-01 7.936037538093684285e-01 1.689614443798738153e-01 8.076410001428873109e-01 4.858991688559733402e-01 -3.340928203258358709e-01
5.529626761183097372e-01 6.941477031206354509e-01 1.915353769690233687e-01 9.876867287464999867e-01 1.526161564788534042e-01 -3.439817785377315834e-02
5.395307640587483355e-01 7.334382443030789123e-01 1.809128844321301610e-01 9.445065113846773386e-01 2.674885034049158117e-01 -1.906760354584308703e-01
-5.095097543416068353e-01 8.270643234612355954e-01 1.951800254450461736e-01 -6.761995863307920240e-01 7.236373464998160365e-01 -1.382140014498201841e-01
-4.570556420281912113e-01 8.417989209240410720e-01 2.271465066954510281e-01 -2.390968499788217738e-01 9.676149128357174334e-01 -8.095725284452223725e-02
-4.624451007598402996e-01 8.388958785235828275e-01 1.524840037143848914e-01 -2.844689465954405860e-01 8.570585033009878728e-01 -4.295673874287375682e-01
-4.692361189763446516e-01 8.509825500258516584e-01 2.014528773481284729e-01 -3.002260428823427807e-01 9.273494217055409106e-01 -2.233548146729962269e-01
-4.278973899870758268e-01 8.465137817047794222e-01 1.803489815586319378e-01 -2.390556855935049296e-01 9.021367932556730862e-01 -3.591679070292754239e-01
-4.132947104359471213e-01 8.497975010248065564e-01 1.860989849983465116e-01 4.414772042699982579e-02 9.749362735767777011e-01 -2.180601780365358788e-01
-3.864047310026862969e-01 8.478552643619982065e-01 2.141040555652607702e-01 2.780202807914392560e-01 9.595102954525561723e-01 -4.521854032581872074e-02
-3.804223284393543070e-01 8.377607135249146575e-01 1.721573138507453971e-01 2.485602586714839579e-01 9.490220909529692994e-01 -1.938423810533168035e-01
-3.225132038630295628e-01 8.168186594881282625e-01 1.671602269990032086e-01 3.609650448152257884e-01 9.208423455521920209e-01 -1.474910541676324183e-01
-3.626013987122428395e-01 8.330353792664521029e-01 2.173590870081205384e-01 3.653755116581790530e-01 9.308573755962328278e-01 2.298212048043703996e-03
-3.308242751318234420e-01 8.235305804593547885e-01 2.194353942969802240e-01 4.695209318870395276e-01 8.823772120203252634e-01 3.099274475041493768e-02
-2.652361563026984781e-01 7.982076343873852897e-01 1.606152723412411498e-01 5.911960819177746185e-01 8.063909679546663600e-01 1.485932455423663590e-02
-3.028879224188548158e-01 8.012012985729185521e-01 1.756069877563830872e-01 5.124152573791698195e-01 8.547633043762101757e-01 -8.252452663845670500e-02
2.903291394220058330e-01 8.134297426151764210e-01 1.663071485205855626e-01 -4.720923514876921301e-01 8.751733625592137411e-01 -1.058319287059458214e-01
3.290254252068358087e-01 8.154012021929100129e-01 1.661464124135336451e-01 -3.803907826875271847e-01 9.092159196222040496e-01 -1.692018438195050101e-01
