3.783330322244262134e-01 -3.732099016980645056e-01 1.968669366581720370e-01 8.191705331695453562e-02 6.997664679136661459e-01 7.096594160296184617e-01
-1.726017282619802806e-01 -4.298797937293823979e-01 3.428967796304008830e-01 1.352283029820513238e-01 6.912338337300006907e-01 7.098655458461977652e-01
1.621181453420957597e-01 -3.920725834060823645e-01 2.486883614316961477e-01 1.522047330843890878e-01 5.734808797657936497e-01 8.049555265788052028e-01
2.448207743016279636e-01 -4.000642434906406253e-01 2.417603981513273548e-01 1.074056345652748684e-01 6.680091382744679507e-01 7.363612027024736273e-01
-1.562854430448144261e-01 -4.226083809380692946e-01 3.354699601330942693e-01 1.668149436305038369e-01 4.801631554895255949e-01 8.611713643009115682e-01
2.066129132163335713e-01 -3.965024063070754501e-01 2.422803450956313165e-01 1.460149715929627556e-01 5.829652135243746924e-01 7.992691586012728999e-01
-1.457909247159201727e-01 1.175423614386632426e-01 -1.190071762976703008e-02 -2.126503590885399364e-02 9.326115108062007497e-01 3.602548655598851735e-01
2.887906134409904402e-01 -4.011116606266138529e-01 2.224952711412623851e-01 1.909145808387383014e-01 4.290751758000115323e-01 8.828624560685306433e-01
2.594150349074405559e-01 -3.924710233918495272e-01 2.322003931738380045e-01 1.909145808387383014e-01 4.290751758000115323e-01 8.828624560685306433e-01
3.749979805949047451e-01 -3.851613658996934642e-01 1.992331234988617972e-01 1.648633378275486394e-01 5.253479436548162962e-01 8.347632106999058887e-01
3.822594937152303252e-01 -3.870339226872369642e-01 2.019051625399927996e-01 1.648633378275486394e-01 5.253479436548162962e-01 8.347632106999058887e-01
4.080265940237251532e-01 -3.743101684438912558e-01 1.935773108402439602e-01 1.506843698139533616e-01 2.451670032003843425e-01 9.576989930220843883e-01
-3.423577645095041144e-01 8.642982695347461997e-01 -1.250009586097744312e-02 -1.170386699562438043e-01 9.145194155445252049e-01 3.872417698634451622e-01
1.882734786449598574e-01 -3.962132502930301725e-01 2.567854191114715134e-01 2.191001007134631418e-01 2.964396433390697472e-01 9.295798425763951434e-01
2.348180726388409689e-01 -3.967871519033240313e-01 2.466724054877326711e-01 2.089102699260496354e-01 2.905488673645477693e-01 9.337761266987947284e-01
3.298950723932578821e-01 -3.997131101940724074e-01 2.137622874471816203e-01 1.980727010825067969e-01 2.978847981072563766e-01 9.338264571870296127e-01
3.141726703874380688e-01 -3.859574153429372045e-01 2.181548731884956904e-01 2.121210330273753941e-01 3.432659058659812135e-01 9.149716854730567395e-01
3.945056513251931074e-01 -3.877328490356103941e-01 1.913856771348535768e-01 2.344266354957928178e-01 1.422763415453341673e-01 9.616660518114374945e-01
4.819493784321883800e-01 -7.166439058781919336e-01 8.410997476746000234e-02 3.375790739722162592e-01 -2.967616688802703906e-01 8.932932781004555567e-01
4.820942871763181370e-01 -7.137469343597390159e-01 1.047912977009939350e-01 3.375790739722162592e-01 -2.967616688802703906e-01 8.932932781004555567e-01
-1.558078544662008513e-01 -1.757288305375367954e-02 3.855425219812225190e-01 3.391514634514051531e-03 9.510854903708941821e-01 3.089091899481781756e-01
4.842271608633128555e-01 -7.419408565450220649e-01 8.473251937413059376e-02 3.475450431132420248e-01 -2.373677743109482430e-01 9.071212613129963076e-01
2.036834787978860084e-01 -1.989490024282491720e-01 -3.926890491760871016e-01 -2.156954824057001618e-01 -2.641601562945852799e-01 9.400504617818090658e-01
4.938778450487940064e-01 -8.445099741038301078e-01 4.805854602240867968e-02 3.742521852928961112e-01 -3.527139528925956058e-01 8.576293892109642103e-01
4.755618507139399154e-01 -8.337338356102219628e-01 5.458700712009757761e-02 1.572571216584781606e-01 -4.258804063729648148e-01 8.910084607652662969e-01
-1.889137436246091442e-02 6.900470590686123007e-01 -1.396035660276146451e-01 1.561778364966812105e-01 -5.237624796573069341e-01 8.374254284952451499e-01
2.619729991766919786e-01 5.293190276688243268e-01 -1.488164765119469046e-01 -8.783642803077559846e-02 -2.209968799496630776e-01 9.713110423357229628e-01
2.434201695696413537e-01 4.445011005376809377e-01 -1.711300083227025315e-01 -4.098326799407773224e-01 -1.579940927209810275e-01 8.983735532159405901e-01
2.559989840214795254e-01 4.503240532231326254e-01 -1.738739254318084626e-01 -1.333910992077081692e-01 -1.969118612134977964e-01 9.713045524270930153e-01
2.602338922010668520e-01 4.725887509249375729e-01 -1.718455795305033063e-01 -1.333910992077081692e-01 -1.969118612134977964e-01 9.713045524270930153e-01
2.339672202278387514e-01 3.902711762901842629e-01 -1.853298266230193059e-01 -4.963277331679981086e-01 -1.315038234462921896e-01 8.581174311872022953e-01
-2.093735801464600144e-01 1.328375100929335972e-01 -3.658571952394487625e-02 8.479638058219071337e-03 9.346977961186914152e-01 3.553422655261582186e-01
-2.074016003910786610e-01 1.232186768841818936e-01 -2.732314796911732707e-02 8.479638058219071337e-03 9.346977961186914152e-01 3.553422655261582186e-01
2.295635863069391824e-01 2.699776506706159096e-01 -2.181367666385832238e-01 -1.130718315011201153e-01 -2.457178970178831023e-01 9.627239874471246184e-01
4.208349993595902894e-01 -4.034032141119006654e-02 3.261302454379630400e-01 -4.044317200255555522e-01 -3.442669584436284791e-01 8.472987933197729804e-01
3.841580643971207465e-01 -5.409619779585482513e-02 3.244797780409666710e-01 2.355663763512832465e-01 -3.075537813155888589e-01 9.219105997498935334e-01
3.499673150869480609e-01 -8.702622068975345015e-02 3.375969353063942857e-01 2.355663763512832465e-01 -3.075537813155888589e-01 9.219105997498935334e-01
3.752262453309955226e-01 -8.285572107371001749e-02 3.285018905762369101e-01 2.355663763512832465e-01 -3.075537813155888589e-01 9.219105997498935334e-01
2.952419381735948423e-01 8.870309247678574982e-01 -1.806619961991397516e-01 -1.275447023002848276e-02 1.359263101096037929e-01 -9.906368465331476525e-01
2.086883478977125395e-01 -9.221829040070157746e-02 3.604116123358927504e-01 2.450861630612379272e-01 -2.956867354541196646e-01 9.233104175478611397e-01
4.374443643029843343e-01 -5.137505257069171355e-02 3.411946905986744105e-01 -1.192367803168721263e-01 -4.062310634431147149e-01 9.059574566796952944e-01
4.494139974310310537e-01 -8.087111652169859388e-02 3.278137539434915482e-01 -2.757803304048736873e-02 -3.961172489995483104e-01 9.177856923806599898e-01
4.216166515036932072e-01 -6.158876004447089852e-02 3.143935185457714110e-01 -3.861767873634031623e-01 -3.727853288560276646e-01 8.437408295746889886e-01
4.286487692494000967e-01 -6.882417869779117181e-02 3.269214582129132407e-01 -3.386048096535577701e-01 -3.861661407019985059e-01 8.580340871170575312e-01
4.370923806778238552e-01 -9.003177627125445726e-02 3.252224468489646747e-01 -3.386048096535577701e-01 -3.861661407019985059e-01 8.580340871170575312e-01
-3.518879002045899873e-01 1.103002597569546078e-01 -2.157466655154988422e-01 -2.904980153728365933e-01 3.097350169845818901e-01 -9.053591123515596362e-01
-4.329024171373909713e-01 8.177171332384601810e-01 -1.099722229913948496e-02 -4.745597369120501119e-01 5.839007793782876599e-01 -6.586751368796259776e-01
3.529551557603514272e-02 -9.402542916827094643e-02 4.061015890302092646e-01 2.146451652724291892e-01 -3.090896542897145771e-01 9.264939495950507142e-01
1.089793519019935028e-02 -8.144672281419924886e-02 4.185864456128394751e-01 2.146451652724291892e-01 -3.090896542897145771e-01 9.264939495950507142e-01
3.370024184051125665e-02 -1.099503372421806457e-01 4.018934938108729149e-01 2.146451652724291892e-01 -3.090896542897145771e-01 9.264939495950507142e-01
1.653095608465205216e-02 -8.747422507070572173e-02 4.139455688175299741e-01 2.519129535845007761e-01 -2.774863871161269424e-01 9.271144313306595164e-01
-3.852671417719829017e-01 1.194438942464696660e-02 -2.364857711371800841e-01 -8.937621608250505556e-01 1.017828310624437349e-01 -4.368403085547972187e-01
-3.805674336926047063e-01 5.028493184697831186e-02 -2.215599146488961557e-01 -8.937621608250505556e-01 1.017828310624437349e-01 -4.368403085547972187e-01
4.461895050885867908e-01 -1.028357522808002744e-01 3.175184719923027088e-01 -1.321228140625395897e-01 -3.716229838175635902e-01 9.189341216337145735e-01
-1.099951979484238146e-01 -1.013390593226376063e-01 4.332516214367586604e-01 2.237409711187979544e-01 -2.993705634732135579e-01 9.275328800471430712e-01
-8.998141569570651532e-02 -9.380811910803354969e-02 4.329285546317387934e-01 2.237409711187979544e-01 -2.993705634732135579e-01 9.275328800471430712e-01
-1.423212517099176899e-01 -1.037319948374228890e-01 4.409053797964820887e-01 2.329857987870090630e-01 -3.107955053756848995e-01 9.214791215224857890e-01
-1.443153086241432959e-01 -1.233844464054009299e-01 4.366963436253191722e-01 2.329857987870090630e-01 -3.107955053756848995e-01 9.214791215224857890e-01
-1.448201557443759002e-01 -1.250762301203154903e-01 4.434837047453450976e-01 2.329857987870090630e-01 -3.107955053756848995e-01 9.214791215224857890e-01
-2.558762132466149697e-02 -9.734943121034229929e-02 4.282589833587425732e-01 2.480055911458184381e-01 -2.877313671770265757e-01 9.250426406943911273e-01
-4.081170883080523920e-02 -1.018574301593837828e-01 4.325126819539206191e-01 2.480055911458184381e-01 -2.877313671770265757e-01 9.250426406943911273e-01
-1.699555521173145775e-02 -1.092256171899078920e-01 4.155264030443739376e-01 2.480055911458184381e-01 -2.877313671770265757e-01 9.250426406943911273e-01
9.664340873372866125e-02 -9.929771735047497605e-02 3.543315662176002023e-01 -2.217308147449115197e-01 3.036494215152273912e-01 -9.266242359263140438e-01
3.947771011531464036e-01 -1.157613320736435442e-01 3.124869811734618530e-01 2.753147486985434989e-01 -5.542610190482580856e-01 7.854912551471495696e-01
-8.471734396014382606e-04 -1.288086190932546116e-01 4.096923379847215441e-01 2.514078473050487261e-01 -2.883722593625829278e-01 9.239239873190653318e-01
-1.139779137870680290e-02 -1.321201779057681602e-01 4.267729098354073325e-01 2.514078473050487261e-01 -2.883722593625829278e-01 9.239239873190653318e-01
1.624740420435723254e-02 -1.107023210042510364e-01 3.966384081957927132e-01 2.234155246555738772e-01 -3.222127674491772065e-01 9.199263208733713393e-01
4.346489907898735128e-01 -9.955202264953362523e-02 3.030179443572726394e-01 -3.682532756649710692e-01 -3.508879769809996052e-01 8.609687291488583583e-01
4.338819851594649113e-01 -1.246226465038816622e-01 3.045568713506583980e-01 -1.953557529664132764e-01 -3.804559498531541184e-01 9.039299751663621985e-01
4.209231078273079629e-01 -1.284354367347536052e-01 2.973014628058224806e-01 -4.322647907444297499e-01 -3.525091925694731065e-01 8.299906143063860986e-01
-1.157986070933927497e-01 -1.160057989467827427e-01 4.504825888895359065e-01 2.255389307101058061e-01 -3.152245864966141675e-01 9.218273432710598625e-01
-1.004095724794768774e-01 -1.152029673204297416e-01 4.250275725657829407e-01 2.255389307101058061e-01 -3.152245864966141675e-01 9.218273432710598625e-01
-1.291774493576034744e-01 -1.142410154872433858e-01 4.444147956655897236e-01 2.255389307101058061e-01 -3.152245864966141675e-01 9.218273432710598625e-01
-6.503782526146181797e-02 -1.233193669916301388e-01 4.163534975614678335e-01 2.362975909742853486e-01 -3.022785850883566994e-01 9.234668946403713496e-01
-6.378744717265023845e-02 -1.032488609349363345e-01 4.364459565603979740e-01 2.362975909742853486e-01 -3.022785850883566994e-01 9.234668946403713496e-01
-3.671697583758889299e-02 -1.165696583086488353e-01 4.223813660116312874e-01 2.362975909742853486e-01 -3.022785850883566994e-01 9.234668946403713496e-01
1.997055161413718860e-02 1.966671797184613157e-02 1.725245594624661982e-01 -2.815971281328159999e-03 -9.361678951753876765e-01 -3.515419496285286383e-01
4.876782078432943812e-02 2.926255837276614882e-02 1.896078074777990397e-01 -2.815971281328159999e-03 -9.361678951753876765e-01 -3.515419496285286383e-01
3.682104218155825975e-02 2.993731595187740235e-02 1.731366464399821115e-01 -2.815971281328159999e-03 -9.361678951753876765e-01 -3.515419496285286383e-01
4.688424101121063670e-02 3.034744899279442909e-02 1.840476757580673806e-01 -2.815971281328159999e-03 -9.361678951753876765e-01 -3.515419496285286383e-01
1.076044255642187066e-02 -1.177399681423756672e-01 4.058517650000086352e-01 2.230012586045609091e-01 -4.363062883292416205e-01 8.717265978649167968e-01
-2.000171164815376934e-01 -1.244558552672463125e-01 4.655943455753631666e-01 3.475560781831762980e-01 -2.909035504514965176e-01 8.913921117289761442e-01
-2.038134892846945878e-01 -1.379676083736297021e-01 4.577548193356849038e-01 3.475560781831762980e-01 -2.909035504514965176e-01 8.913921117289761442e-01
-1.629115776981665542e-01 -1.167511464115893044e-01 4.438741372872921920e-01 2.300715281131754109e-01 -3.041555990551925159e-01 9.244222322699975347e-01
-1.919669325840807073e-01 -1.031428756840494787e-01 4.629280606677468324e-01 2.300715281131754109e-01 -3.041555990551925159e-01 9.244222322699975347e-01
-1.911149447731895490e-01 -1.275075812578031487e-01 4.592434732949534082e-01 2.300715281131754109e-01 -3.041555990551925159e-01 9.244222322699975347e-01
4.303514369203990109e-01 -1.475394231581818871e-01 2.787240667774597558e-01 -4.400408928210952086e-01 -3.568519266447777727e-01 8.240271324993633240e-01
4.563418720300752018e-01 -1.318672009650998789e-01 2.962499273442090741e-01 -1.316722205850737052e-03 -3.918660351384862239e-01 9.200213458107781017e-01
-1.868998562054298776e-02 -1.407712197300101109e-01 4.188937151899166378e-01 1.597816437143048385e-01 -5.055810484157594598e-01 8.478547221162222591e-01
4.376209452649201248e-01 -1.640934784968566540e-01 2.838379727994124746e-01 -1.770053328394398384e-01 -3.897860753221951136e-01 9.037344342401251174e-01
-2.304188462802548021e-01 -1.452252894815151407e-01 4.730403512149040091e-01 4.044212354210235949e-01 -3.712357228921769337e-01 8.358393998785027534e-01
-2.276799067626545658e-01 -1.531945909464955125e-01 4.705297048121571124e-01 4.044212354210235949e-01 -3.712357228921769337e-01 8.358393998785027534e-01
4.302403223760126738e-01 -1.742460698593427670e-01 2.910907614125142762e-01 -4.424267837108300516e-01 -3.551842216502210103e-01 8.234699203650470700e-01
4.380992236330850109e-01 -1.873088343632788588e-01 2.806303520946579755e-01 -2.381083469338756142e-01 -3.972192430041781575e-01 8.862963884094331446e-01
-2.526343499515737445e-01 -1.812122708288842199e-01 4.691566341511875238e-01 2.896457994187591201e-01 -3.715826876416518099e-01 8.820610053301725095e-01
-2.282670157109429332e-01 -1.854289002408835985e-01 4.398333772729723368e-01 6.840930729956401501e-01 -2.404481462259238922e-01 6.886227969330512844e-01
4.355032407028960884e-01 -1.971237850953764248e-01 2.729414943575857455e-01 -4.968400438332161162e-01 -3.586555114873561378e-01 7.902633706072620390e-01
4.216589718459378133e-01 -2.122961378043017322e-01 2.618761277112521824e-01 -4.968400438332161162e-01 -3.586555114873561378e-01 7.902633706072620390e-01
4.401548955310090605e-01 -1.974974848835569785e-01 2.713789188301591881e-01 -2.722900051786589781e-01 -3.472165206147956318e-01 8.973844443113335734e-01
-2.350865933853740208e-01 -2.204518680096064220e-01 4.524261549018665507e-01 5.174300916021317143e-01 -3.201872461640749012e-01 7.935655156938686838e-01
4.303677096297030547e-01 -2.328617098643632477e-01 2.463320878907722111e-01 -5.036283551538099923e-01 -3.276712367263935888e-01 7.993685260924797698e-01
4.267805407630999581e-01 -2.568464297496777515e-01 2.458443679154337924e-01 -3.932146490989172349e-01 -3.733353824049699954e-01 8.402398062330480588e-01
4.285110272551184707e-01 -2.861037378015525712e-01 2.356897636871562729e-01 -4.702669761742982457e-01 -3.122015649947541549e-01 8.254569364507808871e-01
4.443093873858383613e-01 -2.727286593963061390e-01 2.323861909996756125e-01 -2.492743885769458934e-01 -3.711422744250241768e-01 8.944918620838369083e-01
3.023762962531400533e-01 8.013764626790848000e-02 7.698192050271994435e-02 -8.759538696858932411e-03 9.471947759888947882e-01 3.205391190185151729e-01
2.921852854138014544e-01 9.812549424052033342e-02 6.110926754181172926e-02 -8.759538696858932411e-03 9.471947759888947882e-01 3.205391190185151729e-01
-2.513736835402763381e-01 -2.663841994389751777e-01 4.467597976996784959e-01 3.319571018601285561e-01 -3.400233223873881383e-01 8.798798910972261966e-01
-2.564728966447272773e-01 -2.736863716322631701e-01 4.408788197721948410e-01 3.319571018601285561e-01 -3.400233223873881383e-01 8.798798910972261966e-01
-2.503711753864068523e-01 -3.131950688219058976e-01 4.293811998314431833e-01 3.319571018601285561e-01 -3.400233223873881383e-01 8.798798910972261966e-01
4.455550294619696761e-01 -2.975718950078811709e-01 2.276092522361425063e-01 -2.157736555336998430e-01 -3.478347877929739429e-01 9.123884534443872374e-01
4.435160943067218420e-01 -3.329869359306057430e-01 2.229949586019495389e-01 -2.124052761625552233e-01 -3.306173474820545688e-01 9.195521563251533026e-01
4.400088353222615933e-01 -3.389014891730180445e-01 2.272798865165865101e-01 -3.314709763053469427e-01 -3.371517166075330141e-01 8.811672439757244346e-01
4.350774367886689475e-01 -3.560860411409190185e-01 2.075996235502135800e-01 -3.314709763053469427e-01 -3.371517166075330141e-01 8.811672439757244346e-01
4.588116325073901547e-01 -3.447615694840192591e-01 2.206014597747294748e-01 -1.208425378171527481e-01 -3.138206853169917543e-01 9.417609349092176396e-01
4.275227004252183383e-01 -4.015661283497327094e-01 1.926631889065561765e-01 -3.507835147781274698e-01 -2.447458433762036978e-01 9.039084012829917691e-01
3.989342383915158163e-01 -3.951657592973494282e-01 1.941406450335892431e-01 2.247691814781075104e-01 -3.387446827924310566e-02 9.738230514094745605e-01
3.646371691280920757e-01 -3.895777028634134220e-01 1.983798197531095597e-01 2.247691814781075104e-01 -3.387446827924310566e-02 9.738230514094745605e-01
3.850760698618782563e-01 -3.917665922106935428e-01 2.063910989026319365e-01 2.247691814781075104e-01 -3.387446827924310566e-02 9.738230514094745605e-01
2.836499778574926300e-01 -4.116595561473839204e-01 2.151766712578931096e-01 2.088304740749546695e-01 -2.452061353187781970e-02 9.776443998763812981e-01
-1.822990084107198594e-01 -4.305147478420174312e-01 3.370692714517525834e-01 2.799957738251494521e-01 4.870295906412674958e-01 8.272874618171456307e-01
-1.407985552063929502e-01 -4.341278254397685776e-01 3.272268254882069738e-01 1.933533403250854155e-01 3.885794214294416293e-01 9.008998385096381734e-01
-1.370135544759063517e-01 -4.437294490502214361e-01 3.225820135067519745e-01 2.085072337691061262e-01 2.206551517649122385e-01 9.528043017669257653e-01
-3.589471060495257326e-01 1.467704128649437167e-01 -1.969848584221075005e-01 -1.934674785292933574e-01 2.668603332199596112e-01 -9.441164638460921577e-01
-1.672297550995318627e-01 -4.502573226296249786e-01 3.404718152076069981e-01 1.729855479382283734e-01 7.938135688140575408e-02 9.817202251070198393e-01
-1.574470317898175598e-01 -4.334967161309076777e-01 3.262346805192198884e-01 2.208433573571189912e-01 -1.969354275019600808e-01 9.552196862009577627e-01
-2.464225653759950230e-01 -4.669086174502866116e-01 3.659154120371281849e-01 3.297634882354086860e-01 -3.039983777709546198e-01 8.937790712135988969e-01
-2.495223228208585109e-01 -4.423192317441442256e-01 3.766113239688813064e-01 3.297634882354086860e-01 -3.039983777709546198e-01 8.937790712135988969e-01
-2.483872905459415248e-01 -4.328729388943882705e-01 3.806891549504734518e-01 3.297634882354086860e-01 -3.039983777709546198e-01 8.937790712135988969e-01
-2.476346477010169245e-01 -4.759490657365494370e-01 3.468667234344114947e-01 3.297634882354086860e-01 -3.039983777709546198e-01 8.937790712135988969e-01
4.834221099912824338e-01 -7.033685478152976733e-01 8.947875776153525751e-02 3.993702541165970454e-01 -2.457839403858104732e-01 8.832291066168895810e-01
4.558195529513531796e-01 -7.053091617703151073e-01 9.780170986130169719e-02 -3.043523615043408626e-01 -4.070369665699278827e-01 8.612145771480428369e-01
4.668171547370009167e-01 -7.238546443025052346e-01 8.816402463017937452e-02 8.477481371361279827e-02 -3.194372940731737276e-01 9.438077378974125686e-01
4.542356908123950099e-01 -7.248759688264881929e-01 9.927466392401639028e-02 -2.340472616232587566e-01 -2.931102285574276878e-01 9.269888204512859442e-01
4.366977732633296472e-01 -7.095537932432535166e-01 9.182625082188204668e-02 -3.683141166531522792e-01 -3.776640769256486285e-01 8.495378487589034799e-01
4.764054456854471264e-01 -7.322512527579717601e-01 8.747092328795361138e-02 9.074045911416966925e-02 -2.775313196254898807e-01 9.564217352751263057e-01
4.609492781399924244e-01 -7.417470214544324980e-01 7.419854867203944104e-02 -1.135065913555270561e-01 -4.071582805021563556e-01 9.062772138465011729e-01
4.725470597828300701e-01 -7.743221528140863397e-01 7.328630694466545248e-02 -1.893357755537108666e-01 -3.014113619032745550e-01 9.345069047423288922e-01
4.446521405718227293e-01 -7.801480245062397678e-01 8.696938311542841415e-02 -1.893357755537108666e-01 -3.014113619032745550e-01 9.345069047423288922e-01
-3.670810781232658471e-01 1.852496346369746361e-01 -2.008780236574055911e-01 -3.267654430793505704e-01 2.451680815338864172e-01 -9.127524072858692605e-01
4.823447959700896126e-01 -7.982390030836082895e-01 6.264535536085952261e-02 -1.994044727439377718e-01 -2.871617407435881342e-01 9.368970012241604195e-01
4.911486546258207464e-01 -7.960380550160465196e-01 7.025827960320468746e-02 3.293031361792065348e-01 -2.319722115149463471e-01 9.152859321476561894e-01
4.759068192897464300e-01 -8.214457550176319511e-01 6.254697587714042051e-02 4.782374561306179661e-02 -2.537418979308713740e-01 9.660889910303172012e-01
-2.499109234020249481e-01 -8.230684193253265946e-01 2.493318378421453263e-01 4.237750081210849840e-01 -1.858354439091439714e-01 8.864986916397934458e-01
3.106557781484481917e-01 6.749363767261111480e-02 1.142303044047116301e-01 1.587973909468970088e-02 9.401118050368573176e-01 3.404961496355380368e-01
2.870279326614232907e-01 7.733222968008178488e-02 1.216387470938661008e-01 1.587973909468970088e-02 9.401118050368573176e-01 3.404961496355380368e-01
3.174881135950265443e-01 8.079926098895673370e-02 9.177430065237011936e-02 1.587973909468970088e-02 9.401118050368573176e-01 3.404961496355380368e-01
3.006048167937704907e-01 7.193015054467109815e-02 1.111054582181743300e-01 1.587973909468970088e-02 9.401118050368573176e-01 3.404961496355380368e-01
-2.608784262852756330e-01 -8.328624499171013440e-01 2.635058525730991086e-01 2.959488232752860437e-01 -2.520224426192256284e-01 9.213571416221901789e-01
-3.611638450057426120e-01 2.094168264070067065e-01 -1.765719770119022203e-01 -2.621792625872043647e-01 2.809262698673651859e-01 -9.232239517948167551e-01
-2.516320150957682134e-01 -5.343857497362077824e-01 2.665411347677977272e-01 5.413896874488820510e-01 1.462872338708378350e-01 -8.279476140012849150e-01
2.028474666508650881e-01 8.543231274191530611e-01 -1.272061338905729477e-01 -2.550476879558927767e-01 -9.497196844366855295e-01 1.816127689944617152e-01
2.593102054561339798e-01 4.067910744956300118e-01 -1.869433099540050436e-01 -3.227533419892463229e-01 -2.204383659492783198e-01 9.204548913729475590e-01
2.340930898163296470e-01 3.707102064063062530e-01 -1.857006594951107481e-01 -3.227533419892463229e-01 -2.204383659492783198e-01 9.204548913729475590e-01
2.508610911876567595e-01 3.812199212101172185e-01 -1.713620996725933876e-01 -1.920326211923287230e-02 -2.484872286451904611e-01 9.684448006593937563e-01
-8.515689783277204106e-02 -1.292526186714486047e-01 4.288067355829097149e-01 2.295323118774183491e-01 -3.046177497706735182e-01 9.244041022890686632e-01
-6.858410743556300759e-02 -9.048631600677593811e-02 4.259633628532524807e-01 2.295323118774183491e-01 -3.046177497706735182e-01 9.244041022890686632e-01
-7.761455848330336971e-02 -9.739556737121832231e-02 4.348434773853109836e-01 2.295323118774183491e-01 -3.046177497706735182e-01 9.244041022890686632e-01
4.568731747925277586e-01 -1.024191175659054931e-01 3.150329969754199766e-01 1.800551198272031805e-01 -3.592326995317148830e-01 9.157139408194941987e-01
4.661539540695577855e-01 -1.214123420492749517e-01 3.044214326660128478e-01 8.757652573470578461e-02 -3.868986617370541170e-01 9.179541261339342340e-01
4.550864880037936433e-01 -1.575654574145985976e-01 2.995793126752794300e-01 8.757652573470578461e-02 -3.868986617370541170e-01 9.179541261339342340e-01
-2.415911574383964033e-01 -2.411391433713293009e-01 4.384235580289684853e-01 4.844756502565336631e-01 -3.347100536213447608e-01 8.082403877023873751e-01
-2.318046325611420044e-01 -1.952331622188757665e-01 4.538793023440232388e-01 4.844756502565336631e-01 -3.347100536213447608e-01 8.082403877023873751e-01
1.741944562526249463e-01 1.249883474976157677e-01 -4.571417311896949082e-02 -4.383225499422696916e-03 9.168139078719822477e-01 3.992906781615686018e-01
2.058558015707334099e-01 1.296698483744033459e-01 -3.392511273687424250e-02 -4.383225499422696916e-03 9.168139078719822477e-01 3.992906781615686018e-01
2.003401085186909403e-01 1.274623032483866714e-01 -5.141108646778281416e-02 -4.383225499422696916e-03 9.168139078719822477e-01 3.992906781615686018e-01
2.014058090715621085e-01 1.284913167260348654e-01 -5.289146259058995908e-02 -4.383225499422696916e-03 9.168139078719822477e-01 3.992906781615686018e-01
-3.724235062300385590e-01 1.300644470780619177e-01 -1.953512404779497724e-01 -5.366874504758057940e-01 2.413836300724497286e-01 -8.085174850520094880e-01
-3.723125691467727427e-01 1.265325204417714067e-01 -2.002591211513472524e-01 -5.366874504758057940e-01 2.413836300724497286e-01 -8.085174850520094880e-01
-3.761280301564428052e-01 1.841031457690145146e-01 -1.835949167922956704e-01 -6.115814066947126149e-01 1.966875008919097834e-01 -7.663434021234942772e-01
1.972845484282812756e-01 1.326002099541102042e-01 -6.836960823804683063e-02 -3.971847204290213790e-02 9.338243005130307806e-01 3.555202086378857484e-01
1.866139775473569240e-01 1.343166456861949187e-01 -5.135348172350955032e-02 -3.971847204290213790e-02 9.338243005130307806e-01 3.555202086378857484e-01
4.839957687983827972e-01 -7.145970178575256071e-01 9.720417235596094663e-02 3.936771165940632367e-01 -3.490010097285475843e-01 8.504214385107178309e-01
2.487790889022357954e-01 6.219136919692853649e-01 -1.527715008937905738e-01 -6.120555283433892768e-01 -5.922568162480428000e-02 7.885939061775534276e-01
-2.946168904304958813e-01 6.475387433878817545e-01 -5.552723243512636825e-02 1.496749809958275168e-01 -9.860724984137081428e-01 -7.251501869299926961e-02
2.421395595357743180e-01 5.716972406716219757e-01 -1.652674764709561872e-01 -8.996853876001822403e-01 1.856796281353145783e-02 4.361438227186819616e-01
2.311376517573424383e-01 5.671154478586438730e-01 -1.549251865547945917e-01 -6.713771273276291085e-01 -7.362231849345457491e-02 7.374500031330590843e-01
2.326822379845157329e-01 5.589882192729088706e-01 -1.712769903326106513e-01 -7.388609650026617404e-01 -1.167029874266175271e-01 6.636752874117269885e-01
2.385289197153253882e-01 5.514708388155311614e-01 -1.558421563812168176e-01 -7.672635931751689009e-01 5.641522793894050702e-02 6.388457565363694357e-01
-3.303613477631582862e-01 -3.849685534144953875e-02 3.369481408222721464e-01 -9.965059175050797746e-01 -6.005001900978312185e-02 5.805128417428610105e-02
2.286447795363142077e-01 5.332513425185052558e-01 -1.877461789532425540e-01 -9.539760564766028850e-01 1.377942725982105598e-01 2.663501869878813211e-01
2.321166195011567790e-01 5.146396491805017570e-01 -1.733339753710217979e-01 -9.110408925460010687e-01 2.229294570915185333e-02 4.117129056522209063e-01
2.397152561637148072e-01 5.455381750635065474e-01 -1.800996208569090595e-01 -8.125469052269360670e-01 -9.119205654237797637e-03 5.828244734861125487e-01
2.372361084119137542e-01 5.097611967324570115e-01 -1.628129085461896275e-01 -7.705647602558326481e-01 -7.463307236845584391e-02 6.329769780653290434e-01
2.445581653797730959e-01 5.026083656893702845e-01 -1.696512303205295336e-01 -5.687309931124513440e-01 -1.209523555393588329e-01 8.135819474169798671e-01
2.268756768257439438e-01 4.817133489731629248e-01 -1.797758101998256364e-01 -7.534651207446497745e-01 -4.946118512801174483e-02 6.556248187698378027e-01
2.441260269085161749e-01 5.019601435367347930e-01 -1.562405068717609147e-01 -2.954194469946874735e-01 -2.052529066391240442e-01 9.330587305489103089e-01
3.182746830454341036e-01 2.858144744538271623e-02 2.372944020870173254e-01 7.564222906276897498e-04 9.459775949665321093e-01 3.242311176408799178e-01
3.337792797055642025e-01 3.231779726492407800e-02 2.262714290029577691e-01 7.564222906276897498e-04 9.459775949665321093e-01 3.242311176408799178e-01
2.510625911482250450e-01 4.793170848823338215e-01 -1.753677540066724549e-01 -7.034055180328077084e-01 -1.266179304313951905e-02 7.106759853814748062e-01
2.272255571732693935e-01 4.578039625779569133e-01 -1.691594526661276132e-01 -7.034055180328077084e-01 -1.266179304313951905e-02 7.106759853814748062e-01
1.921238368597117663e-01 6.825668592640743437e-01 -1.630160126543446775e-01 -2.630850099448767479e-02 -9.840554443986269106e-01 -1.759055005531212912e-01
2.337479913181029212e-01 4.307260008207260960e-01 -1.986515744444068698e-01 -8.007789368244075945e-01 -1.412010042006384691e-01 5.820784919159120996e-01
2.232064625213261710e-01 4.035761510882846514e-01 -1.866343178773588740e-01 -6.490307205627708909e-01 -1.205028994877805903e-01 7.511578895151193036e-01
2.436226567440840096e-01 4.342535995828731843e-01 -1.776500107297162012e-01 -1.329407841770436638e-01 -1.880709570979582079e-01 9.731166749155266693e-01
2.319288911836184519e-01 4.334905223246284245e-01 -1.950221210133850080e-01 -4.603630070214579373e-01 -1.768547390440337319e-01 8.699358039785624053e-01
2.151458061701683744e-01 4.024795812539687101e-01 -2.132456363379124642e-01 -9.444411062150589453e-01 -1.716681842110975506e-02 3.282320783174189627e-01
2.206226989647684655e-01 3.788972519499420599e-01 -1.961792960641168537e-01 -7.832378763290264168e-01 -5.216225593018720269e-02 6.195300865493704734e-01
2.069713526791086000e-01 3.854581128934893575e-01 -2.296739268840336523e-01 -9.596970926796613011e-01 4.696230659658336658e-03 2.809972165694830659e-01
2.102949278654588361e-01 3.876584828772194347e-01 -2.255556278709835993e-01 -9.596970926796613011e-01 4.696230659658336658e-03 2.809972165694830659e-01
2.049040335136056989e-01 3.587420036046875538e-01 -2.275744948589849825e-01 -9.520822938150412806e-01 4.960484598045371285e-02 3.017924204799466437e-01
2.075267143819821691e-01 3.840695413321969509e-01 -2.121439560173697947e-01 -8.130108071367877498e-01 -9.957539446646200554e-02 5.736707838958138295e-01
2.282830444376494350e-01 3.647131893800176217e-01 -2.003555646052654904e-01 -6.215083532561724855e-01 -1.452448028306505268e-01 7.698255088547574232e-01
2.141761170904627198e-01 3.449532475270651877e-01 -2.167556302083395448e-01 -8.392226403234924748e-01 -3.153532614566709191e-02 5.428728057043863409e-01
2.295802756576273695e-01 3.596813559570229413e-01 -2.171849774513647247e-01 -8.392226403234924748e-01 -3.153532614566709191e-02 5.428728057043863409e-01
2.146423424077877340e-01 3.101942289336215852e-01 -2.103029714186140930e-01 -6.614597365291617903e-01 -5.623127973709950156e-02 7.478696812479430633e-01
2.289643224191470205e-01 3.073284767427327813e-01 -2.107894974784999542e-01 -3.316844577198452271e-01 -2.157023921910114217e-01 9.183996398682695572e-01
2.290669820543255741e-01 2.956364473057246922e-01 -2.093743428087931069e-01 -3.316844577198452271e-01 -2.157023921910114217e-01 9.183996398682695572e-01
2.437979046364907587e-01 3.137796818434627211e-01 -2.092115591558133814e-01 -3.316844577198452271e-01 -2.157023921910114217e-01 9.183996398682695572e-01
2.033743294278212710e-01 3.072291858782630336e-01 -2.439238332291805145e-01 -9.389609730668392329e-01 -2.312398480280607616e-03 3.440159064209718509e-01
2.085678964592088680e-01 2.949040656927261472e-01 -2.500981228644798549e-01 -9.389609730668392329e-01 -2.312398480280607616e-03 3.440159064209718509e-01
2.042838626280209513e-01 2.787444421520267057e-01 -2.396559716342595847e-01 -8.740491904712790472e-01 -4.737720926967620844e-02 4.835218843840667913e-01
2.056715402416358085e-01 3.031974887274969110e-01 -2.328063945038810201e-01 -8.740491904712790472e-01 -4.737720926967620844e-02 4.835218843840667913e-01
1.988025084114463659e-01 2.681154942028791122e-01 -2.475192174312869087e-01 -8.739563402390518876e-01 -4.749798390109573332e-02 4.836778441083423585e-01
1.940660054389736489e-01 2.796135224499528005e-01 -2.650383762109072561e-01 -9.513734879247339737e-01 -2.735191886406297852e-03 3.080276046059358119e-01
2.071443970364138520e-01 2.479505597950907581e-01 -2.379461362160482651e-01 -7.123086329758157031e-01 -1.430557706045921806e-01 6.871327803888060970e-01
2.574487347776159285e-01 6.095188755746565601e-01 -2.189256641292747774e-01 -1.041340116157312701e-01 2.000049952566436140e-01 -9.742454051712047258e-01
2.027235428212427193e-01 2.337419087644065363e-01 -2.503852746823005404e-01 -9.168309275265533742e-01 -6.418947921810097546e-02 3.940821755529028136e-01
2.067760381163149253e-01 2.127404363513731855e-01 -2.594448253490849732e-01 -8.356875975185443783e-01 3.399321944238610782e-01 4.313610350366172130e-01
4.111656341811040227e-01 -1.886004897968717176e-01 2.669815261678139540e-01 -7.875416842324475253e-01 -2.509811068887748409e-01 5.628379692071291407e-01
4.041660234902110238e-01 -1.805430554090485529e-01 2.335228451250213888e-01 -9.844462554389600273e-01 -9.380390103135854973e-02 1.485476297471921281e-01
3.957838007339180009e-01 -1.904102653798327160e-01 2.370877176199483738e-01 -9.844462554389600273e-01 -9.380390103135854973e-02 1.485476297471921281e-01
4.123828966501290050e-01 -1.834975375297475120e-01 2.537525477185121336e-01 -9.200460484406518535e-01 -1.571563312618874386e-01 3.589110701734424813e-01
4.106533727017888658e-01 -1.907453746274541118e-01 2.497196928934970750e-01 -7.758319206337332963e-01 -2.665557874448103437e-01 5.718678545830754301e-01
4.079733414449244200e-01 -2.118848318560181687e-01 2.489076312944012437e-01 -8.985984416669365871e-01 -1.866449564626098678e-01 3.970950778602320153e-01
4.036716740280144045e-01 -2.409123808098594111e-01 2.090805922472776801e-01 -8.985080927670070494e-01 -1.748214837465134064e-01 4.026420942386214619e-01
4.171862037686718261e-01 -2.290857803673323478e-01 2.317331340525656258e-01 -8.985080927670070494e-01 -1.748214837465134064e-01 4.026420942386214619e-01
4.080679886251843969e-01 -2.164732042977946525e-01 2.408385132780779536e-01 -7.620880736793856913e-01 -2.666514200982427196e-01 5.900159219167171454e-01
3.903048268401481669e-01 -2.177458900787342666e-01 2.092209598716370800e-01 -9.816162008297089070e-01 -8.657829152325245692e-02 1.700994817909890211e-01
3.922449410869057185e-01 -2.082430149908606198e-01 2.114432203326390147e-01 -9.816162008297089070e-01 -8.657829152325245692e-02 1.700994817909890211e-01
4.082657239981273278e-01 -2.430010433308694706e-01 2.042815507327242486e-01 -9.816162008297089070e-01 -8.657829152325245692e-02 1.700994817909890211e-01
4.090500521146900881e-01 -2.338018051624700944e-01 2.193555257698019123e-01 -9.752681263482833041e-01 -9.670788438841282364e-02 1.987452309521570148e-01
4.112570311169961301e-01 -2.536610880753309982e-01 2.393551951843645442e-01 -7.708383799059743691e-01 -2.423893400810479548e-01 5.891142502766392175e-01
4.136817365467372332e-01 -2.270959471557583986e-01 2.400263789102449752e-01 -8.302576664604723877e-01 -2.324589676300349295e-01 5.065915866375884091e-01
3.977919180301051627e-01 -2.611972131335709157e-01 2.261151882022048032e-01 -8.302576664604723877e-01 -2.324589676300349295e-01 5.065915866375884091e-01
4.070896506068157339e-01 -2.764260562980230818e-01 2.285939842611094952e-01 -6.169956833968447407e-01 -3.046718725693268182e-01 7.255972551868978826e-01
4.156327136360852825e-01 -2.743928154267133435e-01 2.117203729045109006e-01 -9.510362354473628210e-01 -1.160018305446623849e-01 2.864849981698792125e-01
4.134632733059211418e-01 -3.034754363439323144e-01 2.134802647767968797e-01 -8.244204395960303966e-01 -2.018355743710222860e-01 5.287658647214356078e-01
4.361031656425932712e-01 -2.986601239708350231e-01 2.242197751245532111e-01 -6.097048415477606120e-01 -3.096304988617037401e-01 7.296498888973208530e-01
4.118195532646290458e-01 -3.044900502201414172e-01 1.832770000171660696e-01 -9.983591233459145897e-01 -1.781905197166611804e-02 5.442005346201075899e-02
4.056175507212527176e-01 -3.120230700620383324e-01 1.848834290306461958e-01 -9.983591233459145897e-01 -1.781905197166611804e-02 5.442005346201075899e-02
4.069203311631401920e-01 -3.002304790965055759e-01 1.969184204241005987e-01 -9.579314937812631880e-01 -1.132535308735757584e-01 2.637060692639930926e-01
4.005391936281008092e-01 -3.340514542801249487e-01 1.815233199571247014e-01 -9.591993821115026853e-01 -9.091362742591478641e-02 2.677148813666762606e-01
3.804263761883305839e-01 -3.636149920159734150e-01 -1.640684428400477138e-02 -5.809016323456319686e-01 6.801855933597534820e-01 4.471027310630303897e-01
4.075574564509694131e-01 -3.054852551845487763e-01 2.102416938258017953e-01 -7.447285152729026247e-01 -2.718024670211409144e-01 6.095103423738104098e-01
4.114895613148080722e-01 -3.261751033457129800e-01 1.953764839877157322e-01 -7.447285152729026247e-01 -2.718024670211409144e-01 6.095103423738104098e-01
4.104062250563080827e-01 -3.633324649157101960e-01 1.925235471089838946e-01 -9.212225496116429602e-01 -1.865750488885376257e-01 3.413777456414870404e-01
4.296034813945395214e-01 -3.441645073388176490e-01 1.947397794774217705e-01 -5.354571750279569775e-01 -3.062662530298124186e-01 7.870747079954728553e-01
4.200683510040201241e-01 -3.616010327968577354e-01 1.945394313863976210e-01 -5.354571750279569775e-01 -3.062662530298124186e-01 7.870747079954728553e-01
4.168934020201669477e-01 -3.640026130531111570e-01 1.950378851637678546e-01 -5.753197772153634260e-01 3.882296007875227217e-02 8.170066901290272687e-01
4.253294441297811312e-01 -4.176030912852373711e-01 1.769981369823179218e-01 -5.910141615885965427e-01 -2.524646083257968132e-01 7.661356814198320153e-01
4.367509932778053106e-01 -4.573835990510750071e-01 1.775888057477604531e-01 -5.910141615885965427e-01 -2.524646083257968132e-01 7.661356814198320153e-01
-3.796764769935976891e-01 2.333232402087798141e-01 -1.667789215968533134e-01 -4.371565110759214612e-01 2.368547156008481702e-01 -8.676370373154717042e-01
4.254411296997678837e-01 -4.692021821692065608e-01 1.663061897873532591e-01 -7.626647047106498434e-01 -2.326288909207143707e-01 6.035116795038979465e-01
1.677108993719010621e-02 1.907136657532081392e-01 -2.227767331725764022e-01 1.341620836731346154e-02 9.361702993963603170e-01 3.512907284304180311e-01
-5.703195263048445318e-03 2.012017721983755947e-01 -2.322830772768655072e-01 1.341620836731346154e-02 9.361702993963603170e-01 3.512907284304180311e-01
1.685839576943935075e-02 1.931710649495585741e-01 -2.006080437557324070e-01 1.341620836731346154e-02 9.361702993963603170e-01 3.512907284304180311e-01
2.505426721489749098e-01 2.814205356206503916e-01 -2.213618955967663615e-01 -3.127277742086938955e-02 -3.009421597329468567e-01 9.531294927173611375e-01
2.514780989906602593e-01 2.996909320570709800e-01 -2.071531579743727536e-01 -3.127277742086938955e-02 -3.009421597329468567e-01 9.531294927173611375e-01
2.438982184883096149e-01 3.005210343830748698e-01 -2.022020809335952907e-01 -3.127277742086938955e-02 -3.009421597329468567e-01 9.531294927173611375e-01
3.162921766331990847e-01 -3.718871289530251700e-01 2.007079634676186275e-01 7.091032206923214565e-02 8.407446657968543624e-01 5.367682303920131570e-01
-1.970279850083653250e-01 1.609996952080295640e-01 -1.252297237540644370e-01 1.390220834326345595e-03 9.340644004695120017e-01 3.571018945085042140e-01
-1.789812263618489607e-01 1.727111605672612127e-01 -1.676198422040925118e-01 1.390220834326345595e-03 9.340644004695120017e-01 3.571018945085042140e-01
-1.769046201245614847e-01 1.573430494689943560e-01 -1.375596717286053372e-01 1.390220834326345595e-03 9.340644004695120017e-01 3.571018945085042140e-01
-1.687453734380553461e-01 1.627022703300684547e-01 -1.278797983154331408e-01 1.390220834326345595e-03 9.340644004695120017e-01 3.571018945085042140e-01
-1.686193753710399090e-01 1.635526244924521977e-01 -1.222795564906982990e-01 1.390220834326345595e-03 9.340644004695120017e-01 3.571018945085042140e-01
1.813198949896149825e-02 1.972243252172549421e-01 -2.433817053257912311e-01 -9.832586253280956035e-03 9.622483713776442960e-01 2.719952058927564975e-01
-5.329652531617175455e-03 2.077503157429501368e-01 -2.495902105511315916e-01 -9.832586253280956035e-03 9.622483713776442960e-01 2.719952058927564975e-01
2.142584073306900427e-01 2.265162515019058243e-01 -2.376608565226824010e-01 -5.866250558260531767e-01 -2.471443665181309868e-01 7.712267539287208651e-01
-4.303259468204619353e-01 7.840594518711532235e-01 6.454743476081749309e-02 3.526176480105738253e-01 -1.355258024874669842e-01 9.259014802729387261e-01
-4.273918437344165766e-01 7.771539698850797873e-01 5.830847048348433703e-02 3.526176480105738253e-01 -1.355258024874669842e-01 9.259014802729387261e-01
-4.352965302425843008e-01 7.864470886863822452e-01 6.883965882700421313e-02 3.526176480105738253e-01 -1.355258024874669842e-01 9.259014802729387261e-01
3.108315332746767190e-01 8.388999339268017330e-01 -1.146802963914333590e-01 3.535495053194658011e-02 -1.546520595997658565e-01 9.873361980270115579e-01
-4.133257219750163247e-01 7.711178895626528140e-01 5.727125101003638363e-02 5.408845156044248537e-01 -6.329815210273985471e-02 8.387116815209773035e-01
2.954777205884455138e-01 8.149032586907928311e-01 -1.213931333487354991e-01 -2.994910776099567462e-01 -6.427554694961147563e-02 9.519315881387460099e-01
-4.098783866506964246e-01 7.397184890945707192e-01 4.892712960393130056e-02 5.031877158655897464e-01 -1.001648002586029568e-01 8.583525705624261981e-01
-4.221107048387570670e-01 7.579134827392035589e-01 5.430599659210978009e-02 5.031877158655897464e-01 -1.001648002586029568e-01 8.583525705624261981e-01
-4.005527291743674612e-01 7.038529911813785622e-01 3.763873421455354168e-02 5.031877158655897464e-01 -1.001648002586029568e-01 8.583525705624261981e-01
2.984436901038825529e-01 8.006653988133134447e-01 -9.412947500784821231e-02 4.771873321458777739e-02 -1.240914072936071116e-01 9.911227195137276569e-01
-3.999478500367316669e-01 6.876829828719859261e-01 3.543987739762662070e-02 3.685526687365940912e-01 -1.713363546066647147e-01 9.136808983213086099e-01
-4.015332615815926376e-01 6.470243356123827061e-01 2.904641920348919465e-02 1.256196288892285073e-01 -2.227431113182565536e-01 9.667498203765001463e-01
-4.131568363994518878e-01 6.656879679076255218e-01 2.553792246022439441e-02 1.256196288892285073e-01 -2.227431113182565536e-01 9.667498203765001463e-01
-4.026712557286711847e-01 6.249356526644062049e-01 2.948819455032674133e-02 1.256196288892285073e-01 -2.227431113182565536e-01 9.667498203765001463e-01
-1.005569533860618120e-01 6.856186977384225445e-01 -1.245485850634234504e-01 7.058686863950328072e-02 -9.462372655784765385e-01 -3.156778915385700657e-01
-3.924558744480965977e-01 5.663421658398231084e-01 -2.414196699760920613e-03 2.720377210399066992e-01 -2.340280323348737646e-01 9.333950709173908233e-01
-3.837208658709918008e-01 5.422048804500154695e-01 5.228311182596475509e-03 2.449512077957460288e-01 -2.556567370545702045e-01 9.352211174893431123e-01
-3.450932194317219426e-01 2.761625436295043756e-01 -8.546293728208131935e-02 2.403982075349183900e-01 -2.482479694660756908e-01 9.383931198969697185e-01
1.620190094219060573e-01 1.735201085048592162e-01 -1.569962731764582842e-01 1.581184473066142571e-02 9.197709008806774778e-01 3.921370620833495302e-01
-1.309759546941442199e-01 1.307856410510868927e-01 -6.426947320506772032e-02 1.250495934053715702e-02 9.327895338337909292e-01 3.602045412845741867e-01
-1.523938773990677065e-01 1.376028347057490775e-01 -5.170218207329137922e-02 1.250495934053715702e-02 9.327895338337909292e-01 3.602045412845741867e-01
1.363650666627095609e-01 1.775339455730901017e-01 -1.476298323871431672e-01 2.090932421014524145e-02 9.331345902026987327e-01 3.589187049017041886e-01
1.481847415916855426e-01 1.623432322472867229e-01 -1.328472701657081867e-01 2.090932421014524145e-02 9.331345902026987327e-01 3.589187049017041886e-01
1.497788035586535005e-01 1.533120008088841024e-01 -1.240820696396783135e-01 2.090932421014524145e-02 9.331345902026987327e-01 3.589187049017041886e-01
1.312930220177794816e-01 1.595254224209612104e-01 -1.167390245050874409e-01 1.068509683707222040e-02 9.178182481265764192e-01 3.968570172133087937e-01
1.204539596894832337e-01 1.492858829028697043e-01 -8.627949401516465944e-02 1.068509683707222040e-02 9.178182481265764192e-01 3.968570172133087937e-01
8.141323914112702509e-02 1.132638569355405717e-01 -3.334897175839942468e-02 9.182558218570141539e-03 9.272305911650786658e-01 3.743782998949345409e-01
6.916386718201843198e-02 1.348238975878345014e-01 -3.187057622370325499e-02 9.182558218570141539e-03 9.272305911650786658e-01 3.743782998949345409e-01
1.054186977019236360e-01 1.259730510728646058e-01 -3.306479177851704560e-02 9.182558218570141539e-03 9.272305911650786658e-01 3.743782998949345409e-01
-3.751064817606180601e-01 3.294442089425704268e-01 -1.545974186044522525e-01 -8.428495078666610463e-02 2.702744207790472308e-01 -9.590869535883801422e-01
-3.821443342315450353e-01 3.636930967372435930e-01 -1.380914255280840941e-01 -8.428495078666610463e-02 2.702744207790472308e-01 -9.590869535883801422e-01
-3.873916634333166575e-01 2.954682888218495562e-01 -1.373792713070773330e-01 -5.240626951187996596e-01 2.036619482194661213e-01 -8.269704362504571860e-01
-3.927193975914361479e-01 3.060252806568159456e-01 -1.491793024207553886e-01 -5.240626951187996596e-01 2.036619482194661213e-01 -8.269704362504571860e-01
4.247388340861934369e-02 1.816493306272729258e-01 -1.503727998088455753e-01 2.930263658744154936e-03 9.336065042222756460e-01 3.582880249586251620e-01
5.819383772366305829e-02 1.748508876862364392e-01 -1.531706969640594940e-01 2.930263658744154936e-03 9.336065042222756460e-01 3.582880249586251620e-01
1.089414598602936463e-01 9.807089723700078421e-02 1.416742411288792955e-02 5.913873470610048373e-03 9.248747723390350339e-01 3.802258297267452902e-01
8.952530932234027683e-02 9.961441692062483755e-02 1.592842787606986443e-02 5.913873470610048373e-03 9.248747723390350339e-01 3.802258297267452902e-01
-3.853643330829445435e-01 2.646835663039603381e-01 -1.613924604616903125e-01 -6.779844446854556006e-01 1.485497242727513434e-01 -7.199097666951350671e-01
-1.671057971870769931e-01 6.265725966199105212e-02 1.329312734214166680e-01 1.026895046839503695e-02 9.442214565589478470e-01 3.291510134117415221e-01
-1.406146867653274291e-01 7.519236569137295600e-02 1.026963238749129814e-01 1.026895046839503695e-02 9.442214565589478470e-01 3.291510134117415221e-01
-1.505399518849433182e-01 6.889560638256404801e-02 1.027304345100211319e-01 1.026895046839503695e-02 9.442214565589478470e-01 3.291510134117415221e-01
-1.457257653419054833e-01 6.320104602895444679e-02 1.381987496569287432e-01 1.026895046839503695e-02 9.442214565589478470e-01 3.291510134117415221e-01
-1.454717311477009556e-01 8.650306001784272003e-02 1.148551350112039238e-01 1.026895046839503695e-02 9.442214565589478470e-01 3.291510134117415221e-01
-1.413607905796761821e-01 6.447780292470985108e-02 1.336703976623296042e-01 1.026895046839503695e-02 9.442214565589478470e-01 3.291510134117415221e-01
2.150434041151873810e-01 1.059090808205597062e-01 1.087048192229824774e-02 -3.616391057418341399e-03 9.426884322905684233e-01 3.336546737890392356e-01
2.512359284959354566e-01 1.080449576503707404e-01 1.337148504870432075e-02 -3.616391057418341399e-03 9.426884322905684233e-01 3.336546737890392356e-01
