6.480519185086000555e-02 2.026522644487571967e-01 -1.266784361388267888e-01 -7.717311846874846948e-01 6.319846279588787752e-01 -7.089716922789690567e-02
-8.756045330032292684e-01 2.168527641142712625e-01 -1.149038503669932015e-01 7.550712855692959247e-01 5.945198672478303470e-01 -2.764298847019857619e-01
-2.814286464442023461e-01 2.427574783368117439e-01 -1.113983074006969637e-01 5.287632927031609142e-01 4.776198825467051767e-01 -7.016328299657755840e-01
6.703151278483576725e-01 2.537352852865075725e-01 -1.170032053391446697e-01 6.503196648042323114e-01 7.529781373869025574e-01 1.005398338284962806e-01
-9.035872072021787771e-01 2.579215910931222933e-01 -1.133270822863308575e-01 2.961227804785471207e-01 8.914873385998643984e-01 -3.428726060766373318e-01
-9.159230012553593037e-01 2.618989637984930896e-01 -1.103288025731261196e-01 9.170010591109334364e-03 9.350187153861763134e-01 -3.544797776789862520e-01
1.555759547875285587e-01 2.643102705528344032e-01 -1.155537677000653130e-01 -2.443111052418698859e-01 9.619264445662912832e-01 1.225136690314589244e-01
-5.301574959760853023e-01 2.720167313666146391e-01 -1.031219436508762355e-01 -8.683063105214597899e-01 4.233166415332115795e-01 2.585482007472735266e-01
6.456610969441446413e-01 2.670828481162687007e-01 -1.140560539225245473e-01 6.504926427657250487e-01 5.500783165870369862e-01 -5.237109578082494998e-01
2.341631413536519324e-01 2.787057447508924923e-01 -1.186069353577611507e-01 -4.618670510934958645e-02 9.977805528163202764e-01 -4.796620365111359946e-02
3.472298118222718610e-01 2.717172588247807608e-01 -1.257245823629245807e-01 -4.039601348476055259e-02 9.926686620339517653e-01 -1.139170290617828735e-01
3.680401570608690665e-01 2.811281563314144138e-01 -1.166436073133045037e-01 -1.665336266186294989e-01 9.844884187055373825e-01 5.521869828162608018e-02
4.694042178126353049e-01 2.714613304813360273e-01 -1.123614424883934565e-01 1.098389055391087166e-01 9.886853865716082046e-01 -1.021597827411564047e-01
-3.614868623697354288e-01 2.953304222294582670e-01 -1.156868934205222410e-01 2.554355279916732391e-01 7.956621147706020025e-01 -5.492490238119576151e-01
-3.983580238451837063e-01 2.915973792731661463e-01 -1.165036133443643346e-01 2.316324510499734868e-01 8.395278492974161955e-01 -4.914665785937397668e-01
5.381047525078344052e-01 2.875690814810447637e-01 -1.149878908829207458e-01 -7.777799442280178832e-01 4.377402063967821277e-01 -4.510453082123391244e-01
5.866533227540894346e-01 3.019192393962099596e-01 -1.201935590645279717e-01 2.471219461666802897e-01 9.689823296774722206e-01 1.997121831743507540e-03
5.714807906405924287e-01 2.994754971850240866e-01 -1.145320685895143131e-01 1.277624016982525368e-01 9.894721073027811231e-01 6.798321544387146698e-02
5.420022818448898549e-01 3.060993657086721331e-01 -1.029809500305364361e-01 -8.163806923869098009e-01 4.216807909701077994e-01 -3.945983725570773593e-01
-4.853903750017236063e-01 3.087980263698371086e-01 -1.138282585388478430e-01 -1.123813892606358340e-02 9.313757654635614891e-01 -3.638858168995371400e-01
-4.345775929305452090e-01 -4.207453065003772807e-01 -1.146639833760974697e-01 -4.689494088431644947e-02 -6.713351707518749878e-01 -7.396688130717742338e-01
-3.963521742789294922e-01 -4.074961508870174054e-01 -1.085421688188980965e-01 1.408639214044056787e-01 -5.877627809228787026e-01 -7.966757615293548200e-01
-3.840265314459099799e-01 -4.227108450191366940e-01 -1.017852482281334930e-01 1.839320498520111147e-01 -6.620684096939520868e-01 -7.265221413849396459e-01
-3.166205240709406565e-01 -3.808648646404764193e-01 -1.068797983454038703e-01 1.812380180133726093e-01 -4.865320843456893973e-01 -8.546574236083269716e-01
-2.801324193920634031e-01 -3.629495396832856380e-01 -1.064494336697302812e-01 2.519815858112313678e-01 -3.838696128170033250e-01 -8.883408134087845687e-01
-2.629275717862037398e-01 -3.249535674902699900e-01 -1.267139959055831600e-01 2.521658272851014515e-01 -9.269586825811693132e-02 -9.632340689352169028e-01
-4.599671901009971808e-01 -3.171512925037032193e-01 -1.084939736404852972e-01 -9.573882968567573037e-01 2.284094565071795035e-01 1.767392690372244779e-01
4.099864014823664804e-01 -3.216325375856346480e-01 -1.104835416462390529e-01 8.415204911295846024e-01 -5.060159232197518620e-01 -1.891854869092366997e-01
3.743163164816488697e-01 -3.144043796419772052e-01 -1.166000786233547110e-01 -2.952560378698425581e-01 -5.174073237200080833e-01 -8.031895999465511471e-01
-2.527159697547095574e-01 -3.064554041525534012e-01 -1.096302493820421192e-01 2.963483430761263970e-01 -2.983218264760590516e-02 -9.546139012367850230e-01
4.558785767546110201e-01 -3.054579815789644215e-01 -1.110664496953742697e-01 9.044146163079217482e-01 -3.630617078282658006e-01 -2.240990810276066447e-01
3.475313487669715595e-01 -2.949418279225806128e-01 -1.027598744663820451e-01 -9.833838269780447172e-01 -1.720475170458127256e-01 -5.793013651274868392e-02
4.861352804203001865e-01 -2.822053301116291268e-01 -1.196746350662906272e-01 7.918483863520374699e-01 -6.100223313094795818e-01 2.913568834645387240e-02
-2.545538332366040213e-01 -2.696187622598313349e-01 -1.101303593026828065e-01 3.692730426968303115e-01 -8.335539025010900438e-02 -9.255751178881577168e-01
3.024853383542999152e-01 -2.655897519883058666e-01 -1.086584870075228970e-01 -8.290025751108149876e-01 -5.102476613348078116e-01 -2.289149504990815598e-01
-2.546032281970369571e-01 -2.630602485507953503e-01 -1.160613695076179452e-01 4.860385623425816926e-01 -1.227259920308866326e-01 -8.652773236344467600e-01
2.619334685973993548e-01 -2.210985925038552180e-01 -1.139707727373102525e-01 -2.894042569963425349e-01 -7.602855931034995240e-01 5.815591052951150086e-01
-2.076164399915679526e-01 -1.966678484699266871e-01 -1.079633067634081095e-01 5.267164857685455726e-01 -4.205930370933311235e-01 -7.386956347293798242e-01
2.212661321427786820e-01 -1.907459838226122084e-01 -1.105280283208802811e-01 -5.893703980582674085e-01 -7.920656313627103540e-01 -1.589797770366734586e-01
-1.992154935963554863e-01 -1.782899167070585711e-01 -1.081115565609872819e-01 5.174702042192441676e-01 -4.240158661049678868e-01 -7.432598018435732090e-01
6.193907115911001515e-01 -1.754700852226572239e-01 -1.153202088281037319e-01 4.941365554456882969e-01 -8.692908570105463140e-01 -1.274639125949976297e-02
-1.894654911607510372e-01 -1.664316260749832688e-01 -1.019918704426879263e-01 5.104501819276797692e-01 -3.853665417516273228e-01 -7.687218224223831831e-01
6.589815023253161597e-01 -1.527529828548210289e-01 -1.086895226666522024e-01 5.342851375228528932e-01 -8.377875452085791208e-01 -1.124785353548362482e-01
1.618059280944686151e-01 -1.402113485820920546e-01 -1.056297253063526870e-01 -3.831804844440783175e-01 -9.170482714111434230e-01 -1.104318081126777623e-01
-9.720857181637558853e-01 -1.475463688500193160e-01 -1.034363252840304892e-01 -9.991656699037090306e-01 1.080594632740198950e-02 3.938522070322603846e-02
6.633235311364491515e-01 -1.507000198628233867e-01 -1.163561353501445655e-01 6.810024993853180941e-01 -5.708015689642336188e-01 -4.587168676851977045e-01
-8.264898762611704308e-01 -1.379361275031391887e-01 -1.143536632364597488e-01 5.658064418071997448e-01 -7.143277207622485969e-01 -4.118239645286403960e-01
-8.022603762163690311e-01 -1.297736871009174120e-01 -1.082304862682879759e-01 3.435664956858032748e-01 -7.848553484320371920e-01 -5.157171173034714728e-01
-6.792084861565299558e-01 -1.056546535611014304e-01 -1.129177082596178605e-01 -7.732229192886778124e-01 -5.764409390462265081e-01 -2.642766748659430842e-01
-9.718980413054765233e-01 -1.190556281424860752e-01 -1.150116382896021888e-01 -9.989323030400389936e-01 -2.075729236812355431e-03 4.615133033033055887e-02
-1.621514363377760670e-01 -1.204346758393982919e-01 -1.069244291788928047e-01 6.555468523317428131e-01 -2.555043827476791707e-01 -7.106165173950516056e-01
-6.987340166888004189e-01 -1.059108300743158704e-01 -1.182864312505635951e-01 -5.881064969537655972e-04 -7.968073867324084736e-01 -6.042331028497349710e-01
2.804924046284403005e-02 -9.923937344865836618e-02 -1.076059500189319174e-01 -2.189541360526675862e-01 -5.489171205922901420e-01 -8.066902013946239958e-01
6.490756984260663727e-03 -9.189429393788442479e-02 -9.172927027664046218e-02 -1.689995257540136964e-01 -4.450870564256446671e-01 -8.793956291097161371e-01
-6.073667059053017986e-02 -7.254658621483715819e-02 -1.028323528474163889e-01 -1.845219483302377728e-01 -3.940363187702803360e-01 -9.003816024744059066e-01
7.200978440883154530e-01 -7.069798016827741338e-02 -1.165773748010350136e-01 8.849760786575993077e-01 -2.620917088183419286e-01 -3.848704670048094800e-01
-7.539593540986733178e-02 -5.772046188559417507e-02 -1.123215282089351785e-01 -1.159762105017394657e-01 -3.714194353895968748e-01 -9.211933139208779986e-01
-1.151949196353908994e-01 -4.941139159442463347e-02 -1.093075203915839649e-01 6.489172001215165464e-02 -2.596292843649170567e-01 -9.635256609836738706e-01
-9.336390753273485221e-02 -4.106323694957880049e-02 -1.086853130988347099e-01 -4.396544835100622828e-03 -2.152653023421641915e-02 -9.997586103103029975e-01
7.313084099550787309e-01 -3.535450868213308590e-02 -1.117996940150962487e-01 8.730423991231770486e-01 -5.072449216970200542e-02 -4.849989641508248295e-01
-1.199627387111572852e-01 -7.833591847463530766e-03 -1.064491828711325583e-01 1.143077285152268724e-01 2.091786501180769586e-01 -9.711735352327452997e-01
-8.274933477889451217e-02 -1.876094460560052621e-02 -1.127807287769931194e-01 -1.077185663857577885e-01 1.435267020710438990e-01 -9.837666370884950995e-01
-5.185780411506248078e-02 -9.168436903488607140e-03 -1.123873297268083021e-01 -1.667797612358035697e-01 1.234122353010149858e-01 -9.782402217349965845e-01
-1.320530998423017355e-01 1.826125126918839645e-03 -1.238861318171005643e-01 2.600164724584750897e-01 1.996430050657127531e-01 -9.447402312692008142e-01
-8.844788701103768747e-02 -1.609705399711903323e-02 -1.062236826142192031e-01 -1.065266114965107563e-01 1.509022837368634018e-01 -9.827922373554190960e-01
-1.319054246153698873e-01 6.727586704587494928e-03 -1.149938183110749135e-01 2.386577018812892359e-01 4.915978571658279755e-02 -9.698586581564559994e-01
-5.084502494116144300e-02 1.308000138575520811e-02 -1.114283406176812680e-01 -2.335472906537981175e-01 1.603190579509643221e-01 -9.590377795926423588e-01
-1.386497533370101010e-01 2.412774697364733489e-02 -1.110575182419354934e-01 2.952102559923612257e-01 1.737601752292914845e-02 -9.552742950440819003e-01
-3.741938296218615123e-02 2.979047956830626481e-02 -1.143513963575159692e-01 -2.127307007526590688e-01 3.400688661261417889e-01 -9.160233704709519476e-01
-9.603567901504622695e-01 3.170160986168532591e-02 -1.085620059697246093e-01 -9.996356462350550753e-01 1.870171248160981334e-02 1.946331745820409700e-02
-1.409157002190685182e-01 3.788588970832574426e-02 -1.082354667082526950e-01 3.001651154477461558e-01 1.858458564990252138e-02 -9.537062003806321409e-01
-1.229967511996962054e-02 4.426314674312763903e-02 -1.087681263641968321e-01 -2.016944222647217011e-01 3.828610699814924967e-01 -9.015191407396334622e-01
-1.404951809592220602e-01 5.373691614981717518e-02 -1.121705562919467769e-01 3.025378154751410253e-01 1.891202114731300454e-01 -9.341864994849197190e-01
-9.654584539051371816e-01 5.929694103966300783e-02 -1.116829891069750919e-01 -9.988970600951203593e-01 4.618715168468730259e-02 8.450464636999414567e-03
-1.608164676067452281e-01 7.222228628283515472e-02 -1.125493075916981639e-01 5.934505587016222217e-01 3.330880888606365664e-01 -7.327132859692807587e-01
2.436216985362801152e-02 1.069052145382863861e-01 -1.152564316544456707e-01 -9.828477563945965390e-01 1.828895820964104579e-01 -2.369996858032019996e-02
7.226569284334196652e-01 1.146304051767073756e-01 -1.075179075691350683e-01 8.940303978439367860e-01 4.080148254245066219e-01 -1.850231065700211897e-01
2.796161871845528196e-02 1.302712263042700713e-01 -1.040195512671243105e-01 -9.687015164698946634e-01 2.275925804805004060e-01 9.909081339434733238e-02
-1.900972644490118713e-01 1.348084446413271298e-01 -1.112838903127302131e-01 5.038764268851534389e-01 4.796625505211296048e-01 -7.183539406567039931e-01
-7.473445933952048703e-01 1.416550891345703389e-01 -1.168662125558557058e-01 3.597534743864237890e-03 7.730893242783000163e-01 -6.342869653640126337e-01
3.415766868702233700e-02 1.400346820958136840e-01 -1.026796997838892445e-01 -9.289167292002804555e-01 3.582068183620047419e-01 9.381676551034223710e-02
-9.606553989919264236e-01 1.686519229968218847e-01 -1.037813899818611219e-01 -9.985221093283861427e-01 -4.811289346563912134e-02 2.527343792907076059e-02
-2.130447800421712556e-01 1.740850536617266353e-01 -1.074260884393910404e-01 4.991725255981318554e-01 4.533223769828319538e-01 -7.384616525010743171e-01
6.998432960398079938e-01 1.694424230533069231e-01 -1.116489805144652292e-01 8.307164167624443429e-01 5.004555388829423634e-01 -2.438329110738513550e-01
-6.579406280739019675e-01 1.745210183664637482e-01 -1.066436706634165121e-01 -2.978910582748934277e-01 8.032177966915365896e-01 -5.158508393691508820e-01
5.299874897188099759e-02 1.772532183025571917e-01 -1.092891511729085496e-01 -8.170977559243873811e-01 5.744281192061743146e-01 -4.882205575953720011e-02
-5.777719091773282356e-01 1.728387115522742046e-01 -1.095825176347546698e-01 5.390855215548789880e-01 7.647341133994560725e-01 -3.529426812572433736e-01
-9.615670358389865058e-01 1.895811044936914491e-01 -1.180053003872403028e-01 -9.992307547621785968e-01 3.913516147086548713e-02 2.517513466955257316e-03
-5.511732370043330720e-01 2.047448392435208542e-01 -1.011600134633151293e-01 -9.016730818478204679e-01 4.301349967246854145e-01 4.437947795669153206e-02
6.733942009408130369e-01 2.092242200739531377e-01 -1.107111806889257283e-01 7.305766379968127167e-01 -6.777324909009535547e-01 -8.328533358558996846e-02
-2.691261569981765467e-01 2.343407531339907202e-01 -1.135124157533159844e-01 5.219128410779496630e-01 5.052306377997177744e-01 -6.872765010870321989e-01
-2.905985028225481770e-01 2.382749606057021352e-01 -1.110379267478178167e-01 5.035723450726238282e-01 5.245217960544698022e-01 -6.865069400536686350e-01
1.167116954904304227e-01 2.375249620474718659e-01 -1.189170668705750167e-01 -4.069049204280495435e-01 9.073620599022070854e-01 1.054631593565561187e-01
-9.453237162783278968e-01 2.446030186007133456e-01 -1.058035755439302728e-01 -5.870307085183995577e-01 7.701316892093829081e-01 -2.495839108033374998e-01
-3.054433096466160347e-01 2.638178354624425292e-01 -1.110311426001433788e-01 4.593367674265911305e-01 5.801321625362781953e-01 -6.726487999551260533e-01
1.425117541866633142e-01 2.524262751563683405e-01 -1.180830514091103511e-01 -2.830273839473763653e-01 9.504163573485653327e-01 1.288574701761156238e-01
6.577180119629637556e-01 2.606622367192604761e-01 -1.108544651958324190e-01 5.568592497466221536e-01 6.018005355791089528e-01 -5.724892063160026412e-01
1.796393668429333290e-01 2.630056281788309969e-01 -1.120722887158197567e-01 -1.774169699313953574e-01 9.829122221097182921e-01 4.905896867748123918e-02
1.986269420470012648e-01 2.769989632773636745e-01 -1.072043417295035217e-01 -1.911175280528080167e-01 9.761878027980666062e-01 1.026229220947604270e-01
2.660518991215571338e-01 2.637519508580850047e-01 -1.068033085224128487e-01 2.247827197450764369e-01 9.582577675844182741e-01 -1.766770493531445441e-01
3.180416211801750381e-01 2.678440065244271362e-01 -1.121136160033946727e-01 -2.838352699678877156e-01 9.060465306977297795e-01 -3.138745350181568750e-01
2.516597787528165875e-01 2.785954065308311467e-01 -1.109118258713832766e-01 5.546532654517540711e-02 9.984351622278829774e-01 -7.129121840598694367e-03
-3.382369982223910054e-01 2.777330324409775231e-01 -1.185200853721749270e-01 3.531742761606638248e-01 7.103112035874672436e-01 -6.088726670795093776e-01
4.862410865444106722e-01 2.803683003726727407e-01 -1.210734617233852339e-01 4.852090712835489122e-02 9.827987842532177609e-01 -1.781916699563667050e-01
4.437746307246842048e-01 2.917117398989288457e-01 -1.054996365982220491e-01 5.307893797584417594e-02 9.948506031341087796e-01 -8.634178471086025042e-02
-5.117379296707390557e-01 2.958534228662098031e-01 -1.180969871029068641e-01 -7.681961132408334780e-01 6.021145220232205775e-01 2.175611039924769674e-01
-5.115423884365294382e-01 3.082793515982268362e-01 -1.200396767993128638e-01 -6.918034593543558319e-01 7.212651515078744024e-01 -3.441736256120213333e-02
-4.234174894709112347e-01 3.056803143072873152e-01 -1.174418610629272830e-01 1.902748079342475862e-01 8.506786849798886330e-01 -4.900421128703865703e-01
-4.549940613633592923e-01 3.073307606811371828e-01 -1.124765342484437269e-01 1.542604930451648426e-01 8.993466453973011365e-01 -4.091201677968028250e-01
-4.243269107464483492e-01 -4.225141468894183516e-01 -1.053314629433710625e-01 1.250334655325948119e-01 -6.827245368533184644e-01 -7.198984923413377368e-01
-3.513231314928506599e-01 -4.066639090526105726e-01 -1.041554798317491926e-01 1.688020222874860865e-01 -6.274178467168153306e-01 -7.601662468782008908e-01
-3.368763798972200796e-01 -3.985297190033845749e-01 -1.052428698200917334e-01 2.533134843341030562e-01 -6.320522068985580111e-01 -7.323539352042688355e-01
-2.952263110185432415e-01 -3.892199339635322719e-01 -1.024756971833035990e-01 2.664828102109524921e-01 -5.977857561229994454e-01 -7.560681858394304733e-01
-4.490985342871975372e-01 -3.756853611725086695e-01 -1.208365903045254958e-01 -9.469761436443137059e-01 -4.304048682968804329e-02 3.184080712890417497e-01
-2.924325971320339557e-01 -3.728009995317444480e-01 -1.062094575486912523e-01 2.817207747185843658e-01 -5.194435794702199072e-01 -8.067290578869253936e-01
-2.677182352524358211e-01 -3.603790585712203232e-01 -1.014964342952920373e-01 3.168066758845509701e-01 -4.362905048607217395e-01 -8.421900768136356685e-01
-2.627700733934724697e-01 -3.389858399255252230e-01 -1.084138350325268840e-01 3.285561162348504260e-01 -2.330966691340796149e-01 -9.152687153635640227e-01
-2.378135725072468842e-01 -3.196844147543922987e-01 -1.145746039278825873e-01 3.848018286815385602e-01 -1.326477225572756380e-01 -9.134178311943071948e-01
-2.392400557507848580e-01 -3.033381995329643144e-01 -1.020982184861308900e-01 3.285414216123739295e-01 3.622396939822131873e-02 -9.437946589835932709e-01
4.677976993448982879e-01 -3.019675243000109477e-01 -1.071625821177980969e-01 3.842430265267328671e-01 -9.232108938641823137e-01 6.240353842062762099e-03
-2.338974990704447143e-01 -2.889414829912233529e-01 -1.064479250831141116e-01 3.548992514068481929e-01 -1.892945407261547100e-02 -9.347128955563689390e-01
-4.681474463098703742e-01 -2.690329086003450665e-01 -9.972910714600587145e-02 -8.953222886483157561e-01 -3.565857015659488760e-01 2.669169100830105501e-01
-2.347759786762833312e-01 -2.406000293264917433e-01 -1.001316152119388903e-01 5.235335710673307830e-01 -7.698767445539803078e-02 -8.485195919644034079e-01
-2.287584274151157337e-01 -2.284950067163809551e-01 -1.138653684192593302e-01 5.791056083536748611e-01 -2.622458740855047599e-01 -7.719221436767116362e-01
-9.288438320607872445e-01 -2.249266934293116804e-01 -9.959872772405339858e-02 -9.331936538017013283e-02 -9.184032258726376741e-01 -3.844827834270023170e-01
2.711645208419503073e-01 -2.295884011076146924e-01 -9.697536787851937512e-02 -7.427721700939351468e-01 -6.133910746135290415e-01 -2.684043459380016650e-01
-9.317824978842411676e-01 -2.165994318625446002e-01 -1.081056092138740904e-01 -4.184998484936922614e-01 -8.509712515784291220e-01 -3.173417807314355965e-01
-2.211250548021123363e-01 -2.146884158231082695e-01 -9.146763207378420801e-02 5.383263801883897415e-01 -3.714307169566122835e-01 -7.564680633670944898e-01
-9.574395775256752117e-01 -2.041274201177208369e-01 -1.103464081999637886e-01 -5.154621059813809802e-01 -7.906379380697685644e-01 -3.304398102257419256e-01
-5.024679002467182798e-01 -2.092016324353524470e-01 -1.042013280586738810e-01 -7.826403380510615904e-01 -5.984328391727915530e-01 1.713249493066084927e-01
-8.948718915244628924e-01 -2.118171475026107420e-01 -1.042650081927572608e-01 9.097282472155288069e-01 -3.813912563121649724e-01 -1.641195473634694812e-01
2.496225200490082841e-01 -2.036146010602426226e-01 -1.072390088571821554e-01 -1.342098606607128666e-02 -8.306725421283822630e-01 -5.565995013355522492e-01
-5.182983741145198442e-01 -1.907010650400545737e-01 -1.111683039664723149e-01 -7.268493543937794010e-01 -6.805759355849871906e-01 9.223021153594729293e-02
5.987240548593537603e-01 -1.886677863984769776e-01 -1.111344934269536122e-01 3.718909218919052018e-01 -7.713835394067050100e-01 -5.163957565150717466e-01
-9.615551372907542582e-01 -1.772034533390759448e-01 -1.126069262891360723e-01 -9.989368024570300930e-01 -3.162256872076421588e-02 3.354516126694016831e-02
6.383757305546321481e-01 -1.700801270718252101e-01 -9.712820232309198054e-02 5.318459450287091883e-01 -8.451316152755006250e-01 5.378144306675160247e-02
-6.299510053303744028e-01 -1.609565212369719611e-01 -1.081209892388491495e-01 -8.986617363393623048e-01 -4.123052461936586588e-01 -1.497046011340634475e-01
-5.786141544166019113e-01 -1.360421132657392562e-01 -1.094804669133743746e-01 5.929243703237377927e-01 -7.929689660836185539e-01 -1.401460306411706491e-01
1.152245931757338721e-01 -1.228187578340380615e-01 -1.123586467350346785e-01 -2.847737252443981459e-01 -8.693214211213304843e-01 -4.039606319804178169e-01
-7.677878063174348178e-01 -1.063248921916306877e-01 -1.102708102320026362e-01 1.294032609733381245e-01 -8.124852956543667792e-01 -5.684385986145752412e-01
-7.581492369665167042e-01 -9.784021310862427157e-02 -1.060595237794297874e-01 8.664565608953311848e-02 -8.296400674359235561e-01 -5.515341229568037074e-01
-7.355861604719142743e-01 -1.090103836275521376e-01 -1.019418341230380887e-01 -1.882457314035547447e-02 -8.183592168956039803e-01 -5.743986660570317149e-01
6.467733879115253326e-02 -1.116961446831541555e-01 -9.822639033543026366e-02 -2.631898193577957845e-01 -7.032606980942049946e-01 -6.604207064458701426e-01
-7.150748632213339562e-01 -1.026203927934709187e-01 -1.060281681248594066e-01 -3.693866624336725191e-02 -7.929967626528103830e-01 -6.081049821850856851e-01
-9.648037670051932135e-01 -9.210183099017006658e-02 -1.116090149065603471e-01 -9.993054317931098218e-01 2.860856300169815555e-02 2.387894704052319697e-02
-1.478464210592163493e-02 -9.502035686085429089e-02 -1.145952158209205263e-01 -1.513721199965255559e-01 -5.016532001101622340e-01 -8.517221073255003549e-01
-3.213702204868081752e-02 -7.764395970421753002e-02 -1.115469040169472931e-01 -1.606460424321812241e-01 -4.609824781443412900e-01 -8.727473883631963192e-01
-1.201213086458664397e-01 -6.187676862984724940e-02 -9.499945350804755995e-02 1.536161668672706426e-01 -5.032907987838489694e-01 -8.503531296682115270e-01
-9.242067853178947967e-02 -6.431544390436855219e-02 -1.105290254177409698e-01 -1.161593318820038218e-01 -5.003906042676725674e-01 -8.579721748269929504e-01
-9.628660153849427639e-01 -3.335440707884224781e-02 -1.093841888934730944e-01 -9.985297410187785605e-01 5.250012755276573656e-02 1.349418052029471328e-02
-9.595124921758600989e-01 -1.195663763964015247e-02 -1.100905223468839067e-01 -9.985852271491889587e-01 3.282924580815277382e-02 4.183042838736840408e-02
7.299894548453875753e-01 -1.472081057958895926e-02 -9.654313954297905065e-02 9.773756416294392402e-01 -3.307089938273943125e-02 -2.089094798314777846e-01
-1.054000668267228574e-01 4.114729839552749499e-03 -1.101111653905056387e-01 -1.817265911551279158e-04 1.669688685575127507e-01 -9.859621513567700113e-01
-7.794984062333841501e-02 2.935250872491742408e-03 -1.050574161248606087e-01 -1.651360582256208576e-01 1.923840004038386009e-01 -9.673254254191399060e-01
-7.334370944613764765e-02 2.259621533329450246e-02 -9.956448572099507732e-02 -1.747468778383091115e-01 2.139643694770284044e-01 -9.610841676357282370e-01
-9.983022744431455098e-02 4.439118391393955150e-03 -1.056724701792273041e-01 1.385316262443469781e-01 6.927313422314437807e-02 -9.879322959621266165e-01
-4.424930767039069596e-02 3.218781011472461595e-02 -1.003383011487525844e-01 -1.999279800903368542e-01 2.840084435284598863e-01 -9.377462379458204600e-01
7.302053322495831722e-01 2.322243279193244095e-02 -1.016755069879240608e-01 9.997109425374710590e-01 -1.161399159246602475e-02 2.105104677044608574e-02
-1.217840402336461819e-01 2.362962281531087727e-02 -1.059780818576562950e-01 1.806906054102712655e-01 4.115753036818924765e-02 -9.826784635934895373e-01
-3.177943600302633731e-02 3.656561054251540599e-02 -1.069177694904906717e-01 -2.785053131066389520e-01 4.553356542370513016e-01 -8.456383580183016724e-01
-1.224586293567582890e-01 5.097501748932357218e-02 -1.044695971416166463e-01 2.070122751102811132e-01 1.675829428607375146e-02 -9.781948055097648975e-01
-9.585922972073989135e-01 3.714464141874489894e-02 -1.107871867477555894e-01 -9.989171558620437708e-01 -1.117265229332176958e-02 4.516290031893235857e-02
9.659760027711484457e-04 4.146696390213244071e-02 -1.114735498384780005e-01 -1.580759286857031654e-01 4.108593864649053851e-01 -8.978900630499450086e-01
-1.296158137773588959e-01 5.822374613391018833e-02 -1.058041019255132054e-01 2.395635924961265484e-01 3.036438608220535795e-01 -9.221766050683714022e-01
7.254348098059753003e-01 6.833041020514760144e-02 -1.020365790201243211e-01 9.926418273475698939e-01 3.368828767463778046e-02 1.163069296027893773e-01
1.907625118279165921e-02 8.101140815266588691e-02 -9.731322008936396650e-02 -8.998902440981170203e-01 7.819266738753280488e-02 -4.290494788994086428e-01
-1.720691612855981822e-01 1.000300616143320748e-01 -1.078241508627001272e-01 6.876780343674641083e-01 2.832913906077317856e-01 -6.684645907271666854e-01
-9.670562607214086004e-01 1.059000036250412752e-01 -1.140617620161223367e-01 -9.997852824449963149e-01 -1.461880018352859200e-03 2.067007288789847810e-02
-1.739265771516011749e-01 1.251353889242345085e-01 -1.012355323403211493e-01 5.460614956238375450e-01 3.820479307715076711e-01 -7.455576581259607538e-01
-9.775996479663936478e-01 1.425127366518928740e-01 -1.037032503608397299e-01 -9.996206418882984668e-01 -2.251067196035007670e-02 1.586952925324629574e-02
-7.111380697045920352e-01 1.418900721990152547e-01 -1.074428249241988903e-01 -5.886906605714424534e-02 7.915795262411022826e-01 -6.082238787629696830e-01
-7.976351092907707496e-01 1.487739831305511795e-01 -9.973962240393191570e-02 3.704094788596493104e-01 7.984659519989973919e-01 -4.746039838320554316e-01
-2.291557271607976842e-01 1.845855223810978218e-01 -1.092924873296076127e-01 5.327685845143810273e-01 4.897810307991011802e-01 -6.901247548261927323e-01
-5.625977761439794333e-01 1.816120438429180417e-01 -1.019285715470041043e-01 -8.003428343895867547e-01 5.929718558349226232e-01 -8.851963414367609861e-02
-8.580486641349912569e-01 2.055913299052153365e-01 -1.075787586151835673e-01 7.711042040294988631e-01 5.679885779713378380e-01 -2.877277911883559525e-01
6.842347513224700251e-02 2.016880644736724904e-01 -1.131364425874175211e-01 -7.590712615283436993e-01 6.500745881720044750e-01 -3.484034636405990842e-02
-2.411062602651300735e-01 1.948272698371713296e-01 -1.064559584715223939e-01 5.705163897263808570e-01 4.366941859855344998e-01 -6.955639704441337612e-01
-5.468853092782721692e-01 2.054574001370268466e-01 -1.078785406920730883e-01 -9.189227574951374100e-01 3.676004193040410817e-01 1.430066344091278918e-01
-2.500575900830150911e-01 2.260798884787270369e-01 -1.120705529838404435e-01 5.517662750404912497e-01 4.829830487816860196e-01 -6.799127534599482825e-01
-9.621169803840351475e-01 2.454662733433176369e-01 -1.061755716908812514e-01 -6.831328985448061886e-01 7.270951150877907887e-01 -6.827983993276348640e-02
2.237579962796019950e-01 2.666587030545389259e-01 -1.035107298468977005e-01 -6.761942163133673189e-02 9.977054287484701245e-01 3.389876705000639031e-03
3.280645738025442237e-01 2.721455553275152761e-01 -1.083825162616048471e-01 -1.714462500408346080e-01 9.837266900829794158e-01 -5.373995315704627185e-02
3.800307294504383093e-01 2.864746301455184940e-01 -1.114519979465733029e-01 -1.031239193671724258e-01 9.927425202699345919e-01 -6.186877809082123869e-02
4.110091098079532990e-01 2.885329217957529613e-01 -1.129910839033836101e-01 -4.261074831287584019e-02 9.983037603808394556e-01 -3.967273796566271604e-02
5.167336575050198721e-01 2.925267435069840438e-01 -1.065412998072751694e-01 -4.263442834599483477e-01 8.888072109650670960e-01 -1.680841863398280511e-01
-3.361537934360983582e-01 2.929042512337663995e-01 -1.006218737712206573e-01 3.389400955931547443e-01 7.666742576592406877e-01 -5.452799228304259227e-01
-3.606094411361061014e-01 2.991398846554444990e-01 -1.013778906369904448e-01 3.022797768555324227e-01 7.659064514102410515e-01 -5.674629892709670553e-01
-3.939341729326608643e-01 3.047735763769757189e-01 -1.041123972272418180e-01 1.810192440339132847e-01 8.354339579428103901e-01 -5.189240167937895221e-01
5.927858718600932386e-01 3.001964102042490867e-01 -1.058497925002666318e-01 -2.396820743035016077e-01 9.296434438050440452e-01 -2.798491926875409930e-01
-3.459831692791534574e-01 -4.088279630888008720e-01 -9.601674224766439114e-02 2.344060748150292306e-01 -6.854251297606737126e-01 -6.893810148113844738e-01
-2.350678593374134762e-01 -3.401904798708789701e-01 -9.548903630759217331e-02 4.039687969318919714e-01 -2.941251364439813609e-01 -8.661983694380919196e-01
-2.312663035705656844e-01 -3.344227533729230983e-01 -9.980912907829517233e-02 4.049099102072874490e-01 -1.774568418657826996e-01 -8.969710329163084195e-01
-4.490078136842439172e-01 -3.263030613739469343e-01 -9.876529347085616362e-02 -9.245244643121480754e-01 3.426491813155834593e-02 3.795792806170708578e-01
-2.101982663228782466e-01 -3.127517532171586456e-01 -1.050726681793074102e-01 4.348291696858125333e-01 -1.477853151609968829e-01 -8.883034919514342098e-01
3.771244701959110546e-01 -3.255282632489528982e-01 -9.989899235708500635e-02 2.136767738130282146e-01 -9.649228675039880354e-01 -1.525322788813475994e-01
4.511374940278352619e-01 -3.163654122313230843e-01 -1.029674033294153829e-01 4.154493547690536470e-01 -9.064017690154320128e-01 -7.640462517199013426e-02
-4.521745230285394990e-01 -3.094288463096258046e-01 -9.927169942805935676e-02 -9.690003748918990523e-01 -6.401984760189395607e-02 2.386204781077879422e-01
3.646268349136320142e-01 -3.143528412912724446e-01 -1.000877365695771182e-01 -4.583188263495669990e-01 -8.884895649163220277e-01 -2.302490930189243085e-02
-2.356949324943002633e-01 -2.638170179547839056e-01 -9.421737245810157813e-02 4.870648029450710403e-01 -4.653034987252634841e-02 -8.721254521413872585e-01
4.990787357082604458e-01 -2.580186659238427049e-01 -1.072142263054341044e-01 1.014165411406889594e-01 -9.910734751429740585e-01 8.653353136841079873e-02
-4.741853664572067140e-01 -2.476813974464900647e-01 -1.026572079143480698e-01 -8.518255328466364240e-01 -4.401916943007654903e-01 2.839445964605865624e-01
2.887824886451481610e-01 -2.428170894466761820e-01 -9.861647964619918438e-02 -7.749524927512002614e-01 -4.735195019634549363e-01 -4.186023354437746202e-01
5.322447318424802232e-01 -2.295002644366221922e-01 -8.668000994873240050e-02 5.245836495141970035e-01 -8.222116667970813531e-01 -2.208618791125608050e-01
-9.068517677616102501e-01 -2.165706572857951373e-01 -1.137919301714053755e-01 4.224048346851261293e-01 -8.380250057002174291e-01 -3.453813044387052389e-01
5.644371745077355618e-01 -2.224217595427675220e-01 -1.107283678175365882e-01 8.023033733968024661e-01 -5.641425509379152103e-01 -1.950704469092459648e-01
5.676155896393696443e-01 -2.122500289875773327e-01 -1.070976145617188180e-01 9.096136341685318039e-01 -2.663669370268970660e-01 -3.188286238618254220e-01
-5.036330975323124459e-01 -2.086904494787951425e-01 -1.151479574075872370e-01 -7.294393386258282153e-01 -6.766020471235716371e-01 1.006375729700723226e-01
-8.847789871811023721e-01 -2.002288063117046435e-01 -9.351728337369995259e-02 5.845765561460741777e-01 -7.212338551536308096e-01 -3.716072875827751143e-01
5.822409490390970666e-01 -1.951580508887345855e-01 -1.091558925669120772e-01 4.197438722572660597e-01 -8.660456721596757612e-01 -2.716246959243049375e-01
-8.649486451529254660e-01 -1.751139080095645006e-01 -1.035553682325642544e-01 8.093578692379843620e-01 -5.443695589410858515e-01 -2.204577574068040946e-01
-9.598567399179174231e-01 -1.631635969359904736e-01 -1.018740243297776432e-01 -9.996302327261870069e-01 2.364988348674716429e-03 2.708882887648913357e-02
-6.028593345528836522e-01 -1.731964304865544757e-01 -1.019860410545602863e-01 5.746576356360818538e-01 -7.718944993201967142e-01 -2.719328662085016557e-01
1.912903761798493418e-01 -1.673009729977549820e-01 -1.109872970319929070e-01 -5.973594366333994099e-01 -7.137873692926358649e-01 -3.656081165720009851e-01
6.507083332954833876e-01 -1.637068928387958033e-01 -1.030008908585613170e-01 4.340721226916877118e-01 -8.590054026131864751e-01 2.714610664225898251e-01
-8.543418044937087785e-01 -1.491643800033118916e-01 -9.977635237931833934e-02 6.595617936409388093e-01 -6.856612377161850347e-01 -3.079722511244425975e-01
-5.836517879148102050e-01 -1.568284256429759160e-01 -1.031917644242281856e-01 8.362074542157147405e-01 -5.326583095204114882e-01 -1.305075431265606822e-01
-1.726463028484731543e-01 -1.444763305105694340e-01 -1.055189922392273938e-01 6.577535943784711403e-01 -2.903938872474111643e-01 -6.950047477043159727e-01
-9.615356851429409657e-01 -1.351846618959665347e-01 -1.019229636068222644e-01 -9.994501564700831731e-01 -5.521561515750954014e-04 3.315237330132431159e-02
-6.710711324763801722e-01 -1.302545070614402056e-01 -9.693431144280467704e-02 -9.103583130833349246e-01 -3.641437040080856558e-01 -1.965886686239479986e-01
6.900321165403088264e-01 -1.220489083955912518e-01 -1.006085003258253008e-01 7.714331506179603615e-01 -3.924804878249271156e-01 -5.008492395964623256e-01
-7.965655707830698873e-01 -1.198549893756715445e-01 -9.424419115061039021e-02 3.507456572559486396e-01 -8.046196622047124825e-01 -4.791290881481387043e-01
8.720271562620228456e-02 -1.256999871605012364e-01 -1.048135412315609749e-01 -2.676344052313502919e-01 -8.502736701728498270e-01 -4.532179508219563169e-01
-6.955808531493596902e-01 -1.172476005699373131e-01 -1.043570868147226521e-01 -8.034483939101148831e-02 -8.075350445063416149e-01 -5.843217082030869314e-01
-1.457955651986441448e-01 -9.759483962026020698e-02 -1.010994648746177810e-01 6.814769682481239821e-01 -2.538423310282921785e-01 -6.864060115743948476e-01
-5.393743085815579791e-03 -9.615299072849189943e-02 -1.002809343192943431e-01 -1.688900878360237168e-01 -6.253160552919243553e-01 -7.618766102361241854e-01
-2.525462085813969665e-02 -1.072101630215263057e-01 -9.580336060036641344e-02 -1.523294274601458831e-01 -6.035417950533511489e-01 -7.826449048920224305e-01
7.123599836034549826e-01 -8.509540238730034512e-02 -9.771548284309385102e-02 8.275298643977322399e-01 -5.558075458211089170e-01 7.919782533748535858e-02
-1.259720024076191602e-01 -7.612200332517625456e-02 -1.010336417469519243e-01 4.403485241162232167e-01 -4.014694496758771103e-01 -8.030662851132605029e-01
-1.096570423177130743e-01 -6.361884509533294318e-02 -9.686525997838328628e-02 -3.400122069633141481e-03 -5.347956361007517589e-01 -8.449745953444423030e-01
7.268840466333238437e-01 -4.725320201438298201e-02 -1.017024644471301170e-01 9.125933226307038071e-01 -1.340186960570642905e-01 -3.862802306577650113e-01
7.252072050209600329e-01 -3.568081640391124187e-02 -8.510520063160596782e-02 8.677451832329453607e-01 -8.577898920946816497e-02 -4.895510821009632640e-01
-9.528928333245695326e-01 3.200450100722526323e-03 -1.086778167889263097e-01 -9.993698776857905530e-01 2.995553261267294362e-02 1.903979096994105891e-02
-6.200191445634518211e-02 2.988967233466935033e-02 -1.001706160131791007e-01 -7.338395784112261566e-02 2.333242695907878639e-01 -9.696260000389314015e-01
-1.093574428870177639e-01 3.096205466093052833e-02 -1.114767912578883274e-01 1.696140349354453014e-01 2.905125175737680379e-02 -9.850822828191800884e-01
-8.493262618660982199e-02 1.750717870747215549e-02 -1.013069565923953030e-01 -2.614496760801338776e-02 2.311503735820549521e-01 -9.725666791853669890e-01
-4.997025516209015888e-02 5.340195999103016650e-02 -1.034322187413022620e-01 -7.579136800528098183e-02 3.859841048612995817e-01 -9.193867191396172256e-01
-9.707261868854101527e-02 4.104197527830618503e-02 -1.100905214494790618e-01 2.109236504554191094e-01 1.019484960214139951e-01 -9.721716503979797031e-01
-2.709799359963331947e-02 5.053568370180692992e-02 -8.880915557791774217e-02 -3.254862301862637142e-01 4.460994539568872708e-01 -8.336989811307805587e-01
-1.463428178156598453e-02 5.229145161998156183e-02 -1.050909122565304582e-01 -2.074964815356105940e-01 4.451261497972347492e-01 -8.710958161517203813e-01
-1.080238286508063694e-01 6.280612785785048835e-02 -1.015027819107154061e-01 1.459303307983710052e-01 2.973672320378920042e-01 -9.435449474525315905e-01
-1.314060395990215013e-01 7.691685631750931618e-02 -1.024956325262146722e-01 3.917777979981962866e-01 5.594131573510575661e-01 -7.304567587326475930e-01
-1.520758794127815838e-01 9.206244620818139490e-02 -1.034717221997620840e-01 5.916854099041043424e-01 3.825932182428495310e-01 -7.095990452792277914e-01
-9.549837340754241399e-01 9.579742076641895032e-02 -1.011642749221407372e-01 -9.993847112084254247e-01 1.117215417267014956e-03 3.505639503091238091e-02
1.931773231556818335e-02 9.077746147690467227e-02 -1.026404193189699998e-01 -9.871881472902946930e-01 1.440516089760166263e-01 -6.861993734313839854e-02
-9.651406134386276703e-01 1.114788130027373342e-01 -1.006235384467723398e-01 -9.883109999073680374e-01 -2.719195816116739065e-02 1.500065494352150197e-01
7.128362594937738272e-01 1.395956948154585542e-01 -8.417170355676710514e-02 9.161103247016766371e-01 3.931510449057810108e-01 -7.857562512943348787e-02
-7.435558424019307333e-01 1.515667321081522467e-01 -1.057129252209135922e-01 5.014774369216215555e-02 8.473801250723699274e-01 -5.286134007333905815e-01
-7.789000521437409175e-01 1.582338988910342581e-01 -9.972073850875948220e-02 1.543720171878415204e-01 8.566173954263398560e-01 -4.923168879516022778e-01
-7.728146259543051677e-01 1.454416646923823164e-01 -1.152257853268689319e-01 1.065375389291779024e-01 8.587986470657802407e-01 -5.011133969441440295e-01
-8.135136399077267377e-01 1.663488412109475900e-01 -9.776796244356662779e-02 5.031178374925686647e-01 7.505184988834451287e-01 -4.284791995307841161e-01
-8.350420468302934829e-01 1.702781328869869548e-01 -1.076802256237623656e-01 6.084741815086386341e-01 6.845962277442059207e-01 -4.013566685577749649e-01
-2.069185409392754194e-01 1.775499613196946380e-01 -9.886493951498975807e-02 5.125852678222758696e-01 5.011003234176185650e-01 -6.972480255133920446e-01
6.867811943189389146e-01 1.939270211890861684e-01 -9.924021216451826832e-02 7.880276970152739757e-01 5.494118085872565782e-01 -2.777751128551355086e-01
-6.295348822381880982e-01 1.869811289598774240e-01 -1.056854819730626283e-01 -7.975801141048644016e-01 5.487433915498829418e-01 -2.504928178906602465e-01
-2.400523886123842043e-01 2.297574625607420318e-01 -9.955923490446202950e-02 5.725121456299089306e-01 4.828653850351442012e-01 -6.626242246108271505e-01
-9.556214450284691297e-01 2.276296767716982639e-01 -1.030627982750890043e-01 -9.982926676638645969e-01 -4.185052841055234008e-02 4.074656992094140284e-02
6.772048439446488599e-01 2.357214408368411007e-01 -9.028280041792569044e-02 8.015801592070119774e-01 5.978462130005329778e-01 7.010988987476647442e-03
-8.914635652037865565e-01 2.329078161351542664e-01 -1.075084040574763311e-01 8.899998453336300797e-01 4.238167675676227653e-01 -1.681654626689021437e-01
-5.448843684799637987e-01 2.418065492764726598e-01 -1.054533685068540366e-01 -9.260065698111170640e-01 3.335237355122886438e-01 1.768438591429676021e-01
-2.552367663941574327e-01 2.311538922427278930e-01 -1.048798224667797513e-01 5.453321889417599433e-01 5.142196972978110292e-01 -6.619598980413665679e-01
1.082554871607498553e-01 2.412706305063937462e-01 -1.031878155214031173e-01 -4.831473772212317441e-01 8.736058741878203193e-01 5.814970738343485518e-02
6.772411966076176126e-01 2.409156329660854801e-01 -9.682554779223787045e-02 9.125739227274056731e-01 4.029603864188471829e-01 -6.951088069567575023e-02
-2.729079708398007842e-01 2.537687522733706458e-01 -8.779854055629641996e-02 5.085627465846856987e-01 5.721371107220895036e-01 -6.434462365425881458e-01
-9.176114489469883173e-01 2.577580408611755969e-01 -1.017166379328994230e-01 7.857070308888663979e-02 9.465605034709154708e-01 -3.128096192334967607e-01
2.861602069408090698e-01 2.692984127446144682e-01 -1.040217118535286672e-01 1.375690880686377682e-01 9.206271803255331454e-01 -3.654043525381456825e-01
-3.096736790096170644e-01 2.541470104717810652e-01 -1.042037148515843475e-01 4.174874677041459647e-01 6.820244433749051982e-01 -6.004555545160112917e-01
3.593656114409766733e-01 2.792467576977933907e-01 -1.032190111986494435e-01 -1.443983245225038403e-01 9.894062523460943614e-01 -1.497970939472115758e-02
6.377118332252362798e-01 2.728382724973043016e-01 -9.871456124704858226e-02 7.218425373271152301e-01 6.910151627395892948e-01 3.796572360868288171e-02
4.883582789308319461e-01 2.837645897499960768e-01 -9.282952761437317235e-02 1.450164298797917105e-02 9.919691277928729400e-01 -1.256461374515588925e-01
6.281733009940373424e-01 2.854904030159917117e-01 -1.097100137547538379e-01 3.931762082881398723e-01 8.982549194663335124e-01 1.963429878826642716e-01
5.208093126768520431e-01 2.939770080893562287e-01 -9.623087781925032669e-02 -6.784108855067091381e-01 6.848390804558187606e-01 -2.659964366423568927e-01
-3.695699539971759595e-01 3.027724729218713162e-01 -1.025850444350105278e-01 2.093838452004558037e-01 8.400221019142979362e-01 -5.005210022212417398e-01
-4.091010655838068777e-01 3.116222018997455989e-01 -8.994691913266072980e-02 1.712452955552828948e-01 8.789826161172979990e-01 -4.450445026216752198e-01
5.354187416901292629e-01 3.037111586261746488e-01 -1.012093343236297460e-01 -8.709235550878878795e-01 4.340811537683454402e-01 -2.303599642650970558e-01
-4.808624110702036103e-01 3.187521948582133224e-01 -1.003073043280740678e-01 -5.399285467065782773e-02 9.370815613062021265e-01 -3.449100159526302667e-01
-4.372450582227013771e-01 -4.258463395221552816e-01 -1.047814773420328582e-01 -1.680079914912349370e-01 -7.693380270622884876e-01 -6.163540499672136574e-01
-3.705002365787776197e-01 -4.153886163535808196e-01 -9.056842292442886244e-02 2.373518490003681813e-01 -7.597063237170426087e-01 -6.054010253381163498e-01
-4.485696726802903544e-01 -4.002969562937635506e-01 -1.027097701904143429e-01 -9.741414241107487770e-01 -7.884852639076045389e-02 2.117342573073325573e-01
-2.381780774740900053e-01 -3.575593248960991510e-01 -9.220873935524200038e-02 3.554161139881060194e-01 -4.546421345714892204e-01 -8.166883832832895207e-01
-2.163023237450928948e-01 -2.925363388942933129e-01 -1.022800893207342771e-01 4.830335317975867349e-01 7.235822345649807474e-02 -8.726069531337515839e-01
-4.514689298939935647e-01 -2.883557185709082482e-01 -1.001465718721942788e-01 -9.171726226767155099e-01 -2.637908500258421274e-01 2.986783682407527785e-01
4.942916619000187195e-01 -2.755505811489995516e-01 -1.019403792343935022e-01 6.965254546168304639e-01 -5.700500329862665527e-01 -4.357697224029842831e-01
2.828616439207858879e-01 -2.507073208195348402e-01 -1.052641691617736686e-01 -7.988067489145144195e-01 -5.098257752181956093e-01 -3.193516193974750284e-01
-4.723498608483650552e-01 -2.323778791294937862e-01 -1.006177548267158522e-01 -8.215615048325416447e-01 -5.031570496042375717e-01 2.680852051323389107e-01
5.533381658173974760e-01 -2.263573122092826240e-01 -9.287026611384378849e-02 -2.287268545127821850e-01 -9.734031171088332046e-01 1.305364422281288586e-02
-4.886880589297135646e-01 -2.238755774308807123e-01 -9.443641879086303592e-02 -7.750511679970583101e-01 -5.798883801048728692e-01 2.510481101417454952e-01
2.367437441134750131e-01 -2.194515498198175707e-01 -8.708580627888441728e-02 -2.783349745626625404e-01 -7.191892539018222008e-01 -6.366289806530507356e-01
-4.970222330100823593e-01 -2.128620328808558115e-01 -9.099830343372375396e-02 -7.456787205548779385e-01 -6.391965997969893953e-01 1.881248322779519866e-01
-1.951126737781101184e-01 -1.995921633671655093e-01 -1.002114221988478493e-01 5.646559142246916352e-01 -4.248335549015096468e-01 -7.075875558267143983e-01
6.000246582239195936e-01 -1.914473248329432442e-01 -9.524908149187336082e-02 2.849826707942924586e-01 -9.276555679313616132e-01 -2.413297010997504100e-01
-8.744671265027808005e-01 -1.920757361982473599e-01 -9.808718461547440148e-02 8.091348203153414520e-01 -5.439384965114602011e-01 -2.223325315065532437e-01
-1.913215704941033934e-01 -1.823492290124378856e-01 -9.886803374178965154e-02 5.331290872817990856e-01 -4.168889874094499626e-01 -7.361908369918761519e-01
-6.212148444196926578e-01 -1.827327419024605271e-01 -1.031796146468888786e-01 -3.313542613646709711e-02 -9.328658574747685783e-01 -3.586967179841760167e-01
-5.408742859874867692e-01 -1.618382151891209486e-01 -9.057765304972111020e-02 -5.539947583492427219e-01 -8.318618160097023262e-01 -3.310176410109091222e-02
1.831084124633312327e-01 -1.667810456922358131e-01 -1.000603291725032373e-01 -7.620889016878076294e-01 -6.230947407260033488e-01 -1.759927555437042490e-01
-1.682125622939345810e-01 -1.645806868782214161e-01 -9.329103375458308589e-02 5.999391436856466031e-01 -3.535069131474000703e-01 -7.177087753613784482e-01
6.542432524062870014e-01 -1.494894615716158282e-01 -9.549345241275600249e-02 5.331828407425318606e-01 -8.113764749279016586e-01 2.395501498043699495e-01
-5.695774297081948045e-01 -1.488561944843173335e-01 -9.872321435541769885e-02 -3.551013315002654602e-01 -9.128883821180663327e-01 -2.013401255602017270e-01
-6.691698552639724351e-01 -1.457831442361341712e-01 -1.021498958069124580e-01 -5.926163732092083469e-01 -7.127422279850215148e-01 -3.752390580034438705e-01
1.327073209581322577e-01 -1.373101187581006466e-01 -9.996200327274226693e-02 -2.801186838483368247e-01 -9.226796454381058776e-01 -2.649448902192433342e-01
-8.251628968999423774e-01 -1.348018541405661408e-01 -9.395649624032614833e-02 4.775577504170434584e-01 -7.505733606242861455e-01 -4.567036515485489168e-01
-1.451025462170076885e-01 -1.267871951044776124e-01 -1.041920328437001553e-01 6.944252578584134694e-01 -2.591366864355458821e-01 -6.712836501744114948e-01
7.297704018001213710e-02 -1.172752607926395435e-01 -9.712250029501909299e-02 -2.453098634094793284e-01 -8.227310731364080310e-01 -5.127734901589952043e-01
-9.653687415928442483e-01 -1.180229224733996968e-01 -8.823373106811951971e-02 -9.994816281239912170e-01 2.884572068406410575e-02 1.429683324490511886e-02
-7.399522685169448444e-01 -1.201357339789622947e-01 -9.292299131508878485e-02 7.540395744140868106e-02 -8.758823040460698151e-01 -4.765967191044461204e-01
-7.201267137140959784e-01 -1.163921118477464767e-01 -9.383912913933413480e-02 -2.485808256402959743e-02 -8.743211747813165458e-01 -4.847107994054375979e-01
1.074500725375142005e-02 -1.055087730956045938e-01 -8.820324140553889580e-02 -1.516088287139000790e-01 -7.233036697358732336e-01 -6.736813522746626370e-01
7.021433867657911332e-01 -9.356684303632978317e-02 -9.909326932872029869e-02 8.052300278100024133e-01 -5.928226440355174320e-01 1.288080090060409084e-02
-1.419191331369938913e-01 -9.957427739627688901e-02 -8.981794036751813981e-02 5.913210520374514445e-01 -3.437908003598351692e-01 -7.294842691965780501e-01
-5.575619904294303736e-02 -9.277481876303489416e-02 -1.018142664842023454e-01 -2.528822203706596050e-01 -6.210101926329587574e-01 -7.418874060572672180e-01
-9.613261620662912899e-01 -6.795206389531747992e-02 -1.069074878756317848e-01 -9.972126518742649992e-01 3.606414416527847777e-02 6.531695375262153158e-02
