-5.149407575623172750e-01 3.371393738098114601e-01 5.386777806595294260e-01 4.410390791390186305e-01 3.947260062803777392e-01 8.060247580801409573e-01
-4.896047481010821212e-01 2.809698393815127648e-01 5.514944696457703133e-01 4.604636454611530927e-01 4.022849746865325704e-01 7.912901050500261713e-01
-4.746929537601117799e-01 2.789566770104405791e-01 5.310354683381190988e-01 6.475873191608931823e-01 3.698870099768777897e-01 6.661938636105654288e-01
5.029804083149749250e-01 3.091579088155395061e-01 5.460084686255876063e-01 -4.232746485788786983e-01 3.958535270462668620e-01 8.149469657563351843e-01
5.122399070745924377e-01 2.939485127226844074e-01 5.517828927790059401e-01 -4.314753400261318594e-01 4.089714529756182104e-01 8.040966245423155634e-01
5.604921988608001504e-01 3.007751178853577678e-01 5.564368142904050352e-01 -1.097752879583817620e-01 4.475448816046364020e-01 8.874981493519558118e-01
5.881459382061619001e-01 2.811476694223888906e-01 5.554413138612032119e-01 2.819632280241047284e-01 4.322529922353394172e-01 8.565360989157563276e-01
5.873913916118342904e-01 2.826979203099200255e-01 5.687124679629095292e-01 2.769292708239899370e-01 4.236636230105138012e-01 8.624496005555910561e-01
6.198011805154604037e-01 3.015415307550833868e-01 5.374739894265202489e-01 5.446683140687967883e-01 3.919583625488626266e-01 7.414209800629254499e-01
-5.558863449807035506e-01 3.301371931062241916e-01 5.424685827641987368e-01 -4.727258552527390661e-02 5.280061607289463499e-01 8.479238154987945864e-01
-5.458847704964411296e-01 3.134226531169089780e-01 5.463948926305471909e-01 7.121571442750111725e-02 4.336271208346024753e-01 8.982738124287458215e-01
5.153729408637149900e-01 3.374628231969828418e-01 5.293478882894975257e-01 -1.996264493914942095e-01 5.120361006249317670e-01 8.354449786551834123e-01
5.336533484610691547e-01 3.210950053520096326e-01 5.549889619524523976e-01 -1.106277127576071745e-01 4.442608291843844204e-01 8.890409578992541917e-01
5.684084476277929676e-01 3.224034369693672408e-01 5.449520828389050608e-01 1.140106952372559601e-01 5.179650697804860648e-01 8.477698672746123432e-01
-5.606148406513462579e-01 -2.231060904564239056e-01 5.868282086116991536e-01 -1.068128815242222474e-01 -3.609988815933118378e-01 9.264290668091489378e-01
-5.250411368030555304e-01 -2.379724492835691152e-01 5.806286176518885567e-01 1.948617453588820936e-01 -3.736032370934482261e-01 9.068900271967857973e-01
5.344949637790636920e-01 -2.359668603561669575e-01 5.795403125899111219e-01 -2.607296096712255484e-01 -3.473511616849346284e-01 9.007592581355002848e-01
5.574979298217307422e-01 -2.008396152545052216e-01 5.785469536992817741e-01 -2.184462577073440978e-02 -2.942775125659297664e-01 9.554703333557487133e-01
5.809397882532902901e-01 -2.220575045679801796e-01 5.775917638077670002e-01 2.702577149154616332e-01 -3.083222402368725468e-01 9.120845156584937996e-01
-5.903523837716504463e-01 -1.705705834429356582e-01 5.977323035355691649e-01 -5.200590525060383440e-01 -2.320081952900002464e-01 8.220162889047872845e-01
-5.951455686304137904e-01 -2.021866714846907720e-01 5.925300434749067868e-01 -5.200590525060383440e-01 -2.320081952900002464e-01 8.220162889047872845e-01
-6.305684044973971503e-01 -1.781564569516898566e-01 5.816268207977973725e-01 -5.200590525060383440e-01 -2.320081952900002464e-01 8.220162889047872845e-01
-5.741197376095049654e-01 -2.247042656347613410e-01 5.870397336919233044e-01 -2.428371481660905051e-01 -2.609518659840883159e-01 9.343095007062610646e-01
-5.838261490431564393e-01 -2.012184525080877584e-01 5.946059913494475824e-01 -2.377485913752263036e-01 -3.012887886052796338e-01 9.234179298453429885e-01
-5.756125933236883041e-01 -1.704626122371231400e-01 5.961568874049825162e-01 -1.337968634062399742e-01 -2.192930174683433153e-01 9.664413959637080387e-01
-5.549640734903418249e-01 -1.790642013499729734e-01 6.012675758053255270e-01 1.446524870496542770e-01 -2.922954666074342733e-01 9.453248215249041575e-01
-4.957092112324938959e-01 -1.757974934955463253e-01 6.004603828961184719e-01 4.633965207055462665e-01 -2.168391254713121497e-01 8.592115328967777632e-01
5.198224195355181099e-01 -1.875746381087078085e-01 5.919897257762061216e-01 -3.587354538104485235e-01 -2.898972022908375967e-01 8.872815146746587667e-01
5.240643357119622037e-01 -1.586233604846226941e-01 6.054198321078801959e-01 -8.216409175187389113e-02 -2.387846872124605446e-01 9.675902723670990468e-01
6.103587907537333379e-01 -2.016214734050782165e-01 5.810394919375759804e-01 4.983144560493799058e-01 -2.835977647467220475e-01 8.193015383379146366e-01
5.722200310258837019e-01 -1.856738509622399003e-01 5.930150394179978246e-01 2.576357454437868677e-01 -2.689075325514975190e-01 9.280692655220781351e-01
6.404118311798910890e-01 -1.733347839493773190e-01 5.709427077425417441e-01 5.541825155480685217e-01 -2.015811665993683111e-01 8.076179621165272549e-01
-6.306583410305469650e-01 -1.134157153931252271e-01 5.907455544791050395e-01 -5.393681842551839578e-01 -1.839323084449646650e-01 8.217364953093980739e-01
-6.232551972529973838e-01 -1.455941257793757493e-01 5.869560092313247379e-01 -5.415555117496697601e-01 -1.880196794921368542e-01 8.193694086413204625e-01
-5.928764370253895022e-01 -1.055047867220789692e-01 6.113105698243890274e-01 -2.136363609434875077e-01 -1.600600824237584097e-01 9.637117179412749701e-01
-5.831971184934189312e-01 -1.325198582078209453e-01 6.129140352684723236e-01 -2.136363609434875077e-01 -1.600600824237584097e-01 9.637117179412749701e-01
-5.254775051166147293e-01 -1.547326256274466072e-01 6.019932258419754545e-01 1.874217267083831961e-01 -2.124360908390761082e-01 9.590328480644757514e-01
-5.399182933777024740e-01 -1.366456360320707775e-01 6.114386064069540216e-01 1.713646158020094845e-01 -1.926698401919277603e-01 9.661845067746877014e-01
-4.907337384077332665e-01 -1.603927975220579838e-01 5.929566805977987132e-01 4.674409202841408040e-01 -2.153178648204145951e-01 8.574014247323672455e-01
4.777162067431672265e-01 -1.241845394254546403e-01 5.879050190187198321e-01 -6.718329171371124620e-01 -1.726278626286010809e-01 7.203055966014140221e-01
4.844028769018746128e-01 -1.448630860121572494e-01 5.745133229306511602e-01 -4.566672467258150458e-01 -1.943415393708631811e-01 8.681511342173243717e-01
5.217722869671669317e-01 -1.344387946116548105e-01 5.920220386097142518e-01 -4.553847785918486157e-01 -2.227733311513397929e-01 8.619725902571313547e-01
5.228831821413015835e-01 -1.107520519108116525e-01 6.120191073476292098e-01 -3.640489033183772483e-01 -1.393553529764827437e-01 9.208954781024211167e-01
5.629794943936106133e-01 -1.659226201722276972e-01 6.074548250237034042e-01 -7.457701868784087640e-02 -2.208843071695662241e-01 9.724445439868817376e-01
5.600855058474674131e-01 -1.299187596523341259e-01 5.972111666855169920e-01 -7.457701868784087640e-02 -2.208843071695662241e-01 9.724445439868817376e-01
5.966188592883228115e-01 -1.649329811897041198e-01 6.017577116014816152e-01 2.741268490325042828e-01 -2.332463642687213068e-01 9.329794232430496104e-01
5.883368287543637720e-01 -1.281612882228703731e-01 5.995505832991038231e-01 2.693479275574999776e-01 -2.255069698554021673e-01 9.362682844500899160e-01
6.348911424532481806e-01 -1.616124932928339752e-01 5.772406475947799986e-01 6.036473440413919755e-01 -1.633244088028721619e-01 7.803428871470321493e-01
-6.095919867921423263e-01 -4.802441525576560399e-02 6.152969266625933908e-01 -5.843109193196848183e-01 -1.041854126654704060e-01 8.048143570734249685e-01
-5.995744411273182806e-01 -6.996351360530658758e-02 6.068025625150792468e-01 -5.843109193196848183e-01 -1.041854126654704060e-01 8.048143570734249685e-01
-6.399344517691297751e-01 -6.752284276510937822e-02 5.986012262861066802e-01 -5.814714772413218657e-01 -9.842581616002500644e-02 8.075910350344583932e-01
-6.293641643996912283e-01 -9.926425819398577988e-02 6.011523464178520904e-01 -5.814714772413218657e-01 -9.842581616002500644e-02 8.075910350344583932e-01
-5.857533498812481643e-01 -9.274096296390062222e-02 6.248834861927080597e-01 -2.086368740727015669e-01 -1.452358265445652663e-01 9.671490109931811796e-01
-5.597008936264566969e-01 -1.081313650240087465e-01 6.224802031320648688e-01 -2.086368740727015669e-01 -1.452358265445652663e-01 9.671490109931811796e-01
-5.287738443149085921e-01 -1.097385414737382520e-01 6.134798563264117766e-01 1.813715515556341418e-01 -1.501039844608040019e-01 9.718915341411781261e-01
-5.435685191507314551e-01 -7.471122662964262140e-02 6.176828109647469756e-01 1.555998174441282911e-01 -1.194625369151934846e-01 9.805699358460568948e-01
-4.906830189130705899e-01 -1.188975422075913696e-01 5.906577757422623032e-01 4.993909847750014341e-01 -1.138057436003017675e-01 8.588695460016246841e-01
-4.874404007132607797e-01 -1.066361235603015267e-01 5.967026249795670534e-01 5.201068104177661855e-01 -1.425107092775957929e-01 8.421280208485253382e-01
-5.021295471228596208e-01 -9.225482914561999870e-02 6.119108160289753462e-01 5.201068104177661855e-01 -1.425107092775957929e-01 8.421280208485253382e-01
-4.618954340789847013e-01 -8.475769593649210010e-02 5.720155424073636308e-01 7.078562969897657098e-01 -1.688396340845869648e-01 6.858809231740735646e-01
-4.608051655774501043e-01 -1.186236562715550780e-01 5.828694137340070247e-01 7.078562969897657098e-01 -1.688396340845869648e-01 6.858809231740735646e-01
-3.916548862689213650e-01 -1.064633394898411717e-01 6.255675879880875367e-01 -6.053375068493969113e-01 -7.901491951018849713e-01 9.607680407465585271e-02
-3.891568656534446502e-01 -1.051556060434661322e-01 5.892114680890887524e-01 -6.226811580770572618e-01 -7.800437895548852918e-01 6.164301868556316261e-02
-3.314899913834671308e-01 -1.302181818015001324e-01 6.131403078278983010e-01 -2.302136103130094924e-01 -9.731321929324245890e-01 -3.927939049948729264e-03
-3.268339893211079650e-01 -1.242032313603543547e-01 6.423792722682030165e-01 -2.302136103130094924e-01 -9.731321929324245890e-01 -3.927939049948729264e-03
-3.579224111301196332e-01 -1.232746289720246802e-01 6.043905926756373281e-01 -3.373459558777652245e-01 -9.331832130176945794e-01 1.239628855540589325e-01
-3.435323956066806406e-01 -1.128498057666401655e-01 6.440823136346990330e-01 -3.373459558777652245e-01 -9.331832130176945794e-01 1.239628855540589325e-01
-3.019306473810023927e-01 -1.284043859311230773e-01 6.162921227661829482e-01 7.781590692934947651e-02 -9.943693098554474696e-01 7.193302611710424010e-02
-2.514371604075295030e-01 -1.192309451899695033e-01 6.324863586045463837e-01 4.872968677461183007e-01 -8.731551956405806392e-01 -1.190659525983121629e-02
-2.244651367120385488e-01 -8.542592898056905470e-02 6.112796143753759237e-01 7.848170743245277414e-01 -6.138451487039111587e-01 -8.518387911666078227e-02
-2.068995810029799209e-01 -7.265515156473950631e-02 5.917580829920594532e-01 7.848170743245277414e-01 -6.138451487039111587e-01 -8.518387911666078227e-02
2.251872168672264807e-01 -8.524585850166127576e-02 6.326554947020824882e-01 -6.574462174522064384e-01 -7.373938017704840808e-01 -1.549672619241180826e-01
2.280200408301404358e-01 -1.021406767862762105e-01 6.068507553749314942e-01 -6.451812713068286742e-01 -7.573817578856829602e-01 -1.005683845793359787e-01
2.786888772788708724e-01 -1.277559937772285992e-01 6.242654055519442080e-01 -3.127060593873557948e-01 -9.460708909362274266e-01 -8.464508104765650076e-02
2.451391038568880298e-01 -1.146251307933648100e-01 5.956082956461107303e-01 -3.127060593873557948e-01 -9.460708909362274266e-01 -8.464508104765650076e-02
2.600727265939159483e-01 -1.006056808123065305e-01 6.330259400120751279e-01 -3.342327108201997854e-01 -9.406381637704043230e-01 -5.906216958783937904e-02
3.129494779661570192e-01 -1.326410744499723904e-01 6.251403853468774363e-01 3.702660059935704295e-02 -9.973591939882301416e-01 6.247934870982469607e-02
3.367324507263499966e-01 -1.322919352262223458e-01 6.304530234338910910e-01 3.702660059935704295e-02 -9.973591939882301416e-01 6.247934870982469607e-02
3.445274364980355775e-01 -1.257988258500793988e-01 6.170148829243370381e-01 4.291549238827924717e-01 -8.977038147308468163e-01 9.976929550137332570e-02
4.013950735995154839e-01 -8.902207871296662078e-02 5.890310645829520686e-01 7.367086235347618528e-01 -6.706229938274312907e-01 8.674793461201001088e-02
3.981441422011968712e-01 -9.079225143428468203e-02 6.206165422124736430e-01 7.355128153676128155e-01 -6.725090034308673914e-01 8.217383241902102842e-02
4.676003776048928695e-01 -9.154025283148549408e-02 5.891075717857493510e-01 -7.287710521168067057e-01 -1.516894335575931230e-01 6.677447636212050508e-01
4.729430181191275895e-01 -1.246950822169640982e-01 5.609007280667410722e-01 -7.191122675908081519e-01 -8.520214985565009724e-02 6.896507378814157319e-01
5.061536488914520904e-01 -9.553081106773898823e-02 6.045865548203809281e-01 -3.603644017911694086e-01 -1.921108759131842092e-01 9.128148274855978350e-01
4.942851764711533313e-01 -4.914717714624339262e-02 6.134528268168957243e-01 -4.814573717598629177e-01 -7.212325068276424778e-02 8.734970153864500819e-01
5.447890660796209650e-01 -1.249926029303092684e-01 6.158714399125023720e-01 -3.155901472321481771e-02 -1.599476203078231962e-01 9.866208934274421916e-01
5.354622290239723359e-01 -7.795066964364058548e-02 6.199821061321414417e-01 -7.532498987795512024e-02 -1.057085764350865070e-01 9.915401367407944422e-01
6.404840874162260889e-01 -8.878756594746001207e-02 5.962334312468943187e-01 6.231256662807648228e-01 -1.046456210906962364e-01 7.750894774209590166e-01
6.141589395131630269e-01 -9.520473879113458548e-02 6.037152478793884613e-01 6.016126855600129053e-01 -1.593247812855818624e-01 7.827373701578138609e-01
6.162362319191966309e-01 -1.241739053562757739e-01 5.980566240999474203e-01 6.016126855600129053e-01 -1.593247812855818624e-01 7.827373701578138609e-01
-6.199764864664347730e-01 -3.247375297463944710e-02 6.070374400008561322e-01 -6.096071073392466122e-01 -3.042124991586589791e-02 7.921197650829278070e-01
-6.311011928569613127e-01 -3.099220480261909508e-02 5.879309069708930080e-01 -6.121208604233704387e-01 -3.537922749220445001e-02 7.899723808441706518e-01
-5.807682240625884340e-01 -1.767485237426506817e-02 6.265484980535007686e-01 -2.416748205101342528e-01 -6.692031670519685282e-02 9.680469783762926106e-01
-6.022508433388272797e-01 -2.962078557727589739e-03 6.134462422044434371e-01 -2.743681240945087252e-01 -1.581697216142612453e-02 9.614946468246741151e-01
-5.488767109600235505e-01 -5.643300543929358204e-02 6.273295102953388991e-01 1.235713414421693024e-01 -4.345647981157644418e-02 9.913837087306652807e-01
-4.954129062644720971e-01 -5.667407013356742101e-02 6.224376678627306925e-01 5.306861959511017801e-01 -8.007497718333894676e-02 8.437773162725081821e-01
-4.709070221074058149e-01 -7.049127441458966081e-02 5.942661210709011543e-01 5.306861959511017801e-01 -8.007497718333894676e-02 8.437773162725081821e-01
-4.726489964020667567e-01 -4.566819801999438821e-02 5.851393580437688202e-01 5.306861959511017801e-01 -8.007497718333894676e-02 8.437773162725081821e-01
-4.975791836667176615e-01 -2.825323060254901486e-02 6.250671961693616829e-01 5.028822309995649720e-01 -4.409329061905681996e-02 8.632295427447346237e-01
-4.445002649164189745e-01 -6.494403907149978727e-02 5.685860353598876094e-01 -5.353335162627970156e-02 -4.803790315292465196e-02 9.974099157940669036e-01
-4.446800383630447606e-01 -2.951705664385492756e-02 5.655491180244019978e-01 7.930160739235843081e-01 -1.174209042607854969e-01 5.977774148806591636e-01
-4.155708804572373349e-01 -8.085581719153051017e-02 6.237409634023237670e-01 -8.177933893630017215e-01 -5.590876087286766882e-01 1.365101391114372231e-01
-1.867951729318488852e-01 -5.976630018538585387e-02 6.096980553183540819e-01 9.348385469268354342e-01 -2.872659787129823727e-01 -2.086987030477075733e-01
-1.758597009964876778e-01 -3.168845286386846871e-02 6.289884120462687633e-01 9.005512980087591046e-01 -3.299594519350677047e-01 -2.830797056191930450e-01
1.878767762365511074e-01 -4.226925258161729620e-02 6.175280089943963047e-01 -8.651609172759521238e-01 -4.788281807536525214e-01 -1.490642832283454178e-01
4.492112071841370957e-01 -7.451850670959554723e-03 5.699714188029199047e-01 7.788976977843408145e-01 3.972848029694533989e-02 6.258913837396620217e-01
4.302158598329110517e-01 -2.723965919508945094e-02 6.086328426905311950e-01 9.455007192944177019e-01 -3.171601960391539632e-01 7.374143924649220749e-02
4.201001168533767816e-01 -6.343523005093036626e-02 6.126308559967661438e-01 9.069602511656206234e-01 -3.754030444520225496e-01 1.910383653137432969e-01
4.554411506346657257e-01 -4.292512083075789714e-02 5.936979188958775300e-01 -7.635138658423634705e-01 -1.054088223560144949e-01 6.371307219370039299e-01
5.168252183946556721e-01 -4.993114554852745579e-02 6.209971629625776757e-01 -4.813862094451014095e-01 -7.180266249034952808e-02 8.735626451579610041e-01
5.228594895547541421e-01 -5.376436557069527722e-02 6.260449410302645346e-01 -4.813862094451014095e-01 -7.180266249034952808e-02 8.735626451579610041e-01
4.895499498018390794e-01 -3.696771853292197402e-02 6.056483753526812341e-01 -4.703440533202047358e-01 -9.082639567646112744e-02 8.777966947731935532e-01
5.652854369768792742e-01 -3.454566674316918856e-02 6.273073383090801425e-01 -7.568344728735992843e-02 -1.072874952247933472e-01 9.913432347956440127e-01
5.677337560940607375e-01 -6.845871821799821844e-02 6.416270770936367551e-01 -7.568344728735992843e-02 -1.072874952247933472e-01 9.913432347956440127e-01
6.133770028937901575e-01 -3.911480634646055665e-02 6.134342760427512475e-01 2.791880274124394767e-01 -7.698362984067887160e-02 9.571455302544665811e-01
6.140713746988119004e-01 -7.728748788236514122e-02 5.996965094154985687e-01 6.163481942490145471e-01 -9.235252106130749372e-02 7.820395867854770255e-01
-6.348136602633255299e-01 3.392507292528147700e-02 5.841285438581610423e-01 -6.272628924827560182e-01 2.189089543892566020e-02 7.784998730963600400e-01
-6.144780793550096432e-01 -2.000731443840542828e-03 6.007572571487127533e-01 -6.272628924827560182e-01 2.189089543892566020e-02 7.784998730963600400e-01
-6.397443175519381686e-01 1.210322884192110635e-02 5.858044547688933124e-01 -6.272628924827560182e-01 2.189089543892566020e-02 7.784998730963600400e-01
-5.680187552788055205e-01 2.284491515379362750e-02 6.329689767278200430e-01 -2.627097472209971585e-01 1.117075804510861588e-02 9.648102419024051635e-01
-5.873396421957592928e-01 2.546237357488492434e-02 6.163729455819964009e-01 -2.890393409094362820e-01 5.627648066220061751e-02 9.556616645711574209e-01
-5.982760468269356924e-01 5.109767895229082313e-02 6.204486221544988078e-01 -2.890393409094362820e-01 5.627648066220061751e-02 9.556616645711574209e-01
-5.399873441828046960e-01 -9.807277608890531406e-03 6.398416922998555467e-01 1.331689872932839969e-01 -8.625337616854055964e-03 9.910558129461106702e-01
-5.275558946555236606e-01 9.282222224763768056e-03 6.147829994645758189e-01 1.070904698925487231e-01 2.747634787503566711e-02 9.938695495715940131e-01
-5.129581320024088065e-01 -1.421982160039408916e-02 6.239306894051307451e-01 4.605548826287061415e-01 6.225579678161587832e-03 8.876093973390151159e-01
-4.566696329878316418e-01 1.303020695249137301e-02 5.644787672187648875e-01 7.278965241992862989e-01 1.645259476694181308e-02 6.854895784649337465e-01
-4.651684109407510648e-01 1.324570790928712369e-02 6.073842653263725744e-01 7.130536025580488380e-01 3.478689463457378117e-02 7.002459795248172636e-01
-4.235869918689258440e-01 -3.067818290977768203e-02 6.129741904121930318e-01 -9.717921671513007897e-01 -1.763498037151667586e-01 1.565909658728759646e-01
-4.289597556054465244e-01 -1.004691151588946868e-02 5.848325137680626673e-01 -9.962666554981858269e-01 -3.928675181317766579e-02 7.687198627867522505e-02
-1.668731354706032843e-01 2.217913367507458669e-02 6.181101200576358812e-01 9.650803610570443114e-01 1.426417784818137247e-01 -2.197116740948239499e-01
1.786830829423213252e-01 2.851518566822955000e-02 6.333618051612432964e-01 -9.811482375819525759e-01 -2.729419111563421291e-02 -1.913195312067523246e-01
1.735694426176120908e-01 -1.707948847548376248e-03 6.144405120179546875e-01 -9.811482375819525759e-01 -2.729419111563421291e-02 -1.913195312067523246e-01
4.396655484248758738e-01 1.866085643098744362e-02 6.150118591145877778e-01 9.854973762716551233e-01 7.995476963357128763e-02 1.496734985711453414e-01
4.771793359925864952e-01 -4.404734700745177589e-04 6.109041538488096945e-01 -7.093175566416662914e-01 -4.207443437430247873e-02 7.036322518275998084e-01
4.571939143278460627e-01 9.380930707714440001e-03 5.814225182228399680e-01 -7.329786803586468835e-01 -1.326052566165406878e-02 6.801223511978364833e-01
5.014706813017805187e-01 4.452017930077645930e-03 6.077218756702502667e-01 -4.503932832530789798e-01 -8.065835876811507446e-03 8.927938354917779318e-01
4.748868947705637278e-01 3.631018052278612435e-02 5.932041914565034935e-01 -4.905670793271956764e-01 4.478459457607209676e-02 8.702518490466089052e-01
5.628347451310583560e-01 -2.226202232655496993e-02 6.223779747603329637e-01 -1.016476432358054682e-01 -2.234944734526191426e-02 9.945693836168332247e-01
5.159563885383360304e-01 1.977588326067017746e-02 6.180933496095482038e-01 -1.238946175619730916e-01 4.844461122532475912e-03 9.922835557115741167e-01
5.223816758826027584e-01 4.615436067113282484e-03 6.257560291038457567e-01 -1.238946175619730916e-01 4.844461122532475912e-03 9.922835557115741167e-01
6.050740493717741142e-01 3.155400843926781801e-03 6.182875336880491179e-01 2.898976887107183043e-01 -4.081172558905810099e-02 9.561870806147857449e-01
5.819015690408789743e-01 7.468201220782694043e-03 6.237108806332031241e-01 2.651613410401942872e-01 -9.140940512263906817e-03 9.641607264477831674e-01
6.248177057808486090e-01 -2.953376220576749145e-02 6.034970419375680351e-01 6.160888359273967163e-01 -2.551321713735962490e-02 7.872633752416831054e-01
-6.267678231608692085e-01 5.752015035291117157e-02 5.971032359796629718e-01 -6.282380341506966781e-01 7.422960121733872263e-02 7.744720387138472883e-01
-6.429618333974658206e-01 8.894184998874929415e-02 5.957205733521480084e-01 -6.282380341506966781e-01 7.422960121733872263e-02 7.744720387138472883e-01
-5.731587472296135743e-01 8.154502844061067846e-02 6.279745694687079993e-01 -2.780627858037858502e-01 7.980259304071760096e-02 9.572422020027198108e-01
-5.969780048475840095e-01 8.673192511279603778e-02 6.027917412912808803e-01 -3.009255031770238786e-01 1.211258792771160026e-01 9.459240788282116119e-01
-5.185063401691734075e-01 3.554239435933403274e-02 6.241744100693430441e-01 1.175207455673985824e-01 5.960994800516036807e-02 9.912797427871229416e-01
-5.434548022169164438e-01 6.387843457241475231e-02 6.310751307819181255e-01 7.912470933475526658e-02 1.131769373059985512e-01 9.904192350892244701e-01
-5.636413663925355921e-01 5.625375708617971759e-02 6.236286203540258866e-01 7.912470933475526658e-02 1.131769373059985512e-01 9.904192350892244701e-01
-4.883126220539515949e-01 1.493029705592154900e-02 6.107290978163898432e-01 4.824548894336750382e-01 8.431926154154273378e-02 8.718529358754429914e-01
-4.861165957288295925e-01 4.300036337387658225e-02 6.050720904616651019e-01 4.887777366405743895e-01 7.249302784576681924e-02 8.693912152065204069e-01
-4.585667373495241339e-01 3.756336743708527798e-02 5.733818173788947092e-01 7.623195068898867000e-01 1.102292806708228684e-01 6.377448354145667242e-01
-4.531316870470105118e-01 7.195260813371105735e-02 5.709746052681203832e-01 7.623195068898867000e-01 1.102292806708228684e-01 6.377448354145667242e-01
-4.306321293230462310e-01 2.261143172709012203e-02 5.946756158604981080e-01 -9.561211699659530883e-01 2.766489572820540754e-01 9.642438891530170919e-02
-4.249701274242259630e-01 3.743157454196935352e-02 6.094079135960921434e-01 -9.413911228976077350e-01 2.969041338757954507e-01 1.600958744535438683e-01
-1.895969366226605002e-01 3.741648933272544164e-02 6.192131535604841197e-01 8.797322773547350261e-01 3.792170723875614158e-01 -2.868196858481970590e-01
-1.897538210167920569e-01 6.152732493206434367e-02 6.213219664264427733e-01 8.232499138685166473e-01 5.558425628720854439e-01 -1.153196627434876359e-01
1.665134412911476458e-01 4.080872465451839542e-02 6.341395980490146522e-01 -8.975017330448025188e-01 2.288039313845075251e-01 -3.770137930693908124e-01
4.239720607874944980e-01 2.303630053096807073e-02 6.002914718542626815e-01 9.214787327826678975e-01 3.841306830828672414e-01 5.762432944111654798e-02
4.372989415724561346e-01 5.562136081793789960e-02 6.054172163402021800e-01 8.868296999986907680e-01 4.562912385634688150e-01 7.301635988220439577e-02
4.499161839252394102e-01 6.759553185814995424e-02 5.807074933810500994e-01 -7.911807976858986624e-01 1.079567132278176494e-01 6.019786486596945263e-01
4.371159274528590988e-01 3.698057382030796314e-02 5.621599547224817028e-01 -7.911807976858986624e-01 1.079567132278176494e-01 6.019786486596945263e-01
4.597615873916683915e-01 6.597022754591011506e-02 5.876852451582511572e-01 -7.406086222534149499e-01 5.516943758998024694e-02 6.696679787774710846e-01
5.009326371630915542e-01 4.451509838256092338e-02 6.209244169568667315e-01 -4.906717612463599720e-01 4.324339491641260996e-02 8.702707805686104026e-01
4.907647324859924498e-01 5.087870289917476030e-02 5.914845064828435639e-01 -5.181773880088645923e-01 7.636340277871553339e-02 8.518572798728470952e-01
4.987961392955007622e-01 8.150145201012895524e-02 6.026328363682375011e-01 -5.181773880088645923e-01 7.636340277871553339e-02 8.518572798728470952e-01
5.463901582170779259e-01 4.012464911831653547e-02 6.316994650191702920e-01 -1.155078873714699972e-01 4.774048457244509103e-02 9.921586436088576377e-01
5.308744040309882894e-01 6.059585943808613179e-02 6.191072299261859424e-01 -1.518867296630202757e-01 8.783833950894091858e-02 9.844870986785883016e-01
6.169238975985403828e-01 3.851315443456330284e-02 6.011608734546720623e-01 2.756896250911650137e-01 3.177631070053623524e-02 9.607213418548354866e-01
5.596006418082754008e-01 6.024448966111065756e-02 6.235930628819199573e-01 2.445533051684057879e-01 6.885599883480467143e-02 9.671879508945868675e-01
6.178752393174300472e-01 7.543232976534194889e-02 6.053795924065686895e-01 6.078268596240563593e-01 6.601257347243080775e-02 7.913209518666269870e-01
6.577354563931520071e-01 6.197468685186241499e-02 5.817616601183717151e-01 6.078268596240563593e-01 6.601257347243080775e-02 7.913209518666269870e-01
6.174245977531856999e-01 2.130428978633486931e-02 6.063794563616332622e-01 6.025824471800971249e-01 4.249983529072402094e-02 7.969241860746272277e-01
-6.091093324234527762e-01 1.220049287542906286e-01 5.931334872216930121e-01 -5.732133984589750098e-01 1.805275810032626049e-01 7.992722892257823064e-01
-5.647662382353527688e-01 1.217908264369086807e-01 6.194006506350259178e-01 -2.782606866276675639e-01 1.614259873066948847e-01 9.468435144729869801e-01
-5.889999987916039181e-01 1.228532847611320949e-01 6.118523928643763155e-01 -2.876237875516568510e-01 1.806800245687653073e-01 9.405462697583089060e-01
-5.411414576838424750e-01 1.075359489133153046e-01 6.129748927582576723e-01 3.177714330666846221e-02 1.643209754384223897e-01 9.858949387202639025e-01
-4.756756316562672504e-01 6.830486142894136303e-02 6.015425425149455441e-01 4.874932226759607912e-01 6.738829631915767282e-02 8.705223577623997233e-01
-5.068328403343357325e-01 6.656903972968900018e-02 6.118732173645162753e-01 4.874932226759607912e-01 6.738829631915767282e-02 8.705223577623997233e-01
-5.226945872775621282e-01 9.018033204604573860e-02 6.100609340232374667e-01 3.634362163347507613e-01 1.946713211204256777e-01 9.110527939639437855e-01
-4.831901195204881261e-01 8.820487944640402478e-02 5.944155200547316387e-01 7.307855989416766063e-01 1.507786781878198146e-01 6.657463470296993702e-01
-4.196834640438398822e-01 6.801641187271573186e-02 6.338753237299700194e-01 -7.590128939524526386e-01 6.318972192116175668e-01 1.568608656311316074e-01
-3.749218190449906674e-01 1.025730999047363284e-01 6.204342444564416859e-01 -7.091231709396490501e-01 7.026634193834955244e-01 5.838191069835882430e-02
-4.088277214496547352e-01 8.454786895182597739e-02 6.155841224514795318e-01 -7.091231709396490501e-01 7.026634193834955244e-01 5.838191069835882430e-02
-2.749384777077217845e-01 1.249412605613777205e-01 6.344380592614899950e-01 1.026139460972905620e-01 9.934773980988667041e-01 -4.972964440902621214e-02
-3.258300273668313096e-01 1.423087857530564715e-01 6.038671085244643466e-01 -8.244675026605781734e-03 9.968241628458486270e-01 7.920614685981773595e-02
-2.547617394270564328e-01 1.131473845874324674e-01 6.060549402438857314e-01 4.479332083338763426e-01 8.885656981897976925e-01 -9.902949496083260361e-02
-2.129692650083339356e-01 9.726417413719898319e-02 6.092275642898666854e-01 6.631770971445810625e-01 7.436973793010575040e-01 -8.432286667106358991e-02
1.979781201218048514e-01 8.144458640952906281e-02 6.426134182460702116e-01 -6.358301098094233383e-01 7.059482823891263248e-01 -3.120209833514071551e-01
2.282205011290482088e-01 1.017507216798776010e-01 6.119184629205047798e-01 -7.403105284119709806e-01 6.577159787115824940e-01 -1.391043236921615245e-01
2.032016869172542095e-01 7.058361610042250545e-02 6.232238821335452927e-01 -7.403105284119709806e-01 6.577159787115824940e-01 -1.391043236921615245e-01
2.533342022363866408e-01 1.026168189711196971e-01 6.287828162463630077e-01 -3.826602562540499242e-01 9.190063587799141009e-01 -9.486011177343565970e-02
3.243937342987573969e-01 1.310889463340856043e-01 6.233977387155299477e-01 1.747765711914406675e-02 9.998046415472952031e-01 -9.230939394796707984e-03
2.854434534883373842e-01 1.238702869846547150e-01 6.268652799347852467e-01 -3.908142436978528922e-02 9.981989824636249287e-01 4.551300558974934185e-02
3.420555699360117718e-01 1.197620209756324466e-01 6.098136163899012807e-01 3.853096238382595073e-01 9.211121255492128457e-01 5.557828662193516067e-02
3.670980925938019945e-01 1.115182216347525707e-01 6.042273463392021648e-01 3.853096238382595073e-01 9.211121255492128457e-01 5.557828662193516067e-02
3.713534160423363484e-01 1.060653108782768361e-01 6.167518500332130893e-01 3.853096238382595073e-01 9.211121255492128457e-01 5.557828662193516067e-02
4.128681040383815337e-01 8.360729099518460217e-02 6.146627308139770429e-01 6.817598541065806872e-01 7.265356627382731913e-01 8.572882886189521490e-02
4.744095687487998037e-01 1.115936008414600139e-01 5.857467592601406370e-01 -7.032607613148059711e-01 1.634833202170380695e-01 6.918796901237475039e-01
5.538957619889921524e-01 8.968399010959958451e-02 6.084191670956741183e-01 -1.466632965181793868e-01 1.220666187496418226e-01 9.816260072152990235e-01
5.363252851993758341e-01 9.128571091097259504e-02 6.203276044004009115e-01 -1.466632965181793868e-01 1.220666187496418226e-01 9.816260072152990235e-01
5.596860455288985570e-01 1.229782937423615913e-01 6.125923972250699734e-01 -1.710861574019801878e-01 1.484103584716863489e-01 9.740143182950292688e-01
5.292537462322056685e-01 1.247911439253292093e-01 6.311387275397760677e-01 -1.710861574019801878e-01 1.484103584716863489e-01 9.740143182950292688e-01
5.883177878685474926e-01 7.404372399250844228e-02 6.043084727802677802e-01 2.516087799581088746e-01 1.025160867149305516e-01 9.623842651522566127e-01
6.413654479151886800e-01 1.231077645557081823e-01 5.837389305838283082e-01 5.718911794075143273e-01 1.272718127830470836e-01 8.103964243423087410e-01
6.412134743009837434e-01 1.029331223053440159e-01 5.977938539581307831e-01 5.701645285565805077e-01 1.176604705636302151e-01 8.130611440983989135e-01
-6.180234413547843753e-01 1.576129701143381967e-01 5.926641072015284006e-01 -5.209954602431511317e-01 2.462544173658499647e-01 8.172652521267700365e-01
-6.272421916513096773e-01 1.544850684447980627e-01 5.819541725542068944e-01 -5.733950280336436167e-01 1.815563425218005844e-01 7.989089036407116540e-01
-5.736859729792300744e-01 1.450196057412775907e-01 5.954837864071516051e-01 -2.578196866224221062e-01 2.280793767552700968e-01 9.388870044306949492e-01
-5.524523423971977598e-01 1.477698306347700330e-01 6.107197310638875498e-01 7.254525826542379541e-02 2.258673597040207481e-01 9.714530978506051850e-01
-4.941973564089230941e-01 1.615371777099265105e-01 5.915265729668842676e-01 4.544731168090138662e-01 1.920249521395736292e-01 8.698164196275526283e-01
-5.129410195953083562e-01 1.577169164891009945e-01 6.040665097750566037e-01 3.657880293479654488e-01 1.394124052890743370e-01 9.201974238375409954e-01
-5.209986725198978430e-01 1.219860660414402581e-01 6.254448139688595365e-01 3.657880293479654488e-01 1.394124052890743370e-01 9.201974238375409954e-01
-4.721772147181709789e-01 1.221532583409642020e-01 5.854456598451712734e-01 6.734798537548659647e-01 1.750892744140385149e-01 7.181703367387779480e-01
4.592598969308972490e-01 1.364568952553780745e-01 5.948718030657442757e-01 -6.425493448957477760e-01 2.002104893287286191e-01 7.396256481063893107e-01
4.970967150448058480e-01 1.383675879696454891e-01 5.961903303444020530e-01 -4.606855241002547618e-01 2.102154630955058445e-01 8.623098671359475942e-01
4.934300782770607574e-01 1.639938420783286777e-01 5.874768654128792456e-01 -4.606855241002547618e-01 2.102154630955058445e-01 8.623098671359475942e-01
5.379772261673232414e-01 1.453138983581040711e-01 6.179897765086541650e-01 -1.640282784679605033e-01 1.910096237243573691e-01 9.677861579437457840e-01
5.346578433702606770e-01 1.680944675120993326e-01 6.069788090674116399e-01 -1.806497370300900462e-01 2.100543994615111654e-01 9.608552553729532431e-01
5.784288593098803055e-01 1.261547570297840148e-01 6.134233127671546715e-01 2.123231846699804026e-01 1.698123823602636084e-01 9.623318658595532149e-01
5.655100290507132366e-01 1.501792665696441431e-01 6.040911484074203974e-01 1.291117898925772389e-01 2.379026010463989871e-01 9.626694646274457368e-01
6.247946989527374262e-01 1.653191888421044475e-01 5.835324437932082331e-01 5.094388361936662557e-01 2.089308262640332536e-01 8.347574390290097845e-01
6.093906167057712153e-01 1.429353696723817957e-01 6.055884408904229632e-01 5.082316154242334516e-01 2.022859341759812857e-01 8.371266486726035572e-01
-5.808379679810506957e-01 2.067177741565634497e-01 5.954552816672760152e-01 -2.509234451919258313e-01 2.696151160403836844e-01 9.297016262519631757e-01
-5.682986767764109937e-01 1.793857584539212124e-01 5.861962603206840594e-01 7.811200744893645465e-02 2.377210404577425051e-01 9.681875960866187514e-01
-5.310679399152045121e-01 1.932833204065582122e-01 5.993174257135113203e-01 3.418958896664762159e-01 2.502495854942072828e-01 9.058048054570841945e-01
-5.116405053040166129e-01 1.903763197085472925e-01 5.992482809797112786e-01 3.508588406256323289e-01 2.932321768297547759e-01 8.893328760517742460e-01
4.949633903795244150e-01 1.941702181426795404e-01 5.897157992208773569e-01 -4.584231569789570804e-01 2.108394788720184820e-01 8.633625676935628990e-01
5.287193564556111891e-01 1.911515501651602500e-01 6.054830282476606484e-01 -1.193501562335119587e-01 2.501937814039454366e-01 9.608114341294190508e-01
5.788200090560353672e-01 2.143752118243024141e-01 5.870257662976431368e-01 2.358563526095989737e-01 2.602270029193727852e-01 9.362978628007742055e-01
5.961236730169888753e-01 1.830854381621020988e-01 6.079855182477347242e-01 2.252285434383058116e-01 3.042322745227131198e-01 9.255889078632023592e-01
5.531005258376093803e-01 1.928323298988695866e-01 6.079408059961066702e-01 1.323239468630169613e-01 2.208037133841052879e-01 9.663002086527681112e-01
-5.742150487560597760e-01 2.480042801304451761e-01 5.862875199864830966e-01 -2.659711551229810844e-01 3.083407824836185140e-01 9.133374548872594811e-01
-5.402185084024007100e-01 2.292666029826629648e-01 5.857985915845778102e-01 1.526778987471541157e-02 2.934654440173490308e-01 9.558477534419598243e-01
5.319331730427006022e-01 2.300957603917971328e-01 5.883998937494780979e-01 -1.966489387286714796e-01 3.659076292752520554e-01 9.096377310418976014e-01
5.585130250577976518e-01 2.121782631927534579e-01 5.954975291681426919e-01 9.961641705116359991e-02 3.561402243601153317e-01 9.291074803523085013e-01
-3.700325015092725822e-01 -9.982265942929689773e-02 6.635783047739629570e-01 -6.836814002780846611e-01 -7.079649202880959891e-01 1.771028361017049912e-01
-3.288520278280938625e-01 -1.263995670594617871e-01 6.865096418149178037e-01 -3.501908745724075511e-01 -9.336560482145995765e-01 7.518467263019573688e-02
-3.681960180763338419e-01 -1.172753124589795554e-01 6.666394363177329252e-01 -4.594914361625375698e-01 -8.604021459649446868e-01 2.203991091456735940e-01
-2.852310732616868405e-01 -1.244339462602853663e-01 6.547731103438506617e-01 5.497419733516514806e-02 -9.963391864819756139e-01 -6.546803118919589104e-02
-3.049274553910401586e-01 -1.341191598740188173e-01 6.717386816660637638e-01 -7.989733672635783435e-02 -9.912143628991386679e-01 1.054063677701194829e-01
-2.281900509554479206e-01 -1.072257941852150093e-01 6.331908684648825947e-01 4.345306064528786094e-01 -8.810492802878520102e-01 -1.869099188377959797e-01
-2.498156427645774336e-01 -1.149818756142226700e-01 6.550552691104976066e-01 3.454988929636598760e-01 -9.379629611328226257e-01 -2.925745210766857174e-02
-2.730221592977740697e-01 -1.282460788387515815e-01 6.740816047406541500e-01 3.454988929636598760e-01 -9.379629611328226257e-01 -2.925745210766857174e-02
-2.039076224788439196e-01 -8.324304950639101197e-02 6.348748978244107555e-01 7.359527324254229175e-01 -6.451685408913002684e-01 -2.052586891698973404e-01
-2.082340828712570535e-01 -1.033775364486484993e-01 6.593460595730308293e-01 7.359527324254229175e-01 -6.451685408913002684e-01 -2.052586891698973404e-01
2.069745685158161930e-01 -9.376079739325238194e-02 6.727543186211191184e-01 -6.215269035685996313e-01 -7.408110286026859947e-01 -2.547613158253406729e-01
2.582081026346247365e-01 -1.185207182375921792e-01 6.833371606978013713e-01 -2.659916587030299318e-01 -9.500457572556338937e-01 -1.632834854508558309e-01
2.216016484189819724e-01 -1.090232227237129536e-01 6.610260305540534009e-01 -2.659916587030299318e-01 -9.500457572556338937e-01 -1.632834854508558309e-01
3.005770496729089358e-01 -1.251423637417353185e-01 6.447913798644653305e-01 3.025598585838614948e-02 -9.994890217490044471e-01 1.030876922601963418e-02
2.861683073410657974e-01 -1.228682306559738951e-01 6.807084257258713134e-01 4.058311325132069047e-02 -9.991690954000324032e-01 -3.758951490985243307e-03
3.770663218835200170e-01 -1.028530947115975369e-01 6.208344969967879434e-01 4.267330909165706343e-01 -9.002328523772632485e-01 8.648514680271066069e-02
3.519362279394064874e-01 -1.083230602117028901e-01 6.431298042014369498e-01 4.267330909165706343e-01 -9.002328523772632485e-01 8.648514680271066069e-02
4.083422578482324705e-01 -6.611698129072633712e-02 6.718469496456439538e-01 7.386515305496743622e-01 -6.244261430568462945e-01 2.539407574293151004e-01
3.827456010376283912e-01 -8.609070781817111662e-02 6.664544400103253885e-01 7.386515305496743622e-01 -6.244261430568462945e-01 2.539407574293151004e-01
-4.180097287812280515e-01 -6.353514860894307614e-02 6.575388655492738765e-01 -8.174455273176731707e-01 -5.617509992219913428e-01 1.273523644909086983e-01
-4.277672168389644591e-01 -4.970355028356369248e-02 6.239317336013545656e-01 -9.076786619501381326e-01 -3.502249147899882398e-01 2.312184155744352876e-01
-1.599930155186831404e-01 -2.725334610662968199e-02 6.688263358693949945e-01 9.023350528947046145e-01 -5.730972275403218436e-02 -4.272084362408667957e-01
-1.852377182762688645e-01 -4.727982358150388531e-02 6.617181333019427347e-01 8.804361487911480655e-01 -3.055279971680314177e-01 -3.626083711779182206e-01
1.790324282022317803e-01 -4.541207869620508819e-02 6.517349038774796766e-01 -7.545556697263448021e-01 -4.038187045492577787e-01 -5.172776770168867611e-01
1.912480622326079294e-01 -6.859842088869348709e-02 6.324620808822765117e-01 -8.427553414159394407e-01 -4.235874769278778484e-01 -3.321702634264205312e-01
4.091705574998411588e-01 -7.090521189169825267e-02 6.374571958299969365e-01 9.079770864186038626e-01 -3.960300664309089891e-01 1.368860731466611524e-01
4.154021821873377096e-01 -4.280837574924156730e-02 6.315177729412168040e-01 9.079770864186038626e-01 -3.960300664309089891e-01 1.368860731466611524e-01
4.290300439006854982e-01 -3.081262071751900491e-02 6.364508171211631371e-01 9.470521142909529289e-01 -1.937268695706282351e-01 2.560511527476507787e-01
4.284056234971955202e-01 -7.004928272005283424e-03 6.655844635277609056e-01 9.470521142909529289e-01 -1.937268695706282351e-01 2.560511527476507787e-01
-4.318040055727456195e-01 -3.638711709523089356e-03 6.700208111831565949e-01 -9.677156069105479208e-01 -2.303255910795148909e-02 2.509900503260808491e-01
-4.207443924852767858e-01 1.927953720116495559e-02 6.642971043478402837e-01 -9.677156069105479208e-01 -2.303255910795148909e-02 2.509900503260808491e-01
-1.676614553173131350e-01 3.410134922290445486e-02 6.582877776901722156e-01 8.907234407709350155e-01 2.062696869672802913e-01 -4.050488468069085024e-01
-1.600494057810040172e-01 6.902243845414119533e-03 6.474054830762623336e-01 8.491730470408471732e-01 8.591534467728363655e-02 -5.210793507023153692e-01
-1.583053727473529293e-01 1.599107803626305044e-02 6.697091854596064486e-01 7.683965681129805159e-01 1.702630677906603052e-01 -6.169093951778548135e-01
1.503823300414304509e-01 -1.522158228420305084e-02 6.680333215177763906e-01 -8.181424417780360780e-01 -1.338379450321457997e-01 -5.592229872162312043e-01
1.710356660776361226e-01 -2.318682991801790383e-02 6.282041032349053866e-01 -8.407406902265238680e-01 4.550560933756781640e-02 -5.395223177184099717e-01
4.148352667562278939e-01 2.948837341956517255e-02 6.493064172065756701e-01 9.636795147708457909e-01 1.556228021657232452e-01 2.170330303366639346e-01
-4.022704200223187754e-01 5.242959675037522221e-02 6.555365542496364162e-01 -9.423539777074120272e-01 2.722311510018720071e-01 1.945743588534072643e-01
-4.380110675825615862e-01 2.040764442919491828e-02 6.295274275553573995e-01 -9.423539777074120272e-01 2.722311510018720071e-01 1.945743588534072643e-01
-3.983227925251726642e-01 4.668844346901034753e-02 6.885454826106297554e-01 -9.071761073034477763e-01 3.144916444353260121e-01 2.795112089311054260e-01
-1.732481068385953726e-01 5.488167256512202496e-02 6.382559452057355864e-01 8.129263697678528189e-01 4.804218795390939323e-01 -3.291588294367702172e-01
1.581335613896976411e-01 1.847553049648315016e-02 6.698350146144882444e-01 -8.197509718450677330e-01 1.708864418440586841e-01 -5.466316567424027717e-01
1.425500531452512099e-01 3.623092396934242398e-02 6.543069962456885547e-01 -7.502835257411737402e-01 4.692255359262286207e-01 -4.657274175267513971e-01
1.854465202547530278e-01 6.284244825044116300e-02 6.593350897187270077e-01 -7.825265116501121110e-01 4.472860047048604626e-01 -4.331137131976665056e-01
4.332547061358490992e-01 4.095387026805721170e-02 6.488213720095370451e-01 8.724346788023104038e-01 4.552870687554963491e-01 1.776834720708072302e-01
4.071948085905185422e-01 7.537267996377537693e-02 6.322593167979032591e-01 8.724346788023104038e-01 4.552870687554963491e-01 1.776834720708072302e-01
4.192792400604891667e-01 6.552940044772621875e-02 6.528698962161025854e-01 8.466854150351635910e-01 4.863091892221545476e-01 2.159332777614967891e-01
-3.990378185764014152e-01 6.763165628969058929e-02 6.835418741142231802e-01 -7.715817660073007733e-01 5.817101909954722760e-01 2.574389870572558747e-01
-4.040993669845598379e-01 9.016875363945038580e-02 6.576611341854657899e-01 -7.499280343722001252e-01 6.339923511883135410e-01 1.888429026925877718e-01
-3.866384242523177028e-01 9.942763707357980818e-02 6.651717785823414442e-01 -7.499280343722001252e-01 6.339923511883135410e-01 1.888429026925877718e-01
-3.657990283058136227e-01 1.089395205079236734e-01 6.521455026971044733e-01 -4.273120425108513087e-01 8.999814343866892052e-01 8.624289005177178391e-02
-3.493621871505565024e-01 1.101463218242449138e-01 6.627463868635425914e-01 -4.273120425108513087e-01 8.999814343866892052e-01 8.624289005177178391e-02
-3.544387433025761869e-01 1.053080290975901279e-01 6.764501058798200184e-01 -5.072410266284465008e-01 8.374904824628255362e-01 2.032639483260700597e-01
-2.953843036499688157e-01 1.275910132700240618e-01 6.558353995887192811e-01 -1.254740222105665652e-02 9.992683232619995470e-01 -3.613005428524721646e-02
-3.119177075830414370e-01 1.176701044386843642e-01 6.650617553312377916e-01 -1.366872259800732126e-01 9.837694920070355620e-01 1.162505434399841026e-01
-2.586479613097485974e-01 1.192445183425219074e-01 6.363925143490446468e-01 3.610286592409663320e-01 9.185010938555916438e-01 -1.612887094397863208e-01
-2.261723700404024706e-01 1.143548091452800397e-01 6.749968429589274788e-01 2.649475198067686166e-01 9.640375110247872970e-01 -2.084440177542287720e-02
-2.817396486080662177e-01 1.302473862787855985e-01 6.591290413910320112e-01 2.649475198067686166e-01 9.640375110247872970e-01 -2.084440177542287720e-02
-1.964923524615694028e-01 8.615337277022669382e-02 6.516284963846777911e-01 6.254841660910532841e-01 7.502670542024065803e-01 -2.141702718582181864e-01
-2.172694689375579136e-01 1.110233035929462236e-01 6.410749133432220859e-01 6.254841660910532841e-01 7.502670542024065803e-01 -2.141702718582181864e-01
1.915126601319118993e-01 8.830245742734239844e-02 6.801543771903220126e-01 -5.524751989437513000e-01 7.783990588239996233e-01 -2.981041089518458587e-01
2.108855434961798558e-01 1.159196956325437566e-01 6.854869343306319029e-01 -5.524751989437513000e-01 7.783990588239996233e-01 -2.981041089518458587e-01
2.193775425388901357e-01 9.929110471155232209e-02 6.550639502319074436e-01 -6.387190001174467557e-01 7.393887173910571597e-01 -2.129374637863811204e-01
2.354466511543719665e-01 1.199910716837267050e-01 6.517136025643255337e-01 -3.806771866527504100e-01 9.223890471760460841e-01 -6.544711767383712409e-02
2.338498562248131074e-01 1.115887923194310155e-01 6.793722128162638096e-01 -2.775095872052247836e-01 9.425743783336946180e-01 -1.858547021682119826e-01
3.273651890785340135e-01 1.316525262293531395e-01 6.521527965968095808e-01 -3.916776923580177205e-02 9.990840898848871721e-01 1.722983435723775616e-02
2.868187060330960048e-01 1.191592190689899217e-01 6.534121366402720898e-01 5.647053564211397189e-03 9.995118810681093979e-01 -3.072637937884157774e-02
3.514690964997026490e-01 1.277686988615140407e-01 6.351872670450119385e-01 3.349699558559003365e-01 9.361824560007825369e-01 1.065717493064620158e-01
3.825600464293895664e-01 9.009682024959349278e-02 6.603610753035561443e-01 6.469384143629688388e-01 7.453822151593073597e-01 1.608603162552263433e-01
3.584183852933380265e-01 1.020399024258765025e-01 6.778813297212564759e-01 6.262413941005291473e-01 7.578044825125183070e-01 1.831777349978978564e-01
3.744275790640769208e-01 9.070329157383685836e-02 6.722105955142941847e-01 6.262413941005291473e-01 7.578044825125183070e-01 1.831777349978978564e-01
-3.845753191169824503e-01 -9.173402312984890727e-02 6.880575021737116437e-01 -7.288183620553769781e-01 -6.191724231587061311e-01 2.923171317776184774e-01
-3.740012402362885569e-01 -8.752450738390106511e-02 7.061616737612868011e-01 -7.288183620553769781e-01 -6.191724231587061311e-01 2.923171317776184774e-01
-3.576112073841820616e-01 -1.010620071678945686e-01 7.522452438991710233e-01 -6.186506664437441128e-01 -7.077114287193075892e-01 3.411977235691755483e-01
-3.404344558077364580e-01 -1.064449287160587343e-01 7.032245375120715902e-01 -4.712641145093656170e-01 -8.636533638031513860e-01 1.789217749945631597e-01
-2.855112253785602183e-01 -1.224107149610358936e-01 7.058076582446415337e-01 -1.016001091842829995e-01 -9.948148718466652829e-01 4.559448041652889271e-03
-3.196083395925110038e-01 -1.254799341248439004e-01 7.216673202015883026e-01 -2.776358379714569669e-01 -9.373095977449723559e-01 2.106396435836443981e-01
-3.103059962474304379e-01 -1.155765085134487086e-01 7.629304186449801239e-01 -2.776358379714569669e-01 -9.373095977449723559e-01 2.106396435836443981e-01
