-8.558331605542641995e-02 1.391159124101828681e-01 -3.040861879621942765e-01 2.760310713710264485e-01 8.452776834778519266e-01 -4.575068146509727596e-01
-1.393050211712006659e-01 -8.237694554112461043e-02 -3.095902172318987233e-01 2.764396242069132592e-01 -5.183471778696909782e-01 -8.092572751374357276e-01
-2.255822603403525861e-01 -6.214307094731044701e-02 -3.071939483728696185e-01 -6.458721530693398716e-01 -3.604392603331019740e-01 -6.730027499944569724e-01
-2.722774590713964993e-01 2.214521518470620107e-02 -3.074604410019504686e-01 -6.660498640616842048e-01 -8.566642531052180709e-02 7.409715528668618933e-01
-1.123916172489792253e-01 -8.003592620008882774e-02 -3.025188066669377562e-01 2.260179440076991730e-01 -4.919488375177069606e-01 -8.407747797427734815e-01
-2.515531425927201581e-01 6.341297355377487066e-02 -3.073190351124501785e-01 -9.018860779770065950e-01 3.983273554764799607e-01 1.671431130210478677e-01
-3.830606782195353222e-02 4.971801587189710048e-02 -3.125526830848536219e-01 5.006661769145356322e-01 1.978348274028241260e-01 -8.427305384049386117e-01
-1.344596464801102453e-01 1.595967247414921131e-01 -3.081861884334657908e-01 2.642710826571640359e-01 8.407532155353839576e-01 -4.725408188062937276e-01
-1.670028878298719377e-01 -9.087821563101990130e-02 -3.060980245494365759e-01 -1.468926297491653654e-01 -8.353215198300728561e-01 -5.297740214791132329e-01
-4.597244595616831186e-02 6.189974203449363083e-02 -3.031240347945211577e-01 2.115985998671527091e-01 1.511965807292780239e-01 -9.655908173289737828e-01
1.346302615780310599e-03 1.848255629315813386e-02 -3.015069085301236296e-01 5.907474710798416018e-01 5.283142774173480438e-01 -6.098372321281778641e-01
-2.402765572104012537e-01 -5.848109222510833316e-02 -3.039248828613455022e-01 -5.865751671984070770e-01 -5.237270738663328817e-01 -6.177697996224561505e-01
-1.511366939178793445e-01 -9.606194496657657900e-02 -2.953636649126584746e-01 -1.347653538176060706e-01 -7.601827369977824933e-01 -6.355788745552952701e-01
-6.792038176395841231e-02 1.058642764256862850e-01 -3.117115441140242971e-01 3.477895797120299504e-01 6.258176010398915912e-01 -6.981366187734351358e-01
-4.981711279006094395e-02 4.678571770491907200e-02 -3.126805266607051159e-01 -5.694171763136850889e-02 4.445135468175976934e-01 -8.939604842994061107e-01
-3.167417704330528078e-02 4.361230305338660573e-02 -3.118621408563712061e-01 7.336395500162061767e-01 1.667282133760067953e-01 -6.587675716946481685e-01
-2.360799543009452772e-01 6.519665512026759369e-02 -3.106325161748053065e-01 -9.177850157139746390e-01 3.453662810467097999e-01 1.959407993422098149e-01
-3.884214700333228631e-02 9.465105745988768027e-02 -2.968417900219181282e-01 6.069628024968330982e-01 3.339575792465901416e-01 -7.211577439429932568e-01
-3.711803463840035455e-04 -7.796197521493504132e-03 -3.018308377043614210e-01 -2.235308999073744585e-01 -7.063403562638911337e-01 -6.716526169826173565e-01
-1.032984008470416853e-01 1.158237371035370500e-01 -3.252702262229849595e-01 5.297053627183543334e-01 5.098640305352636348e-01 -6.778280748639381459e-01
-2.333142758225531799e-01 8.284204671601146097e-02 -3.137424960970967569e-01 -9.355516412769374623e-01 2.315646325757009585e-02 -3.524299997353083636e-01
-2.313589748392896051e-01 9.803049352190272570e-02 -3.002024989990829673e-01 -9.355516412769374623e-01 2.315646325757009585e-02 -3.524299997353083636e-01
-1.924263989993504897e-01 1.441981265798986944e-01 -3.080044733761075904e-01 -4.142095725596142142e-01 8.852371363648614544e-01 2.116261855265584302e-01
-1.964813903492372282e-01 1.497243553114834258e-01 -3.106910939755697654e-01 -4.142095725596142142e-01 8.852371363648614544e-01 2.116261855265584302e-01
-1.126596833919760038e-01 -5.607317549263751005e-02 -3.144405324741928465e-01 -2.532094239501449517e-01 -5.611396318459965782e-01 -7.880401647089919637e-01
-5.932690103829500045e-02 -2.659325707788086357e-02 -3.143631818499850183e-01 -3.801230704350865852e-01 -4.231529798501675321e-01 -8.224645931387721820e-01
9.616964551305409725e-03 2.065261162369682463e-03 -3.160849162687787706e-01 2.802314003763762273e-01 8.968171420286069617e-01 -3.423293385129825284e-01
-2.363858912500970896e-02 -8.646261055095518996e-03 -3.045696446323059581e-01 7.980570598335847698e-01 -5.837303971757785703e-01 -1.495451525887147026e-01
-2.403550040813363098e-01 -5.590626517843377830e-02 -2.946569606950383280e-01 -5.032692525066440048e-01 -8.382853012613397103e-01 -2.097565569191788826e-01
-1.262045792846464842e-01 1.477121739734639227e-01 -3.119758477076594594e-01 4.183506188489422573e-01 7.032057091644092761e-01 -5.748778046744259518e-01
-4.505766159639187918e-02 7.833663546679743572e-02 -3.106736161206747338e-01 2.063859362443578871e-01 1.062930515538967335e-01 -9.726801285684315568e-01
-1.274072299435941025e-01 -7.310903331200629962e-02 -3.146148313088196757e-01 3.147357738776884184e-01 -1.546709048002994913e-01 -9.364925540813815452e-01
-4.467034855976787650e-02 1.027229678637726906e-01 -3.003332407785117564e-01 3.736174038228897154e-01 4.936406934990947848e-01 -7.853208906443127635e-01
-6.422020670974698531e-02 6.655723708824630436e-02 -3.026977309851848208e-01 4.146595041773515344e-01 -6.091946115512895249e-02 -9.079351930881199850e-01
-7.901287056547993959e-02 1.118690665679336060e-01 -3.275531817007467095e-01 3.139123721199823525e-01 6.020281711408822511e-01 -7.341805661979690090e-01
-5.590600116206309589e-02 8.956032605933887669e-02 -3.151353474987154679e-01 5.169088989745996843e-01 -2.068187989701229523e-01 -8.306811509559025586e-01
-7.261550724251430999e-02 7.686413420074877934e-02 -3.152079856061159591e-01 7.732956406181102915e-01 7.956508440888150624e-02 -6.290335837966315458e-01
-3.893976296577819629e-02 4.936510390242532242e-02 -3.079950306250390790e-01 8.434748806960931100e-01 3.606088556179000149e-01 -3.981348752428756632e-01
-1.076239291915868229e-01 -5.085132038048845171e-02 -3.145921882424101979e-01 1.842908744669641830e-01 -1.554714018923892827e-01 -9.704975614507316273e-01
-2.528931344954409854e-01 3.923482639759865581e-02 -3.256258970104928263e-01 -9.066861969143799049e-01 3.120020912290105697e-01 2.838570685990792763e-01
-2.673023222043177660e-01 -9.989000926111402459e-03 -3.000465289486465847e-01 -7.060665467878868284e-01 -4.524353049882786637e-01 5.447681399523949253e-01
-1.370367882805882676e-01 1.510655685019785255e-01 -3.170831135465708717e-01 3.694521005079466902e-01 3.778118815406972808e-01 -8.489778133714356301e-01
-1.163551495519964118e-01 -5.965503261232144028e-02 -3.079072757764647061e-01 9.396071287108951828e-03 -7.384582179948431246e-01 -6.742337681548205008e-01
-2.626985460172607256e-01 2.857540045256612427e-02 -3.021475336661287869e-01 -4.877599961236481763e-01 8.245226314835423231e-01 2.867971693600084859e-01
-7.838946194260093536e-02 -2.325365830909645326e-02 -3.085034511335893459e-01 7.268240043073084244e-01 -6.003731851354418003e-01 -3.335849297150791370e-01
-2.479649148416137872e-01 -2.708400468862356275e-02 -3.172822275851953644e-01 -7.715022559184538942e-01 -2.703454328383486649e-01 5.759319543628244054e-01
-2.309180829250085942e-01 1.225189698839160984e-01 -3.123404422487678911e-01 -9.536914473374411561e-01 5.974314559813476838e-02 -2.947937920470112272e-01
-5.357408741484956036e-03 3.558511211515619568e-03 -3.073313729138636430e-01 -1.449851558974959431e-01 5.636848297575278721e-01 -8.131658608614884542e-01
-9.433163648587923611e-02 1.214740733064434419e-01 -3.123728516807218747e-01 4.490882528695503417e-01 2.930070110558261609e-01 -8.440773854373222473e-01
-3.738444323154159477e-02 -2.828344027011151646e-02 -3.091006681917858878e-01 6.381103208910615665e-01 -3.707413589340423088e-01 -6.748081676654825722e-01
-2.257324577548081579e-01 -7.325837463116369186e-02 -3.019213434508651872e-01 -1.000784938462670193e-01 -5.431454290536011920e-01 -8.336530081320657759e-01
-2.300128490004386406e-01 -7.370187813548832734e-02 -2.972242442298533849e-01 -1.000784938462670193e-01 -5.431454290536011920e-01 -8.336530081320657759e-01
-5.771598060979847566e-02 1.020329434882113612e-01 -3.114480225919296075e-01 5.058247942704252598e-01 9.287659020878823168e-02 -8.576218376956541434e-01
-4.185933233852218854e-02 4.028028192798911722e-02 -3.153604765894517103e-01 -8.746515137437579912e-02 4.785354448107176362e-01 -8.737011361757899275e-01
-6.102979456601061170e-02 9.506630653969938560e-02 -2.984666394516301002e-01 2.594539579820834274e-01 4.799879204795116650e-01 -8.380305721637993921e-01
-2.813092246511494920e-01 1.675326405870714713e-02 -3.171054716020272335e-01 -9.576832830075860947e-01 -2.807929707173438261e-01 -6.323003276561525721e-02
7.177465901895884424e-03 -5.035287847725293878e-03 -3.135419700872954518e-01 4.905105162831823740e-01 5.536051373442059560e-03 -8.714176871918520861e-01
-1.446351482613428552e-01 -8.019253075475164805e-02 -3.102721961966973807e-01 1.606633023028813390e-01 -5.930484165648826078e-01 -7.889745743070675221e-01
-2.674809726869174509e-01 2.583020122601343074e-02 -3.205408774729988641e-01 -9.897389305045000141e-01 -4.006763392406063190e-02 -1.371547817450631812e-01
-2.517307347100155579e-01 -4.326313813394814384e-02 -3.097151885730616838e-01 -7.836549939894000838e-01 -5.914165483355948716e-01 -1.900297785882106016e-01
6.132129632270701125e-03 -1.464632946500328547e-02 -3.176389816396083532e-01 -1.634062300202285545e-01 -2.300704628963653187e-01 -9.593570691318370480e-01
-2.737102543179453229e-01 1.681106166884650116e-03 -3.127896895192481264e-01 -9.688217976274529075e-01 -2.289744364529113507e-01 9.463103028596113464e-02
-2.095287750170746199e-01 1.428987963500605030e-01 -3.261740017059118757e-01 -4.810737523879651256e-01 8.479415791393137836e-01 -2.226277681020267518e-01
-2.227416874302664829e-01 1.362555713163856597e-01 -3.119838430515591843e-01 -6.873688393330115165e-01 7.262921331028582284e-01 4.880174883002588726e-03
-7.933100394043457460e-02 -4.849625829126952281e-02 -2.986679560324654870e-01 5.237130033509673765e-01 -3.554353346071692510e-01 -7.742030825525039184e-01
-1.103430664158402824e-01 1.351234339417056451e-01 -3.226234096221681780e-01 4.786427227882583679e-01 2.621848722304842561e-01 -8.379500204041570033e-01
-2.408117779924384139e-01 -3.942514653957220755e-02 -3.186784615649003727e-01 -1.494416502009276726e-01 -9.844634591669475521e-01 -9.218942862536531890e-02
-2.077334481750683082e-01 -6.821358405770938660e-02 -3.172511310273146701e-01 -3.362202358127960866e-01 -6.452415430705481514e-01 -6.860169853042455967e-01
-1.436128275351230069e-02 -6.328750021487788285e-03 -3.114253072990246229e-01 2.549357753942106397e-01 -7.854578399618070694e-01 -5.639713929506396939e-01
-3.810805971428710831e-02 -3.042795711554037094e-02 -3.033809673159480469e-01 7.787036290634732350e-01 -5.837053630753920030e-01 -2.300189279176858836e-01
-6.100160489219269566e-02 8.051243252389962690e-02 -3.149258686453973444e-01 4.682417960863543005e-01 -2.607769433798428071e-01 -8.442422674797153137e-01
-2.140612873312959241e-01 -8.493545070638702787e-02 -2.966302537155556251e-01 -1.142141941828477836e-01 -4.949642730202561958e-01 -8.613741848236990961e-01
-1.451991973772860482e-02 -5.095823078394256557e-03 -3.180370651364003987e-01 2.020036867438409489e-01 -1.844243868033056122e-01 -9.618638968659344313e-01
-3.094672967802435115e-02 2.766302014082379357e-02 -3.259795565312031962e-01 8.284294349418298564e-01 3.433797727649479659e-01 -4.424872913179010436e-01
-1.387405377016841523e-01 -7.748596666228671492e-02 -3.048219123882968118e-01 2.931376620683160961e-01 -3.093008074112370553e-01 -9.046564660753155795e-01
-4.569120789472017746e-02 -2.473372694175977188e-02 -3.175043775622642395e-01 6.765943654110333216e-02 -4.694874411088165722e-01 -8.803429691251223321e-01
-2.504805503056454219e-01 5.204946190780703613e-02 -3.161135557481112301e-01 -7.763603579809301714e-01 1.516027919172485416e-01 6.117852466663588062e-01
-1.302533777107690305e-01 -5.159324690235555372e-02 -3.220748564518204349e-01 6.865386878625966416e-01 -5.877241295464513682e-01 -4.280712296064408395e-01
-7.227174374665400192e-02 5.827075080961947873e-02 -3.145055615107555380e-01 7.773313031549117236e-01 8.739332747968217574e-02 -6.229915340095046883e-01
-7.076734320927262345e-02 5.652173804957751763e-02 -3.226686904431849690e-01 7.773313031549117236e-01 8.739332747968217574e-02 -6.229915340095046883e-01
-2.019405658936927472e-01 -7.509986109622858452e-02 -3.027011684511577427e-01 -9.372615015021651397e-02 -8.206166136927377508e-01 -5.637408820632782147e-01
-2.185096258020395310e-01 1.323604983728833007e-01 -3.330254823678257536e-01 -4.725904616498243782e-01 4.354397717288400749e-01 -7.661921826502416932e-01
-9.864600465528133855e-02 1.384039971217144449e-01 -3.063212321093295998e-01 4.177467989950375271e-01 5.507027903692265358e-01 -7.226437909571682416e-01
-1.625209335501135166e-01 1.565268419034324121e-01 -2.985233397156667468e-01 -3.149527447536509817e-01 9.479396989889844471e-01 4.706480269601914096e-02
-1.550330674919663809e-01 1.640332441929914509e-01 -3.153930346440738663e-01 1.446327855773298643e-01 6.671667073605352938e-01 -7.307324694618707595e-01
-1.182151021642317140e-01 -4.488076154863002154e-02 -3.231079026492359452e-01 -4.198861265153114308e-01 -3.546365815919163555e-01 -8.354211726768527857e-01
-7.579831908714793065e-02 -4.404967879409767834e-02 -3.178190827856587353e-01 8.888811472836439798e-01 -2.861874294166813493e-01 -3.577527934867663628e-01
-1.880392711546740037e-01 -8.584703348283147240e-02 -3.004870419798353343e-01 -2.329809594013576568e-01 -8.540037961352555662e-01 -4.651853273083703666e-01
-3.320567753569485941e-02 -1.523557001478759859e-02 -3.322820976079591815e-01 2.190126465489694862e-01 -9.698189063201415605e-01 -1.071669239813318325e-01
-6.079434992805421434e-02 -2.278449395981861636e-02 -3.147101788144189283e-01 1.344034419956726956e-01 -6.375016689738789433e-01 -7.586351803305951824e-01
-1.446476855874199996e-01 1.572563085169017827e-01 -3.152907359508198004e-01 3.152899991800447443e-01 5.388424804947682389e-01 -7.811792352791340210e-01
-1.809865208388681534e-01 1.654616030322681175e-01 -3.191923859364268479e-01 -5.261837633474976128e-01 8.501890999961559947e-01 -1.758241841132105604e-02
-9.774662308135585731e-02 1.270582995795073444e-01 -3.098472054408983878e-01 5.217827573057847168e-01 2.881731065166565631e-01 -8.029315131808641981e-01
-1.042950060419095965e-01 -5.070156451899065359e-02 -3.172697633263926176e-01 1.736237667097783044e-01 -5.151019464390143021e-01 -8.393597395683493056e-01
-4.189270875731037486e-02 -2.151298181843840779e-02 -3.316425772208368428e-01 3.500867937717693223e-01 -8.335269701622024519e-01 -4.274014820269362858e-01
-2.195062531902284425e-02 7.731358741051057998e-03 -3.062583445355261946e-01 7.925220871697343794e-01 5.662363209955175725e-01 -2.264622929619613811e-01
-6.749166630193813299e-02 9.627139105547846687e-02 -3.240366810354883831e-01 3.900974049968097268e-01 5.480441479593335385e-01 -7.399132560660629521e-01
-8.002524774359709436e-02 9.286996408757404453e-02 -3.253528319886365150e-01 5.572682898826990076e-03 2.551967457632707270e-01 -9.668730868925587973e-01
-1.799126929857993717e-01 -7.966808609209173608e-02 -3.190736159683307260e-01 -1.699302405508764380e-01 -8.623556456672240023e-01 -4.769344333681377890e-01
-1.350363937962542338e-01 1.405478929325558179e-01 -3.184104359803023310e-01 1.767508599056501900e-02 3.841765164930120435e-01 -9.230904590074152649e-01
-2.671028870163885682e-02 1.942611524248648996e-02 -3.267047906800794044e-01 8.579506096229420065e-01 4.964223994986282085e-01 -1.322329487066156994e-01
-1.739972573973205261e-01 -7.703127848894690544e-02 -3.171810127356602393e-01 4.450638021222767804e-02 -6.399639220221456926e-01 -7.671149592013165597e-01
-8.296859193244081332e-02 9.675110053010972655e-02 -3.155592589800380043e-01 2.519531428781079940e-01 2.417911428484716130e-01 -9.370467741974641829e-01
-1.991132373225142915e-01 -6.339946100130369744e-02 -3.180841543717988218e-01 -1.930094656768089334e-01 -6.121910497094682491e-01 -7.667916697609410415e-01
-1.386729511933618708e-01 -4.812590132988534691e-02 -3.141261986316096211e-01 5.812376724906479497e-01 -2.121421400791136669e-01 -7.855943485542064009e-01
-2.257415417659333345e-01 -4.303023185014197977e-02 -3.241472526959413569e-01 -2.308921038036179374e-01 -8.378459228225320077e-01 -4.946746870528137552e-01
-1.647710482191471759e-01 -6.445932941321971810e-02 -3.238425073057514259e-01 1.385479988168219490e-01 -2.933092515696932301e-01 -9.459250155099400148e-01
-7.260657650920077089e-02 -3.533426516093096659e-02 -3.087029634121699062e-01 7.818742763017585418e-01 -6.140306166449354119e-01 -1.078842800422839532e-01
-1.358304354154819538e-01 1.416538661765537610e-01 -3.306355045349912980e-01 -6.128094095654591615e-03 3.433160741644816216e-01 -9.391999359471032705e-01
-2.173242033775842352e-01 9.042224523319017382e-02 -3.121937902355369499e-01 -9.405199640822424767e-01 -1.024527304442704109e-02 -3.395839094288513604e-01
-9.352402303784342064e-02 -4.840720238430027550e-02 -3.244565297684237626e-01 5.738422716465826356e-01 -5.384159528212429935e-01 -6.171007284220970668e-01
-2.300951334302245299e-01 1.086028638426424220e-01 -3.131700189122156308e-01 -8.609952547395117728e-01 -1.924646815138471995e-02 -5.082487036675459313e-01
-2.052844207026647272e-01 -6.076953907019055912e-02 -3.175618878460791383e-01 -3.623682617602638767e-01 -6.400216855354874390e-01 -6.775407625472863460e-01
-1.284258102346809427e-01 1.287835166743252213e-01 -3.274135628539162624e-01 1.847375406183208724e-01 4.716887110212719114e-01 -8.621959179800060546e-01
-6.573883667847758849e-02 3.705505443268517635e-02 -3.202790697790183216e-01 1.021245858986312011e-01 6.616570110949931971e-01 -7.428193378095868660e-01
-1.204584074925871967e-01 1.444772172007103561e-01 -3.170047122320727162e-01 3.554567716776341202e-01 5.430892924817912748e-01 -7.607263002290256537e-01
-2.265536331497771394e-01 1.257447657980201305e-01 -3.318240508202245365e-01 -7.635709152262859511e-01 1.586091492289152527e-01 -6.259413672232982950e-01
-3.008212977036775482e-02 1.832976607297492552e-02 -3.160011706916828200e-01 6.648332343207125072e-01 7.228367257275489788e-01 -1.884246228127748057e-01
-7.551765177574447374e-02 5.413796879981674220e-02 -3.348456903460798606e-01 3.120736852377166137e-01 2.991822245738836039e-01 -9.017205839289534897e-01
-2.580304457119483863e-01 -2.739432134533718866e-02 -3.280357135792345002e-01 -5.252281653525937566e-01 -6.709474622592653814e-01 -5.234165427345607302e-01
-2.243327986581509781e-01 8.526158216489614083e-02 -3.266287633242913602e-01 -8.831219665298678523e-01 4.691429604234042539e-01 -6.891426437495920543e-04
-8.712126262804428811e-02 -3.267349632383299146e-02 -3.322067818807298845e-01 6.661065123884440942e-01 -6.155871754944851615e-01 -4.211348281968916862e-01
-1.140252940422770978e-01 -4.539358071813850287e-02 -3.282138005915857804e-01 -3.378569566083817199e-01 -4.436827238821219876e-01 -8.300592252362856138e-01
-2.594830100803590667e-01 -5.989609022907932401e-03 -3.282326443283119510e-01 -9.875411793329980092e-01 -1.561113812676076518e-01 -1.979029459889679321e-02
-1.324048480374532544e-01 -3.630814441764941558e-02 -3.364554302986100809e-01 6.673110746282989725e-01 -6.281033534421655018e-01 -4.002275691067908592e-01
-1.667048183116916493e-01 1.304952820323117824e-01 -3.295339591610570995e-01 1.140361470609499439e-01 1.260344893465690785e-01 -9.854496763704593265e-01
-1.137520677271616210e-01 8.130378056909584594e-02 -3.253536333642678136e-01 4.303713300274625286e-01 -6.653178288669356344e-02 -9.001966674878945085e-01
-1.098331078850879050e-01 1.036136787413545757e-01 -3.286349600543441718e-01 4.303713300274625286e-01 -6.653178288669356344e-02 -9.001966674878945085e-01
-2.137925676760169535e-01 9.733020127293698365e-02 -3.345134346332561126e-01 -6.908517194036040143e-01 1.454496066165966162e-01 -7.082148782199942927e-01
-2.317043601798741970e-01 -5.771691976541023367e-02 -3.101258992555360749e-01 -6.585005989937361415e-01 -3.922102722575855904e-01 -6.422990451966447134e-01
-1.483081314400664652e-01 -5.431993592399882859e-02 -3.159756405152548409e-01 2.017844935611873558e-01 -2.342893875261995440e-01 -9.509950057970091297e-01
-6.550980774358604319e-02 3.539325644056358355e-02 -3.270790337615924193e-01 7.695481416791195572e-01 1.384064245173519392e-01 -6.234094315059215408e-01
-8.241711895861192350e-02 -3.118551006748241511e-02 -3.206321615495799637e-01 1.194475888684333464e-01 -6.942105700768830268e-01 -7.097914890353693718e-01
-2.142907000996260580e-01 1.294803096169513945e-01 -3.271284925523060272e-01 -7.216452735498741777e-01 2.222557983123971126e-01 -6.556145660978303091e-01
-1.791153559433551479e-01 -4.191074081088496522e-02 -3.268194644353062395e-01 2.166202512317847162e-01 1.164813632120774781e-02 -9.761864512871099020e-01
-2.639803873136821744e-01 -3.266958639850359863e-02 -3.184188837629665092e-01 -7.600449368169258646e-01 -5.724320992925102658e-01 -3.076575786788368072e-01
-1.510397819926830587e-01 1.560431316587449491e-01 -3.307156299299420787e-01 2.849081530820914976e-01 8.911164553215321360e-02 -9.544037190507502766e-01
-1.747789328830268996e-01 1.566370635108682019e-01 -3.269652136331862580e-01 -1.744950021034096799e-01 6.142254330442150634e-01 -7.695963952894903093e-01
-1.872249096137731106e-01 1.451731103350829000e-01 -3.286570214421380975e-01 -4.779400787287469421e-01 8.780101698441994396e-01 2.591182731725577906e-02
-1.637791910318709132e-01 -4.600271795147234388e-02 -3.282799957131349311e-01 -3.455566340102058098e-01 -2.810001887928910147e-01 -8.953376494875530112e-01
-1.882938160007707196e-01 -6.145441330985605688e-02 -3.263813639752130014e-01 2.032803275312136115e-01 -6.300067791971862563e-02 -9.770916144458811070e-01
-1.770176563366382128e-01 -5.737362838699426593e-02 -3.296925681982841305e-01 2.711715367638642404e-01 -9.247221488121347421e-02 -9.580787478720561579e-01
-6.564257785059701700e-02 8.580813017720013980e-02 -3.115234751750927678e-01 7.830566849478324265e-01 6.995136551486358378e-02 -6.180040733046319179e-01
-1.229130461845499567e-01 1.387720536633179347e-01 -3.289671337886557745e-01 2.261477695977097135e-01 7.116605470790895449e-01 -6.651288988136601077e-01
-2.603476278664638710e-01 2.803719786467690975e-02 -3.252725149106919789e-01 -4.492336414535627598e-01 8.784248556432546762e-01 1.629690411535243966e-01
-1.416586755340116244e-01 1.303875611878618224e-01 -3.318629922047134917e-01 -6.722987510389848154e-02 7.860755931490470694e-01 -6.144634291386981140e-01
-1.296734998206489631e-01 -3.493848622013070310e-02 -3.340729378193586507e-01 7.173330468589489417e-01 -5.787887642445062042e-01 -3.878619164965468880e-01
-2.071856803539854075e-01 -5.596686557286908309e-02 -3.297061124854547831e-01 4.858322812455748846e-02 -3.720641238382749738e-01 -9.269347105904784945e-01
-1.654159455912954380e-01 1.494029734774032780e-01 -3.210355453662035452e-01 2.029073375418814218e-01 8.682251607852495279e-02 -9.753412034121491381e-01
-1.568107964812918975e-01 1.341343039704540330e-01 -3.209336110051123625e-01 2.029073375418814218e-01 8.682251607852495279e-02 -9.753412034121491381e-01
-1.180954584576528604e-01 1.055048059827284473e-01 -3.335198359007368052e-01 5.523095102726918171e-01 5.163345200653685074e-01 -6.544867212183949068e-01
-2.053972092009455630e-01 1.475170641857528053e-01 -3.250730883202084254e-01 -5.740291502537032686e-01 7.287294382836208007e-01 -3.734219335254020944e-01
-1.180053933800878918e-01 8.695328549044054056e-02 -3.341694176262895444e-01 5.673479541993600161e-01 -1.410503061378155232e-01 -8.113082706371416153e-01
-3.771150485682737974e-02 2.075809984402501515e-02 -3.232918955667379857e-01 7.432166271460448337e-02 8.480024329605043709e-01 -5.247553374139246607e-01
-2.521134814772157395e-01 8.683104121298244882e-02 -3.388469084635034045e-01 -5.991614676799954520e-01 7.283068758725933511e-01 3.325276382562156186e-01
-1.649301604916680042e-01 -4.299928786486367088e-02 -3.333245189199327552e-01 -5.261982971115969354e-01 -2.499203716181511714e-01 -8.128069635326096165e-01
-1.524227012647791923e-01 1.335224492007111852e-01 -3.262708093505138907e-01 -6.401455476850555215e-02 5.132020273098918395e-01 -8.558772201331258378e-01
-1.520310867497931540e-01 -6.373478427580633876e-02 -3.173285864348261986e-01 2.561796922644345997e-01 -2.996367971275571418e-01 -9.190156446320371098e-01
-2.995983804119615318e-02 7.926626727243788612e-03 -3.239785825698890398e-01 9.217238350329423069e-01 1.769648975957728576e-01 -3.451211337357986686e-01
-1.013527123143721509e-01 6.314163547951708033e-02 -3.337783625412723554e-01 3.544732729945452437e-02 1.304273308988593560e-01 -9.908239996800264349e-01
-7.430124043295764646e-02 8.050287019489726914e-02 -3.238553462964332552e-01 3.879461428585365690e-01 1.333872503725445080e-01 -9.119789644938287587e-01
-8.634849706468862574e-02 7.123314099200848959e-02 -3.352967297197800289e-01 -4.748051809052408756e-02 -1.623086883503983002e-01 -9.855970221585639290e-01
-1.825628927543958835e-01 -3.495164110385560324e-02 -3.317063071226123427e-01 3.465202829898695325e-01 -4.592350690802114443e-01 -8.179406120272513236e-01
-1.824965757061899341e-01 -4.379410539658756818e-02 -3.296114816723985652e-01 1.288427958917939264e-01 -2.670104333234889493e-01 -9.550418642359026489e-01
-6.364245325281216170e-02 2.926557506197327227e-02 -3.314053250755746860e-01 4.686730179319771317e-01 2.136206554185264908e-02 -8.831133927295623520e-01
-9.176931081376010768e-02 8.470626776127741786e-02 -3.227338670666297094e-01 -1.593679655716334354e-01 4.651335593329206791e-02 -9.861228925795108013e-01
-2.178895140753309145e-01 -6.256969823840088929e-02 -3.277034239914460301e-01 -4.036578937423385693e-01 -3.673131858043915399e-01 -8.379387378285642063e-01
-1.343382410391383563e-01 -4.057427775293026562e-02 -3.344465222716846431e-01 5.773017274030477486e-01 -6.297649314717266300e-01 -5.197295899079334980e-01
-1.724127464453924785e-01 -1.872440712041701510e-02 -3.291366946902437585e-01 -3.467838821067829036e-01 -5.202982034052103799e-01 -7.804042020929022883e-01
-2.493647993199393231e-01 -3.482076857714241913e-02 -3.435936892130775910e-01 -4.254854279192138433e-01 -7.690078718864061802e-01 -4.770629346377100455e-01
-2.488003895108209240e-01 6.540510548703565297e-02 -3.196935023979915469e-01 -5.299659832063182696e-01 4.974179870827308281e-01 6.868124946233321593e-01
-9.480185266047497228e-02 1.041781356695763577e-01 -3.149425476857994344e-01 6.060144025457747663e-01 4.194394194821688959e-01 -6.758824729873892379e-01
-1.818334002399835392e-01 1.485171837592515198e-01 -3.243391149780431304e-01 6.454616537892925165e-02 5.678947524611775988e-01 -8.205664766866447302e-01
-2.287153708748317638e-01 9.122633743343569468e-02 -3.149242912194811783e-01 -7.653708889461386944e-01 6.434654364741272392e-01 1.263465143794584127e-02
-1.219243377141538270e-01 -2.281159072363676474e-02 -3.265744415553022972e-01 2.108100972954295160e-01 -5.494002515249719609e-01 -8.085285811290712221e-01
-6.026156928274058883e-02 -1.930713587382115737e-02 -3.196300824384953332e-01 -3.602262699739847696e-01 -6.656851115888701154e-01 -6.535291627995980512e-01
-5.298339878587345758e-02 2.063873362533185166e-02 -3.348577203091817056e-01 1.450639939871433137e-01 3.112924359743208247e-01 -9.391770104478023296e-01
-1.952049707434583836e-01 1.300635498814848579e-01 -3.257756530310694232e-01 -1.323441581699532667e-02 3.441029708890343264e-02 -9.993201597547385351e-01
-1.775187585825342418e-01 1.425800041513280436e-01 -3.306722053316372145e-01 2.589023649906285196e-01 5.602778933620598811e-02 -9.642771656657421753e-01
-1.829227242643976514e-01 -3.365766896647605366e-02 -3.343902039197944043e-01 7.023904932377382782e-01 -6.750048800108839897e-01 -2.258672330612357115e-01
-3.032715993512930322e-02 -4.180035679286651581e-03 -3.393633471541549484e-01 9.712864648073483709e-01 -1.414851556509169883e-01 -1.912708917020035926e-01
-1.118460677719726182e-01 -3.783199548182403921e-02 -3.350166367429994185e-01 -3.464170016737487812e-01 -4.815909957757175675e-01 -8.050250764660208391e-01
-1.863158152925355471e-01 1.436170877933146406e-01 -3.263406319885137630e-01 -3.743359636044459732e-02 -1.043317641173294001e-02 -9.992446520714959313e-01
-2.252831812586464921e-01 1.114108188976094677e-01 -3.273789041198577054e-01 -7.018232385148917007e-01 1.969047925121998333e-01 -6.845967021292147514e-01
-2.116383695186505320e-01 1.046196188137245991e-01 -3.350297959511056023e-01 -7.018232385148917007e-01 1.969047925121998333e-01 -6.845967021292147514e-01
-1.187778819090211796e-01 5.488459828962566345e-02 -3.421449670767781059e-01 7.578080772477756577e-01 3.675452353937702643e-02 -6.514414962661058128e-01
-2.732946122374020348e-01 -1.753042937446018523e-02 -3.432959978279890301e-01 -7.351954660664204999e-01 -1.210983837879932162e-01 6.669503790532806953e-01
-7.627391867578350859e-02 1.235542704182390587e-02 -3.494689484606111618e-01 4.665460253965834081e-01 7.478642301070292930e-01 -4.722646498660161285e-01
-8.946534751212878445e-02 1.012071308879096965e-01 -3.301219837284370962e-01 2.428315311758991735e-01 6.901081681149777089e-03 -9.700439281488226761e-01
-2.106685389791466689e-01 1.186697835826859559e-01 -3.474552506342007963e-01 7.216335849467843400e-02 4.238135356581838598e-01 -9.028701660170623811e-01
-1.897363639180784933e-01 1.097345964302867266e-01 -3.416223685808147392e-01 -1.861136467953854734e-01 7.499192656366742149e-01 -6.348092670270918392e-01
-1.852299479625030276e-01 1.360905943192033396e-01 -3.355899415089997340e-01 -6.377741660691017833e-02 2.862394107302331236e-01 -9.560331797985660574e-01
-9.445096011602518993e-02 -2.659256193907409693e-02 -3.326387116781387432e-01 1.100392544902662056e-01 -6.136703943703104569e-01 -7.818567704794874285e-01
-9.920441062819171374e-02 6.077992122036436629e-02 -3.276376349989959524e-01 -3.418824282781163237e-01 4.020416108945653599e-01 -8.493991690271197603e-01
-7.063101237334121207e-02 2.897815470252857253e-02 -3.320205624579009029e-01 7.399231859248468490e-01 1.908662232863763131e-01 -6.450455516777242604e-01
-1.386192363108121328e-01 -3.988580462245410602e-02 -3.316034938255579267e-01 -9.223145004698361793e-03 -4.664230188779031061e-01 -8.845137088010821547e-01
-2.669513014436601939e-01 -1.731100367701337434e-02 -3.200070332536772977e-01 -9.983357607576952564e-01 1.774625527984902140e-02 -5.487056784740130394e-02
-2.524369236095882485e-01 6.702045004760133484e-02 -3.375533069408457876e-01 -8.029993185646945308e-01 5.943865419020002427e-01 4.355150043819164263e-02
-1.390695507574947754e-01 -3.608498471851638578e-02 -3.370669785722040790e-01 5.440444076588005773e-01 -5.932114528833282163e-01 -5.933935074326613934e-01
-4.024949431320824084e-02 1.506598179166037180e-02 -3.414243171305592628e-01 3.138017653862693046e-02 7.960336290130531900e-01 -6.044383723761368454e-01
-8.813351350649714644e-02 5.258393572475905664e-02 -3.308207713164731389e-01 -7.370997431184495019e-02 2.385439128179792367e-01 -9.683303368915153753e-01
-7.170393144770055571e-02 -2.067018224631835682e-02 -3.399548325801444171e-01 6.441651755895162479e-01 -3.750252138823235715e-01 -6.666388193844138277e-01
-2.686533547689272106e-01 -2.483513951337894266e-02 -3.387728544114406160e-01 -7.088066114429218967e-01 -2.628179787151810332e-01 6.546143121249867747e-01
-6.583311323555286754e-02 3.463396213277498276e-02 -3.155164433885856989e-01 8.670528281756615385e-01 1.566547267878248828e-01 -4.729468149037676095e-01
-1.143335314296412553e-01 4.123042424974458081e-02 -3.355148344382862247e-01 1.828731438741909854e-01 -4.457114909658611568e-01 -8.762982825902139172e-01
-1.009425890056974695e-01 7.823762158476417483e-02 -3.267509494569934558e-01 1.192418962580291675e-01 1.630557946947175374e-01 -9.793845914620381565e-01
-5.505102372270628125e-02 -1.393601001997861813e-02 -3.471002384908294380e-01 3.674780407771856550e-01 -8.235904007296859231e-01 -4.320402080506817732e-01
-2.335817188698310620e-01 -5.208598486277754569e-02 -3.404988499378408529e-01 2.628516860581238054e-02 -9.805688540722042879e-01 -1.944063073433784927e-01
-1.598993848592503708e-01 -3.945844566083263338e-02 -3.290739107156647192e-01 -3.324748613200892988e-01 -5.799234440420247827e-01 -7.437400524649887545e-01
-1.229438462594198284e-01 -1.518722049318110140e-02 -3.240988095785051759e-01 2.082806587608022619e-01 -6.364811671195171883e-01 -7.426377926609603053e-01
-1.566248279078857053e-01 -5.497558220525933931e-02 -3.295784644710837985e-01 -1.159690498150576787e-01 -5.916431687436717324e-01 -7.978154801480979996e-01
-1.074519786224781698e-01 4.249576822965681067e-02 -3.425092844768128364e-01 -3.925137466629363137e-01 6.909800171122518764e-01 -6.070251845122872636e-01
-7.590135222592543640e-02 6.307448770176488084e-02 -3.273097075246376164e-01 -4.137110177544674194e-02 5.106744602054571480e-01 -8.587782179537104543e-01
-6.662588740946871757e-02 -1.210437675496950534e-02 -3.363678618381509278e-01 5.906223941120014587e-01 -7.987940757492700827e-01 -1.144255745944801894e-01
-5.720514454361306372e-02 -2.089181972041467134e-02 -3.298177980551961763e-01 -5.742338746615175404e-01 -6.877048664241774967e-01 -4.442043154762511659e-01
-1.226894320029009999e-01 1.303196589669033956e-01 -3.307881943660280211e-01 1.333737690892516092e-01 7.110383940347948517e-01 -6.903881806109855024e-01
-1.266742067020332208e-01 1.338796451078725636e-01 -3.311258476561717012e-01 1.333737690892516092e-01 7.110383940347948517e-01 -6.903881806109855024e-01
-1.334269825193912240e-01 -2.206451621963681844e-02 -3.400332236700027710e-01 6.607959846231438172e-01 -6.144059035599152008e-01 -4.311079358776105375e-01
-1.045711143776759389e-01 2.921088593433190939e-02 -3.408594663621243304e-01 -1.080229469645393320e-01 5.921586591534846455e-01 -7.985481609262171654e-01
-8.417702123036334416e-02 -8.365843202543847557e-03 -3.462643426486338161e-01 1.880259434897466053e-01 -9.741536135861592616e-01 -1.251837917296751701e-01
-1.254122975329608203e-01 5.797352652736192241e-02 -3.464924727471475618e-01 7.170563082693260926e-01 2.121395576752360679e-01 -6.639480844467589016e-01
-3.575160200553342132e-02 -1.694901501948698971e-02 -3.194363443746897069e-01 5.874892218682252754e-01 -8.013371747691773184e-01 -1.127614584936709324e-01
-8.105779610806729263e-02 -1.035803408405603504e-02 -3.462564620020394668e-01 1.883340307906310740e-01 -9.766705331911659238e-01 -1.031744272687628722e-01
-1.128869644431165498e-01 1.058369193971116506e-01 -3.372587343245415648e-01 6.190350394189564343e-01 5.944358178353260219e-02 -7.831105161829429173e-01
-1.551824866774639544e-01 -3.383445476817768111e-02 -3.408730960389911302e-01 -5.110427521251963423e-01 -4.268837430678181222e-01 -7.460600347188650616e-01
-7.246978504549349276e-02 -9.517995210262197858e-03 -3.410646189771117665e-01 7.573518961087899459e-01 -5.663997535729901056e-01 -3.249760369825392958e-01
-2.580448133770226748e-01 6.849742356074146887e-02 -3.459092205897266736e-01 -9.024534607429277600e-01 4.130736019381567314e-01 -1.222618115968768931e-01
-1.746497835012170152e-01 -3.099641412043531441e-02 -3.436629500379554947e-01 5.264810330222863266e-01 -8.317022494598799165e-01 -1.763209860202746282e-01
-2.737853835116953460e-01 1.657553033580999938e-02 -3.377744057452050086e-01 -7.250324945726057679e-01 -2.494429510779123393e-01 6.419549018204989688e-01
-2.376034807641331792e-01 8.433050777842449053e-02 -3.317312995745423931e-01 -2.062581418572583258e-01 8.404114177216593928e-01 5.011648709563165660e-01
-2.017916961550604849e-01 -5.169015895481410966e-02 -3.382304604491042088e-01 -1.598533900492854487e-01 -9.673734163612721648e-01 -1.965593218528996211e-01
-2.604854011828484639e-01 4.936048204503439008e-02 -3.433183152806179583e-01 -9.505631395705772535e-01 2.894122827559704736e-01 -1.125621973830710776e-01
-1.697269426941063197e-01 1.291441692357461479e-01 -3.347310625050554656e-01 -5.014724101394728295e-02 7.734590203457182289e-01 -6.318594765171532401e-01
-4.637745921651609260e-02 -6.677062615714791753e-03 -3.485522326861555942e-01 -5.505605699286538757e-01 -4.348168165769702442e-01 -7.126130751408545905e-01
-2.052914442252927463e-01 1.122017469286682306e-01 -3.326977151751258077e-01 -6.299709821967792722e-01 3.896216389368399868e-01 -6.718121315235353608e-01
-1.877661671143641131e-01 1.175557507333445800e-01 -3.372028983359499077e-01 -1.603205112058431747e-01 6.996098884885965097e-01 -6.963069277378121091e-01
-2.745329538633704547e-01 1.389715079742908158e-03 -3.430803414606175550e-01 -8.900157156830768024e-01 -1.749535806723713505e-01 4.210264486312665921e-01
-2.630536650835383350e-01 5.871221825100291641e-02 -3.234911306680144927e-01 -9.082673848427557095e-01 2.394905278470404186e-01 3.430665310146813196e-01
-2.339442534251809647e-01 6.968185016282781030e-02 -3.399164134915224067e-01 -3.077877556560315031e-01 8.447496980139089784e-01 4.377952091716317828e-01
-8.200254777940098327e-02 4.232297228470500994e-02 -3.432539355783672530e-01 -5.296425246022927469e-02 1.058170298107550117e-01 -9.929740903786760109e-01
-4.845730043516335850e-02 2.101368921688722552e-02 -3.232488612709777942e-01 2.024273195827989424e-01 3.515850139568021393e-01 -9.140082922203269788e-01
-4.973001731590839802e-02 3.088237009702731600e-02 -3.316466260122390430e-01 2.024273195827989424e-01 3.515850139568021393e-01 -9.140082922203269788e-01
-2.691521820535509590e-01 1.983610463653056807e-02 -3.292551625321848419e-01 -4.414268312999076738e-01 5.767241727197500722e-01 6.874093258090427927e-01
-1.086838863023336793e-01 -8.237864198752799932e-03 -3.355948882879447592e-01 1.009298293853088668e-01 -8.017489496054777121e-01 -5.890770674086417413e-01
-9.678821431037272494e-02 5.254447164680645099e-02 -3.253659378048389672e-01 7.574437798092038543e-01 4.308356244691850800e-02 -6.514773419507610130e-01
-1.086204593588136619e-01 5.240965103156754179e-02 -3.412723308078418061e-01 7.574437798092038543e-01 4.308356244691850800e-02 -6.514773419507610130e-01
-5.215998638132885584e-02 -3.580717948504367684e-03 -3.487603546170643387e-01 -5.958529265000723774e-01 3.564844056865361099e-01 -7.196375188131984846e-01
-9.068156008625360975e-02 1.987551362901583338e-02 -3.432893676697988394e-01 -1.065655110549959539e-01 6.612706855680435813e-01 -7.425394752213225757e-01
-9.475282263316084364e-02 -2.542661993384000632e-02 -3.451255823542445644e-01 -8.597639576381442550e-02 -6.019767377517384332e-01 -7.938715680620126447e-01
-2.192770376069563820e-01 -3.199041647826054990e-02 -3.544444627665656045e-01 -9.540577048330539656e-02 -9.852079118346442899e-01 -1.423485490509354690e-01
-1.215407695514862385e-01 7.162937139835545697e-02 -3.381427633309763148e-01 6.699361500026662641e-01 2.231074729470851337e-01 -7.081021186486951002e-01
-7.903978243505747903e-02 8.549902367865340469e-03 -3.374117133638673272e-01 7.269930029535175420e-01 6.598392588430445072e-01 -1.899824364147607858e-01
-2.085576032479550534e-01 -4.575340181763708214e-02 -3.364010690873331377e-01 2.636668676162693958e-01 -9.522934705858321358e-01 -1.536780036342726974e-01
-9.312082498735731184e-02 1.751093310017054483e-02 -3.517138612251797247e-01 5.529152435863739917e-02 7.192034949949334122e-01 -6.925959717765987067e-01
-2.389841705548659823e-01 9.297410227217842160e-02 -3.543886675333051683e-01 -2.653167875222677830e-01 9.304835260010675402e-01 -2.526012868128037492e-01
-4.928805852627006490e-02 9.375147357836167289e-03 -3.359957012634748885e-01 -2.973681898563979575e-01 5.800887960031909651e-01 -7.583331381478047861e-01
-5.371662693282686085e-02 -1.318469023793098632e-04 -3.354719436874439853e-01 -2.973681898563979575e-01 5.800887960031909651e-01 -7.583331381478047861e-01
-2.707058425438346183e-01 -2.303727172801595113e-02 -3.446045346198207682e-01 -6.457993186131933960e-01 -3.425681180723728070e-01 6.823417945275578322e-01
-2.637790533909123436e-01 -1.032795392104105675e-03 -3.112159892224659052e-01 -9.963029930317590654e-01 -4.587750027640771777e-02 7.263333287373474612e-02
-1.024565628948145707e-01 -3.014591564617974395e-02 -3.336893669899442250e-01 -3.202083530497813468e-01 -3.995894876608640511e-01 -8.589498541754779781e-01
-2.054678021619351092e-01 -3.514845350816871161e-02 -3.497685099534698083e-01 -1.567952563063558513e-01 -8.938189640876003095e-01 -4.201224905157937561e-01
-1.696839062618971938e-01 -1.358690520408523811e-02 -3.323303718754595515e-01 -3.886147617808634602e-01 -3.808487086105359354e-01 -8.390070488831962159e-01
-2.546312222213708010e-01 -2.674111348546052286e-02 -3.371595512031545505e-01 -5.398281077658698135e-02 -9.753307476653021446e-01 2.140462305187878223e-01
-2.586070051980786100e-01 -3.409246225475959235e-02 -3.487545738629438952e-01 -1.266393066237568588e-01 -9.249617992785872378e-01 3.583408376018182850e-01
-1.197723070946849350e-01 1.144694372545473626e-01 -3.456626047462252327e-01 5.605362860797192814e-01 3.855042090374849678e-04 -8.281297744764765101e-01
-2.815617991855849933e-01 1.407939192983652041e-02 -3.462453973942156704e-01 -9.371751171908409006e-01 -2.146862812152142419e-01 2.749774543054675502e-01
-1.245133967695120497e-01 -2.901809749468294355e-02 -3.449028638712107742e-01 4.928602390480575357e-01 -6.220991974895555554e-01 -6.083431377506798299e-01
-1.912097828156440471e-01 1.009181121912769846e-01 -3.357110326658764854e-01 -5.441730305053733563e-01 2.233378961267398766e-01 -8.087001279981842483e-01
-3.954962349987536929e-02 -2.737045867567901650e-03 -3.464089698564878916e-01 4.031720031789391423e-01 -7.840378311998826011e-02 -9.117593885697888867e-01
-1.485243362939250578e-01 8.582289218780494999e-02 -3.547106849366754022e-01 1.362321047049754319e-01 -2.236868240749361747e-01 -9.650932692661995382e-01
-1.333456889792911659e-01 8.585935353697211891e-02 -3.453093732885487155e-01 -5.478749103604622916e-02 -7.078983826141363456e-02 -9.959855067343590385e-01
-1.488248022690761285e-01 6.819094483453158606e-02 -3.441568600236329378e-01 -2.472617922130423973e-01 1.766009090794800479e-02 -9.687877617418156895e-01
-1.352796067396450641e-01 1.030555228768975790e-01 -3.466049272518874624e-01 3.648241435998405002e-01 -2.097252215250516860e-01 -9.071486513812998531e-01
-1.170198343530502172e-01 1.018881444186625906e-01 -3.426529026162157821e-01 3.648241435998405002e-01 -2.097252215250516860e-01 -9.071486513812998531e-01
-2.361461061518307647e-01 7.998361444917648222e-02 -3.509807701269442304e-01 1.178606143314896021e-01 9.714983000113874834e-01 2.056694645891512241e-01
-2.524753835083025089e-01 6.907700106472119961e-02 -3.654863128764780922e-01 -5.193773973042689063e-01 8.048241937315611105e-01 -2.872370734320106034e-01
-2.342566487877418557e-01 -4.064806321473139056e-02 -3.608148266364510914e-01 -3.161175147677254826e-01 -7.113750774763261120e-01 -6.277063134959115498e-01
-1.622037054734003780e-01 7.882033797329074387e-02 -3.520623427695154239e-01 3.741800921461516660e-01 -1.181294043115300590e-01 -9.198014473126798762e-01
-2.654904994086172976e-01 -4.055589107160608581e-02 -3.415918050987345467e-01 -5.213819266563735066e-01 -7.720004712805516034e-01 3.635603923678897842e-01
-2.740097139062025455e-01 4.742726187288156398e-02 -3.414355948471693991e-01 -4.875638781660086019e-01 7.908040453483723420e-01 3.700140896889885789e-01
-2.734693803166136639e-01 4.511060182134206398e-02 -3.408737303923258799e-01 -4.875638781660086019e-01 7.908040453483723420e-01 3.700140896889885789e-01
-1.560360015873156758e-01 1.061220594603329986e-01 -3.458820726925797007e-01 1.329614401546025393e-01 -2.677254697256770122e-01 -9.542768614464984811e-01
-1.552490507634722849e-01 6.754167971595192999e-02 -3.464258700204343455e-01 5.563898505701212610e-02 3.975829893995866393e-02 -9.976590504812886673e-01
-1.185363610368951048e-01 6.921973882949307433e-02 -3.354785526847732791e-01 7.733825669443518125e-01 8.193277293345128942e-02 -6.286226418655319614e-01
-1.475347676382708639e-01 -6.032998300759258997e-03 -3.540472927979397832e-01 -4.390656188939974780e-01 -4.207672764588031300e-01 -7.938364323755064955e-01
-1.075005628918384443e-01 -8.168172478214712207e-03 -3.361240816872395620e-01 -3.740885682061642625e-01 -6.921635767393946592e-01 -6.172255067418958019e-01
-1.625669254427206389e-01 -8.281785563739150688e-03 -3.502850549235504984e-01 -1.433805279539443200e-01 -5.931321295285333361e-01 -7.922350037233871767e-01
-2.548878785582584516e-01 -4.389044477400250860e-02 -3.574777391809053628e-01 1.990039079438943315e-01 -8.505223558650941706e-01 4.868358725450994684e-01
-1.251763792200035197e-01 6.741734972354357369e-02 -3.551598904016051717e-01 1.099532099821010217e-01 1.266110505234046835e-01 -9.858397098413067550e-01
-1.316839794195619195e-01 9.025938377958653280e-02 -3.461412686768727820e-01 3.873252920704653990e-01 2.804818823280422202e-01 -8.782420120947568298e-01
-1.400278763299802609e-01 4.592740416407073423e-02 -3.590757621607313377e-01 -1.274553914680260913e-01 4.379764139913166487e-01 -8.899054915961802648e-01
-7.287906742883211442e-02 1.381924081818419314e-03 -3.558439905573178574e-01 7.183320192738131826e-01 -7.668212939414278950e-02 -6.914614675580887937e-01
-1.514787269594756181e-01 1.222508915548342623e-01 -3.354208280268249354e-01 -2.134788408866127030e-02 7.793003283922481650e-01 -6.262868879456692239e-01
-2.700535357805528003e-01 -1.448535987222925731e-02 -3.481370359758204636e-01 -9.597123246789188711e-01 -1.395869785028160115e-01 2.438600608788572266e-01
-2.271783128040307242e-01 -3.598458925557581484e-02 -3.519374058917095205e-01 -2.725789594038984798e-01 -6.167616058449025829e-01 -7.384482598299658695e-01
-2.758669277610126813e-01 -8.026408264359422007e-03 -3.683349898158402302e-01 -9.719547427686949792e-01 -2.326737885120989946e-01 3.415971529253688382e-02
-1.412970480502767356e-01 7.492704381855982976e-02 -3.503677477498154391e-01 -1.966970535759540450e-01 6.316048329673608352e-02 -9.784278320163735110e-01
-1.169732566906654114e-01 2.561647018617171923e-02 -3.531877290373988121e-01 6.937367042018244279e-01 6.132799997167772688e-01 -3.776466962527009197e-01
-1.664325291041572619e-01 6.015093972481688755e-02 -3.493217585500273947e-01 4.009042584167393231e-01 2.457512828190784038e-01 -8.825429635865337241e-01
-1.453145891180636917e-01 5.766300885971596679e-02 -3.566665589989412299e-01 -3.252386887177892705e-01 2.654462225093784933e-01 -9.076112043802865292e-01
-1.379233704681673833e-01 1.126412779754520921e-01 -3.481627693647615374e-01 7.467046210596274547e-02 7.503980769644024162e-01 -6.567549376875735367e-01
-1.168296221951398706e-01 6.536995950019679202e-02 -3.390861258293694225e-01 5.121944197647846364e-01 1.150995390104035399e-01 -8.511221842258654968e-01
-1.625011509021299372e-01 1.143397760184851758e-01 -3.489089498109912979e-01 -5.131417567381522243e-02 7.739683299933194371e-01 -6.311417269855236212e-01
-1.207036581546960391e-01 -5.729668448872959896e-03 -3.544885275820048309e-01 5.977547725676962687e-01 -7.914082186593819346e-01 -1.279150628773856324e-01
-2.147495769738544669e-01 7.771778707558850419e-02 -3.597384795408900549e-01 -8.127210877759939445e-01 4.149131116495752281e-01 -4.090617841664902499e-01
-1.071851817596087136e-01 3.473579167461308351e-03 -3.543425018518102654e-01 -5.203538894419448280e-01 -3.609485690562196369e-01 -7.739172825560284297e-01
-1.374273544099129385e-01 1.055908140643605081e-01 -3.614958106655704606e-01 2.380538735700615804e-01 -2.394347911619180425e-01 -9.412764387041343550e-01
-1.827631780956726071e-01 9.456403065454532797e-02 -3.604568448300598527e-01 7.770773693101240553e-02 -1.975429624123266614e-01 -9.772094379519791207e-01
-1.508693083441468019e-01 9.545958850389098249e-02 -3.553636331861619868e-01 1.276217448363748119e-01 -2.620102208754870321e-01 -9.565894283346945137e-01
-2.352648635504338004e-01 -3.936104801751059978e-02 -3.503790754888074233e-01 -5.733450430930026043e-02 -9.084008000119875303e-01 -4.141506261653940535e-01
-2.161290973065762844e-01 -4.018366746085899610e-02 -3.627488451634875988e-01 -3.733238277927696802e-01 -8.009664680451961116e-01 -4.680620008816763766e-01
