-3.210428402976598927e-01 -5.745822108304796672e-01 5.173727411964355039e-01 -4.550266770242998304e-01 -8.006767743133089699e-01 3.897017144836009694e-01
-2.932120583656379065e-01 -5.572067463604383208e-01 5.218677223149373878e-01 -4.550266770242998304e-01 -8.006767743133089699e-01 3.897017144836009694e-01
-1.943476670235615711e-01 -5.928419246748581894e-01 5.133569573714324985e-01 -7.715098419999608104e-02 -9.552656083376485086e-01 -2.855089195879426667e-01
-1.704407674227282343e-01 -5.706466851503511073e-01 4.953190863836902103e-01 -7.715098419999608104e-02 -9.552656083376485086e-01 -2.855089195879426667e-01
-2.826832692510338613e-02 -5.790237858530316029e-01 4.753846949106899089e-01 -3.751372327216832836e-02 -9.656982161934097864e-01 -2.569429427073755545e-01
-3.127612689185093470e-02 -6.039002524828008811e-01 5.188413069156175839e-01 -3.751372327216832836e-02 -9.656982161934097864e-01 -2.569429427073755545e-01
-7.974537194256541700e-03 -5.806243267739997771e-01 4.708897137047677317e-01 -3.751372327216832836e-02 -9.656982161934097864e-01 -2.569429427073755545e-01
2.445628103216047622e-01 -6.094544405484337846e-01 4.620351662296654505e-01 -1.019815396760220400e-01 -8.398339300892944115e-01 -5.331779585054863269e-01
8.768187333618679413e-02 -6.002675310516276674e-01 4.933047235222636773e-01 -9.053807917724214505e-02 -9.614332115553345659e-01 -2.597095222306852191e-01
1.310906928639801183e-01 -5.952606985590810362e-01 4.863140464220019887e-01 -9.053807917724214505e-02 -9.614332115553345659e-01 -2.597095222306852191e-01
1.288579036543670564e-01 -5.877333079496571688e-01 4.351801367862990766e-01 -9.053807917724214505e-02 -9.614332115553345659e-01 -2.597095222306852191e-01
1.212820257346099578e-01 -6.027170515748292434e-01 4.687111412119625009e-01 -9.053807917724214505e-02 -9.614332115553345659e-01 -2.597095222306852191e-01
1.543461893746628510e-01 -5.913041213900007698e-01 4.453717812745280336e-01 -9.093190097320810739e-02 -9.613856687002030332e-01 -2.597479266582548019e-01
1.449498450268462413e-01 -5.831675797947015738e-01 4.614141901071714402e-01 -9.093190097320810739e-02 -9.613856687002030332e-01 -2.597479266582548019e-01
1.338019334221480505e-01 -5.922239508349147474e-01 4.725599254822524520e-01 -9.093190097320810739e-02 -9.613856687002030332e-01 -2.597479266582548019e-01
1.595683361052795124e-01 -6.013463064031949745e-01 4.865707283808788364e-01 -5.108251849877470940e-02 -9.688900642482312087e-01 -2.421623829269952954e-01
1.437512303841076977e-01 -6.099372573117707308e-01 5.057632249911597766e-01 -5.108251849877470940e-02 -9.688900642482312087e-01 -2.421623829269952954e-01
3.176662804701168574e-01 -6.046361381235313415e-01 4.472501652977859399e-01 3.616489284487464095e-01 -9.146406460708828012e-01 1.806724691448913789e-01
-3.738987705506551240e-01 -5.385057509676469678e-01 5.031613202462270618e-01 -5.251651419638686535e-01 -7.579333867841150374e-01 3.869606631998021018e-01
-3.453932884419859684e-01 -5.498465611490663818e-01 4.984531801349266766e-01 -5.251651419638686535e-01 -7.579333867841150374e-01 3.869606631998021018e-01
-3.344053051896572759e-01 -5.517524934644434387e-01 5.046679545490213581e-01 -4.604079715315587684e-01 -8.003556023181440660e-01 3.839992312338085800e-01
-3.238673132820367728e-01 -5.626742256312694535e-01 4.924339709606381232e-01 -4.604079715315587684e-01 -8.003556023181440660e-01 3.839992312338085800e-01
-1.396471405420482981e-01 -5.923129182379711644e-01 4.982764273258337151e-01 -2.145576347398674838e-02 -9.645740131851273658e-01 -2.629384401370141733e-01
-1.141689494952446149e-01 -5.970653824102151175e-01 5.098340332322887081e-01 -2.145576347398674838e-02 -9.645740131851273658e-01 -2.629384401370141733e-01
-1.008948172521123010e-01 -5.805998087115991080e-01 4.830101516786877158e-01 -2.145576347398674838e-02 -9.645740131851273658e-01 -2.629384401370141733e-01
1.021589915280551042e-01 -5.877994217091137008e-01 4.472837146976026412e-01 -6.682770946351623831e-02 -9.679625535024399818e-01 -2.420383280906062695e-01
1.713045680408471771e-01 -5.891869471281235837e-01 4.531902076369380694e-01 -6.743067187755028002e-02 -9.683870666806759786e-01 -2.401657627051323185e-01
1.753278293547058664e-01 -5.989870618804550295e-01 4.716457014298038875e-01 -6.743067187755028002e-02 -9.683870666806759786e-01 -2.401657627051323185e-01
3.404261753336037533e-01 -5.916699179919676643e-01 4.416523889027275107e-01 5.362225893041977498e-01 -7.688711206699557765e-01 3.482851339342920571e-01
3.396317005593814664e-01 -5.728029577342321765e-01 4.688124330801931583e-01 5.362225893041977498e-01 -7.688711206699557765e-01 3.482851339342920571e-01
-2.150533396459544666e-01 -5.891220022963310488e-01 5.165615266047688392e-01 -4.831957386513088121e-02 -9.646590506242227470e-01 -2.590330767108049437e-01
-1.894936396136537304e-01 -5.815787871472221093e-01 4.608772885187685242e-01 -4.831957386513088121e-02 -9.646590506242227470e-01 -2.590330767108049437e-01
-2.317988444492598832e-01 -5.988254589942706430e-01 5.252029563613330732e-01 -4.831957386513088121e-02 -9.646590506242227470e-01 -2.590330767108049437e-01
-2.297077677094584713e-01 -5.784595974232056292e-01 4.925457459698859286e-01 -4.831957386513088121e-02 -9.646590506242227470e-01 -2.590330767108049437e-01
-1.917612153455500179e-01 -5.844193958242958065e-01 4.926507944547218742e-01 -4.662252785852984832e-02 -9.649183638637959248e-01 -2.583774196296882986e-01
1.941916493206836403e-01 -5.891683795582585148e-01 4.219999833772962172e-01 -6.377670339599023075e-02 -9.643977468545679166e-01 -2.566505756194063514e-01
1.853300659184358989e-01 -5.830101062102956977e-01 4.260214476731947197e-01 -6.377670339599023075e-02 -9.643977468545679166e-01 -2.566505756194063514e-01
2.638430416236303699e-01 -6.149788748081905787e-01 4.605117989672890544e-01 -2.607991011344503729e-01 -8.488880045592113177e-01 -4.597531778714998296e-01
-3.010969380863493527e-01 -5.746550651226915996e-01 4.804048244879700058e-01 -2.833889445854713141e-01 -9.402030089201347529e-01 1.889682727450763544e-01
-1.323895023533292192e-01 -5.722851593287022753e-01 4.886524023579594256e-01 -6.023855164084520458e-02 -9.520058457811311214e-01 -3.000936295471237081e-01
-1.046614793689905759e-01 -5.778369238931020391e-01 4.294019170935382546e-01 -6.023855164084520458e-02 -9.520058457811311214e-01 -3.000936295471237081e-01
-1.241615399290120075e-01 -5.871476029813251785e-01 4.619007104781308604e-01 -6.023855164084520458e-02 -9.520058457811311214e-01 -3.000936295471237081e-01
-9.633248498178212382e-02 -5.800296230293343624e-01 4.501144510459887949e-01 -6.023855164084520458e-02 -9.520058457811311214e-01 -3.000936295471237081e-01
3.825478600568215648e-01 -5.653120749613669282e-01 4.296112075084510540e-01 5.448912711041656864e-01 -7.685648983760187125e-01 3.352633288308559112e-01
3.820238609387713313e-01 -5.679104092447636587e-01 4.204845349687698075e-01 5.448912711041656864e-01 -7.685648983760187125e-01 3.352633288308559112e-01
3.959225478109110186e-01 -5.570270077822314647e-01 4.104971075341219411e-01 5.448912711041656864e-01 -7.685648983760187125e-01 3.352633288308559112e-01
3.602299552808049254e-01 -5.851906593655972211e-01 4.336568551955186090e-01 5.448912711041656864e-01 -7.685648983760187125e-01 3.352633288308559112e-01
-2.757277886379275733e-01 -5.870162741241595761e-01 4.879931018146056454e-01 1.392430534574663412e-02 -9.753001181185241286e-01 -2.204445356969214620e-01
-2.879865890042543342e-01 -5.803167831422997303e-01 4.763238170195545074e-01 1.392430534574663412e-02 -9.753001181185241286e-01 -2.204445356969214620e-01
-1.529447425804276450e-01 -5.821812647389029705e-01 4.634231915560871329e-01 -4.563233703164003285e-02 -9.550340944788823228e-01 -2.929634246794844410e-01
-8.996654289516521630e-02 -5.848204971490502668e-01 4.974937894107241965e-01 -2.111860569090704548e-02 -9.645990114098789148e-01 -2.628740224532583603e-01
-6.755907256722346044e-02 -5.822441647900823414e-01 4.681096460089835265e-01 -2.111860569090704548e-02 -9.645990114098789148e-01 -2.628740224532583603e-01
-8.228334665883026144e-02 -5.886326873090926837e-01 4.728524385278451425e-01 -2.111860569090704548e-02 -9.645990114098789148e-01 -2.628740224532583603e-01
4.415440090818369412e-01 -5.353551221533718874e-01 3.760468509219530020e-01 6.952279575209369122e-01 -6.435918238021565152e-01 3.200744466780816033e-01
4.682637031118310755e-01 -5.253130708812950855e-01 3.577903532906159256e-01 6.952279575209369122e-01 -6.435918238021565152e-01 3.200744466780816033e-01
4.524413125875546005e-01 -5.041221687725047085e-01 4.076192550388753055e-01 6.952279575209369122e-01 -6.435918238021565152e-01 3.200744466780816033e-01
-3.122010403126931899e-01 -5.705066761453074786e-01 4.700364363825044189e-01 -3.842044541615337039e-01 -9.092028977072789120e-01 1.604276416429703533e-01
-2.512487620609943351e-01 -5.904570157756822146e-01 4.978177000614597558e-01 -6.635606977918005744e-03 -9.760218224469315862e-01 -2.175715303696808267e-01
-2.677033346095982203e-01 -5.695606040464029629e-01 4.661685750411040940e-01 -6.635606977918005744e-03 -9.760218224469315862e-01 -2.175715303696808267e-01
-1.738135720171795073e-01 -5.721186840670413609e-01 4.338837304290235619e-01 -1.490952072149700179e-02 -9.752472557145073218e-01 -2.206139080229927441e-01
-2.161920771317315804e-01 -5.765691481901901172e-01 4.467657301810649684e-01 -1.490952072149700179e-02 -9.752472557145073218e-01 -2.206139080229927441e-01
-3.969861918115550892e-01 -5.629119427400054443e-01 4.494480371840545718e-01 -5.287558953805693296e-01 -7.603612462533507754e-01 3.771842763111206698e-01
-3.864635892097574299e-01 -5.444548495982164393e-01 4.527215672255146539e-01 -5.287558953805693296e-01 -7.603612462533507754e-01 3.771842763111206698e-01
-3.636459222696514781e-01 -5.492557456373980962e-01 4.738955809237312411e-01 -5.287558953805693296e-01 -7.603612462533507754e-01 3.771842763111206698e-01
-3.502724836359090155e-01 -5.737027965255546702e-01 4.607155365605942188e-01 -3.824333516933366983e-01 -8.995212914378344360e-01 2.112017465898684554e-01
2.307075743120036437e-01 -5.843508798805411297e-01 4.253866166373342361e-01 -9.990517160341523539e-02 -9.629286630669946501e-01 -2.505740340316656711e-01
2.176035941111559846e-01 -5.818712971044506244e-01 4.099120003401146572e-01 -8.063516986232083239e-02 -9.608489262996174896e-01 -2.650798185644222538e-01
2.518748341403157509e-01 -5.849609941783816547e-01 4.061130749891385117e-01 -8.063516986232083239e-02 -9.608489262996174896e-01 -2.650798185644222538e-01
-4.053327685994491669e-01 -5.305955818968512983e-01 4.452596727086552963e-01 -5.944714606675129964e-01 -7.273136075300241643e-01 3.429556804508357981e-01
-1.571658143091418103e-01 -5.773435261734654045e-01 4.526984156599626052e-01 -1.667831044487248435e-02 -9.632793622849279425e-01 -2.679826564474777073e-01
-1.340311568516060758e-01 -5.651210019949705066e-01 4.531331839446892662e-01 -1.667831044487248435e-02 -9.632793622849279425e-01 -2.679826564474777073e-01
3.040443344218123345e-01 -5.884326103837669297e-01 4.219978380803070528e-01 -2.552297884280573248e-01 -8.695364012525396147e-01 -4.228051584308681887e-01
2.896090743867894002e-01 -6.001908517582283942e-01 4.408241180606571885e-01 -2.552297884280573248e-01 -8.695364012525396147e-01 -4.228051584308681887e-01
3.224997922251349736e-01 -6.052512653972430545e-01 4.186894503415579671e-01 -2.905124066953594930e-01 -8.534349625869307454e-01 -4.327254397309155398e-01
2.622784860936235862e-01 -5.886032325185691638e-01 4.256598039129472766e-01 -1.021040052242050966e-01 -9.576389946541588039e-01 -2.692625633743900293e-01
2.798266189879762833e-01 -5.917963972778989001e-01 3.904154341109700721e-01 -1.021040052242050966e-01 -9.576389946541588039e-01 -2.692625633743900293e-01
3.177059035558843503e-01 -5.883662761378850581e-01 3.787709672297108754e-01 -1.021040052242050966e-01 -9.576389946541588039e-01 -2.692625633743900293e-01
3.194218398672393211e-01 -5.895467421176302514e-01 3.651666442492057518e-01 -9.619201642920532924e-02 -9.647993723364821639e-01 -2.447636964797139658e-01
-3.760040260684349711e-01 -5.586751862504980570e-01 4.234911335724356185e-01 -3.744403807430627396e-01 -9.012550294056959066e-01 2.180224145355895427e-01
-3.113667429099700179e-01 -5.677176159806665012e-01 4.371094930645631482e-01 -1.035209292042901449e-02 -9.682497302294403863e-01 -2.497704828092836282e-01
-3.156787492281985519e-01 -5.675101111646372321e-01 4.044055247425318855e-01 -1.035209292042901449e-02 -9.682497302294403863e-01 -2.497704828092836282e-01
-3.217705745210108770e-01 -5.693937383153457876e-01 4.347727019713881202e-01 -1.035209292042901449e-02 -9.682497302294403863e-01 -2.497704828092836282e-01
3.845093839480123732e-01 -5.893938286983904096e-01 3.648561262699516750e-01 5.056574833335709673e-01 -8.294807213708521587e-01 2.372177110227021990e-01
3.676797966698009956e-01 -5.840467655325335405e-01 3.788080368269623466e-01 5.766588042204968678e-01 -7.695342128789843805e-01 2.743751423210725182e-01
3.623978311558503917e-01 -5.963820037537919116e-01 4.106592403478657727e-01 5.766588042204968678e-01 -7.695342128789843805e-01 2.743751423210725182e-01
4.002088860157660410e-01 -5.667115967318533398e-01 3.792503246944676776e-01 5.244424115733123948e-01 -8.196605184592385962e-01 2.304708038392299929e-01
4.009516156941506648e-01 -5.713712994170678794e-01 3.498087817779134689e-01 5.244424115733123948e-01 -8.196605184592385962e-01 2.304708038392299929e-01
3.846704306859262124e-01 -5.811078627422155973e-01 3.822442071480625092e-01 5.244424115733123948e-01 -8.196605184592385962e-01 2.304708038392299929e-01
-2.881774182710227783e-01 -5.611270148606871677e-01 3.968647872685180378e-01 -7.889210386692806914e-03 -9.683684939243316636e-01 -2.493997199962258160e-01
-2.942831627983877318e-01 -5.726001416522046306e-01 4.327837973854888887e-01 -7.889210386692806914e-03 -9.683684939243316636e-01 -2.493997199962258160e-01
-2.157383792705553915e-01 -5.632266618404567771e-01 4.281714017965820851e-01 2.743261817856000031e-04 -9.627072024248923832e-01 -2.705453144010874778e-01
-1.724964738891131555e-01 -5.537281176485936429e-01 3.840372655595359896e-01 2.743261817856000031e-04 -9.627072024248923832e-01 -2.705453144010874778e-01
4.304977440706633796e-01 -5.660857325356769554e-01 3.666326852271558079e-01 5.142683112677132184e-01 -8.243522581624410650e-01 2.365828786880797285e-01
-4.200357630463535941e-01 -5.062253544945926054e-01 4.454724284215729191e-01 -5.690026407297660294e-01 -7.274689965413457804e-01 3.834382009055441465e-01
-4.284781372070385341e-01 -5.179591243988792559e-01 4.214390030007267307e-01 -5.690026407297660294e-01 -7.274689965413457804e-01 3.834382009055441465e-01
3.529430295800270456e-01 -6.006980080019429513e-01 3.760777092895969398e-01 -3.011958919050503058e-01 -8.511728397514118916e-01 -4.298672255115975616e-01
-2.384441317376341241e-01 -5.657164300421362313e-01 3.992379953916327939e-01 -1.743470078367273524e-02 -9.625496022784086891e-01 -2.705444406419413306e-01
-2.628335557523601151e-01 -5.740698960379574389e-01 4.288662787401469889e-01 -1.743470078367273524e-02 -9.625496022784086891e-01 -2.705444406419413306e-01
2.764679732546574953e-01 -5.764692429625025705e-01 3.576461365588823327e-01 -1.061354283891943057e-01 -9.610477565944675060e-01 -2.551910664294174125e-01
2.749531285583459717e-01 -5.578285027933544971e-01 3.467433894601693045e-01 -1.061354283891943057e-01 -9.610477565944675060e-01 -2.551910664294174125e-01
3.850429564190677167e-01 -6.016608329975997593e-01 3.505746865891263830e-01 -2.675876619826630942e-01 -8.900940622663715551e-01 -3.689571837934594867e-01
4.417071787359667101e-01 -5.549069181394297168e-01 3.398501905380747479e-01 6.430293266013664688e-01 -7.202411782323290268e-01 2.603189011752694015e-01
4.601576827753507959e-01 -5.481682222277741712e-01 3.290223559640366724e-01 6.430293266013664688e-01 -7.202411782323290268e-01 2.603189011752694015e-01
4.343921926060971828e-01 -5.592098037688926215e-01 3.989859720924734954e-01 6.430293266013664688e-01 -7.202411782323290268e-01 2.603189011752694015e-01
5.015097407217353753e-01 -5.247715611263605862e-01 3.087156070933240737e-01 7.161521733710236592e-01 -6.348559328133652757e-01 2.899724282541895071e-01
4.865666265854848294e-01 -5.204941265807825346e-01 3.355441250339161186e-01 7.161521733710236592e-01 -6.348559328133652757e-01 2.899724282541895071e-01
5.138977901430017425e-01 -4.942256537732921950e-01 3.021183175528926457e-01 7.161521733710236592e-01 -6.348559328133652757e-01 2.899724282541895071e-01
5.181933418953335035e-01 -4.943944082634755266e-01 2.919764299695110088e-01 7.161521733710236592e-01 -6.348559328133652757e-01 2.899724282541895071e-01
-4.029282399494395484e-01 -5.506625547919953290e-01 4.205400598312741267e-01 -5.463196987878780053e-01 -7.977347110992430990e-01 2.552530458657237822e-01
-4.550662109592179538e-01 -5.321511022833324001e-01 4.002433819026276485e-01 -5.463196987878780053e-01 -7.977347110992430990e-01 2.552530458657237822e-01
-4.319666720823281403e-01 -5.376946555263034666e-01 4.025138546507160964e-01 -5.463196987878780053e-01 -7.977347110992430990e-01 2.552530458657237822e-01
-3.135642300093183787e-01 -5.569219829154252732e-01 4.042347965238450302e-01 1.021420143225880081e-02 -9.714038749358908653e-01 -2.372133677696877663e-01
-3.672839570225482908e-01 -5.772507858523293622e-01 4.174525347180100265e-01 1.021420143225880081e-02 -9.714038749358908653e-01 -2.372133677696877663e-01
-3.462726055817260118e-01 -5.554501072719192356e-01 3.989951765497998792e-01 1.021420143225880081e-02 -9.714038749358908653e-01 -2.372133677696877663e-01
-2.659819630319473771e-01 -5.591212235136754360e-01 3.867555354355572961e-01 1.575078125804614190e-02 -9.661625712844966740e-01 -2.574525174448502596e-01
-2.444809792125375580e-01 -5.537875341193694290e-01 3.832993460012094067e-01 1.575078125804614190e-02 -9.661625712844966740e-01 -2.574525174448502596e-01
-2.716696527688937102e-01 -5.659957377391158229e-01 4.032329537695248378e-01 1.575078125804614190e-02 -9.661625712844966740e-01 -2.574525174448502596e-01
-3.757098204069649894e-01 -5.568742107001911634e-01 4.065683408371085772e-01 -3.048313922042402146e-01 -9.433282013031186741e-01 1.311858489054649468e-01
3.314196914159472929e-01 -5.834951852547759499e-01 3.397295192717066370e-01 -1.038833900461200166e-01 -9.649270291431204516e-01 -2.410893396680106049e-01
3.514522594359668073e-01 -5.856613467312987709e-01 3.451338829782415463e-01 -1.038833900461200166e-01 -9.649270291431204516e-01 -2.410893396680106049e-01
3.287206521244518953e-01 -5.825256755254759611e-01 3.591432055283790281e-01 -1.038833900461200166e-01 -9.649270291431204516e-01 -2.410893396680106049e-01
-4.808162492892801287e-01 -5.123243208393867265e-01 3.686590427933251202e-01 -6.991730042574521020e-01 -6.400193140762130417e-01 3.186414720764116915e-01
-4.936510172757575532e-01 -4.955689211120135607e-01 3.594877192984834990e-01 -6.991730042574521020e-01 -6.400193140762130417e-01 3.186414720764116915e-01
-4.406038255164325679e-01 -5.267493878230070647e-01 3.823989691342607466e-01 -5.509615009651587236e-01 -7.989938264662793665e-01 2.409362773079062048e-01
-4.296978954498357206e-01 -5.466117928517150171e-01 3.790877825424825431e-01 -5.509615009651587236e-01 -7.989938264662793665e-01 2.409362773079062048e-01
-4.054467192253707331e-01 -5.612662087595574611e-01 3.823597914687608679e-01 -2.523773300430228184e-01 -9.676241628398597472e-01 3.027006576785904682e-03
-4.106810524975570420e-01 -5.498737251257623804e-01 3.771232603380916815e-01 -2.523773300430228184e-01 -9.676241628398597472e-01 3.027006576785904682e-03
2.992094456575621342e-01 -5.706426158441757490e-01 3.504819240530672175e-01 -1.112174497853551242e-01 -9.643628207798393692e-01 -2.400729654933959900e-01
2.994582072941749940e-01 -5.630608700492438778e-01 3.183759064781530035e-01 -1.112174497853551242e-01 -9.643628207798393692e-01 -2.400729654933959900e-01
3.890127400165465654e-01 -5.935676939209113545e-01 3.209805613916308920e-01 -3.183898677381193920e-01 -8.988466291974650524e-01 -3.011687721229701076e-01
-4.644593985764021715e-01 -5.209908549021433632e-01 3.682956336408595988e-01 -5.656506862732951779e-01 -7.892952182405377215e-01 2.388563576318878945e-01
-3.419835263218553023e-01 -5.606809007083868313e-01 3.813774683061612603e-01 1.476567588365746905e-02 -9.733129200094609024e-01 -2.290064072430189335e-01
-3.031085726588104157e-01 -5.510773076967733219e-01 3.750673532100426422e-01 1.476567588365746905e-02 -9.733129200094609024e-01 -2.290064072430189335e-01
-3.626537550341645266e-01 -5.530425843284551002e-01 3.950261062647615895e-01 1.476567588365746905e-02 -9.733129200094609024e-01 -2.290064072430189335e-01
-4.182892752281734405e-01 -5.433185754703545589e-01 3.578171123681241350e-01 -2.934465503277462473e-01 -9.559752950362193635e-01 -5.978136485882711883e-04
-4.611426721325935230e-01 -5.424396947583569606e-01 3.417815824888282839e-01 -2.934465503277462473e-01 -9.559752950362193635e-01 -5.978136485882711883e-04
2.767183834525072106e-01 -5.591662009459442695e-01 2.858860560350859892e-01 -2.045470866898731477e-01 -9.260826613975046140e-01 -3.170668598034176999e-01
2.600443065744149074e-01 -5.577072128869557943e-01 3.061860786971264958e-01 -2.045470866898731477e-01 -9.260826613975046140e-01 -3.170668598034176999e-01
2.778707542197060287e-01 -5.626443412246012743e-01 3.102527771223865249e-01 -1.196074017296234471e-01 -9.586077797955090407e-01 -2.583896166006154904e-01
3.012499093887900936e-01 -5.612981885491733491e-01 2.790594244513260325e-01 -1.196074017296234471e-01 -9.586077797955090407e-01 -2.583896166006154904e-01
2.819873708393498268e-01 -5.685401871635645810e-01 3.040954530451202564e-01 -1.196074017296234471e-01 -9.586077797955090407e-01 -2.583896166006154904e-01
3.142800066968793882e-01 -5.656336102045287362e-01 2.897754320892819702e-01 -1.196074017296234471e-01 -9.586077797955090407e-01 -2.583896166006154904e-01
4.978096050646926840e-01 -5.224763516319171908e-01 2.819212382515916548e-01 6.959729012480575516e-01 -6.860572531650267480e-01 2.120074671043923054e-01
5.126027511156051597e-01 -5.112975246469104729e-01 2.694646198813193116e-01 6.959729012480575516e-01 -6.860572531650267480e-01 2.120074671043923054e-01
5.317342485746003877e-01 -4.992056159730907106e-01 2.471746211723236664e-01 7.763661431835716664e-01 -5.979057734398941504e-01 1.994098738917097491e-01
5.218284248068889575e-01 -4.906194016946733849e-01 2.806576578920635390e-01 7.763661431835716664e-01 -5.979057734398941504e-01 1.994098738917097491e-01
3.467991870998214932e-01 -5.719358731744141888e-01 3.106125398219262146e-01 -1.024927316167734415e-01 -9.661087598746758154e-01 -2.369158163971916975e-01
3.355965693102478942e-01 -5.737702162340521106e-01 3.161356319628554346e-01 -1.024927316167734415e-01 -9.661087598746758154e-01 -2.369158163971916975e-01
4.667110466146694447e-01 -5.480697030999466257e-01 3.007880908541594733e-01 6.447618594225307254e-01 -7.362212671505604655e-01 2.055733212973509527e-01
-3.861282832189967817e-01 -5.599400589434615494e-01 3.708617075465535096e-01 8.142629226468578452e-02 -9.708117451072005855e-01 -2.255976828115433541e-01
-3.100369605074179691e-01 -5.511604254977634509e-01 3.431400107317593151e-01 1.392298141653544943e-02 -9.626163286334866731e-01 -2.705105440397140848e-01
-3.309350015923759880e-01 -5.508049858055655834e-01 3.576876077098361528e-01 1.392298141653544943e-02 -9.626163286334866731e-01 -2.705105440397140848e-01
-3.477627206075106225e-01 -5.378432991742693181e-01 3.251199536379040245e-01 1.392298141653544943e-02 -9.626163286334866731e-01 -2.705105440397140848e-01
3.702234758960782357e-01 -5.591243760127087015e-01 2.685792655601828560e-01 -1.155719652300970374e-01 -9.679751073884224066e-01 -2.228616439166354324e-01
3.814733344058730546e-01 -5.756258003508608612e-01 2.982014652460971416e-01 -1.155719652300970374e-01 -9.679751073884224066e-01 -2.228616439166354324e-01
4.132428107821485286e-01 -5.805974344861002390e-01 2.797920814336964934e-01 -3.334815288678113498e-01 -8.860881594952919604e-01 -3.219283204476319216e-01
4.193607298368947633e-01 -5.774007348490661773e-01 3.187172766209213637e-01 4.918104994578290645e-01 -8.554338034941202373e-01 1.623435876855738036e-01
4.390198393920666797e-01 -5.688408082371296803e-01 3.087771182866894670e-01 4.918104994578290645e-01 -8.554338034941202373e-01 1.623435876855738036e-01
4.258915545616114851e-01 -5.827279962134874758e-01 3.037398478945311231e-01 6.042270676300296461e-01 -7.543261211914903397e-01 2.567133686262109693e-01
4.386240091009836473e-01 -5.664452081711230935e-01 2.890948244904647524e-01 6.042270676300296461e-01 -7.543261211914903397e-01 2.567133686262109693e-01
5.121537671661652302e-01 -5.269220586952444441e-01 2.465514971191571092e-01 6.697824557008967838e-01 -7.180217890970571615e-01 1.893044437332030427e-01
4.822665482414881244e-01 -5.435299067940467799e-01 2.574423674033620713e-01 6.697824557008967838e-01 -7.180217890970571615e-01 1.893044437332030427e-01
4.886481730367061016e-01 -5.460140993529806197e-01 2.852343468198001442e-01 6.697824557008967838e-01 -7.180217890970571615e-01 1.893044437332030427e-01
4.804445090440968569e-01 -5.410947041976275074e-01 2.474406100482292592e-01 6.697824557008967838e-01 -7.180217890970571615e-01 1.893044437332030427e-01
-5.103248894733175556e-01 -5.211216408443385406e-01 3.275279144374001472e-01 -7.032123004222290419e-01 -6.424886254112253114e-01 3.044681046547745851e-01
-3.998162365802631069e-01 -5.470881134369117715e-01 3.435717733539527252e-01 1.417796771749900153e-01 -9.312544361339102350e-01 -3.356541349679288966e-01
-4.873489817987129991e-01 -5.134470716607238971e-01 3.354213237303315109e-01 -6.075548734209561541e-01 -7.732322052834211812e-01 1.816288316732316555e-01
-3.524304761702148348e-01 -5.443339189201897854e-01 3.583426455033804636e-01 3.235010987784771308e-02 -9.669839852746828779e-01 -2.527754786627512962e-01
-3.398204508198471863e-01 -5.424623425173127345e-01 3.065895098635852967e-01 3.235010987784771308e-02 -9.669839852746828779e-01 -2.527754786627512962e-01
-3.680263565758540301e-01 -5.393546159139250840e-01 3.157728617215034284e-01 3.235010987784771308e-02 -9.669839852746828779e-01 -2.527754786627512962e-01
-3.247184472285443713e-01 -5.355988544928729223e-01 3.241704315928364277e-01 3.235010987784771308e-02 -9.669839852746828779e-01 -2.527754786627512962e-01
-5.594264037642899812e-01 -4.475802774867760903e-01 3.165495402031516248e-01 -7.670478223390699846e-01 -5.742565262713268393e-01 2.861242392382710720e-01
-5.168626679248559119e-01 -4.919770243425341527e-01 3.140104245813221118e-01 -7.670478223390699846e-01 -5.742565262713268393e-01 2.861242392382710720e-01
-5.393785187120702096e-01 -4.684074322196065676e-01 3.025608394113233346e-01 -7.670478223390699846e-01 -5.742565262713268393e-01 2.861242392382710720e-01
-5.363084408414924287e-01 -4.824618361217797857e-01 3.390752998422798536e-01 -7.670478223390699846e-01 -5.742565262713268393e-01 2.861242392382710720e-01
-3.822277802514657541e-01 -5.308609645112535302e-01 3.277631119433907503e-01 3.041633225301279900e-02 -9.670312000045436784e-01 -2.528349361738733703e-01
-3.691026334033052914e-01 -5.366550132468868028e-01 2.992339679831699240e-01 3.041633225301279900e-02 -9.670312000045436784e-01 -2.528349361738733703e-01
3.651847718761080386e-01 -5.730376079554376778e-01 2.904170625109676607e-01 -1.169401433141247920e-01 -9.669928142749153466e-01 -2.263844076396409333e-01
3.779225017215618321e-01 -5.815622082730692588e-01 2.579054396713468256e-01 -1.169401433141247920e-01 -9.669928142749153466e-01 -2.263844076396409333e-01
4.262783139799417587e-01 -5.707572614368671138e-01 2.655963949591740314e-01 5.520614506745225025e-01 -8.217260421835081985e-01 1.414017902169876495e-01
-4.387345979437740628e-01 -5.505974344038544466e-01 3.357113072837970558e-01 -2.836189638050589101e-01 -9.579131338075601576e-01 -4.430249935527708766e-02
-4.503682135023363564e-01 -5.355636572770149373e-01 3.164930777407375939e-01 -2.836189638050589101e-01 -9.579131338075601576e-01 -4.430249935527708766e-02
3.158396010892272066e-01 -5.577713729706211820e-01 2.572456384619356551e-01 -1.376441245889448162e-01 -9.581460582983369889e-01 -2.510183776808043166e-01
3.426392437070136521e-01 -5.595483626063544325e-01 2.645531525686929952e-01 -1.376441245889448162e-01 -9.581460582983369889e-01 -2.510183776808043166e-01
3.650540356882549520e-01 -5.620601077016867952e-01 2.566721931166797699e-01 -1.376441245889448162e-01 -9.581460582983369889e-01 -2.510183776808043166e-01
4.152556665692889171e-01 -5.730392061279444560e-01 2.718606048248813356e-01 -3.400551588284050353e-01 -8.862994355771822708e-01 -3.143816143634296512e-01
5.209077912405617461e-01 -5.105892595832541847e-01 2.322265994207350082e-01 6.701622062603721508e-01 -7.170908185519122569e-01 1.914768269237269449e-01
5.154329511027833099e-01 -5.267666569603131066e-01 2.191218186857346872e-01 6.701622062603721508e-01 -7.170908185519122569e-01 1.914768269237269449e-01
5.260374630606695634e-01 -5.317681346060362246e-01 1.882514817069791957e-01 6.701622062603721508e-01 -7.170908185519122569e-01 1.914768269237269449e-01
4.366562135267392231e-01 -5.750127850442653399e-01 2.387647235868654849e-01 -2.221002595709369587e-01 -9.183916824654843047e-01 -3.274571609794775795e-01
4.602855905605353626e-01 -5.695393248672815378e-01 2.107107431273473885e-01 -1.835233824928548529e-01 -9.011725163037495046e-01 -3.926923273214662502e-01
-4.861588341360135179e-01 -5.240918468742757907e-01 2.687978776244538959e-01 -6.109967350670252317e-01 -7.674176735453496212e-01 1.943015801986146540e-01
-5.178289309637338356e-01 -5.012933844291033170e-01 3.030033690613280206e-01 -6.109967350670252317e-01 -7.674176735453496212e-01 1.943015801986146540e-01
-4.822870723719256403e-01 -5.232348355711222698e-01 3.019222488037436869e-01 -6.109967350670252317e-01 -7.674176735453496212e-01 1.943015801986146540e-01
-4.536747717075717001e-01 -5.272022853334913384e-01 3.215941701251194829e-01 -6.109967350670252317e-01 -7.674176735453496212e-01 1.943015801986146540e-01
5.538149394673814729e-01 -4.825218942012873269e-01 1.990441672607483892e-01 7.579910606036422971e-01 -6.388382754320380830e-01 1.316632442558864635e-01
5.265805773104093035e-01 -5.093705928975550412e-01 1.887272527052626381e-01 7.579910606036422971e-01 -6.388382754320380830e-01 1.316632442558864635e-01
5.457317850482938937e-01 -4.885976581989277534e-01 2.103026325446750444e-01 7.579910606036422971e-01 -6.388382754320380830e-01 1.316632442558864635e-01
-4.350061384047695379e-01 -5.428108541479031990e-01 3.198487478174509846e-01 7.259118637597684887e-02 -9.736979665501304115e-01 -2.159694181977377669e-01
-3.946559663520970429e-01 -5.333553304174888376e-01 2.883025084371063085e-01 7.259118637597684887e-02 -9.736979665501304115e-01 -2.159694181977377669e-01
-5.283367614286658132e-01 -5.042705722987133043e-01 2.477360583683658746e-01 -6.289273164682137596e-01 -7.590273152371892484e-01 1.683091361867083691e-01
-5.141692476053916216e-01 -5.184818921004176184e-01 2.748668954127317376e-01 -6.289273164682137596e-01 -7.590273152371892484e-01 1.683091361867083691e-01
-4.577452502685064317e-01 -5.349331168121584934e-01 2.916049821343958404e-01 -2.813978571569425990e-01 -9.586241407367804834e-01 -4.306974325614405796e-02
3.893552610468404285e-01 -5.490295339937265595e-01 2.453473358318294106e-01 -1.341406140330692887e-01 -9.622634760965893541e-01 -2.367600013459622565e-01
4.015526324266870395e-01 -5.521300904759871564e-01 1.841799666676779412e-01 -1.341406140330692887e-01 -9.622634760965893541e-01 -2.367600013459622565e-01
3.418557356842527595e-01 -5.562071261780573428e-01 2.340099183376340986e-01 -1.341406140330692887e-01 -9.622634760965893541e-01 -2.367600013459622565e-01
4.119216190007665146e-01 -5.522550383420133935e-01 1.557318717762198879e-01 -1.341406140330692887e-01 -9.622634760965893541e-01 -2.367600013459622565e-01
4.073073082119481048e-01 -5.589746524309235909e-01 2.011220553209368822e-01 -1.341406140330692887e-01 -9.622634760965893541e-01 -2.367600013459622565e-01
3.669399126525756949e-01 -5.574419374678538652e-01 2.167974126284477054e-01 -1.341406140330692887e-01 -9.622634760965893541e-01 -2.367600013459622565e-01
3.891374362473047910e-01 -5.465508314783765753e-01 2.007491116405150655e-01 -1.341406140330692887e-01 -9.622634760965893541e-01 -2.367600013459622565e-01
3.571116857740514461e-01 -5.514298592760190632e-01 2.390141594640368961e-01 -1.341406140330692887e-01 -9.622634760965893541e-01 -2.367600013459622565e-01
5.147131178757727854e-01 -5.422388801422115545e-01 1.535389891974572596e-01 6.537655860577227251e-01 -7.459953090298068190e-01 1.268130805245471227e-01
-5.371681572427098317e-01 -4.785240987551820924e-01 2.615298186911984013e-01 -7.015405314796835379e-01 -6.928747081053110435e-01 1.666298939541858426e-01
-5.324097074773493921e-01 -4.819909190843005842e-01 2.850614697856170832e-01 -7.015405314796835379e-01 -6.928747081053110435e-01 1.666298939541858426e-01
-5.352029002031126748e-01 -4.754295493126987071e-01 2.719037928288582373e-01 -7.015405314796835379e-01 -6.928747081053110435e-01 1.666298939541858426e-01
3.314547404287346288e-01 -5.471359861723341655e-01 1.818536040476980697e-01 -2.972082531206624023e-01 -9.072743469720271348e-01 -2.975239714769982169e-01
3.122000354380324860e-01 -5.469612228981337587e-01 2.082986639103142079e-01 -2.972082531206624023e-01 -9.072743469720271348e-01 -2.975239714769982169e-01
4.367021577303114577e-01 -5.561786034574373039e-01 2.141579025735144137e-01 -1.446673965202709133e-01 -9.752401526912440888e-01 -1.672662218225951791e-01
4.687981617314421201e-01 -5.617947987222374762e-01 2.130262960678471762e-01 -1.446673965202709133e-01 -9.752401526912440888e-01 -1.672662218225951791e-01
5.014061961254199229e-01 -5.472945577786029192e-01 1.882708777032714720e-01 6.361401496010784529e-01 -7.625114693950058031e-01 1.179066118018256143e-01
5.000609029178199050e-01 -5.502301452832973894e-01 1.993578356712049915e-01 6.361401496010784529e-01 -7.625114693950058031e-01 1.179066118018256143e-01
-4.157416707571112702e-01 -5.467038017895742286e-01 2.775651992460619888e-01 5.700591810633148099e-02 -9.582908359068654791e-01 -2.800517793512032894e-01
-4.308768862402255762e-01 -5.464373084787109702e-01 2.949842269646988369e-01 5.700591810633148099e-02 -9.582908359068654791e-01 -2.800517793512032894e-01
-3.844203050128195409e-01 -5.214337137358845409e-01 2.286644580114444991e-01 5.700591810633148099e-02 -9.582908359068654791e-01 -2.800517793512032894e-01
-4.151960558672087576e-01 -5.319908293285428025e-01 2.440158624277537491e-01 5.700591810633148099e-02 -9.582908359068654791e-01 -2.800517793512032894e-01
-3.673509196048394543e-01 -5.382200902976079782e-01 2.860960423266430963e-01 5.700591810633148099e-02 -9.582908359068654791e-01 -2.800517793512032894e-01
-3.759550270610646505e-01 -5.157207406297240615e-01 2.794355921641669682e-01 5.700591810633148099e-02 -9.582908359068654791e-01 -2.800517793512032894e-01
3.652489704295714401e-01 -5.302898794547810102e-01 1.851074825573064686e-01 -1.591238284366316702e-01 -9.533738994021738744e-01 -2.564328667748404511e-01
3.607921658600025672e-01 -5.608630650140077334e-01 2.039469251017704265e-01 -1.591238284366316702e-01 -9.533738994021738744e-01 -2.564328667748404511e-01
4.445209657271086412e-01 -5.591871097059482043e-01 1.773267351901182121e-01 -2.395896571402585939e-01 -9.299430458887457673e-01 -2.789314030269369749e-01
4.238093659215927400e-01 -5.454277936124050097e-01 2.133328945460979398e-01 -2.395896571402585939e-01 -9.299430458887457673e-01 -2.789314030269369749e-01
5.208620008122660794e-01 -5.218422716441523113e-01 1.691820085902390192e-01 6.924360203947647063e-01 -7.155769884384616253e-01 9.209740103391916843e-02
5.373458427984767471e-01 -5.389651698303081773e-01 1.319713025021676256e-01 6.924360203947647063e-01 -7.155769884384616253e-01 9.209740103391916843e-02
5.152522258192352433e-01 -5.343908039496585438e-01 1.516964129405600215e-01 6.924360203947647063e-01 -7.155769884384616253e-01 9.209740103391916843e-02
-3.699502444873733475e-01 -5.106380726776175161e-01 2.523450745745998702e-01 6.856946977858137393e-02 -9.567229115525409666e-01 -2.828064679683143234e-01
4.275507885743196623e-01 -5.330235648660995862e-01 1.782207860715087633e-01 -1.315572168269475428e-01 -9.625276428618902980e-01 -2.371354790567637705e-01
4.418525823486297299e-01 -5.481056107033711600e-01 1.462571823055774656e-01 -1.315572168269475428e-01 -9.625276428618902980e-01 -2.371354790567637705e-01
-5.178033517746947201e-01 -5.148804699701625687e-01 2.421299896313302003e-01 -5.181577926620285490e-01 -8.515170458294301081e-01 8.019490361322487160e-02
-4.552515124040261152e-01 -5.310218842139008411e-01 2.384639326070272514e-01 8.890914093678035923e-02 -9.613758878490525905e-01 -2.604833332870447604e-01
-4.584652532344952180e-01 -5.484511159916684031e-01 2.670693593248519293e-01 8.890914093678035923e-02 -9.613758878490525905e-01 -2.604833332870447604e-01
5.382774429231241831e-01 -5.101718279310086812e-01 1.559515115817397823e-01 7.594888741614506111e-01 -6.396003846577220653e-01 1.186928724509868638e-01
5.576254821633862546e-01 -5.011008071013313137e-01 1.775100330285438177e-01 7.594888741614506111e-01 -6.396003846577220653e-01 1.186928724509868638e-01
5.338480768949522837e-01 -5.136052877450081322e-01 1.722456195927377920e-01 7.594888741614506111e-01 -6.396003846577220653e-01 1.186928724509868638e-01
-5.871778277779977628e-01 -4.569078007735545843e-01 1.543939301923066276e-01 -7.982528997733672194e-01 -5.728627135076075350e-01 1.860661696174547020e-01
-5.700049938399442961e-01 -4.514503543592393031e-01 2.230322409117671545e-01 -7.982528997733672194e-01 -5.728627135076075350e-01 1.860661696174547020e-01
-5.892037225332700245e-01 -4.383281893378714877e-01 2.074994184739344938e-01 -7.982528997733672194e-01 -5.728627135076075350e-01 1.860661696174547020e-01
-5.662836890442662918e-01 -4.598025018939037589e-01 2.136643687549212856e-01 -7.200752739498966770e-01 -6.778788192535234458e-01 1.482292354882474017e-01
-5.699319690798748672e-01 -4.744047021369031114e-01 1.798688456817661430e-01 -7.200752739498966770e-01 -6.778788192535234458e-01 1.482292354882474017e-01
-5.374520164270522038e-01 -5.076444851674867254e-01 2.288669256373579708e-01 -7.200752739498966770e-01 -6.778788192535234458e-01 1.482292354882474017e-01
-5.540046718814909399e-01 -4.927077755571348527e-01 2.026645076767108200e-01 -7.200752739498966770e-01 -6.778788192535234458e-01 1.482292354882474017e-01
-5.620537395775817568e-01 -4.692125402797065470e-01 2.302828283066438164e-01 -7.200752739498966770e-01 -6.778788192535234458e-01 1.482292354882474017e-01
-4.636525104398909192e-01 -5.299074736387269224e-01 2.539802670070636648e-01 -2.674328151702372591e-01 -9.630888209187522531e-01 -3.065309758326708114e-02
-4.960011077586604644e-01 -5.253383561593708562e-01 2.368118296164092029e-01 -2.461273969672904127e-01 -9.688183266814063277e-01 -2.850183061393713260e-02
-4.199187154368905217e-01 -5.239321682909682254e-01 2.274796003196226102e-01 9.662820681644741783e-02 -9.606209550058757429e-01 -2.605194243257825670e-01
-4.552849909822739294e-01 -5.261182653108730234e-01 2.289306239427310874e-01 9.662820681644741783e-02 -9.606209550058757429e-01 -2.605194243257825670e-01
-4.298620544455529213e-01 -5.270460014076472355e-01 2.709632727631139937e-01 9.662820681644741783e-02 -9.606209550058757429e-01 -2.605194243257825670e-01
-4.044404011662791620e-01 -5.017305648460466116e-01 2.202977299132456712e-01 9.662820681644741783e-02 -9.606209550058757429e-01 -2.605194243257825670e-01
3.692401386933897856e-01 -5.374735376832426859e-01 1.509253505858901556e-01 -1.641974387297876758e-01 -9.497956296361789175e-01 -2.663221039241621124e-01
5.931932425106868356e-01 -4.531001742940284349e-01 7.677952104243061793e-02 7.659744627457522048e-01 -6.326556480360431278e-01 1.141488214106951143e-01
5.667410874782021768e-01 -4.817236474498335919e-01 1.274401915253288720e-01 7.659744627457522048e-01 -6.326556480360431278e-01 1.141488214106951143e-01
5.705943487410601866e-01 -4.814251117332856711e-01 1.460922392994145336e-01 7.659744627457522048e-01 -6.326556480360431278e-01 1.141488214106951143e-01
5.403591911183177610e-01 -4.919372612428037361e-01 1.372745573519452422e-01 7.659744627457522048e-01 -6.326556480360431278e-01 1.141488214106951143e-01
5.687584583388124448e-01 -4.759916796242542048e-01 1.690694924851370018e-01 7.659744627457522048e-01 -6.326556480360431278e-01 1.141488214106951143e-01
5.553627002912259192e-01 -5.023063906126162825e-01 9.975674443227321164e-02 7.659744627457522048e-01 -6.326556480360431278e-01 1.141488214106951143e-01
5.723052882116576034e-01 -4.737798148122618347e-01 9.868049622941683918e-02 7.659744627457522048e-01 -6.326556480360431278e-01 1.141488214106951143e-01
4.759079130052340512e-01 -5.589470065496066065e-01 1.641519497958172369e-01 -2.246628049298403929e-01 -9.258811428655527864e-01 -3.037609806526085365e-01
4.755962592829868218e-01 -5.503203402532454991e-01 1.444463957743295224e-01 -2.246628049298403929e-01 -9.258811428655527864e-01 -3.037609806526085365e-01
5.011428856609613236e-01 -5.427668764755838593e-01 1.348085141243376972e-01 3.464828227581494557e-01 -9.269610419374545440e-01 -1.438502007776610303e-01
-4.785598258859085075e-01 -5.230600110437716443e-01 2.161369784316128362e-01 1.105225128725764727e-01 -9.609316885542185105e-01 -2.537618254991665379e-01
-4.566525016661011627e-01 -5.229360908304898636e-01 2.037415603062122937e-01 1.105225128725764727e-01 -9.609316885542185105e-01 -2.537618254991665379e-01
4.224515055526683605e-01 -5.331505994582594887e-01 1.322563542077783150e-01 -1.276849137185061822e-01 -9.614566929007465346e-01 -2.435109658414938150e-01
4.463814766256176125e-01 -5.245357870557989521e-01 9.144184617567799322e-02 -1.276849137185061822e-01 -9.614566929007465346e-01 -2.435109658414938150e-01
4.559634452444490949e-01 -5.324331693639022811e-01 1.231387698621423527e-01 -1.593986911472166368e-01 -9.563338345629552872e-01 -2.449850079712393713e-01
4.883954805377784258e-01 -5.382170576439222476e-01 1.215553676839550290e-01 -1.593986911472166368e-01 -9.563338345629552872e-01 -2.449850079712393713e-01
4.473858727761567122e-01 -5.447837891820372924e-01 1.513764186007252877e-01 -1.593986911472166368e-01 -9.563338345629552872e-01 -2.449850079712393713e-01
-5.176719209660999299e-01 -4.987472634106900893e-01 2.053473943799240531e-01 -5.073004648305020625e-01 -8.609584113128734284e-01 -3.737448825562157684e-02
-5.203126775745442467e-01 -5.157374463906401196e-01 1.815536551870799431e-01 -2.365808795279797372e-01 -9.692704485135745784e-01 -6.741131270092123873e-02
5.919009735020132057e-01 -4.660232321893205132e-01 8.874059225889376068e-02 7.509069185147256853e-01 -6.603154849600821885e-01 1.105712660009362455e-02
5.621888755302481000e-01 -4.914625190359975249e-01 7.155922235026877798e-02 7.509069185147256853e-01 -6.603154849600821885e-01 1.105712660009362455e-02
5.915479731896178262e-01 -4.692002449292945743e-01 6.001637934805718888e-02 7.509069185147256853e-01 -6.603154849600821885e-01 1.105712660009362455e-02
5.623024180140563377e-01 -4.844992847905544298e-01 9.246744487564206860e-02 7.509069185147256853e-01 -6.603154849600821885e-01 1.105712660009362455e-02
6.078273673999718962e-01 -4.520381606082349291e-01 2.070072463255899498e-02 7.488564257525692769e-01 -6.625835815326438505e-01 1.403748882319125549e-02
5.869454199780866910e-01 -4.722957198617551144e-01 3.006741803548175149e-02 7.488564257525692769e-01 -6.625835815326438505e-01 1.403748882319125549e-02
5.669205299378173857e-01 -4.943021460339037665e-01 2.345157250060408288e-02 7.488564257525692769e-01 -6.625835815326438505e-01 1.403748882319125549e-02
-5.699207943553104005e-01 -4.687397627623192120e-01 1.640478528576982398e-01 -6.650926120776591288e-01 -7.449224655550811258e-01 5.236733400752217188e-02
-5.433260034119536952e-01 -4.871147612088586043e-01 1.766036725884129743e-01 -6.650926120776591288e-01 -7.449224655550811258e-01 5.236733400752217188e-02
-5.758051803894455034e-01 -4.796129635354594578e-01 1.321174441750896933e-01 -6.650926120776591288e-01 -7.449224655550811258e-01 5.236733400752217188e-02
-5.779084611883583689e-01 -4.660158723786614332e-01 1.335055720839729565e-01 -6.650926120776591288e-01 -7.449224655550811258e-01 5.236733400752217188e-02
-5.401726619291343789e-01 -4.983020838911767503e-01 2.011356423547047689e-01 -6.650926120776591288e-01 -7.449224655550811258e-01 5.236733400752217188e-02
-4.605698893138621131e-01 -4.975008460779577479e-01 1.069810929452953557e-01 1.206458340790200201e-01 -9.550884136438440031e-01 -2.706486741934332474e-01
-4.503275106809374595e-01 -4.986249407610818807e-01 1.206663204672613898e-01 1.206458340790200201e-01 -9.550884136438440031e-01 -2.706486741934332474e-01
-4.662279629323440311e-01 -5.106307230012913090e-01 1.628607715974480508e-01 1.206458340790200201e-01 -9.550884136438440031e-01 -2.706486741934332474e-01
-4.689353507145050948e-01 -4.949352861812848503e-01 1.619789088647162478e-01 1.206458340790200201e-01 -9.550884136438440031e-01 -2.706486741934332474e-01
-5.026892350149975153e-01 -5.126364294146835698e-01 1.574141582569111852e-01 1.206458340790200201e-01 -9.550884136438440031e-01 -2.706486741934332474e-01
-4.437865950178770391e-01 -4.700701200947066671e-01 1.004832216464640188e-01 1.206458340790200201e-01 -9.550884136438440031e-01 -2.706486741934332474e-01
-4.437573251162164056e-01 -5.097389596206384210e-01 1.857218431071923637e-01 1.206458340790200201e-01 -9.550884136438440031e-01 -2.706486741934332474e-01
-4.803794551306462823e-01 -4.812128708983212655e-01 1.187051771310145831e-01 1.206458340790200201e-01 -9.550884136438440031e-01 -2.706486741934332474e-01
-4.281960352520468027e-01 -5.033538646813241479e-01 1.773589383291372668e-01 9.908888448380678837e-02 -9.566949363546969343e-01 -2.737082237073579782e-01
-4.242011429303987891e-01 -4.988484175472195359e-01 1.443415942151566045e-01 9.908888448380678837e-02 -9.566949363546969343e-01 -2.737082237073579782e-01
-3.889039662157482979e-01 -4.964235969853398323e-01 1.957700316261120621e-01 9.908888448380678837e-02 -9.566949363546969343e-01 -2.737082237073579782e-01
-3.941426527872671781e-01 -4.887472080886105519e-01 1.638056632490102471e-01 9.908888448380678837e-02 -9.566949363546969343e-01 -2.737082237073579782e-01
-4.133818834446184587e-01 -4.897757946686164265e-01 1.351561584252225223e-01 9.908888448380678837e-02 -9.566949363546969343e-01 -2.737082237073579782e-01
-4.031867329872477757e-01 -4.894572672507841449e-01 1.137864602286021709e-01 5.267586101692069145e-02 -9.645939710797376554e-01 -2.584254720857609433e-01
-3.963053903503632736e-01 -5.041466270789789483e-01 1.338269116932086500e-01 5.267586101692069145e-02 -9.645939710797376554e-01 -2.584254720857609433e-01
-3.847723338890116085e-01 -4.990782963054177235e-01 1.708946816604781649e-01 5.267586101692069145e-02 -9.645939710797376554e-01 -2.584254720857609433e-01
4.059109788316559997e-01 -5.392260929862077168e-01 1.214623400613992765e-01 -1.616882977526390985e-01 -9.497642481688118865e-01 -2.679641156389885870e-01
4.191909176384926994e-01 -5.403796892079354430e-01 9.701187060854934985e-02 -1.616882977526390985e-01 -9.497642481688118865e-01 -2.679641156389885870e-01
5.048809152511057885e-01 -5.371019471037290494e-01 1.007281100520784761e-01 3.304931323516283048e-01 -9.339893403716972298e-01 -1.357873393967610476e-01
5.256667976455333680e-01 -5.339847667841216561e-01 5.886035122712045958e-02 6.140343778707405553e-01 -7.875937548190641291e-01 -5.155443882829540553e-02
5.445587701557391691e-01 -5.205001443581643850e-01 9.255894256170861534e-02 6.140343778707405553e-01 -7.875937548190641291e-01 -5.155443882829540553e-02
5.223368990658731059e-01 -5.340161960921354645e-01 1.173702267544052963e-01 6.140343778707405553e-01 -7.875937548190641291e-01 -5.155443882829540553e-02
5.397805396506636377e-01 -5.260602501050900548e-01 2.871252341019505869e-02 6.140343778707405553e-01 -7.875937548190641291e-01 -5.155443882829540553e-02
