3.042582615913847488e-01 1.121979720667686531e-01 -5.826035234325543932e-01 3.512289373776973367e-01 2.531773111332365489e-01 -9.014097196479956553e-01
7.743875114044111996e-01 1.147253677596869192e-01 -1.365360760715199628e-01 9.592445807969339766e-01 1.018409499673905150e-01 -2.635872817900247744e-01
1.506594475767780439e-01 1.307398305577927022e-01 -6.158415390987157512e-01 -1.287339300682698029e-01 4.891513017755675929e-01 -8.626462654068847158e-01
1.077192874550518126e-01 9.795162375822495660e-02 -6.098993070927143378e-01 -3.361092343648634517e-01 3.852235634290327448e-01 -8.594378329778735726e-01
7.314997501733995489e-02 1.303576866205678475e-01 -5.700442442557370759e-01 2.016381820621976351e-02 -3.117847063884741574e-02 -9.993104239444162706e-01
7.123666369739298787e-01 1.295078405638717123e-01 -2.787254931089491183e-01 8.128286670752247201e-01 1.327306999144961253e-01 -5.671790892486440194e-01
4.954400993987364554e-01 1.226080802603256720e-01 -4.216995953855199875e-01 5.529635356150732761e-01 -2.785423539253962799e-01 -7.852677793910666226e-01
4.897490068369437788e-01 1.302950874408021487e-01 -4.138106237934585652e-01 5.529635356150732761e-01 -2.785423539253962799e-01 -7.852677793910666226e-01
5.590881049273042080e-01 1.261223467773288365e-01 -4.023431779128853747e-01 4.288629143802616395e-01 2.534720814814024337e-01 -8.670804487351526646e-01
7.806728125395936413e-01 1.225518696956702652e-01 6.198598866641347876e-02 9.621261044858052669e-01 -7.744418778016845528e-02 2.613728311168538876e-01
-9.168181984119068151e-01 1.237068867693628810e-01 -1.832558236122908968e-01 -6.962133187537949963e-01 1.491144739764263816e-01 -7.021765365209523546e-01
-7.626810089005039428e-01 1.097987198153543981e-01 -2.519911905710898181e-01 -3.732536117675306908e-01 4.541808141190808307e-02 -9.266169322774945316e-01
3.542456603063379728e-01 1.110165010725136514e-01 5.807975523326294187e-01 3.748104474574137090e-01 -2.396458462297761938e-01 8.955930978193096248e-01
6.244984302577289981e-01 1.219370697619891614e-01 3.306003205378188481e-01 4.122149789251162155e-01 1.388006495877870672e-01 9.004516593486706633e-01
6.219806096236846216e-01 1.201240748078463427e-01 -3.715459917854219141e-01 4.914187752054672287e-01 2.899140272437942256e-01 -8.212535809254308816e-01
4.232278900662746479e-01 1.080117466252882574e-01 -5.249000583230438721e-01 4.817589728248129477e-01 -1.782449565325137930e-01 -8.579842816587628374e-01
7.336844176176280374e-01 1.162877689092584321e-01 -2.287474617802382759e-01 8.881581010370067641e-01 1.250717339127667138e-01 -4.421902858932931224e-01
1.293203302559717827e-01 1.312051147884263358e-01 -5.672036141470742088e-01 -7.167222030612512007e-02 2.064569646514770596e-01 -9.758271438032910527e-01
-7.796198510545018223e-01 1.043744466899332729e-01 3.004707425320213843e-01 -4.166129976795855949e-01 3.068565938031231899e-01 8.557293035791019298e-01
-5.023937837588648980e-01 1.405579020435864246e-01 4.699432174044775867e-01 -3.479149385257385152e-01 -6.403336216135721570e-02 9.353367971383057533e-01
-4.799987700626128784e-01 1.215018180562977418e-01 4.853305997635757318e-01 -3.479149385257385152e-01 -6.403336216135721570e-02 9.353367971383057533e-01
-9.577392345874092827e-01 1.376305640420902032e-01 2.866165027248749123e-02 -9.652126983648633418e-01 6.500071867547245474e-02 2.532574845624341320e-01
-7.058295789187633007e-01 1.415511504796607700e-01 3.612467448601565101e-01 -5.743198287704369687e-01 -4.928225587443691574e-02 8.171462497845919382e-01
6.613397368479514427e-01 1.240133636485053065e-01 3.042605192386684809e-01 6.690529003300548228e-01 -1.254998349240037947e-01 7.325421544143310149e-01
-7.487592359634932526e-01 1.232539748264294688e-01 -2.812500465283326312e-01 -5.473735729551876261e-01 2.930006270551591130e-02 -8.363753212258984160e-01
-9.717695641802190920e-01 1.166904391151014769e-01 -9.171760473824799864e-02 -8.891444861856727666e-01 4.350919630182428777e-01 -1.418346445779311571e-01
-9.714492424033385198e-01 1.254432979494812528e-01 -1.448226040675539700e-02 -9.911873538763996683e-01 -1.314400305701454719e-01 -1.646656853203268961e-02
-3.995669933895875658e-01 9.011133393983065953e-02 5.162560634199286902e-01 -1.972412412275520166e-01 -1.145313568051892494e-01 9.736418546197452839e-01
-6.135644960784489843e-01 1.325517478974161945e-01 3.929597647725452947e-01 -4.875676101549134556e-01 -6.938548944709432842e-02 8.703237784767307028e-01
-3.032498965338566166e-02 1.238124577241422747e-01 5.736562228906427752e-01 -5.722427918885654441e-02 -1.049312780812640261e-01 9.928317122007880302e-01
7.720576772238454955e-02 1.121313256644520112e-01 5.815073767442001662e-01 -3.310741470426050159e-01 3.718246540365580666e-01 8.672579407596135992e-01
1.158888684052401252e-01 1.097619006937130409e-01 5.990794093980503776e-01 -3.310741470426050159e-01 3.718246540365580666e-01 8.672579407596135992e-01
-1.147636825711643438e-01 1.241382938853634182e-01 5.537600708269094785e-01 -1.120770790967110520e-01 -1.188210344316710659e-01 9.865699620998691355e-01
4.705466983469984710e-01 1.316774530409866029e-01 -4.913466661960925186e-01 6.536732530052036250e-01 -3.633837889721224790e-01 -6.638249017759569881e-01
4.021342288970358725e-01 1.244026652023421248e-01 -5.239655840283701238e-01 6.016366082871140719e-01 -2.513952194345243085e-01 -7.581779706732746371e-01
2.194513179266704139e-01 1.072490979777099424e-01 -6.094650023312631060e-01 -1.522078762170155641e-01 3.562912547468047308e-01 -9.218944105527774324e-01
2.160275123555276400e-01 1.274732906512044128e-01 -6.048440487383440756e-01 -1.522078762170155641e-01 3.562912547468047308e-01 -9.218944105527774324e-01
7.786471969587779318e-01 1.237278513750043607e-01 -1.201668239337272404e-01 9.615437325690182613e-01 1.289269759822950501e-01 -2.425107940304944143e-01
7.738858432174734459e-01 1.544193162520669238e-01 -1.230112321516183549e-01 9.615437325690182613e-01 1.289269759822950501e-01 -2.425107940304944143e-01
7.610250700868061990e-01 1.222365903674298426e-01 -1.871324812467688725e-01 9.239173747576467921e-01 1.067850063907127001e-01 -3.673875978188068658e-01
7.646406469371528347e-01 1.313106881482031252e-01 -1.564015844400450661e-01 9.239173747576467921e-01 1.067850063907127001e-01 -3.673875978188068658e-01
-2.607044812763860131e-01 1.271332057786378478e-01 -5.341586128153331670e-01 -2.068869607199141369e-01 -1.212292363382804633e-01 -9.708250397166906520e-01
-2.136892933211090584e-01 1.152507217451363697e-01 -5.520130957865664323e-01 -2.068869607199141369e-01 -1.212292363382804633e-01 -9.708250397166906520e-01
-5.293867068944499987e-01 1.156804171903836748e-01 -4.283554722111942437e-01 -6.104113563552133748e-01 -4.850916422351010671e-02 -7.905977719541873450e-01
-5.873188203196031409e-01 1.631201671803094444e-01 -4.059049498236222964e-01 -4.887283550528151999e-01 -7.197099113071184218e-02 -8.694623461674647613e-01
-5.927177393548513917e-01 1.119423164717883584e-01 -3.812644517171792646e-01 -4.887283550528151999e-01 -7.197099113071184218e-02 -8.694623461674647613e-01
-8.568456102452240986e-01 1.221746335159886593e-01 -2.030572022501450358e-01 -5.184493480398997267e-01 8.601605009587766359e-02 -8.507711282377337092e-01
-9.623474238220728338e-01 1.090722361684103581e-01 1.085812932045404355e-01 -9.758612651043216957e-01 2.146422336689085553e-01 4.029271391473009112e-02
7.461004229740855198e-01 1.117043882061994065e-01 1.645338005272839466e-01 9.173471906246097873e-01 -2.462913808327990006e-01 3.127533973925926691e-01
7.603177880007704337e-01 1.216478261610198924e-01 8.866663779780067922e-02 9.180776300151125557e-01 -2.632302131993527472e-01 2.963837379561455876e-01
-6.819772159725215888e-01 1.414099661248419959e-01 -3.340998149388196281e-01 -6.893475312084388351e-01 -3.064357303038476102e-02 -7.237823931602384020e-01
4.494418523508358354e-01 1.288420821072032707e-01 5.129038092132943705e-01 4.458508955017468911e-01 -3.101068535692637074e-01 8.396729829818639912e-01
5.361874516222047138e-01 1.342126971472220320e-01 3.953530083413458462e-01 8.189678809561322659e-01 -4.297391711518058210e-01 3.802839133331585852e-01
-8.930254460244440029e-01 1.306341975058173954e-01 -1.924013541982194653e-01 -3.166267845611446252e-01 2.395814765195411825e-02 -9.482475871098000608e-01
5.938781844157743350e-01 1.349632851007752932e-01 3.487357244026321190e-01 4.721273762217113035e-01 8.295327134334479213e-02 8.776186503233850411e-01
2.598373373278034179e-02 1.208423979229436285e-01 -5.742707315640791510e-01 -6.078481423624067237e-02 -1.035218412894151618e-01 -9.927680669392598967e-01
1.955918851133028324e-01 1.145173239736654719e-01 -6.012834845748683543e-01 -1.863676316129320165e-02 3.757736248377411270e-01 -9.265240708881634646e-01
2.539190446247525101e-01 1.345124879461936374e-01 -6.001533348176141258e-01 -1.627496103656401738e-01 3.254802276638610325e-01 -9.314371614476810723e-01
4.176064262934814364e-01 1.400553766650207144e-01 -5.267542805425302621e-01 5.956609741847376238e-01 -2.529168999642676940e-01 -7.623785447832027717e-01
-8.478955695040466534e-01 1.430794432838920494e-01 2.484888033295038767e-01 -6.302014746821864577e-01 1.376311357254264012e-01 7.641359642022660381e-01
-2.578348642191938267e-01 1.395064110468917651e-01 5.584454828620937228e-01 -1.499408397291544515e-01 -4.889909364376545525e-02 9.874849989858752730e-01
-2.717473512468261965e-01 1.035064558249007005e-01 5.373152844757876911e-01 -2.686661419334879231e-01 -9.414787821954347102e-02 9.586212397007136676e-01
7.062644659420099780e-01 1.337667798210510628e-01 -3.071110355927695323e-01 7.418112419904746568e-01 2.363972767431048727e-01 -6.275606813727204747e-01
-7.576738248972134104e-03 1.257064082359195811e-01 5.570014526414156508e-01 -6.021593292924853208e-02 -1.051440124953370164e-01 9.926322471378011825e-01
7.902991443817345418e-01 1.520966205541728344e-01 -6.644848858869115138e-02 9.911574109671336119e-01 9.388287936331730921e-02 -9.377095311119151844e-02
-9.492783029974108944e-01 1.476835432317365193e-01 -1.018920587951218787e-01 -7.538381751915522733e-01 6.538278296339797846e-01 -6.509358509092991185e-02
3.312561630459190387e-01 1.156431374717256377e-01 5.919875468920781092e-01 3.427472122377048791e-01 -4.627156927084269400e-01 8.175686737055439801e-01
2.996569505292821511e-01 1.341575665008893359e-01 6.128344689760359953e-01 1.992917181187414399e-01 -3.676303221705320978e-01 9.083670829076045949e-01
-9.407838735989982881e-01 1.312715405274881841e-01 -1.584880201495623142e-01 -7.852144449067296472e-01 2.826297255244734075e-01 -5.509616263949580484e-01
-9.479537071811181548e-01 1.223623077309771295e-01 -1.271745116474908288e-01 -8.924210060888578822e-01 2.515456696923433766e-01 -3.745791290907451443e-01
6.276977315636794730e-01 1.355064720683451240e-01 3.205320035846649929e-01 5.117969178746397674e-01 1.644800192393078564e-01 8.432142302671701284e-01
-3.551531507582265657e-01 1.554966447243770478e-01 -5.108002437432761500e-01 -3.658024276520651097e-01 -9.930049821181290148e-02 -9.253799192649154737e-01
-2.872465708441778176e-01 1.138945731152664620e-01 5.258782465580928989e-01 -3.189662666396925195e-01 -7.139462480945625578e-02 9.450731867396585661e-01
-1.924144639751962371e-02 1.320324618515203996e-01 5.597605963993227407e-01 -5.704450649374460947e-02 -6.079408930964144003e-02 9.965189426116778382e-01
7.353381856683643969e-02 1.395867032460443025e-01 5.794460372184250252e-01 -1.867108334165500094e-01 5.060294165712922454e-02 9.811108026010837424e-01
-3.600394351077958466e-01 1.145035401764953747e-01 5.276267817542292793e-01 -1.084091580013701178e-01 -5.917873902379888751e-02 9.923433535369636793e-01
-2.816388354991963272e-01 1.241768624872957999e-01 -5.353622103423069101e-01 -1.862320861747492340e-01 -1.018256088477040300e-01 -9.772149996095000901e-01
1.788391408280670114e-01 1.324270679366346959e-01 -5.833086791053506692e-01 -1.683251795712558674e-01 5.228360234660843764e-01 -8.356489253798372596e-01
3.519569768866008252e-01 1.223620378083554172e-01 -5.981168333631238232e-01 5.161898649694622865e-01 -2.300365170824247574e-01 -8.250037721801006807e-01
6.927944800913770074e-01 1.325056535643505673e-01 2.730124455160342078e-01 7.574546776977491014e-01 -7.765877929885114939e-02 6.482526708248963487e-01
4.338129524473748333e-01 1.382190767030501144e-01 -5.139145571451063654e-01 6.088262766625843758e-01 -1.921149313549840587e-01 -7.696898193400014687e-01
7.745635491936210260e-01 1.526375543542436708e-01 -9.846028666761523496e-02 9.740233807435767499e-01 1.402417456976344790e-01 -1.777940002602265146e-01
7.762896484567453070e-01 1.619044277620362848e-01 -1.135495402998792508e-01 9.740233807435767499e-01 1.402417456976344790e-01 -1.777940002602265146e-01
-6.207994070286086963e-01 1.720054464454819354e-01 -3.596916709967135084e-01 -5.954410972577727224e-01 -5.835529467380093371e-02 -8.012768306147342035e-01
-6.220800713639880186e-01 1.451242643204854188e-01 -3.917911864445958181e-01 -5.954410972577727224e-01 -5.835529467380093371e-02 -8.012768306147342035e-01
7.207882467448308850e-01 1.251879731121742501e-01 2.151899260800588798e-01 9.036288770128974024e-01 -4.233377993231940417e-02 4.262190794709361241e-01
-8.479318399424233821e-01 1.231417063723016792e-01 -2.413095729424635794e-01 -5.889152552384229189e-01 5.778627365902244684e-01 -5.650252028077333843e-01
3.664060336059439815e-01 1.465861975561233987e-01 5.883482268828779116e-01 5.226002321481822976e-01 -4.335167854163729517e-01 7.341336350562616131e-01
3.504058898347688911e-01 1.240965387723020619e-01 6.057826978191741540e-01 4.003975445470834837e-01 -3.558522407654550745e-01 8.444234654856951350e-01
4.719720121416549619e-01 1.221948867377944531e-01 4.957872722275656896e-01 6.159608646096483842e-01 -2.699847423077197939e-01 7.400678699892115908e-01
2.591160849643471265e-01 1.330969177004774628e-01 6.163711461915399870e-01 4.984032286584758747e-02 -3.022753203711112668e-01 9.519167888587585225e-01
-4.497805010243410284e-01 1.272843796699892616e-01 -4.743264387041941643e-01 -4.100601202194907868e-01 -7.446225072448928173e-02 -9.090137903368792349e-01
3.710736662147821607e-01 1.168855846158389361e-01 5.651716370516469690e-01 6.540234946299634533e-01 1.602573874753591976e-02 7.563044652582753269e-01
4.011711617267130769e-01 1.235279793263484999e-01 5.683134290950230261e-01 6.540234946299634533e-01 1.602573874753591976e-02 7.563044652582753269e-01
3.762515896461293696e-01 1.360778383512501188e-01 -5.938521646396396347e-01 5.379424756954530595e-01 -2.185433647229461374e-01 -8.141601136006481054e-01
3.291909372413792112e-01 1.384927093832798439e-01 -5.903650977935861466e-01 1.365578495324599149e-02 -5.039165538080314644e-02 -9.986361702869033241e-01
5.523020403783406307e-01 1.331870002319992807e-01 3.617617030665523092e-01 4.859281104092917913e-01 7.920720760806282401e-02 8.704022574516844246e-01
5.577537304126984896e-01 1.029549403780731787e-01 3.785877615130601170e-01 4.859281104092917913e-01 7.920720760806282401e-02 8.704022574516844246e-01
4.788146725749041210e-01 1.283202425909553690e-01 -4.509851753735900637e-01 6.989167477967753728e-01 -5.066503908383513943e-01 -5.047977427767723624e-01
-7.853937633727169354e-01 1.246322045851966931e-01 3.195391107975274481e-01 -2.116404438548156741e-01 9.664382665895832059e-01 1.456207382080529078e-01
-5.561407234645809883e-01 1.733001095006649617e-01 4.407327371234238678e-01 -4.151917652892700983e-01 -3.802946374296752030e-02 9.089386986609174768e-01
-5.148688654198736447e-01 1.549090315081166069e-01 4.661742394745068130e-01 -3.213650845986721905e-01 4.163731773122444912e-03 9.469462211438459676e-01
-7.449451646608556965e-01 1.385625475543797447e-01 3.251801089165556324e-01 -7.438998102054344974e-01 -4.859559462477718722e-02 6.665219730506884988e-01
-8.878105655156940390e-01 1.273992958941517206e-01 -1.959464932621225730e-01 -2.525421707358289636e-01 -6.475994307723240140e-02 -9.654162841866036349e-01
-9.261336487005260576e-01 1.131404869653396539e-01 1.613662141385159843e-01 -9.273128917896248380e-01 3.452039608671100268e-01 1.446548517071671036e-01
-9.798230882179096435e-01 1.332959870483781117e-01 -4.663420612406526250e-02 -9.518345542214510235e-01 7.260405081027222762e-02 -2.978919824298582042e-01
7.636297908136818746e-01 1.704075548125906781e-01 -1.837757650302397350e-01 9.139092706014785294e-01 1.541061078989571509e-01 -3.755278320136986592e-01
7.435812284409764050e-01 1.538210488270583820e-01 -1.732235830292526424e-01 9.139092706014785294e-01 1.541061078989571509e-01 -3.755278320136986592e-01
-8.560754888177831701e-01 1.293464548527479829e-01 2.447864094753902653e-01 -6.731838013856620284e-01 4.645826301227886507e-02 7.380143625633797111e-01
-9.074772230227594605e-01 1.449000579830193591e-01 1.599360849239662985e-01 -8.791013413474192406e-01 3.496438532088642082e-01 3.239290162279793717e-01
2.372386301245585638e-01 1.398287397499436702e-01 6.141672101369776149e-01 3.006276519299376157e-02 -6.957305091473606207e-02 9.971237740297673735e-01
-3.433029962804384216e-01 1.617157603874462557e-01 5.101033087514393882e-01 -2.312108132600316779e-01 -7.259981066728884991e-02 9.701911292743861104e-01
-3.405618777949555587e-01 1.321825133378167483e-01 5.300986767577139380e-01 -2.312108132600316779e-01 -7.259981066728884991e-02 9.701911292743861104e-01
-4.600296819160569761e-01 1.552368786141319346e-01 4.975911088969622864e-01 -4.199526385794537520e-01 -1.121598162866350584e-01 9.005886724585774328e-01
-4.431511068033534562e-01 1.175794585456950564e-01 4.975967539843648701e-01 -4.199526385794537520e-01 -1.121598162866350584e-01 9.005886724585774328e-01
5.418454746483823969e-01 1.313600402864687766e-01 -3.916338132379799664e-01 4.094659895032352614e-01 -3.591060009579365164e-02 -9.116183588766170187e-01
-3.016401955174489724e-01 1.365204013402841199e-01 -5.348264600038432626e-01 -3.374510313275710383e-01 -7.405738088056471047e-02 -9.384254396557405453e-01
3.941893370151002274e-01 1.302002248540576057e-01 -5.534184617113002691e-01 9.395316584848798502e-01 -2.101827855946634405e-01 -2.703765140398085576e-01
4.966889241870367511e-01 1.343141469459180892e-01 -4.369122608991333756e-01 7.369827958111043742e-01 -5.421818914361548059e-01 -4.036027196107101478e-01
5.081333757116025529e-01 1.591960822086997684e-01 -4.543586875278960435e-01 7.369827958111043742e-01 -5.421818914361548059e-01 -4.036027196107101478e-01
6.554108614938263244e-01 1.297022063702252814e-01 -3.220208459303766091e-01 6.316581735644722917e-01 2.814276563982875401e-01 -7.223617002467408454e-01
6.506875190256327102e-01 1.577934966234274539e-01 -3.274708750551770797e-01 6.316581735644722917e-01 2.814276563982875401e-01 -7.223617002467408454e-01
7.504723292926595013e-01 1.300394079007521075e-01 1.973841411338582430e-01 9.341948541287976582e-01 -8.031139863779135357e-02 3.476061762513955600e-01
4.130946475735159384e-01 1.478276355614522308e-01 5.514248875543386053e-01 5.954414001122843025e-01 1.830438648170486793e-01 7.822688045583566785e-01
-9.439922460455044684e-01 1.301261077252505727e-01 7.812360013108043955e-02 -9.101600291761585693e-01 3.718604598901061875e-01 -1.825610025727646968e-01
5.407305126999637501e-01 1.612979599644324968e-01 4.055757767535166369e-01 7.590266288434879272e-01 -4.386467167707136516e-01 4.811108339798254030e-01
-8.576025945119168936e-01 1.330361541489395727e-01 -2.047441764947585952e-01 -4.662996365356212314e-01 2.947124701370666400e-01 -8.340918468085252169e-01
4.610369434181624260e-01 1.529192151846797132e-01 4.873621124348837541e-01 8.242358592708104448e-01 -3.070291534577890974e-02 5.654136355637161548e-01
6.714484434128084600e-02 1.538219144430507668e-01 5.717372974078585024e-01 -2.620444989610534736e-01 2.107406124982388624e-03 9.650534904365015709e-01
-8.756467021810787968e-04 1.378466806795163868e-01 -5.785400269602641865e-01 -2.685630278227286727e-01 -2.058455988771037970e-03 -9.632599144808374758e-01
2.707021179756788354e-01 1.382034520800456412e-01 -5.972083916443676754e-01 -1.828168972706385176e-01 3.080630410921899598e-01 -9.336354453347239790e-01
-4.634819714420535530e-01 1.444358661702280500e-01 4.984387999990754214e-01 -2.906500649016588445e-01 -7.419864260122845112e-02 9.539481648437700967e-01
-4.762990547122932239e-01 2.001824606269502482e-01 4.882217568144108788e-01 -4.849459816797346279e-01 -7.563176211077490829e-02 8.712676003460118057e-01
-4.060831064906356147e-01 1.429825798685484817e-01 5.039024778695586626e-01 -2.303395059290524738e-01 -4.642870184234851316e-02 9.720021027001919389e-01
-8.897934670441707272e-01 1.399709407229356439e-01 2.250296707072339253e-01 -6.400981383238893985e-01 6.528699763123807509e-02 7.655141940255515420e-01
-1.188523059616178740e-01 1.425550752442291680e-01 5.635720397464080156e-01 -2.510460474868592140e-01 -7.625926392801417320e-02 9.649665313918317500e-01
-1.561930212835506704e-01 1.393968653982217976e-01 5.497809442531021995e-01 -2.510460474868592140e-01 -7.625926392801417320e-02 9.649665313918317500e-01
-5.893779762431952118e-01 1.492241297319997773e-01 4.350272619154057496e-01 -4.808945507611774306e-01 -2.092519791916032726e-02 8.765287029756922976e-01
3.954590998323849749e-01 1.475850160782356812e-01 -5.419064962486483950e-01 8.390657505168211960e-01 -3.392484860466284391e-01 -4.252988725881062804e-01
-2.124921401214940886e-01 1.483902948318231441e-01 -5.388340497895570680e-01 -2.225547806405259177e-01 -7.211516539432613615e-02 -9.722493366077430421e-01
-1.906304701126190770e-01 1.367009388062834507e-01 -5.482518295106708628e-01 -2.225547806405259177e-01 -7.211516539432613615e-02 -9.722493366077430421e-01
-1.593708835063624707e-01 1.374717485255215754e-01 -5.590977377814509985e-01 -2.225547806405259177e-01 -7.211516539432613615e-02 -9.722493366077430421e-01
7.584216100188300169e-01 1.394040396059333109e-01 1.437938458531934915e-01 9.338736299059050561e-01 -8.228908725562011917e-02 3.480065365549983580e-01
-3.691043123259222791e-01 1.570419536549585993e-01 -5.053894548527682051e-01 -3.123445195471863944e-01 -1.153477825949338065e-01 -9.429399716627082650e-01
-7.048151757104696991e-01 1.325893467183698327e-01 -2.918386229322668668e-01 -6.245082174233638206e-01 -2.148622434930643268e-02 -7.807226322669937879e-01
-9.444392598351010193e-01 1.401079336608625769e-01 -1.102568945208615980e-01 -7.315066590290558723e-01 6.750396154602108512e-01 -9.601835947088049883e-02
-9.303106584181795036e-01 1.542448568780639961e-01 -1.614606732245928433e-01 -6.403703433760352670e-01 5.034082324243595030e-01 -5.800913504370158735e-01
-8.061055812578622470e-01 1.599517407301033756e-01 -2.329674569663845174e-01 -5.765626550608095036e-01 4.649492422600313701e-01 -6.718613747723949370e-01
-9.340726014596700821e-01 1.472173186129575595e-01 1.295362310132356920e-01 -7.840005915537413550e-01 4.307683970130209983e-01 4.469694179451386140e-01
1.609376458220674322e-01 1.349203725636652640e-01 6.015947674286946656e-01 -1.360797358482571662e-01 3.977506029732029713e-01 9.073459997850444880e-01
-2.065553618793034563e-01 1.481582546898544683e-01 5.333078003548978874e-01 -5.191922312401679035e-02 -1.077719616774521355e-01 9.928190160076468818e-01
-7.866714878343596951e-01 1.535421727294983552e-01 2.833964302282147574e-01 -5.170363619535273125e-01 3.346769652512416870e-01 7.878227778809651083e-01
-5.112927647411236176e-01 1.433480041860348830e-01 -4.415365259092403627e-01 -6.079771739333207359e-01 -4.159067471332144467e-02 -7.928644094376687823e-01
-1.878048810515528244e-01 1.434151203098816829e-01 5.476587093099720693e-01 -1.098543993512472311e-01 -1.454780486613327373e-01 9.832436871401043499e-01
-9.506353631817102690e-01 1.340200649989850834e-01 1.074903139363014432e-01 -7.949546678821785006e-01 3.638760069368271455e-01 4.854290139536834858e-01
-8.930732000458959652e-01 1.468828972397794586e-01 -1.801137666442352292e-01 -7.007809820376136312e-01 5.103995140332820979e-01 -4.983957777599922756e-01
-8.308596480647931770e-01 1.592838420640604324e-01 -2.251485649661166266e-01 -4.988109019016517820e-01 2.337792737091677897e-01 -8.345866853287767784e-01
6.666202008481619812e-01 1.469814201858540559e-01 2.827422162896348623e-01 6.159090077246411887e-01 1.693840472780782647e-01 7.693927077451054863e-01
5.633371964654497743e-01 1.749345975991228597e-01 3.559917366908104674e-01 7.199481224169698157e-01 -2.668295580819297075e-01 6.406845463737064206e-01
7.227862796199568951e-01 1.435407537265844524e-01 2.126787040535987605e-01 8.926317545206772230e-01 2.072849819368943053e-02 4.503097602583934211e-01
-7.635693315858096408e-01 1.360289121968789594e-01 -2.455284390899405700e-01 -3.484345894018034406e-01 2.161238215284885800e-01 -9.120766583332338140e-01
-8.679887090290763219e-01 1.507127814390014087e-01 2.114984683802435261e-01 -6.221895914490583879e-01 1.867005845607998815e-01 7.602782411835218301e-01
5.753674796313247297e-01 1.387408492352747713e-01 -3.840771857599333261e-01 4.406055218457129996e-01 1.587246198545897158e-01 -8.835571680265419392e-01
6.707649093666915308e-01 1.387167263155784647e-01 -3.073217108226017347e-01 6.971887037429966849e-01 2.963108051344607308e-01 -6.527846644443536794e-01
6.598452692348090176e-01 1.574102481722938207e-01 -3.150367653368785215e-01 6.971887037429966849e-01 2.963108051344607308e-01 -6.527846644443536794e-01
7.033079145478986494e-01 1.401373807313853748e-01 -2.876143673455824890e-01 7.696545177323335096e-01 3.038443207052878292e-01 -5.615252016689467052e-01
7.246649861040035390e-01 1.447472914900708452e-01 -2.461604197431658536e-01 8.357392485227186363e-01 2.357547124565406160e-01 -4.959431661321845874e-01
7.111583271202576162e-01 1.721280439436762566e-01 -2.505458980788005663e-01 8.357392485227186363e-01 2.357547124565406160e-01 -4.959431661321845874e-01
3.834039951002701230e-01 1.471985946521167099e-01 -5.669870094621675127e-01 8.259118970745378263e-01 -1.960918223576189612e-01 -5.285995984440453599e-01
4.789651353386251142e-01 1.295666397032424200e-01 4.627476051780911037e-01 9.476712244044617206e-01 -6.503047677190902653e-02 3.125544552978994362e-01
-6.618705283713662846e-01 1.544050791120680222e-01 3.961918823642620602e-01 -4.970236534071542644e-01 -2.308228500940555025e-02 8.674299372701805844e-01
-6.144241004772927894e-01 1.498176364532986526e-01 4.223384638466292640e-01 -5.610541747853097228e-01 -2.605427891265844897e-02 8.273689548842866337e-01
-7.803651349138036875e-02 1.190446029705529429e-01 5.635044859988572741e-01 -6.772746765424519921e-02 -1.272310890607414591e-01 9.895581034489895345e-01
6.603870165441380613e-02 1.724253569240496997e-01 -5.913333542793507425e-01 -5.775008552115482724e-02 -6.737537544847017890e-02 -9.960549615385072553e-01
6.052619096154823741e-02 1.324439751811771759e-01 -5.826742507830554585e-01 -5.775008552115482724e-02 -6.737537544847017890e-02 -9.960549615385072553e-01
3.281243510564150340e-02 1.488231100379086846e-01 -5.836027435111332817e-01 -5.775008552115482724e-02 -6.737537544847017890e-02 -9.960549615385072553e-01
-4.356350541969288698e-02 1.367743843123249703e-01 -5.689467396844064551e-01 -3.316324972675726429e-02 -2.878423077231479499e-01 -9.571034451678529509e-01
-1.737406627625004418e-01 1.602614576223524989e-01 -5.442865155398405319e-01 -2.137124774477023315e-01 -5.196026162629788225e-02 -9.755137662764641338e-01
-9.012964780139053333e-01 1.099076085665991326e-01 1.992386304688859855e-01 -7.196289835974425397e-01 2.004522911818287789e-01 6.647954609701144379e-01
-8.930975653629634747e-01 1.619161786540681547e-01 2.017329505290005043e-01 -7.196289835974425397e-01 2.004522911818287789e-01 6.647954609701144379e-01
1.840148588808587782e-01 1.470708581426870554e-01 -5.844785066772312243e-01 -7.729055833431590361e-02 3.122219819873174318e-01 -9.468598647932441326e-01
3.916952298175379460e-02 1.583532843514968980e-01 5.715399709680721863e-01 -1.444907710033763171e-01 -9.581878019927402013e-02 9.848559176123039549e-01
4.827805511377709635e-01 1.485823933504096805e-01 4.532983387891616478e-01 6.336536832175130307e-01 -2.503294055396630968e-01 7.319960371935346766e-01
7.072447677943576316e-01 1.391627561479456265e-01 2.613864713848462196e-01 7.832672713593277214e-01 1.223144866569573219e-01 6.095338776238431455e-01
2.935098425030426839e-01 1.548236692141801985e-01 6.128138403320866345e-01 1.877388118430773079e-01 1.001974911519659499e-02 9.821678793136223717e-01
-2.439269542228724996e-01 1.601665802594647858e-01 5.554469279098923629e-01 -9.021818968389429261e-02 -3.930661260801263795e-02 9.951460538310166193e-01
2.243962064509773535e-01 1.444888510841996765e-01 6.079744740254822144e-01 -2.523061820464017058e-01 3.811847681553313244e-02 9.668963606439067160e-01
9.565424023251761776e-02 1.462582823190346215e-01 5.704631749503651372e-01 -1.854256713694379943e-01 2.192885999214197121e-02 9.824135816939005839e-01
4.402407329529109403e-01 1.461010031280121912e-01 -5.335285267490226246e-01 4.085298058861394077e-01 -6.983393168896732117e-01 -5.877291860956863623e-01
2.590660757617135879e-01 1.612722069118430746e-01 -5.874809091530901473e-01 -1.981696512308115388e-01 3.583062859598833416e-01 -9.123296524681704378e-01
4.841603773130597754e-01 1.429683079013836788e-01 -4.864333175347616556e-01 5.834203725072902857e-01 -2.007436151405120328e-01 -7.869705648394815789e-01
-2.233179917949587590e-01 1.434979018270658990e-01 -5.377182883381451672e-01 -1.887821858147956944e-01 -5.401798490209541725e-02 -9.805321736822841805e-01
7.533796791221746281e-01 1.405842803877438429e-01 1.515497091511767980e-01 9.364607627080034913e-01 4.606825739362890165e-02 3.477340299266937218e-01
-6.623904308218536707e-01 1.610936766804496323e-01 -3.447185610995969762e-01 -5.534751014606805741e-01 8.928442303122710588e-02 -8.280661832650035858e-01
7.967641497901587488e-01 1.703209005303292223e-01 8.894964213389398161e-03 9.900017858795036041e-01 1.129827968358154827e-01 8.444733018011946202e-02
7.858930751345134524e-01 1.313477495284599839e-01 2.136986420892443214e-02 9.900017858795036041e-01 1.129827968358154827e-01 8.444733018011946202e-02
7.913710119904003859e-01 1.325316821913411214e-01 -1.054639384134494970e-02 9.914385024196652463e-01 1.049259324478014899e-01 7.771901067184745771e-02
5.312296565580774121e-01 1.419645414042745857e-01 4.163759044197314352e-01 6.950749634361106377e-01 -4.210647709939793759e-01 5.827308588294232150e-01
6.881623962438428999e-01 1.595181025167951017e-01 2.821272643284519765e-01 7.190143036774574448e-01 2.584706187087423279e-01 6.451444569796294104e-01
-4.772620571587434801e-01 1.350809072091009588e-01 -4.542152787343649023e-01 -5.415303179529855626e-01 -9.051525392150634730e-02 -8.357941753477727831e-01
7.377283588454908170e-01 1.530999737884856937e-01 1.859695542279103941e-01 8.926605890001261256e-01 6.563843176138996205e-02 4.459245105641237994e-01
-7.379176913523570747e-01 1.428635613245866909e-01 -2.635741182959853157e-01 -6.531438223781433905e-01 1.233346385366821396e-01 -7.471222886691939458e-01
1.656755457155779931e-01 1.589221060419315490e-01 5.929819172316628251e-01 -2.484633720540194435e-01 2.885477171986874922e-01 9.246654355208548948e-01
3.391416362313231514e-01 1.515313745305012783e-01 5.969649436999898695e-01 1.953984488510410455e-01 -1.717196746570648913e-01 9.655733009576636938e-01
-3.240247721019890448e-01 1.649337844035536071e-01 -5.271194790719930801e-01 -2.839195313425507683e-01 -8.121507201424145450e-02 -9.554024344745767339e-01
3.234657242287479750e-01 1.760758246582142805e-01 5.937915640708467668e-01 9.685427485878760068e-02 -4.254632298389336709e-02 9.943887870657677208e-01
3.354783393649110601e-01 1.485322370236255851e-01 6.057453544034004933e-01 9.685427485878760068e-02 -4.254632298389336709e-02 9.943887870657677208e-01
7.394908969855347181e-01 1.548448687734213791e-01 -2.168475762132719975e-01 8.913734906901430444e-01 1.690205064953716751e-01 -4.205774226927991299e-01
-1.359692287170480851e-01 1.400107249624628070e-01 -5.622859571543173951e-01 -2.766758208665728302e-01 -1.342776234996819196e-01 -9.515356062571098672e-01
-7.139465736605598023e-01 1.524462962177352277e-01 3.711691924297482181e-01 -5.662191818826040057e-01 -5.532843915151264280e-02 8.223956480242657907e-01
-3.755852078477329159e-01 1.557509894904174630e-01 5.069650955657374336e-01 -1.084720526735317575e-01 -6.725997395649453703e-02 9.918215110049601879e-01
-3.967947820267837544e-01 1.252196891461679062e-01 5.080101566931345403e-01 -1.084720526735317575e-01 -6.725997395649453703e-02 9.918215110049601879e-01
-4.463284923159750450e-01 1.553949819596293080e-01 -4.672408325282921826e-01 -4.541083601702123329e-01 -1.686177047870935156e-02 -8.907868869262974831e-01
-3.954937964829808306e-01 1.550906538304066551e-01 -4.955631199002637488e-01 -3.057577040389039547e-01 -3.623160464157736821e-02 -9.514197271688002999e-01
-6.424082726594698700e-01 1.415152930249266028e-01 -3.607985861986997556e-01 -6.027563809477309853e-01 1.504110599406058291e-02 -7.977834984237698324e-01
2.327696886050339697e-01 1.641043870254971782e-01 6.111427143978064302e-01 -2.570085356637227814e-01 3.588149466829067963e-02 9.657427871521269136e-01
1.275424184952320128e-01 1.563886315910434921e-01 5.892869085395668893e-01 -1.294631718440811541e-01 5.601050440935900765e-02 9.900010659246175626e-01
1.791065119381455017e-01 1.629740065123754522e-01 5.922749798765797324e-01 -1.555033585945594932e-01 1.832677280592222291e-01 9.706861724150719350e-01
1.037138648873945773e-01 1.604034402260163528e-01 -6.014238294632529014e-01 1.053732507537812751e-02 -9.784752148458972232e-02 -9.951456312116223613e-01
-9.482691465243461293e-01 1.461791476997081896e-01 5.754303625395842947e-02 -9.736225938415312697e-01 2.481596620226310737e-02 2.268109622190612462e-01
-9.725479120006212952e-01 1.603828770031606177e-01 -1.422427649221297274e-02 -9.566837992070570396e-01 2.722600465569708916e-01 1.031046816761844870e-01
-7.198536779600034352e-01 1.499284180013065459e-01 -2.934581928689098951e-01 -5.801073324763874606e-01 5.974962072358296072e-02 -8.123456564976007099e-01
-5.298033215633191073e-01 1.739200268611624522e-01 -4.283115931239133700e-01 -5.589768682507461062e-01 -1.152136540430627742e-01 -8.211398630456527847e-01
-7.380626428003721484e-01 1.653776052784518835e-01 3.418046783514998577e-01 -7.487014572818808666e-01 -5.656917147460523848e-02 6.604892555542933863e-01
-9.338760721425753975e-01 1.559349166178097545e-01 -5.909701612284057326e-02 -8.894966561324144649e-01 2.102625076948007321e-01 -4.056912330666598843e-01
-6.102512510052953143e-01 1.628258603676530913e-01 -3.916516105758289790e-01 -5.359736188206254415e-01 -2.790833273988661475e-02 -8.437733136879849161e-01
-1.952954822515785005e-01 1.826671124406368807e-01 5.524822491202652230e-01 -7.977006619393045561e-02 -2.528204843008853564e-02 9.964926264486830831e-01
-1.747583114734010123e-01 1.492273932406521231e-01 5.487849946038899640e-01 -7.977006619393045561e-02 -2.528204843008853564e-02 9.964926264486830831e-01
-7.742932377864085447e-02 1.439993410097410997e-01 5.602353339004306765e-01 -1.251017690655630010e-01 -3.345354082955290242e-02 9.915797537175877752e-01
5.344236254144366649e-01 1.471238674792299805e-01 -3.997627072869002207e-01 6.683869673176102699e-01 -2.414370221904569569e-01 -7.035389301494072711e-01
5.969971521805929049e-01 1.642117458113700745e-01 -3.718071561797906543e-01 5.701840904706675373e-01 1.691753320954824114e-01 -8.039090806705201375e-01
5.764115843695114538e-01 1.431908005819244878e-01 3.523552096319155225e-01 5.293399006787620209e-01 -3.956521986457141316e-02 8.474867921840826268e-01
5.387314226774047032e-01 1.669517968189644652e-01 -4.329310664107294260e-01 7.881820159812283899e-01 -4.888085252681887982e-01 -3.739456314879275878e-01
2.224722594685077104e-01 1.537981188507118457e-01 -5.857627779909531096e-01 -1.829550987649429805e-01 4.127360273989975070e-01 -8.922871754781662723e-01
2.441780871482585324e-01 1.779385179604976164e-01 -5.855602913216652050e-01 -1.829550987649429805e-01 4.127360273989975070e-01 -8.922871754781662723e-01
7.122431087947371786e-01 1.897214718106748910e-01 -2.419885060233981089e-01 8.170737310066337189e-01 2.113739646220931245e-01 -5.363875140034833899e-01
6.047209805589764953e-01 1.411847724226777401e-01 -3.593094502123139744e-01 5.046417260958998563e-01 2.130408287193956696e-01 -8.366303446454137482e-01
-9.518962800745679464e-01 1.720764408885224195e-01 2.625132086375794177e-02 -7.827238074580479266e-01 5.462081938347226329e-01 2.983287619827943438e-01
-7.315194723042143243e-01 1.682737994814669513e-01 -2.974079000299021391e-01 -7.634158797021951548e-01 -3.376426809358623604e-02 -6.450241614223670705e-01
-9.257162553500285496e-01 1.715835722982912981e-01 -1.460097334339975905e-01 -7.227413954261431295e-01 6.421593680348977040e-01 -2.554921160867633656e-01
6.509850489175805777e-01 1.419992049931884104e-01 3.085396925887769481e-01 5.774033948725454390e-01 2.579572394612677511e-01 7.746375811947040502e-01
-9.556778593492594176e-01 1.584114226711244855e-01 -2.990800202465250177e-02 -9.385636227957492306e-01 3.054224030418066782e-01 -1.606719691940275141e-01
-7.631265209282055428e-01 1.613645406161114404e-01 3.054073627880010133e-01 -8.009881585254147174e-01 -6.137149098752738702e-02 5.955262462696608861e-01
6.272385993039466534e-01 1.699311837985229834e-01 -3.319656165005016035e-01 6.208961464183078149e-01 2.900708052321207542e-01 -7.282492041292489837e-01
-5.427882234171186315e-01 1.608277672079312104e-01 4.626458077281468961e-01 -3.173985909296543340e-01 2.117126093301430374e-03 9.482898566646039695e-01
1.386678050348411628e-01 1.562194593001760834e-01 -5.874783574616220250e-01 1.130454275561105643e-01 -5.809668743787905348e-02 -9.918898659717224620e-01
1.425506724620697885e-01 1.728751629099042064e-01 -5.825832401736029675e-01 1.130454275561105643e-01 -5.809668743787905348e-02 -9.918898659717224620e-01
7.676375669166739524e-01 1.449158363568313346e-01 6.805502326437273819e-02 9.757298158645951736e-01 5.903486980977526444e-02 2.108701272807173288e-01
7.710020184304404722e-01 1.405646741797862975e-01 3.790461727016228299e-02 9.865506762775568816e-01 1.117287334512866714e-01 1.193082279545994717e-01
7.712350334849613631e-01 1.597782253388310147e-01 5.347657811886926543e-02 9.865506762775568816e-01 1.117287334512866714e-01 1.193082279545994717e-01
-9.353813035158636824e-01 1.633478514748366861e-01 9.702859796645944834e-02 -5.201608295817625738e-01 7.797850893670608130e-01 3.483789973141570573e-01
-9.305018451747633090e-01 1.549788618370888382e-01 1.237016351024509686e-01 -5.201608295817625738e-01 7.797850893670608130e-01 3.483789973141570573e-01
-9.385442015708522767e-01 1.510779525510728971e-01 6.542308551688577611e-02 -7.501571143375888040e-01 6.226522818265320947e-01 -2.226397083741228355e-01
4.369286163168494275e-01 1.784009216804796072e-01 5.406719577107653718e-01 6.248619859739230620e-01 -1.854890293741924545e-01 7.583807213178250795e-01
-7.727841536281895296e-01 1.712529616072470118e-01 -2.211305702286182895e-01 -4.826658695724976300e-01 3.510944090981920618e-01 -8.023505307842803136e-01
6.259904920335396250e-01 1.682903622010230582e-01 3.403763260291089998e-01 5.114086827255568402e-01 2.545397169666801518e-01 8.207744463124039269e-01
-1.043027867396212616e-01 1.643268115283569308e-01 5.464266887210688095e-01 -1.264785351031179061e-01 1.774012064034166669e-02 9.918107018367141592e-01
1.485519903834854327e-01 1.972562168862533327e-01 5.948367154710798577e-01 -1.279608507507670467e-01 6.801494828217245769e-02 9.894442821530242682e-01
-7.513671521808013010e-01 1.681241807663242382e-01 -2.533052283379633729e-01 -7.375731314534811345e-01 -1.783627276943385367e-02 -6.750316608364382853e-01
-2.444206609714066544e-02 1.484071263300554000e-01 5.690684742511468164e-01 -6.142093327451097345e-02 -8.003890516513574582e-02 9.948976040857946401e-01
-6.281222781915294373e-01 1.416645707918590125e-01 4.127271069896782940e-01 -5.156914696509025120e-01 -1.981054448517656844e-02 8.565452997107001476e-01
-6.244308820419628425e-01 1.768321298470258984e-01 4.197942898063046768e-01 -5.314953514611906460e-01 -1.549396728667531108e-02 8.469194934306712996e-01
4.496643388402964403e-01 1.500757072560501282e-01 -4.988447675464109943e-01 6.262039895243037835e-01 -6.969476210355134427e-01 -3.494747158762472883e-01
5.652753907803256261e-01 1.628162057999556489e-01 -3.849152495976351784e-01 5.231049159246921043e-01 9.149860476821618238e-02 -8.473424645684237699e-01
5.505166643096653933e-01 1.571850425292172226e-01 -3.977066046795376675e-01 5.231049159246921043e-01 9.149860476821618238e-02 -8.473424645684237699e-01
3.329177126635033956e-01 1.871677744952068012e-01 -6.101705430250911055e-01 -2.383648979390232403e-01 6.747666623708573064e-02 -9.688287129023623878e-01
-1.232497587041970627e-01 1.513406608636152784e-01 -5.747792059903005235e-01 7.585523096549960133e-03 -1.523667426491843169e-01 -9.882949132591086761e-01
7.787885306897924798e-01 1.775231505851694869e-01 8.370947970696963891e-02 9.523941405225083701e-01 1.771346569550460992e-01 2.481304382856136248e-01
7.900018685942123975e-01 1.327168137653836066e-01 -2.157738249638047404e-02 9.892019835636126635e-01 1.344915122070422797e-01 -5.823631906359928723e-02
7.977002611469227178e-01 1.522124589053054644e-01 -3.522429681353574787e-02 9.892019835636126635e-01 1.344915122070422797e-01 -5.823631906359928723e-02
-1.127749265946832030e-02 1.607051805544203738e-01 -5.831956339177720716e-01 -8.917747699587801058e-02 -3.800000300458591940e-01 -9.206776606184141620e-01
7.818340959110761101e-01 1.557905185629569755e-01 -5.849100020146816292e-02 9.894159168873103427e-01 1.343024473583064038e-01 -5.494539146836902033e-02
7.849988202539327498e-01 1.961702154693862055e-01 -4.762966595844065482e-02 9.894159168873103427e-01 1.343024473583064038e-01 -5.494539146836902033e-02
-8.693347083040496859e-01 1.748326750829267695e-01 -1.905884864710585547e-01 -6.048384335906680231e-01 3.696670736539548474e-01 -7.053486541475135763e-01
-9.550453924651902682e-01 1.739133194093372414e-01 -3.609597986001262387e-03 -9.218310362376973544e-01 3.775942197885920892e-01 8.746511196572910596e-02
1.415097226361620164e-01 1.763744673847541522e-01 5.786519883609155812e-01 -1.647235104058565602e-02 6.433137598881737140e-02 9.977926316197074375e-01
2.791758498591015436e-01 1.709921711348129092e-01 6.101695815619946339e-01 9.107035921479479657e-02 1.040397055872661347e-01 9.903948350702377335e-01
-7.100299522728996393e-02 1.499873122853734864e-01 -5.708353394477773124e-01 -7.077026724671958875e-03 -2.709372556126736775e-01 -9.625709943759009901e-01
7.779730209661750440e-01 1.507060694628425401e-01 1.030190489301157503e-01 9.413115989384459592e-01 1.946898134070881581e-01 2.757323888473377504e-01
6.267122390239332486e-01 1.440556647054751782e-01 -3.509337703801661545e-01 5.053352176997641942e-01 2.146856865223361333e-01 -8.357908672357966529e-01
6.212566849569386429e-01 1.723548540033196519e-01 -3.405191465442394261e-01 5.053352176997641942e-01 2.146856865223361333e-01 -8.357908672357966529e-01
-8.064896131118225453e-01 1.748297403897176028e-01 2.777720061336723667e-01 -4.961230377246512169e-01 2.778651995193011093e-01 8.225891212111690054e-01
-8.431832655073441263e-01 1.581476616115429779e-01 2.746575215412446203e-01 -6.045136404203743652e-01 2.592833180499834467e-01 7.532167148481885288e-01
-8.470322432642815036e-01 1.699168314146022041e-01 2.407394327910970799e-01 -5.465816740399065399e-01 3.097908783651299180e-01 7.779961987603117857e-01
-8.157734727684849974e-01 1.750421527953789080e-01 2.489478508320355221e-01 -5.465816740399065399e-01 3.097908783651299180e-01 7.779961987603117857e-01
-6.102306812623556898e-01 1.540676661290456273e-01 4.236632073270898968e-01 -4.914847909248287738e-01 1.447892766374152262e-02 8.707657899477250218e-01
-7.064777142473708249e-01 1.504377633910292944e-01 -3.199117011523515131e-01 -6.475425862435260083e-01 3.459280986828970617e-02 -7.612436774820937613e-01
-6.878521406562179141e-01 1.652331302773906718e-01 -3.209869209715526250e-01 -6.475425862435260083e-01 3.459280986828970617e-02 -7.612436774820937613e-01
-5.013340806088525392e-01 1.498464989149655147e-01 -4.557031636003940345e-01 -6.095110845494319252e-01 -4.208731599652903999e-02 -7.916595831818014073e-01
-3.119850518315067101e-01 1.583605134700461770e-01 -5.195589902685996408e-01 -2.785489772511546280e-01 6.416081566944848618e-04 -9.604218112950732023e-01
-3.067414852031111194e-01 2.085765839119934628e-01 -5.173372844524782854e-01 -2.785489772511546280e-01 6.416081566944848618e-04 -9.604218112950732023e-01
4.808221422279288504e-01 1.691945934358013159e-01 4.720210335786466649e-01 8.979524024189350362e-01 -6.739965997827683866e-03 4.400409706475194582e-01
-8.965350463606254205e-01 1.735368750128385706e-01 -1.547782483538789056e-01 -6.277644906832540173e-01 3.861623868192527453e-01 -6.758626748410156981e-01
4.318632196604939577e-01 1.524283246998688057e-01 5.268191314467353115e-01 6.494131370455009655e-01 -1.861940318100946956e-01 7.372885187977787913e-01
7.352059349793361731e-01 1.606632150988837882e-01 2.051489566811716680e-01 8.255796561645165621e-01 2.912058515534912684e-01 4.833398218109951072e-01
5.486023535122972472e-01 1.697943049003780569e-01 3.662150290787922202e-01 7.499778487275604588e-01 -3.963489587255872304e-01 5.295665485424123631e-01
6.147016741042445886e-01 1.369494844003744383e-01 3.376359396412292324e-01 5.768228911758073174e-01 1.714712675477245429e-01 7.986694914801487633e-01
-9.445406062974829320e-01 1.661290672879179586e-01 -9.118257864155927817e-02 -8.323181475700361931e-01 1.939338721293963341e-01 -5.192650137131160637e-01
-4.843519924280419997e-01 1.724999934006221924e-01 -4.585705467901153298e-01 -4.531438511192757979e-01 1.994654139562831302e-02 -8.912142198591448405e-01
-1.436696243628357017e-01 1.669342543102977083e-01 -5.704276117374583732e-01 -2.710105924190785998e-01 -9.973522036141611868e-02 -9.573955006245432608e-01
-1.472174447791886331e-01 1.734077884455463570e-01 5.481467353491432659e-01 -7.510082006164897628e-02 -2.283507171609693367e-02 9.969144528623248291e-01
-2.165138988685012811e-01 1.715910939308902816e-01 5.395808014372108774e-01 -8.643903514072660832e-02 -2.135593465699654400e-02 9.960282211156802346e-01
-9.143291399013177001e-01 1.409225782548397810e-01 1.924902091751175270e-01 -7.870035189500926842e-01 3.739600988482261190e-01 4.906926794130885283e-01
3.148009056882345447e-01 1.757400498593871541e-01 -5.943771538390604237e-01 4.899952200121884816e-02 1.656072618302104338e-01 -9.849737466921401063e-01
3.015328543522426408e-01 1.649149910364584859e-01 -6.012708395528069127e-01 4.899952200121884816e-02 1.656072618302104338e-01 -9.849737466921401063e-01
4.637748509949311537e-01 1.678963536827742520e-01 -5.181191798957965888e-01 8.136482737517444219e-01 -5.366711106271350173e-01 -2.235186919231673119e-01
5.317594287615123871e-01 1.657224327586078461e-01 4.125615278809676156e-01 7.379055475409932452e-01 -3.112662860321539493e-01 5.988394627009613336e-01
3.809031915551349123e-01 1.598724196118014584e-01 5.828295482234033820e-01 6.821242457680809501e-01 -4.461152167384546674e-01 5.793856459472641607e-01
7.254832952165120030e-01 1.789376396212133125e-01 2.170625092934869993e-01 7.992563800654493011e-01 3.188390447526986415e-01 5.094417557148810394e-01
7.108667431585006247e-01 1.616674832392029637e-01 2.311680011132024037e-01 7.992563800654493011e-01 3.188390447526986415e-01 5.094417557148810394e-01
6.971294303221580169e-01 1.663965050159517123e-01 2.535313341725060621e-01 7.500835312980630443e-01 3.292934382196813781e-01 5.735333709740771946e-01
6.008829885377769964e-01 1.808064600426122770e-01 3.386904357235354102e-01 6.624759153772762366e-01 1.889154195398907166e-01 7.248700751204363302e-01
7.680250332427489557e-01 1.877684726650915015e-01 1.200591234922004369e-01 9.401147967449352549e-01 1.979302641223934511e-01 2.775027558163499775e-01
-3.157498442564941193e-02 1.647172176583256153e-01 -5.983401519805545687e-01 -8.671341922264098889e-02 -3.804576091802737148e-01 -9.207240577629914879e-01
