8.939283049364478428e-02 -3.432609927490698487e-01 -1.675887838486223302e-01 9.234254070717539120e-01 -3.507171462705980375e-02 -3.821720717261838929e-01
7.893943091350752450e-02 -3.527938158750058006e-01 -1.900298676558181132e-01 9.184753729825525514e-01 -6.561688185827567465e-02 -3.899966846522646691e-01
7.941364503863057589e-02 -3.556865609975431997e-01 -1.712607689469218264e-01 9.182070720402006891e-01 -1.311664916297221595e-01 -3.737527582893690470e-01
1.021094141594351412e-01 -3.145077725792962409e-01 -1.310189520582276113e-01 8.754811456114278689e-01 -7.603543591869867113e-02 -4.772330417768192445e-01
1.011479334880064779e-01 -3.230577481851387156e-01 -1.498206304033457004e-01 8.754811456114278689e-01 -7.603543591869867113e-02 -4.772330417768192445e-01
9.808600277255365152e-02 -3.360200590531135512e-01 -1.310672414256160989e-01 8.769135002947479052e-01 -1.146180587365732695e-01 -4.667819765289493161e-01
1.100492373597173057e-01 -3.425753518420709409e-01 -1.191972446127594620e-01 8.769135002947479052e-01 -1.146180587365732695e-01 -4.667819765289493161e-01
1.145024779108444885e-01 -3.514574171786197243e-01 -1.041052209342357010e-01 8.621478564164498648e-01 -8.797385776312202643e-02 -4.989605936612575010e-01
1.300199472395626721e-01 -3.374417105349524770e-01 -1.002213383154618581e-01 8.621478564164498648e-01 -8.797385776312202643e-02 -4.989605936612575010e-01
1.370312123400863336e-01 -3.190321483569045768e-01 -9.171184332248767668e-02 8.321219628219203024e-01 -8.587162905973093341e-02 -5.479042820712600736e-01
1.331767944124437053e-01 -3.328730875614727136e-01 -8.053824417765488575e-02 8.263981303616033669e-01 -1.081789178109433536e-01 -5.525970067563699128e-01
1.229908073844039190e-01 -3.677931062794791428e-01 -8.103773849150268382e-02 8.378112665710667484e-01 -9.479830891383803082e-02 -5.376667762040550080e-01
1.278807086559670958e-01 -3.597137864162086029e-01 -9.153669425316823816e-02 8.378112665710667484e-01 -9.479830891383803082e-02 -5.376667762040550080e-01
1.487520090519754146e-01 -3.300422952891984840e-01 -7.175625363699615622e-02 8.095429670911143960e-01 -1.034670725500650423e-01 -5.778708760019271029e-01
1.302938609318862184e-01 -3.204979816699897177e-01 -7.664978099939562250e-02 8.095429670911143960e-01 -1.034670725500650423e-01 -5.778708760019271029e-01
1.643212318481070411e-01 -3.512255109948879128e-01 -5.023758733481779870e-02 7.835946118526301296e-01 -1.313854809364688181e-01 -6.072209973927275017e-01
1.537350068696640149e-01 -3.399959182411717573e-01 -4.429526271547087890e-02 7.918443240139705352e-01 -6.824653238643525743e-02 -6.068978310589726588e-01
1.635696471721830858e-01 -3.410246636618570193e-01 -2.807855848246785385e-02 7.918443240139705352e-01 -6.824653238643525743e-02 -6.068978310589726588e-01
1.544224358960560595e-01 -3.123737886807898545e-01 -5.304160874929628178e-02 7.948165226935541838e-01 -8.485449342161359432e-02 -6.008880180195709242e-01
1.732611786693355194e-01 -3.257124365018813084e-01 -2.821361709807176238e-02 7.543253880896795271e-01 -1.140357637397696605e-01 -6.465207293441116443e-01
2.067464384758658236e-01 -3.291444705357460809e-01 1.097281636413698427e-02 7.305667777444283528e-01 -1.031698707177662044e-01 -6.750023415012739170e-01
2.116347737240004689e-01 -3.172944634475630132e-01 -1.124808971059282521e-02 7.305667777444283528e-01 -1.031698707177662044e-01 -6.750023415012739170e-01
1.901117502353818489e-01 -3.109403516967623182e-01 -1.445322582202658926e-02 7.180226530770663640e-01 -1.208110496448766974e-01 -6.854547103579301526e-01
2.282504241582934135e-01 -3.208235052224911454e-01 1.998631252254559620e-02 6.388837968080406382e-01 -1.360599670150089147e-01 -7.571757917102321933e-01
2.212755424413661576e-01 -3.003698961534209122e-01 8.304768558547937635e-03 6.889467365593520132e-01 -1.060363242618713453e-01 -7.170137321706259170e-01
2.820903716533921801e-01 -2.994218772321842748e-01 6.431651561137168016e-02 5.721602343448345396e-01 -1.542009356237687701e-01 -8.055152001590151212e-01
2.919596552561684044e-01 -3.147117090491737268e-01 6.522670357038595768e-02 5.721602343448345396e-01 -1.542009356237687701e-01 -8.055152001590151212e-01
2.624508699730344619e-01 -3.214925026219404014e-01 5.239599562009128464e-02 6.045806309980821247e-01 -1.173344396692067026e-01 -7.878546121521876611e-01
3.199968026439379276e-01 -2.939931609357857023e-01 8.651897074375830554e-02 5.072843316380515333e-01 -1.489482392835441982e-01 -8.488091828490472723e-01
3.666120352101653324e-01 -2.878367684541888738e-01 1.122829491674987995e-01 4.187712047221321954e-01 -1.669722204831773915e-01 -8.926090721488837421e-01
3.817899849182346261e-01 -2.779525424226207408e-01 1.202528851764575607e-01 4.187712047221321954e-01 -1.669722204831773915e-01 -8.926090721488837421e-01
4.015300671059659487e-01 -3.103255664613122078e-01 1.250577502877755209e-01 3.462499606797387330e-01 -1.650810016070124731e-01 -9.235037778145278597e-01
4.022149475840950394e-01 -2.926505205087782668e-01 1.313041602605369562e-01 3.462499606797387330e-01 -1.650810016070124731e-01 -9.235037778145278597e-01
3.836005270851874371e-01 -3.030382908200118242e-01 1.171611155384984920e-01 3.838738766206342690e-01 -1.548283012197038122e-01 -9.103126078384649045e-01
4.283616145956025134e-01 -2.918822592175252528e-01 1.336267756436243515e-01 3.431143560397877379e-01 -1.229266655366665906e-01 -9.312151059660911390e-01
4.417118146860822270e-01 -3.132778775465785981e-01 1.428745353643710581e-01 3.431143560397877379e-01 -1.229266655366665906e-01 -9.312151059660911390e-01
4.144700320756987688e-01 -2.952672030752047649e-01 1.304049120382239912e-01 3.396284917204006604e-01 -1.625648425929510921e-01 -9.264044254883797569e-01
4.616752004228970585e-01 -3.269778969655662282e-01 1.557232490486930299e-01 3.012458089296098374e-01 -1.526487097674094351e-01 -9.412488162057310870e-01
4.597013450134109225e-01 -2.739536108769427547e-01 1.441971554027536295e-01 2.600873488677915568e-01 -1.675636555037696152e-01 -9.509347991913734699e-01
4.816379279773174149e-01 -2.969798027965046550e-01 1.509312038248963872e-01 2.600873488677915568e-01 -1.675636555037696152e-01 -9.509347991913734699e-01
4.608485589462053555e-01 -2.772943442638519107e-01 1.428978049456260946e-01 2.600873488677915568e-01 -1.675636555037696152e-01 -9.509347991913734699e-01
4.761032826943170093e-01 -2.825168057803540411e-01 1.446696498091147309e-01 2.063637907917932612e-01 -1.699426810813062239e-01 -9.636044162398481605e-01
4.976607329553121017e-01 -3.056579116898208714e-01 1.491257262643526649e-01 2.065516248658113840e-01 -1.697936975737831256e-01 -9.635904350550164033e-01
5.114578705459056351e-01 -2.710598764633846969e-01 1.569939297703176195e-01 1.760838787502074787e-01 -1.514306751300562026e-01 -9.726578115010117154e-01
5.309318979017654261e-01 -3.033102208909762010e-01 1.575235337768807753e-01 1.039345866124778972e-01 -1.884362950417388105e-01 -9.765702045509253582e-01
5.135281516370828747e-01 -3.071790706847152830e-01 1.558325147976391545e-01 1.610063449618659159e-01 -1.714151553890861934e-01 -9.719536004280019403e-01
5.480792899792267248e-01 -2.964184371403078000e-01 1.663589337862140249e-01 1.283890636912027317e-01 -1.612949917955450174e-01 -9.785193784213838120e-01
5.582403663288194595e-01 -3.136930867736442141e-01 1.663282740665182613e-01 1.283890636912027317e-01 -1.612949917955450174e-01 -9.785193784213838120e-01
5.561143226691996899e-01 -2.856712798543459830e-01 1.566582504418372046e-01 5.912383907403984118e-02 -1.741712161589189511e-01 -9.829388379318776403e-01
5.770188933967289602e-01 -2.915847055025462820e-01 1.665540575877254015e-01 5.912383907403984118e-02 -1.741712161589189511e-01 -9.829388379318776403e-01
3.296596616776078376e-02 -3.989183423286180030e-01 -3.666825023951056917e-01 9.976897238897121101e-01 3.371926522446189178e-02 -5.897648681968595957e-02
4.393947327310140233e-02 -4.171193222030072922e-01 -3.359118179439651852e-01 9.896369368770088215e-01 -1.049859083170054663e-01 -9.796270833100007014e-02
3.229449937824353106e-02 -3.935084382865973729e-01 -3.471402191285006267e-01 9.896369368770088215e-01 -1.049859083170054663e-01 -9.796270833100007014e-02
6.186181967168957047e-02 -3.770932383788366815e-01 -2.264305932506489594e-01 9.642908664367892957e-01 -8.081117376987591305e-02 -2.522155409575730367e-01
5.393073889812199928e-02 -3.882258542437970750e-01 -2.479460886527191099e-01 9.722809874617145409e-01 7.004950009219069323e-03 -2.337105305625774287e-01
6.481121192375174922e-02 -3.821920766203912301e-01 -2.150911869763378892e-01 9.486684172042906260e-01 -6.578313484635701924e-02 -3.093554805864803248e-01
6.883434984579697713e-02 -3.862910711330216351e-01 -1.930048396208245975e-01 9.419580888297307553e-01 -5.404534109123227542e-02 -3.313518673473463960e-01
8.634466262190076957e-02 -3.785620877286752228e-01 -1.522047765153437815e-01 9.098798623241888262e-01 -1.072668253961029244e-01 -4.007648491401872848e-01
7.057601512827633983e-02 -3.595913873020156748e-01 -1.858421076121886117e-01 9.098798623241888262e-01 -1.072668253961029244e-01 -4.007648491401872848e-01
8.898609164304867314e-02 -3.727714737213003171e-01 -1.749845739588950233e-01 9.239116486109243409e-01 -6.648738507870430303e-02 -3.767846774836258184e-01
7.503472365179551795e-02 -4.072893674009375187e-01 -1.805860372175351058e-01 9.239116486109243409e-01 -6.648738507870430303e-02 -3.767846774836258184e-01
1.010184724983338028e-01 -3.545635162200304613e-01 -1.363532169445127173e-01 9.035113042140610062e-01 -4.730406520498278006e-02 -4.259455934418022727e-01
1.123877172792364237e-01 -3.543461112489788567e-01 -1.133632959251194700e-01 8.856300409095895221e-01 -8.064455599173867006e-02 -4.573356384837879984e-01
1.094741676702079974e-01 -3.694680584102678633e-01 -1.207572814103997083e-01 8.896509391529097144e-01 -7.376820362407536524e-02 -4.506433829519996270e-01
8.674312104450684902e-02 -3.785956503409758089e-01 -1.420885426783483896e-01 8.920916578344111336e-01 -8.763510204396768311e-02 -4.432748164649051303e-01
1.189481254042711739e-01 -3.872434241451965797e-01 -1.117857607601231429e-01 8.621401375304413861e-01 -8.798647705239548422e-02 -4.989717057257853638e-01
1.365941223259154458e-01 -3.410717275209497745e-01 -7.606274764342428607e-02 8.257506915316943363e-01 -1.034406240905757224e-01 -5.544689646163082353e-01
1.325307092110152019e-01 -3.576162023260420764e-01 -7.859976257210864181e-02 8.317054372762011649e-01 -9.264522487026043140e-02 -5.474330350955646241e-01
1.398299954697537761e-01 -3.581396718275550728e-01 -5.796927663098259270e-02 8.117742992417671388e-01 -1.013963874485181577e-01 -5.751010865082137880e-01
1.736205508598322733e-01 -3.488646763397488249e-01 -2.430247387662867048e-02 7.679667504752411000e-01 -1.026440150735955514e-01 -6.322114174341287862e-01
1.967733744048893452e-01 -3.517522215865985791e-01 5.169835963103647410e-03 7.232342940590199554e-01 -1.199459742688926273e-01 -6.801066968892728326e-01
1.963706249250645741e-01 -3.406753104697056167e-01 -5.906371482525617223e-03 7.232803217115311156e-01 -1.199182206254080230e-01 -6.800626416639129479e-01
2.367812254518017190e-01 -3.315264531751219712e-01 4.815238919515667931e-02 6.563665678531228620e-01 -1.310838784026342740e-01 -7.429669881143006194e-01
2.164806110673367368e-01 -3.231599365927037004e-01 2.570437215091831915e-02 6.588859412641390190e-01 -1.532480319051109374e-01 -7.364674854477146759e-01
2.367693671367536445e-01 -3.496445351434913085e-01 3.179100698239321898e-02 6.588859412641390190e-01 -1.532480319051109374e-01 -7.364674854477146759e-01
2.096722389911278295e-01 -3.156162588127149338e-01 6.833494852937801838e-03 6.588859412641390190e-01 -1.532480319051109374e-01 -7.364674854477146759e-01
2.019904891144516657e-01 -3.067781334703024165e-01 -7.496018267280745405e-03 6.588859412641390190e-01 -1.532480319051109374e-01 -7.364674854477146759e-01
2.174677919235426804e-01 -3.436902328891424663e-01 2.522088842852510809e-02 6.748313335243193434e-01 -1.361703690170828762e-01 -7.253001460743960793e-01
2.637939669059116143e-01 -3.538316217747308756e-01 5.438337135746156015e-02 5.840723866639220274e-01 -1.409398544393795638e-01 -7.993718812713620503e-01
2.791289533314468274e-01 -3.343151799395699397e-01 6.220083813084834046e-02 5.880979947175227762e-01 -1.612644428550825682e-01 -7.925493852624380109e-01
3.014934417224482965e-01 -3.630769848910506692e-01 9.494623845000352280e-02 5.568273324947926595e-01 -1.366105934960096246e-01 -8.193173179735685485e-01
3.100809712292631470e-01 -3.320624101180956744e-01 9.167459340067408979e-02 5.568273324947926595e-01 -1.366105934960096246e-01 -8.193173179735685485e-01
2.892262245647494456e-01 -3.326801566120448639e-01 7.446397672403443080e-02 5.568273324947926595e-01 -1.366105934960096246e-01 -8.193173179735685485e-01
3.239882289397267856e-01 -3.134255421244271922e-01 1.002223517402838493e-01 5.073224208879802966e-01 -1.496151718203897751e-01 -8.486691119779923298e-01
2.983868576083612001e-01 -3.106611252935987944e-01 8.031310856505168017e-02 5.073224208879802966e-01 -1.496151718203897751e-01 -8.486691119779923298e-01
3.567837075592708018e-01 -3.293704462837100944e-01 1.110403598830991961e-01 4.456167055786840470e-01 -1.788699326711751525e-01 -8.771723313553669854e-01
3.450558185295677927e-01 -3.349722526218320007e-01 1.062535331078715145e-01 4.456167055786840470e-01 -1.788699326711751525e-01 -8.771723313553669854e-01
3.585937653166481054e-01 -3.043633431101082643e-01 1.097090708512591245e-01 4.297387805986400133e-01 -1.545244334173721534e-01 -8.896329467407523284e-01
3.676396776305184688e-01 -3.133210857113306602e-01 1.147873069298053633e-01 4.249795272923337364e-01 -1.572128705204164367e-01 -8.914463050151228973e-01
3.952362328330681351e-01 -3.107052537693738570e-01 1.332721480475207998e-01 3.851154454193513321e-01 -1.491832250785286029e-01 -9.107307280720375875e-01
4.605325223298596948e-01 -3.022080416320518381e-01 1.394814270471748385e-01 2.357639532861474929e-01 -1.783551970388665420e-01 -9.553035025687461879e-01
4.523989769709625963e-01 -2.854619076046060466e-01 1.430246908803619599e-01 2.357639532861474929e-01 -1.783551970388665420e-01 -9.553035025687461879e-01
4.848701086547387851e-01 -3.206586722745720097e-01 1.506707887204244978e-01 2.357639532861474929e-01 -1.783551970388665420e-01 -9.553035025687461879e-01
5.156714999170844971e-01 -3.152010838955812133e-01 1.607462660654586928e-01 1.805012464588457155e-01 -1.438252546676235810e-01 -9.730023618401942853e-01
5.392329312513420847e-01 -3.110371423161867876e-01 1.672880061727031742e-01 1.157578047916538316e-01 -1.736887813794882052e-01 -9.779735875026103198e-01
5.216597093414250264e-01 -3.233832230329314328e-01 1.664297913263053097e-01 1.157578047916538316e-01 -1.736887813794882052e-01 -9.779735875026103198e-01
6.002228484546384690e-01 -3.037997797599464866e-01 1.724678468220879612e-01 4.543274411112704220e-02 -1.567991601341873764e-01 -9.865849629625147443e-01
5.875772206744412918e-01 -3.145341666927798929e-01 1.723554677380013944e-01 2.621967756250572282e-02 -1.486305450740454115e-01 -9.885451378563906433e-01
3.806576179451222341e-02 -4.194629003440025761e-01 -3.701735324394728188e-01 9.989239657424465735e-01 -8.056021632354503845e-03 -4.567287138819168396e-02
2.610290745752061325e-02 -4.192791961827087022e-01 -3.405160123259262095e-01 9.975952129058779372e-01 -1.201012793446418724e-02 -6.826088202091866453e-02
4.159219480824959125e-02 -4.342842606492688939e-01 -3.597347157818360786e-01 9.975013680066714405e-01 -2.589817606381233234e-02 -6.572902936592575629e-02
3.647822324871764083e-02 -4.022606262331021032e-01 -3.838075208623460410e-01 9.975013680066714405e-01 -2.589817606381233234e-02 -6.572902936592575629e-02
4.248146902169978173e-02 -4.234077351416347668e-01 -3.104020739136337248e-01 9.933423181789801104e-01 -1.996721348470363241e-02 -1.134563762001332271e-01
4.165989431162055168e-02 -4.227617850609942662e-01 -3.252458277562153000e-01 9.933376150655841563e-01 -1.999504353843390911e-02 -1.134926461481692295e-01
4.172731095489255054e-02 -4.415669815088032468e-01 -3.216793565419029943e-01 9.933376150655841563e-01 -1.999504353843390911e-02 -1.134926461481692295e-01
4.598864368200473313e-02 -4.023864143613015143e-01 -2.855915544254279959e-01 9.869592445988645268e-01 -2.791212064463552411e-02 -1.585318990675310402e-01
4.057265202029741724e-02 -4.426872643777960969e-01 -2.768036194308637898e-01 9.869592445988645268e-01 -2.791212064463552411e-02 -1.585318990675310402e-01
4.960541125919620820e-02 -4.166611762743104297e-01 -2.911728931818867716e-01 9.869592445988645268e-01 -2.791212064463552411e-02 -1.585318990675310402e-01
5.492694810723217080e-02 -4.282773453621507298e-01 -3.056674747130083691e-01 9.869561125052749295e-01 -2.792866112898037892e-02 -1.585484843069076555e-01
5.503772099856141242e-02 -4.079354911898720459e-01 -2.700771317623005263e-01 9.785065000428718740e-01 -3.569672875620978625e-02 -2.031028629289970133e-01
4.487870536339448602e-02 -3.956635765966988183e-01 -2.680026209756072864e-01 9.785065000428718740e-01 -3.569672875620978625e-02 -2.031028629289970133e-01
5.758112153957598706e-02 -4.307290192386908911e-01 -2.633395638455358068e-01 9.784763860621689124e-01 -3.579579016460814056e-02 -2.032304684962587538e-01
5.130509371496202314e-02 -3.951925662308520826e-01 -2.287704828110211641e-01 9.634494276122734790e-01 -5.260235909943761223e-02 -2.626750697168586668e-01
5.638291362191530376e-02 -4.154853738679269437e-01 -2.392236680824188777e-01 9.634494276122734790e-01 -5.260235909943761223e-02 -2.626750697168586668e-01
4.743962922232182466e-02 -4.099504880914099370e-01 -2.561276442441643431e-01 9.676341827728708322e-01 -4.564672245554787788e-02 -2.481944098051857006e-01
6.118492610667665421e-02 -4.122296018054960043e-01 -2.240198376438234384e-01 9.555648429738982097e-01 -5.040705700229094338e-02 -2.904392526443992928e-01
6.336905545033826026e-02 -4.335383037989035127e-01 -2.102885845811026111e-01 9.602308852346597146e-01 -4.259404610784294637e-02 -2.759391133522480222e-01
6.806637171871574021e-02 -4.073886855743447111e-01 -1.966309999865639979e-01 9.401095052946438768e-01 -9.015474925367220060e-02 -3.287342988519262321e-01
8.612512925872974068e-02 -4.076591130132349305e-01 -1.702681415981623370e-01 9.238372770412027757e-01 -6.632081454534695386e-02 -3.769963330155052250e-01
7.844779149867497914e-02 -4.162698885626580081e-01 -1.636456223071383609e-01 9.238372770412027757e-01 -6.632081454534695386e-02 -3.769963330155052250e-01
9.083640236362544584e-02 -4.036496480673018028e-01 -1.567687117998143309e-01 9.064152913994235616e-01 -7.488778024364206587e-02 -4.156959704970424885e-01
8.481495298409445771e-02 -4.220240131682596041e-01 -1.494406564873661247e-01 9.092205888480415776e-01 -7.220413697887143045e-02 -4.100054675464180343e-01
1.131729935147661181e-01 -3.887418707024453135e-01 -1.173996398368989114e-01 8.836413000647727056e-01 -3.380458231022788473e-02 -4.669425050631706986e-01
9.547888594255321548e-02 -4.172352141539401593e-01 -1.335168928352552797e-01 8.917199030174740582e-01 -7.594934136193376428e-02 -4.461696001625336527e-01
1.006134405744233684e-01 -3.884118925652056964e-01 -1.405264595963073015e-01 8.917199030174740582e-01 -7.594934136193376428e-02 -4.461696001625336527e-01
1.375101190975411281e-01 -3.692144996057311612e-01 -7.484604741611518286e-02 8.352488603685122026e-01 -1.048796629712320516e-01 -5.397773592400318954e-01
1.311949581337016058e-01 -3.906770774546559077e-01 -9.729523195579768691e-02 8.457092593181060325e-01 -6.113904095141124706e-02 -5.301300466632334896e-01
1.695122503056962771e-01 -3.895010756145296793e-01 -2.224397994922340527e-02 7.609863042635661712e-01 -1.206303052288402872e-01 -6.374544487127499215e-01
1.577263922331336998e-01 -3.742595243514688086e-01 -3.578070743306049212e-02 7.609863042635661712e-01 -1.206303052288402872e-01 -6.374544487127499215e-01
1.794738855855946835e-01 -3.779824435004580652e-01 -2.382618475957562140e-02 7.609863042635661712e-01 -1.206303052288402872e-01 -6.374544487127499215e-01
1.595599233554067797e-01 -3.938049052321877519e-01 -3.337358512035618757e-02 7.852871702461978742e-01 -1.074675179947591486e-01 -6.097333784719065619e-01
1.855473967822258430e-01 -3.597629628443167471e-01 -1.087430417206428426e-02 7.321969374339154513e-01 -1.316930698219230533e-01 -6.682399121373049367e-01
2.139609333634281130e-01 -3.614150217945398258e-01 1.885029167048104387e-02 6.790629525978417735e-01 -1.389090045512136329e-01 -7.208174490560647074e-01
2.273304209681184240e-01 -3.583890291971713604e-01 3.543222074692405077e-02 6.790629525978417735e-01 -1.389090045512136329e-01 -7.208174490560647074e-01
2.364882551690803414e-01 -3.833754042463077272e-01 3.245992014397763858e-02 6.709963156865988987e-01 -1.125307715269411452e-01 -7.328715916138115460e-01
2.499168392678918771e-01 -3.444475321274826363e-01 4.665551266562689009e-02 6.208897340553261035e-01 -1.361776906466575232e-01 -7.719789988819965032e-01
2.659516498205728441e-01 -3.617544447886760217e-01 6.163574156922332209e-02 5.776021035144082161e-01 -1.377049096337971401e-01 -8.046198903075156839e-01
2.864786530881068827e-01 -3.390465621602518076e-01 6.878989579575113533e-02 5.776021035144082161e-01 -1.377049096337971401e-01 -8.046198903075156839e-01
2.989521642714428329e-01 -3.639156857488550778e-01 9.107362643713590167e-02 5.418693978172679504e-01 -1.487444570387168041e-01 -8.271956492930852001e-01
3.281910909682169697e-01 -3.569847199691214001e-01 1.031409116638418166e-01 5.075174140929231692e-01 -1.494534012127301803e-01 -8.485810245688851783e-01
3.468245281067877661e-01 -3.417732610808691396e-01 9.922941647172564550e-02 5.144859292490080449e-01 -1.206100508472997684e-01 -8.489743483989351525e-01
3.256818308508692694e-01 -3.382787292357158915e-01 9.148548749726220786e-02 4.437025701039085113e-01 -2.057018489844414377e-01 -8.722469711082797561e-01
3.635583709293465637e-01 -3.465113488136662423e-01 1.122715625024827274e-01 4.249374986203760529e-01 -1.572819126411243440e-01 -8.914541615934088448e-01
4.050752462972963541e-01 -3.222358420517169031e-01 1.375501770680910840e-01 3.825822291708969036e-01 -1.604026855599743895e-01 -9.098911013894879218e-01
3.921418027054758282e-01 -3.574370143287247115e-01 1.303889675556201000e-01 3.825822291708969036e-01 -1.604026855599743895e-01 -9.098911013894879218e-01
3.911517723612962794e-01 -3.433741990996416193e-01 1.294914378430282176e-01 3.825822291708969036e-01 -1.604026855599743895e-01 -9.098911013894879218e-01
3.723387178089645477e-01 -3.360524829366478006e-01 1.271233965039659797e-01 3.967797563126533311e-01 -1.698264151672551903e-01 -9.020669674097986368e-01
3.867723185601344982e-01 -3.842183017625582786e-01 1.422124451733184081e-01 3.825987477965840933e-01 -1.603893410288826371e-01 -9.098865080155913443e-01
4.506786260576727265e-01 -3.423624841562199483e-01 1.535282145111963314e-01 2.513859565857640144e-01 -1.681278718597182253e-01 -9.531726598761541824e-01
4.750965919456215936e-01 -3.408884999270941352e-01 1.538614143848817395e-01 2.364398326134145301e-01 -1.792720942102122017e-01 -9.549647751572961640e-01
4.855356907187358129e-01 -3.468222087707556467e-01 1.561274926181445144e-01 2.214870799902629861e-01 -1.538937516028230923e-01 -9.629435012579893316e-01
5.247830684614854801e-01 -3.307815769868741596e-01 1.688625959613105076e-01 1.759413400942869687e-01 -1.728029051998073440e-01 -9.691149574742579098e-01
4.890699965169242880e-01 -3.247616385180238097e-01 1.640994436257177669e-01 1.401309080152298714e-01 -2.063770913198658685e-01 -9.683861961000780338e-01
5.333118463047814561e-01 -3.374015685107179530e-01 1.739188699934685611e-01 1.151827001478707979e-01 -1.725209366617082574e-01 -9.782481648334500068e-01
4.365460630517963014e-02 -4.401078996740653282e-01 -3.684146860681285496e-01 9.997282338950967961e-01 -4.048718822481401323e-03 -2.295792300899986149e-02
3.688792128402225423e-02 -4.148519400421672998e-01 -3.720718389740125254e-01 9.997282338950967961e-01 -4.048718822481401323e-03 -2.295792300899986149e-02
3.857042233076216770e-02 -4.613578531477924294e-01 -3.668481240841853230e-01 9.997282338950967961e-01 -4.048718822481401323e-03 -2.295792300899986149e-02
3.514821831701603339e-02 -4.431820922959797682e-01 -3.464212681445449360e-01 9.976003257289495219e-01 -1.257274803723420348e-02 -6.808462463938495801e-02
5.639106106109746663e-02 -4.522188439409018934e-01 -2.893821883034321529e-01 9.887857461065752140e-01 -5.584780084152515811e-02 -1.385054924457103653e-01
4.408076617359509008e-02 -4.392737779879914983e-01 -2.606170899869957314e-01 9.788919078883965286e-01 -3.582245140908222464e-02 -2.012147724339811983e-01
5.209757050130130879e-02 -4.331451440526574714e-01 -2.373493142530119504e-01 9.698934983715302716e-01 -3.479250308800945629e-02 -2.410312916314086840e-01
6.617221815436653831e-02 -4.334523065706604172e-01 -1.965130692861841999e-01 9.405748631688125583e-01 -5.997821749310107420e-02 -3.342477228064833494e-01
7.800855543338779119e-02 -4.308138841237855732e-01 -1.732621313023233467e-01 9.189776944953433890e-01 -4.418826163187392075e-02 -3.918257196177615809e-01
1.024975405902219527e-01 -4.103470476108280751e-01 -1.145667125039329243e-01 8.845080847142058333e-01 -8.081079770651114491e-02 -4.594725922721015765e-01
1.148146214598237264e-01 -4.290450778629390505e-01 -9.850535827981288239e-02 8.619821299353578326e-01 -8.748582640531325783e-02 -4.993325924174020769e-01
1.273121298191821626e-01 -4.064717285070769681e-01 -9.284303794970495682e-02 8.620469540236855854e-01 -8.772590074139108296e-02 -4.991785406020549654e-01
1.270821657271104521e-01 -4.087989146206366664e-01 -7.920710484413073793e-02 8.457242522127387252e-01 -1.234788959543981074e-01 -5.191372183470251978e-01
1.361060515426537332e-01 -4.195872076139853801e-01 -8.209292365973375194e-02 8.300386930540313291e-01 -8.239141492880797113e-02 -5.515862786357041969e-01
1.461589457585401042e-01 -3.851792731674498760e-01 -7.215081459884381543e-02 8.116216027760453366e-01 -1.014160066592341286e-01 -5.753131038839091049e-01
1.458883550230090642e-01 -3.741817259949104524e-01 -6.822214200408818763e-02 8.116216027760453366e-01 -1.014160066592341286e-01 -5.753131038839091049e-01
1.574329138268697192e-01 -4.007265144427918924e-01 -5.119480115286595412e-02 8.116216027760453366e-01 -1.014160066592341286e-01 -5.753131038839091049e-01
1.833831860294879712e-01 -3.868217192002814109e-01 -1.142677061136036440e-02 7.547476582915961796e-01 -1.137799374285191206e-01 -6.460728272742277678e-01
1.982669435600664665e-01 -3.813873734860037112e-01 1.228765869347792257e-02 7.198651603127147469e-01 -1.204464281260140684e-01 -6.835837980230621280e-01
1.974025257473609185e-01 -3.984612676604958326e-01 7.949070985890399621e-03 7.230883765125922791e-01 -1.260604822874029085e-01 -6.791553243241571503e-01
2.107012096043624494e-01 -3.954356269482771080e-01 2.197126270274004853e-02 6.905324743109956254e-01 -1.181776914539897083e-01 -7.135817648766955568e-01
2.176804956324733809e-01 -3.827884166092544449e-01 1.476311452531103158e-02 6.905324743109956254e-01 -1.181776914539897083e-01 -7.135817648766955568e-01
2.341592327768030890e-01 -3.987288661156348502e-01 4.453255778124703274e-02 6.560747859464874931e-01 -1.303641388148983615e-01 -7.433512403677824398e-01
2.381302709267734408e-01 -3.764645609703430873e-01 5.690963426805618897e-02 6.248515423107392497e-01 -1.405369365859026332e-01 -7.679908329706418568e-01
2.474555498413505417e-01 -3.758617449666173949e-01 3.933692458417006876e-02 6.248515423107392497e-01 -1.405369365859026332e-01 -7.679908329706418568e-01
2.592166161757000764e-01 -3.956488164257383477e-01 5.771114853615473550e-02 6.201002715704845292e-01 -1.361556170380781028e-01 -7.726171763216188593e-01
2.676082195747137016e-01 -3.810039731748279812e-01 6.412571295734828536e-02 6.203744671882488460e-01 -1.353427936286833166e-01 -7.725398686628929257e-01
2.794896834585939294e-01 -3.870028528264253809e-01 6.863340485742994157e-02 5.735930085687152014e-01 -1.429045337208305344e-01 -8.065787963758543899e-01
3.222079223416942084e-01 -3.756664246513424787e-01 1.166324495804905576e-01 5.065335904081704754e-01 -1.495602015258973572e-01 -8.491498500899241630e-01
3.230282128934840458e-01 -3.848142278763062585e-01 8.989904156173404715e-02 5.281123438929300473e-01 -1.535807035988886737e-01 -8.351708326504139190e-01
3.330733701653592060e-01 -3.817044688616136328e-01 1.132453562073493375e-01 4.660512581683905475e-01 -1.536939456072423382e-01 -8.713061435817711642e-01
3.700682866948811212e-01 -3.675684870856366637e-01 1.212046484589315715e-01 4.248923180755745377e-01 -1.571839643075486626e-01 -8.914929721567793619e-01
3.729577917055008629e-01 -3.594526416731573248e-01 1.211479748098229642e-01 4.247130935009507113e-01 -1.570648432895870583e-01 -8.915993625004845491e-01
4.077109384212855292e-01 -3.586078762102596906e-01 1.413589932059812204e-01 3.384112131649344435e-01 -1.629682278757965674e-01 -9.267789420931292765e-01
4.272000208864533133e-01 -3.429743463816972704e-01 1.433762264975139977e-01 3.384112131649344435e-01 -1.629682278757965674e-01 -9.267789420931292765e-01
4.285140814387559116e-01 -3.289761765038893837e-01 1.431557754958555362e-01 3.384112131649344435e-01 -1.629682278757965674e-01 -9.267789420931292765e-01
4.293142565422247703e-01 -3.661483417215584124e-01 1.475880541827622738e-01 3.384112131649344435e-01 -1.629682278757965674e-01 -9.267789420931292765e-01
4.452864658475659820e-01 -3.396490323355889629e-01 1.431736220037776730e-01 2.935812430219307267e-01 -1.672232737459840302e-01 -9.411941513117119129e-01
4.669926259632637966e-01 -3.843985418736802218e-01 1.559246627395896867e-01 2.507070183804375185e-01 -1.958034371842103383e-01 -9.480543259337198547e-01
4.555582466276161258e-01 -3.610849544816520096e-01 1.566309327341418867e-01 2.191748454121438261e-01 -1.473957247485919719e-01 -9.644878887079921803e-01
4.794100217140563336e-01 -3.798498231730784158e-01 1.638598831672928302e-01 2.063086515044156577e-01 -1.646560384588356685e-01 -9.645336330649502132e-01
5.000010697924336389e-01 -3.507586865119601827e-01 1.727845453889128025e-01 1.608980022911050689e-01 -1.698481545953434979e-01 -9.722465928144402580e-01
5.190465523925065217e-01 -3.676069421748569543e-01 1.791445915829249780e-01 1.604048041876288966e-01 -1.691744043930210883e-01 -9.724455355914771726e-01
5.358774557893598578e-01 -3.640874863466666000e-01 1.713025196785705750e-01 1.147942298888364743e-01 -1.723715309102361870e-01 -9.783201623782934453e-01
5.486005932639806959e-01 -3.213519123392991617e-01 1.720818509363086224e-01 1.147942298888364743e-01 -1.723715309102361870e-01 -9.783201623782934453e-01
5.455174393989076220e-01 -3.821970962494530277e-01 1.748237977910773455e-01 1.147942298888364743e-01 -1.723715309102361870e-01 -9.783201623782934453e-01
5.633337013145678362e-01 -3.286546407369744793e-01 1.678950614254277884e-01 6.925126554930159661e-02 -1.732777262187191469e-01 -9.824352863249012913e-01
5.542158640605240327e-01 -3.748382946164284246e-01 1.860021641141469118e-01 6.925126554930159661e-02 -1.732777262187191469e-01 -9.824352863249012913e-01
5.689567004668200090e-01 -3.380421362804503782e-01 1.618117564920494300e-01 6.925126554930159661e-02 -1.732777262187191469e-01 -9.824352863249012913e-01
5.872303939241304560e-01 -3.386603150358835634e-01 1.725947381016365856e-01 2.209909438561221545e-02 -1.736678349078499550e-01 -9.845563026794128536e-01
5.844298091358129943e-01 -3.565020914073149805e-01 1.887430686562606708e-01 2.209909438561221545e-02 -1.736678349078499550e-01 -9.845563026794128536e-01
6.051195783924753213e-01 -3.536262575474592995e-01 1.663101569962519566e-01 2.297112844845712598e-02 -1.741660166779751551e-01 -9.844483358167311904e-01
5.939342923996214774e-01 -1.787860093307579445e-01 6.792065963368923431e-02 6.906478415218192315e-05 -9.847960136520549357e-01 1.737147280027721841e-01
5.278562489288535220e-01 -1.630830978213280436e-01 9.201628852769133671e-02 6.906478415218192315e-05 -9.847960136520549357e-01 1.737147280027721841e-01
5.924805148114865583e-01 -1.541638258989793953e-01 9.919629815665177708e-02 6.906478415218192315e-05 -9.847960136520549357e-01 1.737147280027721841e-01
5.792008747110297673e-01 -1.718946706420537152e-01 3.853760202062259110e-02 6.906478415218192315e-05 -9.847960136520549357e-01 1.737147280027721841e-01
5.501018651056839293e-01 -1.695027718926422344e-01 4.333665128928933241e-02 6.906478415218192315e-05 -9.847960136520549357e-01 1.737147280027721841e-01
5.367123561970027490e-01 -1.673841262603115443e-01 8.466063217831927556e-02 6.906478415218192315e-05 -9.847960136520549357e-01 1.737147280027721841e-01
5.978854420287595950e-01 -1.719397578967584161e-01 2.152778863021233627e-02 6.906478415218192315e-05 -9.847960136520549357e-01 1.737147280027721841e-01
5.551916134578128714e-01 -1.664576600887363866e-01 7.635828865139873689e-02 6.906478415218192315e-05 -9.847960136520549357e-01 1.737147280027721841e-01
5.644427612259944604e-01 -1.530764097241031352e-01 1.090036714488508696e-01 6.906478415218192315e-05 -9.847960136520549357e-01 1.737147280027721841e-01
5.872266544366796515e-01 -1.505568463120680045e-01 1.097642412326438055e-01 6.906478415218192315e-05 -9.847960136520549357e-01 1.737147280027721841e-01
6.093372032932242721e-01 -1.594267125677014951e-01 1.117024150748813088e-01 6.906478415218192315e-05 -9.847960136520549357e-01 1.737147280027721841e-01
5.481435918534628415e-01 -1.682651164377055586e-01 5.635992405597634036e-02 6.906478415218192315e-05 -9.847960136520549357e-01 1.737147280027721841e-01
6.064861731905791808e-01 -1.635238306544814779e-01 6.779199329400920071e-02 6.906478415218192315e-05 -9.847960136520549357e-01 1.737147280027721841e-01
5.755256051559416441e-01 -1.588076819946178109e-01 4.982108391601132447e-02 6.906478415218192315e-05 -9.847960136520549357e-01 1.737147280027721841e-01
5.816454816673151118e-01 -1.576084408179980467e-01 8.150889859614034172e-02 6.906478415218192315e-05 -9.847960136520549357e-01 1.737147280027721841e-01
5.801684127121848888e-01 -1.629493969422904087e-01 7.599242097268471552e-02 6.906478415218192315e-05 -9.847960136520549357e-01 1.737147280027721841e-01
5.540636416745550186e-01 -1.680490467797731147e-01 4.944622637684646660e-02 -4.024687094854708172e-05 -9.848230353582808627e-01 1.735614801961885001e-01
5.290474614551814447e-01 -1.648291182148406975e-01 7.310898492712432362e-02 -4.024687094854708172e-05 -9.848230353582808627e-01 1.735614801961885001e-01
5.599600153735058150e-01 -1.714778586148035244e-01 1.765428107097492816e-02 -8.368607202907383841e-05 -9.848313932116313785e-01 1.735140338459068565e-01
5.676806046816536000e-01 -1.537644613769696689e-01 1.356895031525931494e-01 8.956157669064626473e-05 -9.848014262048709888e-01 1.736840318612390133e-01
5.583427058150881583e-01 -1.589355339792271893e-01 1.283680935207870133e-01 8.956157669064626473e-05 -9.848014262048709888e-01 1.736840318612390133e-01
5.508367717277089515e-01 -1.510201746421139246e-01 1.130330187871339681e-01 8.956157669064626473e-05 -9.848014262048709888e-01 1.736840318612390133e-01
5.305110336548900518e-01 -1.657180428159435170e-01 9.831179194096833010e-03 1.089681466056364079e-04 -9.848056443037075391e-01 1.736601021348965768e-01
5.363585952944773805e-01 -1.734865023795990335e-01 4.360859804089173286e-02 1.089681466056364079e-04 -9.848056443037075391e-01 1.736601021348965768e-01
5.362357674296127641e-01 -1.579534894311067639e-01 1.209302147169945829e-01 3.559665488432364700e-04 -9.848374521623892708e-01 1.734792959004325674e-01
5.336824464941469781e-01 -1.450120017942768680e-01 1.316317217416985430e-01 3.559665488432364700e-04 -9.848374521623892708e-01 1.734792959004325674e-01
5.119715270968385745e-01 -1.549002462227202781e-01 1.111589234925936948e-01 -3.806547749472830120e-04 -9.848002725033645488e-01 1.736901792826563429e-01
5.078241948549633289e-01 -1.699070511086382407e-01 1.833060772159082405e-03 2.187280067510130350e-04 -9.847984910520246604e-01 1.737005589504952985e-01
5.136987021963782540e-01 -1.667982215588892092e-01 5.533157785498307724e-02 2.187280067510130350e-04 -9.847984910520246604e-01 1.737005589504952985e-01
5.141311155337404681e-01 -1.692400525599182248e-01 3.741455793012057884e-02 2.187280067510130350e-04 -9.847984910520246604e-01 1.737005589504952985e-01
5.187332821734154109e-01 -1.698437947111921809e-01 1.558474553841869732e-02 2.187280067510130350e-04 -9.847984910520246604e-01 1.737005589504952985e-01
5.049144424430244138e-01 -1.617065642916190871e-01 8.648251286894867440e-02 -1.257543861876386196e-04 -9.847925415874005939e-01 1.737343783471259062e-01
4.863434791245716537e-01 -1.619834892629407053e-01 1.222446597003805091e-01 -1.257543861876386196e-04 -9.847925415874005939e-01 1.737343783471259062e-01
4.964189795255070647e-01 -1.534241341646733758e-01 1.083407852925239723e-01 -1.257543861876386196e-04 -9.847925415874005939e-01 1.737343783471259062e-01
4.915054426569868129e-01 -1.901211953663876908e-01 6.990350983590661385e-03 -1.134741921280471057e-04 -9.847967875963307138e-01 1.737103170901342364e-01
4.749030829140488130e-01 -1.544957159463743457e-01 1.229653437069110067e-01 2.643690461471384136e-05 -9.847926214552348290e-01 1.737339691264101205e-01
4.589573661732695431e-01 -1.523663880391654957e-01 1.117093202551910081e-01 2.643690461471384136e-05 -9.847926214552348290e-01 1.737339691264101205e-01
4.217582913284476653e-01 -1.660918517811521278e-01 7.163088312266298330e-02 2.643690461471384136e-05 -9.847926214552348290e-01 1.737339691264101205e-01
4.775661773574165769e-01 -1.595323655495093362e-01 7.402908259829599213e-02 -4.615670149862966892e-05 -9.847825710894636542e-01 1.737909248148027386e-01
4.991844696453655028e-01 -1.696220577088397852e-01 7.714239957577373463e-02 -4.615670149862966892e-05 -9.847825710894636542e-01 1.737909248148027386e-01
4.386697690156508012e-01 -1.589722899860468719e-01 8.562563693835582856e-02 -4.615670149862966892e-05 -9.847825710894636542e-01 1.737909248148027386e-01
4.390949354769215218e-01 -1.691512593932682773e-01 6.001497874573136909e-02 -4.615670149862966892e-05 -9.847825710894636542e-01 1.737909248148027386e-01
4.152043555924017082e-01 -1.615760645727778999e-01 5.513051588417774984e-02 -4.615670149862966892e-05 -9.847825710894636542e-01 1.737909248148027386e-01
4.840692841852036743e-01 -1.659449279901059893e-01 1.109364217494799298e-01 -4.615670149862966892e-05 -9.847825710894636542e-01 1.737909248148027386e-01
4.546944961366876092e-01 -1.712357767332353675e-01 6.228479409754823781e-02 -4.615670149862966892e-05 -9.847825710894636542e-01 1.737909248148027386e-01
5.041818892677953912e-01 -1.636589477223984457e-01 6.108514295762324658e-02 1.861528351871789941e-04 -9.848123846574678986e-01 1.736218084584810195e-01
4.930122882557676500e-01 -1.758638743487350720e-01 2.244580389794104125e-02 1.861528351871789941e-04 -9.848123846574678986e-01 1.736218084584810195e-01
4.280471254562340233e-01 -1.584852858536892894e-01 1.094261627688319777e-01 5.438289801747351031e-04 -9.848371268333626638e-01 1.734806555805218364e-01
4.860345934311187666e-01 -1.674168396833569661e-01 5.542007333956941451e-02 1.281274151383037397e-04 -9.848073832612174172e-01 1.736502273466956348e-01
4.531222755261092860e-01 -1.733842824092895196e-01 -1.246143765776353170e-02 1.281274151383037397e-04 -9.848073832612174172e-01 1.736502273466956348e-01
4.589858193558481458e-01 -1.706889191326279032e-01 1.989140749641319511e-02 -6.551139864375193694e-04 -9.847174876590102377e-01 1.741580900337160454e-01
4.603668552803098502e-01 -1.582272494875974211e-01 5.366108515888102365e-02 2.007362949895721884e-05 -9.848103731839086272e-01 1.736333161188252650e-01
4.099983998242419658e-01 -1.799497963386579302e-01 2.712253373490012068e-02 2.007362949895721884e-05 -9.848103731839086272e-01 1.736333161188252650e-01
4.490100001438813160e-01 -1.692685502313434343e-01 5.233231152694891447e-02 2.007362949895721884e-05 -9.848103731839086272e-01 1.736333161188252650e-01
4.125292976383801991e-01 -1.808546317464195252e-01 8.783585160472319464e-03 2.007362949895721884e-05 -9.848103731839086272e-01 1.736333161188252650e-01
4.567542105274665087e-01 -1.729319557810248265e-01 3.333091642024666595e-02 2.007362949895721884e-05 -9.848103731839086272e-01 1.736333161188252650e-01
4.334981553532858967e-01 -1.686031451651027746e-01 7.132526123240003416e-03 2.007362949895721884e-05 -9.848103731839086272e-01 1.736333161188252650e-01
4.248278532563856680e-01 -1.654169512370752271e-01 3.006091928626506912e-02 2.007362949895721884e-05 -9.848103731839086272e-01 1.736333161188252650e-01
4.785360013251437894e-01 -1.582909348064901467e-01 7.002115011919664289e-02 2.007362949895721884e-05 -9.848103731839086272e-01 1.736333161188252650e-01
4.149618836904213626e-01 -1.653163831026516761e-01 8.402320458741148468e-02 3.255709088943491755e-04 -9.848320968167223466e-01 1.735097550086480700e-01
4.126714418794845129e-01 -1.617443904293878187e-01 6.362821717650514464e-02 3.255709088943491755e-04 -9.848320968167223466e-01 1.735097550086480700e-01
3.790786234119194464e-01 -1.576946936184298875e-01 9.262341306177801492e-02 -1.638855166828239200e-04 -9.848351718259911181e-01 1.734925285884323931e-01
3.712417970105050258e-01 -1.581417738326670042e-01 8.045097916991326981e-02 -1.638855166828239200e-04 -9.848351718259911181e-01 1.734925285884323931e-01
3.889407722931271794e-01 -1.713796626825414560e-01 4.994783626601844578e-02 -1.638855166828239200e-04 -9.848351718259911181e-01 1.734925285884323931e-01
4.009049812634565280e-01 -1.734249028763397982e-01 -7.340600113611435440e-03 5.158521989513154037e-04 -9.848122926600165750e-01 1.736216637468686597e-01
3.909226817733119641e-01 -1.672417984767942956e-01 7.750714296971207562e-02 -1.240259365595458650e-04 -9.848320296238655125e-01 1.735103975112293750e-01
3.650624366007607646e-01 -1.596131384462749492e-01 6.546116352320148490e-02 -1.240259365595458650e-04 -9.848320296238655125e-01 1.735103975112293750e-01
3.644253711157613984e-01 -1.702342079401463759e-01 4.766407760773373747e-02 1.014182437982408833e-04 -9.847732885250579660e-01 1.738434926072380537e-01
3.503666372272797869e-01 -1.641810175527186888e-01 5.475966094651186361e-02 1.014182437982408833e-04 -9.847732885250579660e-01 1.738434926072380537e-01
3.888551207217519901e-01 -1.748841337007364105e-01 -3.418217681120406387e-02 -6.266391082808505557e-04 -9.847843400784391799e-01 1.737797769008267157e-01
3.529181464243961175e-01 -1.733712681303489211e-01 3.063619476751942849e-02 -4.188470511158850265e-05 -9.848532017233483371e-01 1.733902226221001597e-01
3.377555377343761656e-01 -1.678147813470264316e-01 4.103821902820248974e-02 -4.188470511158850265e-05 -9.848532017233483371e-01 1.733902226221001597e-01
3.793193037025288095e-01 -1.629844765169446708e-01 3.960573578804036515e-02 -4.188470511158850265e-05 -9.848532017233483371e-01 1.733902226221001597e-01
3.240676786608466253e-01 -1.716519135583239875e-01 4.002499968710233197e-02 -4.188470511158850265e-05 -9.848532017233483371e-01 1.733902226221001597e-01
3.309836590670727219e-01 -1.623945291884155151e-01 5.137466276249583186e-02 -4.188470511158850265e-05 -9.848532017233483371e-01 1.733902226221001597e-01
3.061300911791489665e-01 -1.680846984165482727e-01 4.581481383116596529e-02 -4.188470511158850265e-05 -9.848532017233483371e-01 1.733902226221001597e-01
3.779427372176992761e-01 -1.670533582115914240e-01 -2.690941675485764364e-02 7.591038197449865850e-05 -9.848239425281766213e-01 1.735563207171456901e-01
3.346918205503562893e-01 -1.884475112525093865e-01 -3.341811917598432047e-02 7.591038197449865850e-05 -9.848239425281766213e-01 1.735563207171456901e-01
3.574839899113020358e-01 -1.833499865748842994e-01 -3.751360067233622947e-02 7.591038197449865850e-05 -9.848239425281766213e-01 1.735563207171456901e-01
2.980332202510686535e-01 -1.808847329673394511e-01 -4.817198291768170354e-02 7.591038197449865850e-05 -9.848239425281766213e-01 1.735563207171456901e-01
3.435824944855321861e-01 -1.816173177953375184e-01 -1.290220688839782345e-02 7.591038197449865850e-05 -9.848239425281766213e-01 1.735563207171456901e-01
3.439800411668277880e-01 -1.796306852499124918e-01 -4.553261690499297437e-02 7.591038197449865850e-05 -9.848239425281766213e-01 1.735563207171456901e-01
3.841616371220257231e-01 -1.748695899735593640e-01 1.251791124981372141e-02 7.591038197449865850e-05 -9.848239425281766213e-01 1.735563207171456901e-01
3.669661169568079195e-01 -1.715962246715108386e-01 -5.552747450840518802e-03 7.591038197449865850e-05 -9.848239425281766213e-01 1.735563207171456901e-01
3.758500024047973231e-01 -1.826175994238662115e-01 -4.665746947045864429e-02 7.591038197449865850e-05 -9.848239425281766213e-01 1.735563207171456901e-01
3.220796151817638120e-01 -1.848252018210996273e-01 -1.195052079441525673e-02 7.591038197449865850e-05 -9.848239425281766213e-01 1.735563207171456901e-01
2.936638037558509939e-01 -1.752437014277695160e-01 -2.941830823081325458e-02 7.591038197449865850e-05 -9.848239425281766213e-01 1.735563207171456901e-01
3.640440070071863654e-01 -1.726025199691344769e-01 7.280282092867655305e-03 7.591038197449865850e-05 -9.848239425281766213e-01 1.735563207171456901e-01
3.184753619211150300e-01 -1.799256224436136808e-01 -3.791092877491432367e-02 7.591038197449865850e-05 -9.848239425281766213e-01 1.735563207171456901e-01
3.143328297041662056e-01 -1.769094173557030636e-01 6.148903723564574236e-02 -2.289779808878266646e-04 -9.848397662786815276e-01 1.734663723181994188e-01
3.602020835956453171e-01 -1.792468425977335467e-01 -5.473429774131058356e-02 7.776912240615460961e-05 -9.848881770463678853e-01 1.731914335821657103e-01
2.733398353128520530e-01 -1.899625729008888320e-01 -5.377794350916673127e-02 7.776912240615460961e-05 -9.848881770463678853e-01 1.731914335821657103e-01
3.265087798912181816e-01 -1.867699679557398018e-01 -6.544957498748801838e-02 1.324694653065841110e-04 -9.847901521759673260e-01 1.737479169057166428e-01
3.084171727552408315e-01 -1.794137689876003916e-01 -6.619995969870554053e-02 1.324694653065841110e-04 -9.847901521759673260e-01 1.737479169057166428e-01
3.863711020574922550e-01 -1.770879403649024131e-01 1.809910920388158734e-02 -1.098650310671357271e-04 -9.847681561151337970e-01 1.738725585918444450e-01
3.252612073372114221e-01 -1.689723989464690379e-01 2.452339556725058323e-02 -1.098650310671357271e-04 -9.847681561151337970e-01 1.738725585918444450e-01
2.662038300514750211e-01 -1.851365619705662158e-01 -4.164983016042308334e-02 -1.098650310671357271e-04 -9.847681561151337970e-01 1.738725585918444450e-01
2.847910629560109208e-01 -1.778553575674641785e-01 -2.920251468775024103e-02 -1.098650310671357271e-04 -9.847681561151337970e-01 1.738725585918444450e-01
3.653462922038698824e-01 -1.728595414181779699e-01 2.116360510694082625e-02 -1.098650310671357271e-04 -9.847681561151337970e-01 1.738725585918444450e-01
3.205729970083067149e-01 -1.697583990161751211e-01 8.566360819474514582e-03 -1.098650310671357271e-04 -9.847681561151337970e-01 1.738725585918444450e-01
3.007608726087670492e-01 -1.763693324797306894e-01 -7.564065050671025560e-03 -1.098650310671357271e-04 -9.847681561151337970e-01 1.738725585918444450e-01
3.431931267565797583e-01 -1.654258693168114691e-01 1.510159393053193966e-02 -1.098650310671357271e-04 -9.847681561151337970e-01 1.738725585918444450e-01
2.942607258232108891e-01 -1.979414078604290472e-01 -6.665394286753684172e-02 1.169525368672753277e-04 -9.848012752495394206e-01 1.736848715029175594e-01
2.596711563379230925e-01 -1.775038593683237464e-01 1.528346659694987918e-02 3.161983167521899719e-04 -9.848152414110578068e-01 1.736054155350713890e-01
3.055491190217015096e-01 -1.873940838568986522e-01 -8.570461130046964915e-02 1.607810878573072357e-04 -9.847859702729832021e-01 1.737715940622660549e-01
2.922450474704570422e-01 -1.885384352403082497e-01 -1.092056730936745573e-01 1.607810878573072357e-04 -9.847859702729832021e-01 1.737715940622660549e-01
2.683076769338391676e-01 -1.887145260899491805e-01 -6.889705612100187337e-02 1.607810878573072357e-04 -9.847859702729832021e-01 1.737715940622660549e-01
