-3.292983383714820095e-03 -2.722500058161053116e-01 -2.017664651196734160e-01 6.351420686064477295e-01 4.817921316294965228e-02 -7.708912479107034033e-01
2.203708391722550286e-01 2.633827966133324150e-01 8.803428614975622457e-02 8.510846209493252434e-01 -1.054371402756713455e-01 5.143325552928104116e-01
-2.757079612231940757e-01 -4.985004682639150864e-01 3.166173722590361894e-01 -8.328209928407690477e-01 1.377781672310189331e-01 5.361216004957989334e-01
-1.145819204445338857e-01 -4.892452458227485312e-01 3.054642980164947175e-01 5.199171977296680458e-01 1.746607459663226947e-01 8.361696785482100047e-01
-2.721962782166692518e-01 -4.930122052026107426e-01 3.170111979855734785e-01 -8.348479853586222577e-01 1.373461973784344814e-01 5.330711616738743608e-01
2.032797667482417192e-01 2.385159161870366862e-01 9.062691653284156434e-02 6.352623634449364731e-01 -3.911405776074199925e-01 6.659209999236299637e-01
-2.772931146072752373e-01 2.332791599527022919e-01 7.371936193015377059e-02 -6.396855598316546487e-01 -2.842202943981078644e-01 7.141576918266129281e-01
1.969548253392675030e-01 2.351941479353718556e-01 7.654030486669362310e-02 4.996164522761293303e-01 -6.959084533426947994e-01 5.158437992078537260e-01
1.918857468231787156e-01 2.193112811763575365e-01 9.359475903478610415e-02 6.066578853986802633e-01 -6.578003519150770195e-01 4.463909800880864198e-01
-2.591174489341538378e-01 2.092640333647981798e-01 8.349437631510438218e-02 -7.159953018446070239e-01 -1.382811298673242706e-01 6.842726480424788926e-01
1.678598750053792998e-01 3.029748239468026405e-01 -4.775699437354138377e-01 7.293752182604470446e-01 -6.446433433214702191e-01 -2.290125562034584783e-01
1.840610609616556148e-01 3.006918597252372094e-01 -4.779564382687948587e-01 7.171989455273856118e-01 -6.532445692308813667e-01 -2.426874642513828784e-01
1.916449780559241201e-01 3.332859292558343900e-01 -4.762049449592097861e-01 7.082098441927645593e-01 -6.330912038008316145e-01 -3.124649488478252191e-01
1.986291163768867107e-01 3.374236042464027197e-01 -4.726320744408613050e-01 7.304884961348948602e-01 -3.853211607056142851e-01 -5.638387713939665424e-01
2.271286782615601074e-01 3.844348226286309900e-01 -4.688707247841311654e-01 5.270066183046464570e-01 -8.446047428442926552e-02 -8.456538609542024743e-01
2.215137236328035553e-01 3.741810923021262059e-01 -4.589901771847458289e-01 4.682776318817489791e-01 1.668665515625649548e-02 -8.834238026105688535e-01
2.322704102588710739e-01 4.060466245294639398e-01 -4.763321493059370915e-01 5.923799460015237717e-01 -1.246507063621310613e-01 -7.959574115357261892e-01
2.318786628656949178e-01 4.045930063027384782e-01 -4.653519609989026362e-01 7.127975645348676448e-01 -1.258958503542775276e-01 -6.899781640434243801e-01
2.418207072115863276e-01 4.952464058511275025e-01 -4.739638504314457323e-01 8.441406166665985644e-01 6.302615290399427028e-02 -5.324042856174778793e-01
2.333459207681674863e-01 5.092737299372636084e-01 -4.751852513853551674e-01 8.297503150209638578e-01 1.250992119556581794e-01 -5.439343727791841054e-01
-3.110369557249217931e-01 -3.141218712356741993e-01 8.661114060262410652e-02 -5.700407582354222180e-01 5.966096042019399803e-01 5.648986759803827917e-01
8.119121806848873801e-02 -4.342482627574232312e-01 -1.885828246864164892e-01 7.964230429728549332e-01 1.322134667748440517e-01 -5.901101048323400544e-01
1.618156512047892182e-01 -2.413753565148842734e-02 1.034370606842371920e-01 7.884611799108950381e-01 -2.672340830494753794e-01 5.539990186184675647e-01
-1.507829532776862880e-01 -2.413602769911012830e-02 9.724516775737715446e-02 -3.558080377600936761e-01 1.209294835886127878e-01 9.267020558217744508e-01
-1.285899983509515287e-01 -2.007764433460057160e-02 1.057602017805059774e-01 -3.282207039960633455e-01 1.031120162110448907e-01 9.389563789554985496e-01
-1.436701722212434806e-01 -4.816552185977152067e-02 1.018987173634229304e-01 -3.536571102287444646e-01 1.256288327584668130e-01 9.269002345260244358e-01
1.471909501139765375e-01 -2.614738290717025931e-02 1.040652714586541294e-01 7.905452706287636744e-01 -1.357999895763108700e-01 5.971570462764118625e-01
1.536812244104048819e-01 -5.733521071631213911e-02 1.079057787398987056e-01 7.664514735522238720e-01 -8.215663033235158508e-02 6.370262371221910858e-01
-1.419237408269097833e-01 -4.969214275257578806e-02 1.008056695097088173e-01 -3.765412090606448103e-01 1.528101124652939125e-01 9.137099033103953660e-01
-1.340280480397975649e-01 -5.020304178696256142e-02 9.638697893334451094e-02 -3.208255492369586070e-01 1.477520999809358027e-01 9.355427750285004729e-01
1.359160560877370194e-01 -5.464021697232016722e-02 1.191305712398496447e-01 7.087578183546953126e-01 -1.217304122245273373e-01 6.948698163402547978e-01
-1.502877956756448197e-01 -6.845865367656557565e-02 9.869792684473793765e-02 -3.771921676099079801e-01 1.575513489796703803e-01 9.126355467153496326e-01
1.402974336424709645e-01 -6.442292875569829991e-02 1.094206799536786984e-01 6.247662199678970518e-01 -1.088770415540005754e-01 7.731836523164944408e-01
-1.534099174132094734e-01 -7.581904487036167373e-02 1.110812811802683597e-01 -3.830208678664790978e-01 1.701149944851940432e-01 9.079404735058965725e-01
-7.022910634702814181e-02 -8.262022762540192911e-02 1.170962429249308989e-01 -1.011776895157540448e-02 -1.407614660999234324e-01 9.899918385587037628e-01
-4.528156407274509798e-02 -7.818227648796043094e-02 1.074137143530237287e-01 -8.365086200853211196e-02 -1.957290828561628337e-01 9.770837525051344619e-01
1.484201036010054930e-01 -8.311154689686230113e-02 1.083842427155816551e-01 4.116795918635942075e-01 -2.611602355515346141e-01 8.731066630198691669e-01
-1.569506198958836030e-01 -8.789083643417219815e-02 9.903138667188195188e-02 -3.864963040651183679e-01 1.778964044830142477e-01 9.049715333732986089e-01
-6.718780951270121593e-02 -9.790464518759757484e-02 1.090363621820820694e-01 9.902252106992881497e-02 -1.243398554164379388e-01 9.872862506264201699e-01
-6.240681303792968565e-02 -8.761743410595372594e-02 1.152526515791749279e-01 6.693067387338660912e-02 -2.506785181047772038e-01 9.657538845149147289e-01
-1.280198709426811354e-01 4.516888706551897004e-01 1.550746513347209532e-01 -3.268290553662104303e-01 2.325453904546563588e-01 9.160269700978906915e-01
-3.177369264745332211e-01 2.616467060617154103e-02 -5.093753410401208326e-02 -2.734436078150298544e-01 -9.283859791422975904e-01 2.516506846346688309e-01
3.344890005662332633e-01 6.510143999051302144e-01 -1.929121875246065931e-01 7.169961329943032036e-01 6.672175126532700062e-01 -2.018349228453761302e-01
3.205025978513239004e-01 6.533048803830474593e-01 -1.909440127977140578e-01 6.478705546534810900e-01 7.308220965359422117e-01 -2.148553178950915188e-01
2.815682190313267275e-01 6.890206031157731781e-01 -2.011669032974096327e-01 5.441743723758117879e-01 8.199965170541955173e-01 -1.774259407989142445e-01
2.750594818151090304e-01 6.898530711269738047e-01 -1.937447359536757785e-01 5.160753159591034978e-01 8.458626641350446285e-01 -1.348429519110145580e-01
2.680619724291603001e-01 7.007385136167932904e-01 -2.037373695572204102e-01 5.056650499491233131e-01 8.559158313326687972e-01 -1.082171286537260274e-01
2.531705027755448700e-01 7.038556298390058474e-01 -2.083928315378188456e-01 5.392266098129940843e-01 8.360112770698814311e-01 -1.015864552072321680e-01
2.501653712949530317e-01 7.167631228699589130e-01 -1.992294145382751125e-01 5.695950334685280225e-01 8.218035554165629142e-01 1.415677055979681909e-02
2.284418983714483764e-01 7.301128015126404636e-01 -1.995245167739967129e-01 7.043286001203465929e-01 6.971201805877970115e-01 1.339577428510581592e-01
4.707771724152980120e-02 -3.864990279544430751e-01 1.615433603905030713e-01 5.221498372979066493e-01 5.377725911528029590e-01 6.619366945672144897e-01
2.040544307415598502e-01 7.679157441541057949e-01 -2.039854248479957555e-01 7.448993887563511995e-01 6.380302889748801221e-01 1.950442282689890394e-01
6.431977858876744558e-02 -3.950961852075021707e-01 1.576281590446449721e-01 5.019456191503999243e-01 6.386134272432706371e-01 5.832867956334391035e-01
8.724283432560417384e-02 4.626387873625515956e-01 1.563941804561923832e-01 7.922102816255463531e-02 1.968036802034759392e-01 9.772370951592227462e-01
1.765510106183506844e-01 4.651948057235081313e-01 1.653202233253555919e-01 -9.558490763463833861e-02 8.433253532937123875e-01 5.288344485039838672e-01
2.040191678734021574e-01 4.605407615158645940e-01 1.609911859592828842e-01 4.484237200940755647e-02 7.925866575284626903e-01 6.081081745712921816e-01
-3.310376278380228743e-01 -3.973416893927568805e-01 1.701764502984131067e-01 -6.296835863103316111e-01 7.362063927679229902e-01 2.479893715041069646e-01
1.910886097534129080e-01 6.469965908861873283e-01 7.105186113909009449e-02 3.498497316357478404e-01 6.320589214501541875e-01 6.914525906305238889e-01
-1.157756427763926010e-01 6.540375666324976800e-01 6.789502774221485570e-02 -4.171510031687433728e-01 8.277864082445786087e-01 3.751728973164913938e-01
1.678184310579029503e-01 6.593405084092328616e-01 6.074658322124882465e-02 2.128711127402351799e-01 7.357391190492479360e-01 6.429415510459490779e-01
-9.228869945759468618e-02 6.569099963656647168e-01 5.868738285895173934e-02 -3.823358295628035974e-01 8.696861880790853760e-01 3.121942467390976250e-01
-8.480241645174281528e-02 6.631422585071086173e-01 7.177504652530267149e-02 -4.073829873038987137e-01 8.566249453189558327e-01 3.165956486003040360e-01
1.546888450757827604e-01 6.686883805105052758e-01 7.132492928279698940e-02 2.364662879599571943e-01 6.687295885007248364e-01 7.049002994197760552e-01
1.304270464384787720e-01 6.594066681022268117e-01 6.773376915762155392e-02 2.225159555305448456e-01 6.015734548656626046e-01 7.672001224812984299e-01
-6.643007147663972101e-02 6.802947971677305583e-01 6.855970831836684376e-02 -3.626348508515406799e-01 8.853136768254992184e-01 2.910595447216883236e-01
1.141012617026639087e-01 6.640668701307124167e-01 7.892880325713873269e-02 2.751200624336929690e-01 5.088919255632405880e-01 8.156825113627347301e-01
-2.592612579189355615e-01 1.894468880580566228e-01 8.484740252917459535e-02 -7.192734069611942394e-01 -5.450694692171545452e-02 6.925855606173937362e-01
1.685196200471814898e-01 1.922152809139087426e-01 8.100774910413881258e-02 8.510921319430825305e-01 -8.151021547692575975e-02 5.186504292078467637e-01
-2.574683326810302542e-01 1.843464734728597343e-01 9.076352931472837782e-02 -5.144305736290984976e-01 4.863974635855482231e-02 8.561514819176641033e-01
-7.200521336787560345e-02 5.578825497739579031e-01 1.614194638781185909e-01 -7.208211828763863571e-02 1.825465810994843507e-01 9.805513316252526534e-01
-3.848304791723101692e-01 -7.825118476074914842e-01 2.366817379204361194e-01 -8.395313428814342727e-01 1.468939191860077487e-01 5.230767637984604645e-01
1.309450442785787261e-01 8.932145998422671984e-02 -3.936853744587135440e-01 9.084243594953013423e-02 -8.718079364617928873e-01 -4.813507803597974477e-01
1.963527303086069209e-01 1.166670694746778647e-01 -4.066021511225511587e-01 3.377032510443767621e-01 -9.147867308116840457e-01 2.216342738949240165e-01
1.481513970988537487e-01 1.010710263789178082e-01 -4.011140467968289380e-01 2.081671957211845558e-01 -9.534321617040297792e-01 -2.182510748059644512e-01
1.105979902079887167e-01 1.036445910496244932e-01 -3.993463553454548176e-01 -1.951367798319765257e-01 -7.144113415021631219e-01 -6.719658267277335284e-01
8.574043899903226185e-02 1.031952946406108906e-01 -4.158154593512697339e-01 -1.673998977476296723e-01 -6.803223041515841230e-01 -7.135396532134445913e-01
1.944413543043145287e-01 1.177889217911151226e-01 -3.903748067235797703e-01 4.876940776681987777e-01 -8.313115416342828912e-01 2.666000888090566123e-01
1.000666999636278254e-01 1.041793706015452375e-01 -4.041697323683874910e-01 -1.891870385384775977e-01 -6.786702257524028781e-01 -7.096583608513488128e-01
2.209325418210561220e-01 1.340273599888200107e-01 -3.929180262041453431e-01 7.771237663700220066e-01 -4.596160931642186420e-01 4.299205724867464773e-01
2.224995731211117656e-01 1.627206066557722874e-01 -3.908142919518722835e-01 8.794017018427328081e-01 -2.435560279529016825e-01 4.090636968051684641e-01
2.367026748376077072e-01 1.836589621011037732e-01 -3.937121262490066442e-01 9.108684537628081168e-01 -9.431917610843798538e-02 4.017742562160700470e-01
2.329627416949807961e-01 2.243355948062332739e-01 -3.986399181765126754e-01 9.663504869119525775e-01 -1.466245803745283294e-01 2.113479805321683280e-01
2.423915453357011196e-01 2.574831747383669600e-01 -3.862692738895648903e-01 8.573787960445540257e-01 -3.475088474555451112e-01 -3.796566883821614335e-01
2.598746401003551032e-01 2.624385604863456178e-01 -3.888102409674161763e-01 8.147809934801794052e-01 -2.978623580154866057e-01 -4.974032049966165547e-01
2.502882977358540373e-01 2.810231165019933530e-01 -4.007415799649410859e-01 7.863631989830861535e-01 -2.188564537124536580e-01 -5.776978206238067015e-01
2.665947903009756592e-01 2.976063938993229185e-01 -3.841496937668020806e-01 7.482523464247907707e-01 -9.810996990695704245e-02 -6.561195469383996892e-01
2.528583148419917270e-01 3.296257858826877607e-01 -4.001274742552048402e-01 6.917526691651729731e-01 -6.689589239881255610e-03 -7.221035203477826903e-01
2.565282827876065319e-01 3.616190571304122581e-01 -3.918151396720038759e-01 6.519482524580841876e-01 -2.542527213067545533e-02 -7.578370746103222366e-01
2.712683225043825974e-01 3.707806097163177661e-01 -3.940243944686704358e-01 6.868183460365088200e-01 -5.226437450208922669e-02 -7.249475806605465422e-01
2.584280980069629807e-01 3.717809348059595842e-01 -3.938219585947244084e-01 6.908940661463290889e-01 -1.314977962597740080e-01 -7.108964192782341041e-01
2.735758504741546138e-01 3.961200328957180661e-01 -3.954905672106930337e-01 7.491496583836341205e-01 -3.638536851737475541e-01 -5.535208082169699173e-01
2.782054373938242509e-01 4.108833849150434481e-01 -3.928534287139631154e-01 8.726743195742806547e-01 -3.109121588865127461e-01 -3.765277697754763064e-01
2.793050282726755595e-01 4.168026442074035387e-01 -3.979369161909411812e-01 8.432080196855733512e-01 -5.338114822664737913e-01 -6.360453551755572421e-02
2.990431133655407359e-01 4.487812306104067561e-01 -3.868053047283288581e-01 8.485778290844098182e-01 -4.878992751296247210e-01 -2.046215172321250997e-01
3.070725050652653998e-01 4.676446699219067860e-01 -3.948743254540049707e-01 7.869121742423960120e-01 -2.212328289726323283e-01 -5.760427635287773684e-01
3.144583257524159459e-01 4.837317524973338001e-01 -4.020596826541833479e-01 7.428775809454573054e-01 9.676726709188245013e-02 -6.623964037856742149e-01
3.062568567412008447e-01 5.083892206368609834e-01 -3.897990912265796304e-01 6.754750742879946923e-01 2.501339781895087211e-01 -6.936616011937799531e-01
2.889236504103049330e-01 5.235860732904393799e-01 -3.965103708160609419e-01 6.132012051098509886e-01 3.686925249366475588e-01 -6.986058288531995508e-01
2.948895904215695363e-01 5.381349527284009504e-01 -3.950145776987917245e-01 6.063636595919149608e-01 4.050466293421740027e-01 -6.842955066233037398e-01
2.837097882564135753e-01 5.493090093204333613e-01 -3.967625531062969890e-01 7.104059677608243195e-01 3.558164947131080003e-01 -6.072215271710016404e-01
2.817516584620131659e-01 5.575859974294643528e-01 -3.972059911150656042e-01 7.742485207285552118e-01 2.772161716583878555e-01 -5.689379775693579333e-01
2.863825635357308275e-01 5.694638362973613033e-01 -3.945959606508577799e-01 8.348995698968696422e-01 2.611396993334272887e-01 -4.845087879678439680e-01
2.664730079041158217e-01 5.737101844010434881e-01 -4.002086368946463080e-01 8.639447946583137528e-01 2.192695291556449599e-01 -4.533434298262917217e-01
2.603815863245473872e-01 5.874959173504210597e-01 -4.010975543002053834e-01 8.744514996788842476e-01 2.285383513827993207e-01 -4.279074627259757402e-01
2.608080351439121536e-01 6.056608261017801809e-01 -4.042119814818231349e-01 8.624040616210093546e-01 2.594157976925313136e-01 -4.346983763566801828e-01
2.519269841428494749e-01 6.410580569789431360e-01 -3.954146572091006284e-01 7.532343234503902085e-01 4.375828472828238169e-01 -4.910797346053792367e-01
7.266907224359929474e-02 1.236758141768010306e-02 1.578308385811599546e-01 1.195751223728113433e-01 -1.734804765938609550e-01 9.775511824709199882e-01
9.458039092056619301e-02 -4.639001563342108891e-01 -2.065394267250562077e-01 7.145568739480706588e-01 2.655183280362694020e-01 -6.472314048085004989e-01
-1.599160860012615870e-01 -9.723425815087277657e-02 9.639857887519381885e-02 -4.135481960884121455e-01 1.737394604641864237e-01 8.937519171389974870e-01
-6.047303443479278007e-02 -1.048051991659856574e-01 9.867442183228652963e-02 7.338920459096998083e-02 -1.707017270808518783e-01 9.825858461331097304e-01
-4.288180758568946316e-02 -9.466725423194527478e-02 1.043453909493708698e-01 -5.438063671423454086e-03 -3.069417644891816455e-01 9.517127616438549875e-01
-2.772220623393108901e-02 -1.059329543556754849e-01 1.058922482095835393e-01 2.945108272126102569e-03 -4.217954769400644732e-01 9.066862202383848546e-01
1.170238061710497796e-01 -1.056318011263593648e-01 1.044494516161659781e-01 2.446113131400493579e-01 -4.222117203514322292e-01 8.728703046167767265e-01
-1.668719306989880913e-01 -1.239599070947648984e-01 9.643693505424728862e-02 -4.181954851942248363e-01 1.842400356825877050e-01 8.894763321274185008e-01
-1.542025001194180511e-01 -1.139774468514832551e-01 9.908807720850744405e-02 -3.894643248297601223e-01 1.848284685515365899e-01 9.023059220119266088e-01
-7.133915295670434364e-02 -1.036833801557719287e-01 1.092704955100675251e-01 2.498896061847488970e-01 2.420694254267012624e-02 9.679716982709603013e-01
-4.332918339203596647e-02 -1.173463610351173220e-01 9.620545825802111206e-02 1.422919304414163033e-01 -1.436918208504192329e-01 9.793394034510948254e-01
-3.598491849376354162e-02 -1.145326031031070196e-01 1.055174224272364958e-01 1.851487388551145696e-01 -2.863101545362677913e-01 9.400778903419541033e-01
9.702625858496384537e-02 -1.059996840820832675e-01 9.762280542593405885e-02 1.783426538383054705e-01 -5.151647624338113740e-01 8.383311788120640928e-01
-7.004941441316459017e-02 -1.174303177583200658e-01 1.107736429967751679e-01 2.234047489857980406e-01 2.053115981348270849e-02 9.745095123226380496e-01
-3.540581219801676172e-01 2.936631062497193495e-02 -5.857051810108482304e-02 -2.972193929876951191e-01 -9.540800494813471699e-01 -3.730806365514055534e-02
2.516230860049012974e-01 1.617624784053509415e-02 -7.433977683367470890e-02 9.798545791500427038e-01 -1.988189984197737403e-01 -1.886821629224577287e-02
-6.794581635557800370e-02 -6.330207974240134039e-01 3.071869081486692798e-01 5.230098658658317579e-01 1.574606764672779602e-01 8.376555470916859925e-01
-1.648056904331131334e-01 -3.261374760425303498e-01 2.407253239803950617e-01 6.125708114642253871e-02 9.929492523889389410e-01 -1.014857240683032374e-01
-4.967690470042149253e-02 5.636239468619913540e-01 1.558895749726254554e-01 2.652764105909921968e-02 1.303617880551674324e-01 9.911115418936957688e-01
-7.003217689955341940e-02 5.622559582310374671e-01 1.631549126392408122e-01 -2.702539284461582744e-02 1.665590662317133208e-01 9.856610500560595289e-01
-5.606545971556464031e-02 -8.929596457446218327e-01 -3.099243108644488820e-01 8.309402818913379507e-01 -1.532973075063462920e-01 -5.348253765872077459e-01
-4.565352437734701563e-02 -8.745467941886393426e-01 -3.096143317750044144e-01 8.281975991132770609e-01 -1.564936526981532128e-01 -5.381435435719668092e-01
-6.510386022162076292e-02 -8.680432809663698457e-01 -3.012149299190484686e-01 8.259802713232534677e-01 -1.593780907295203886e-01 -5.406988215080344995e-01
-4.594640619098894208e-02 -8.513454608843605831e-01 -3.108952816719002810e-01 8.238695139367083753e-01 -1.613991159118540464e-01 -5.433133068392157483e-01
-4.584522314026994588e-02 -7.862209413799289281e-01 -3.175167299808691612e-01 8.209043744009796306e-01 -1.625980840944346306e-01 -5.474284164510966333e-01
-3.444745341009934625e-02 -7.699282830711762227e-01 -3.199746707361159626e-01 8.192444087398050856e-01 -1.650412411700806770e-01 -5.491811972943049236e-01
-2.323345719541549531e-02 -7.627952938804991589e-01 -3.037199608604757572e-01 8.164807414812061959e-01 -1.693307239096159544e-01 -5.519839714435060829e-01
-3.579883429705131570e-02 -7.388689051624918180e-01 -3.110624204861724973e-01 8.155728728220668078e-01 -1.712405360689655820e-01 -5.527364362185419600e-01
-2.928466507917474107e-02 -7.162524302802322218e-01 -3.113531068957736681e-01 8.124991250018770428e-01 -1.790223080735677541e-01 -5.547938221386364832e-01
-2.079913660966899516e-02 -6.962343920884501713e-01 -2.990519405004757325e-01 8.072358086998331350e-01 -1.872333002951048764e-01 -5.597446207095960746e-01
-1.124469903690766652e-02 -6.741834980124473686e-01 -3.069618409563358852e-01 8.046166714600653247e-01 -1.911063321903507528e-01 -5.622013712232269977e-01
-2.828735314593602227e-03 -6.473909745348283007e-01 -3.105003175032264306e-01 8.056089225733785719e-01 -1.932533611308753785e-01 -5.600423218666421565e-01
-8.876540641619919125e-03 -6.286359649811902317e-01 -3.064566183925123699e-01 8.083893174361160838e-01 -1.924666688852618990e-01 -5.562942502159998748e-01
4.448950154065045570e-03 -6.175563975728808330e-01 -3.083181102557932540e-01 8.111060378665008175e-01 -1.914150229167776163e-01 -5.526909483049960992e-01
8.219114821081180064e-03 -6.095617467529846900e-01 -3.030138410941882188e-01 8.125836042775702595e-01 -1.881722192714700426e-01 -5.516331226038940772e-01
-3.263108858149409847e-03 -5.840947508189582305e-01 -3.064361319701542907e-01 8.158474515377202030e-01 -1.873786857221283741e-01 -5.470668733861108191e-01
9.359346471855998009e-03 -5.595242934517287159e-01 -3.130853178474378717e-01 8.174210469956665337e-01 -1.836547170257464279e-01 -5.459796487440730095e-01
-2.544320503999699112e-01 -7.390568007020772434e-01 4.122508857410405736e-01 -4.118702954993710974e-01 2.442479165490227810e-01 8.778985220096466868e-01
-2.400894682839833372e-01 -7.243396713066870829e-01 4.247790569376377889e-01 4.120161324562855026e-02 1.741272588465318516e-01 9.838608259263859068e-01
-2.649558494260909614e-01 1.703748752709601244e-01 8.356707858808776201e-02 -3.505086932872153449e-01 7.355510811606334742e-02 9.336665903844492131e-01
1.847709860297892803e-01 1.698595303307642579e-01 7.881055046876854486e-02 8.350131023095170857e-01 2.174414288836455100e-01 5.054427207671257083e-01
-2.603953441550728720e-01 1.470565216097781680e-01 7.822054637647551933e-02 -2.705933004960638377e-01 -2.522405070812319683e-02 9.623632437871476597e-01
1.858248885113073512e-01 1.605237112629288032e-01 7.756301866318168758e-02 8.033237902633088012e-01 3.131477752473172949e-01 5.065662433035261758e-01
-2.551835777525308102e-01 1.364047141548637432e-01 8.509262776556986152e-02 2.016705086514615497e-01 -3.461982336813344552e-01 9.162291137789635442e-01
-1.996915490060070797e-01 1.469287505931888282e-01 8.287095295953114671e-02 -5.600023185852913699e-01 -7.289571969645901595e-01 3.937242793791435047e-01
1.925960708765710461e-01 1.347692636994265170e-01 7.542579622106640458e-02 7.926412509049144406e-01 2.914931384489782284e-01 5.354919211351908404e-01
-2.296126957517806710e-01 1.347100149462468199e-01 7.181829673919802592e-02 3.190199716540622621e-01 -4.820072463480045144e-01 8.160240634649540414e-01
-2.103957081569935161e-01 1.574427837712813472e-01 6.568414320278109786e-02 2.441079856855235264e-01 -4.793782165179479304e-01 8.429755731055483814e-01
-1.947359692708803269e-01 1.439991058273375757e-01 8.273267274650004943e-02 -3.529717828067490681e-01 -9.291518648591731155e-01 1.099442248185241167e-01
-2.387641550357055831e-01 1.221974931668607378e-01 6.963652501649598980e-02 3.449961658436206946e-01 -4.397100695511894641e-01 8.292362150126398879e-01
-3.377830836573370021e-01 4.431141059428534978e-01 4.823148455091444409e-02 -5.678810167888136418e-01 6.805347349308968341e-02 8.202925548342058226e-01
2.911843260846856407e-01 4.434256687815517073e-01 6.335154498250183952e-02 -8.546420838101533024e-02 -3.736627580687951755e-01 9.236189757244203102e-01
2.957560872250897810e-01 4.378197479249687496e-01 4.963292395824125264e-02 -9.899272970162364960e-02 -4.916403295835283238e-01 8.651532961234216224e-01
2.759398963457057596e-01 4.259884300453091743e-01 4.678244159596320340e-02 -1.920224185043136259e-02 -5.320126721159170735e-01 8.465186298103540841e-01
-1.285295073041845849e-02 -1.132271805309096740e-01 9.873358605684065537e-02 -6.815469338488089335e-03 -4.912504168646098512e-01 8.709917205737625068e-01
-5.645115193166846262e-03 -1.196155827478327244e-01 9.588472472634977650e-02 -5.965609202769253661e-02 -5.408864668287556299e-01 8.389773421764671335e-01
1.202775821520839401e-02 -1.239653364652058415e-01 9.572239169874714737e-02 -1.083831827214816884e-01 -5.874948654654583713e-01 8.019369481167984981e-01
1.127986044173496932e-01 -1.252281658565377043e-01 9.658455952548046508e-02 1.692953404682426832e-01 -5.538904782370517310e-01 8.151959432026584240e-01
-4.036009446330925121e-02 -1.258039640509486246e-01 1.066105426414497431e-01 2.814041782927881319e-01 -5.418826019489784984e-02 9.580580989148888005e-01
-2.330476877290657278e-01 -4.134163715042483700e-01 3.555498220043267765e-01 -4.774555504344925594e-01 2.131674259904015045e-01 8.524059161314652133e-01
-2.230389518069788579e-01 -4.059483652947074583e-01 3.572336549166350572e-01 2.990886825288421313e-01 1.658251831744707860e-01 9.397063204045796869e-01
-2.411632796712531168e-01 -4.200278400752859298e-01 3.560369634662721161e-01 -5.137375500955559948e-01 1.588821543208217557e-01 8.431074609207244164e-01
-2.423297271768947159e-01 -4.432021444427340362e-01 3.547835581380738845e-01 -7.615274841370029968e-01 1.414071846722901316e-01 6.325186946067471450e-01
-2.389692658228803057e-01 -4.623137003212469121e-01 3.561542452522233893e-01 -6.147122632704637990e-01 1.745686436322963220e-01 7.691908879109815578e-01
-2.031296499919887366e-01 -4.549584794916844976e-01 3.609147452921421251e-01 4.605713186682204308e-01 1.555339861022209669e-01 8.738897182066914793e-01
-2.538087184259419371e-01 -4.631219567947511551e-01 3.534777086191386863e-01 -8.236680831445185591e-01 1.262228211976537118e-01 5.528459896010274877e-01
-2.024179925682046965e-01 -4.681485649304546470e-01 3.622549437162091435e-01 4.680467638485099613e-01 1.544045844251881738e-01 8.701100224451056020e-01
-1.925882846751228727e-01 -4.790482229879945431e-01 3.541838047156576907e-01 4.708828660819573964e-01 1.547772097382696943e-01 8.685121425611026513e-01
-1.854969276152886037e-01 -4.986600236317332846e-01 3.688924229516306608e-01 4.693367090314011780e-01 1.530756570181804610e-01 8.696498702259584102e-01
-1.834516700519746857e-01 -5.261313126619469038e-01 3.589443225134609228e-01 4.703827488914537058e-01 1.542452914714202150e-01 8.688777011779138526e-01
-2.563308895403517695e-01 -5.286889083200911887e-01 3.598171218042306441e-01 -8.469979558641995698e-01 1.251193857989391922e-01 5.166619804661106707e-01
-1.751166855216298446e-01 -5.279936770774812382e-01 3.678805718333603703e-01 4.673604314385466640e-01 1.527394220576500650e-01 8.707725857392791813e-01
-2.554356136362824770e-01 -5.488119266571019894e-01 3.625752105220582666e-01 -8.443836077446653654e-01 1.296301816381138505e-01 5.198195253937397675e-01
-1.815859407310841667e-01 -5.355642259782987802e-01 3.657197885476243249e-01 4.687149883479764800e-01 1.518872698584733949e-01 8.701933790559978066e-01
-1.730435849505541357e-01 -5.534631688315405640e-01 3.716199735231774381e-01 4.699209859210212725e-01 1.503964488442995351e-01 8.698018022320023190e-01
-2.609574833407273808e-01 -5.669901781832349386e-01 3.511244753231564930e-01 -8.409108144454633393e-01 1.301615273987276611e-01 5.252875202533349164e-01
-1.758951194044453548e-01 -5.748111204253649742e-01 3.622983013660266427e-01 4.691171991164870270e-01 1.488631786562031323e-01 8.704991714720202722e-01
-1.667894744159451048e-01 -5.664758662570631431e-01 3.555255774323571316e-01 4.722473825316758078e-01 1.492355604471918840e-01 8.687411335892836206e-01
-2.657442092479304074e-01 -5.910829904745867891e-01 3.688333841209019970e-01 -8.373627618305564679e-01 1.270718279929325123e-01 5.316731661745188742e-01
-1.726480384792347389e-01 -5.872212890559054266e-01 3.709479655629128181e-01 4.694744312347814419e-01 1.468107288103520369e-01 8.706551374240846242e-01
-1.601793200274352069e-01 -5.943524701263922516e-01 3.497212390453111053e-01 4.713733958940700131e-01 1.477605695455859180e-01 8.694676162634559224e-01
-2.640814549652749643e-01 -6.152966248861105880e-01 3.639428940583169236e-01 -8.287911875139518658e-01 1.303817596979233440e-01 5.441560109355463304e-01
-1.489627243981256899e-01 -6.134810756276827259e-01 3.693861448891123112e-01 4.715790582022743593e-01 1.472171404266374717e-01 8.694482764544765319e-01
-1.608346827784014887e-01 -6.282870427732596408e-01 3.644674896160136068e-01 4.722842323414777610e-01 1.490428530109733918e-01 8.687541837873187234e-01
-2.627247584348694209e-01 -6.329944839262807710e-01 3.801607128646021794e-01 8.264457128552749055e-01 -1.341584103194875810e-01 -5.467988703752821866e-01
-1.521982575040729813e-01 -6.294596752821910446e-01 3.630150757425334440e-01 4.722907897629802787e-01 1.517623566846736938e-01 8.682796767163067919e-01
-2.565211590777012884e-01 -6.447450738438943452e-01 3.757593181230877710e-01 -8.277881190225295782e-01 1.286575302063173998e-01 5.460898002401737283e-01
-1.534309444496964325e-01 -6.589625913609301611e-01 3.612364205293849273e-01 4.729649248220102464e-01 1.526972053962119547e-01 8.677486636995170866e-01
-2.830089310401550651e-01 -6.558084169744321512e-01 3.773915167626646916e-01 -8.239925328269736005e-01 1.321578249798469884e-01 5.509724268436533290e-01
-1.460363391174377412e-01 -6.720412443097565358e-01 3.548495080599536333e-01 4.741365347214474002e-01 1.547496987685546277e-01 8.667451050760998088e-01
-2.685657652293068631e-01 -6.683643826500125229e-01 3.707505943474154742e-01 -8.184422053506377193e-01 1.375813788891740719e-01 5.578742875269823154e-01
-1.359395690956046732e-01 -6.798079032526509469e-01 3.467076469211631262e-01 4.763550452327260931e-01 1.546742336235279458e-01 8.655413059665619802e-01
-1.493401973721686926e-01 -6.976438113025228427e-01 3.691677248657334598e-01 4.773254805774448939e-01 1.569182214830035782e-01 8.646022538474684715e-01
-1.285769728072729268e-01 -6.990767454063460118e-01 3.610441860795030600e-01 4.767000970502422996e-01 1.550053398808270144e-01 8.652920675013258123e-01
-2.886972672744843038e-01 -7.042157958451241706e-01 3.688826938701881275e-01 -8.163218043314055539e-01 1.462441303025413253e-01 5.587766692742025532e-01
-2.937158385806630245e-01 -7.262775012377494788e-01 3.692237168503557654e-01 -8.157962635676601071e-01 1.498234626419799320e-01 5.585959061710100704e-01
-1.301165400316323384e-01 -7.168315759160679423e-01 3.560118442142942152e-01 4.785876093743173798e-01 1.611892113310372521e-01 8.631175692244099640e-01
-1.397418673606432293e-01 -7.367505650409988949e-01 3.646887915048593887e-01 4.801309404186128726e-01 1.640960838656131682e-01 8.617115267377524201e-01
-1.178094048477641986e-01 -7.368103290698304608e-01 3.641803674597399731e-01 4.796899053806387703e-01 1.634504471003721815e-01 8.620797793815849763e-01
-2.825210835512232399e-01 -7.452347998388514361e-01 3.768355117832848933e-01 -8.109627932217271518e-01 1.567561573352256044e-01 5.637081293963289719e-01
-4.494430852072794913e-02 -8.684199443605844504e-01 -2.946988562343776374e-01 8.192024592678078809e-01 -1.662188633722050113e-01 -5.488885316608718146e-01
-2.367014050553078730e-01 1.329799271240788283e-01 6.198660941911100786e-02 3.932383019584405059e-01 -4.636153429673655624e-01 7.939927276984937166e-01
-1.690549019939215913e-01 1.286933857233069911e-01 7.764263667234841404e-02 -7.051635135034567403e-01 -6.511084697948112954e-01 2.807172595066416698e-01
-1.579871135538185867e-01 1.154897720817739809e-01 8.280099438948528012e-02 -6.230719087704695847e-01 -6.315536058829994692e-01 4.614341116533371978e-01
-1.655305022181615682e-01 1.065063094192947868e-01 6.132863131605668927e-02 -7.642453513201566961e-01 -2.538232324117097871e-01 5.928767238419816454e-01
2.015497745667087504e-01 9.823179084200792111e-02 8.773475458102990288e-02 8.185797442875801799e-01 1.024128475425363782e-01 5.651891815138619934e-01
-1.473273774997988506e-01 1.028524645675950172e-01 7.689494163574359109e-02 -5.766640757623205937e-01 -5.780454969281670352e-02 8.149338487018437105e-01
-1.504259015704171865e-01 8.496719607593519741e-02 8.765726780969178289e-02 -5.423400758210459305e-01 5.011153861638352469e-02 8.386632672628038243e-01
2.052201082215764083e-01 9.064254042473482431e-02 8.939109082001758799e-02 8.031676441012398637e-01 4.428749981200215402e-02 5.941046648775500927e-01
-1.499497195407938632e-01 7.110516467201191682e-02 7.933743498426518159e-02 -5.083638308660674010e-01 1.580527782531348513e-01 8.465137534344269188e-01
1.988784059582293928e-01 5.760097591477308238e-02 8.910345541277595038e-02 7.869281629968704062e-01 -2.372576293135635755e-02 6.165883184554311613e-01
-1.527354141170680635e-01 6.890506282886153799e-02 8.572032246526464783e-02 -5.164571371904336239e-01 1.012440909078095308e-01 8.503068031606667576e-01
1.968774926414741666e-01 5.389380724993681621e-02 8.840779641718519988e-02 7.613720988183996230e-01 -9.361730191826836411e-02 6.415203254164352220e-01
-1.565942178122716744e-01 5.232974542373858978e-02 7.900001964986758107e-02 -5.183302429780004550e-01 1.179926790872173753e-01 8.470014680602316881e-01
2.555727591303152413e-01 4.242233297606621267e-01 5.621660172515172138e-02 6.440522684836056388e-01 -3.292843428200235012e-01 6.904842482162113493e-01
2.701777432705700921e-01 4.194469790945509202e-01 4.948664813582735744e-02 2.596900767668536281e-01 -4.306152818488216960e-01 8.643677128786598773e-01
-3.618621380287356248e-01 4.060196965520255219e-01 3.773218373157598282e-02 -5.377232614389078069e-01 -9.186265250536396199e-02 8.381019909188753836e-01
-3.520825799845200832e-01 4.077015347914327847e-01 4.210727919965378402e-02 -5.501005921223287576e-01 -7.937345686253212407e-02 8.313177448439044159e-01
2.558523788239305818e-01 3.964147984433870620e-01 5.715058676695930484e-02 7.162484033889348067e-01 -7.979370166157791211e-02 6.932684832140755260e-01
-3.373375267078357331e-01 3.850370964791022810e-01 3.989070088072386305e-02 -5.730500203064319287e-01 -9.574994657149393795e-02 8.139076249540571073e-01
2.541572547800953208e-01 3.853481378323815321e-01 6.570171001948038603e-02 7.757323433687319802e-01 -1.468524576971102363e-02 6.308911752500101500e-01
4.344926337277948969e-02 -1.210118354881317831e-01 9.043741329660422157e-02 -8.975469880120771904e-02 -6.982585360930998464e-01 7.101965297128856047e-01
4.028996629134891372e-02 -1.285774238344295495e-01 9.619693135396792383e-02 -5.634263173953078102e-02 -6.499851309714183012e-01 7.578554198293575572e-01
-3.495682034518294845e-01 3.784035773232954369e-01 4.149755984694902117e-02 -5.666933198410160077e-01 -7.616631475155009878e-02 8.204007397270774993e-01
6.224415027012897977e-02 -1.216573966388038164e-01 1.031242321092572800e-01 2.931665985437214433e-02 -6.425106041409295310e-01 7.657157808361015894e-01
7.126195007107159751e-02 -1.338791320655594030e-01 9.984538329916367583e-02 6.870452413514947787e-02 -6.362285412489299130e-01 7.684353789770622667e-01
-3.349401720250781977e-01 3.793218016366371459e-01 4.535035310220501825e-02 -6.615515257703178387e-01 -2.122799099840711259e-02 7.495991936689473389e-01
2.547749492926550952e-01 3.696683926285354582e-01 5.157554644263415838e-02 7.651418292786678066e-01 2.547783858555004513e-02 6.433574906916856850e-01
9.803458629953523684e-02 -1.293233606726632012e-01 1.063700080022324801e-01 1.552696775111968297e-01 -6.176705721452125930e-01 7.709568026493925919e-01
-1.697573293118005144e-01 -1.363354093036704684e-01 1.078058454783609177e-01 -4.364726091068998892e-01 1.903017471286901630e-01 8.793616471845830951e-01
-3.657684697507705418e-01 8.233446013734482816e-02 -6.102529202895595056e-02 -9.460174234723730535e-01 2.806642549963587335e-02 3.228982970632799376e-01
-1.931227463745295581e-01 -3.288019467305087762e-01 2.842815896240533657e-01 2.778580396081977155e-01 7.318296163088284789e-01 6.222702969918797455e-01
-1.791156925521169840e-01 -3.342544918047931080e-01 2.833700470071962574e-01 5.010099529809799446e-01 2.744099437624070159e-01 8.207851179074269199e-01
-1.737978194891750261e-01 -3.292150265377403184e-01 2.706564766145090339e-01 5.091103495358033637e-01 2.698769060585236024e-01 8.172962177642881798e-01
-2.497538721141578932e-01 -3.424971125902314117e-01 2.860865731092640529e-01 -6.603361573425936548e-01 5.894773869209385397e-01 4.652661277321608613e-01
-1.626352913314394188e-01 -3.550417171197959298e-01 2.715572287648441163e-01 3.980504578624546319e-01 6.504866047838951948e-01 6.468562514131023233e-01
-1.600586651040140918e-01 -3.809038605229969066e-01 2.810735048692549753e-01 4.211643883756114315e-01 7.299479062949306707e-01 5.383276066298700036e-01
-2.456953482902686781e-01 -3.692972195519848011e-01 2.797422334412190681e-01 -7.820383513379631779e-01 5.003523232054826186e-01 3.715690645081702326e-01
-1.263480067451409894e-01 -3.774944919579805713e-01 2.879293881818373868e-01 3.835209425329607624e-01 8.166292205248392166e-01 4.313101005351288597e-01
-1.047122718537228658e-01 -3.874143365622486068e-01 2.817263954786496938e-01 4.055222459659855172e-01 7.446283086256246797e-01 5.301701519512809213e-01
-2.697227263792747465e-01 -3.934627149340668151e-01 2.966657778228434239e-01 -6.367061246592518042e-01 7.107410102292067711e-01 2.990861534738179506e-01
-2.803664753341074123e-01 -4.158617215581116300e-01 2.846324762579383050e-01 -8.486876915025663992e-01 2.538274182822605751e-01 4.640052198200003697e-01
-9.544752762669576895e-02 -4.092849396246172611e-01 2.972675688461053900e-01 5.190210207358391115e-01 1.767280983162143326e-01 8.362920299153054904e-01
-8.703462844878995242e-02 -4.473782731063151719e-01 2.829044995935285356e-01 5.204543610856742220e-01 1.640000804389353806e-01 8.379923816138935555e-01
-8.502558213551530963e-02 -4.585611471993900068e-01 2.816722886149110039e-01 5.219236344977238318e-01 1.714481216619640480e-01 8.355843831303161329e-01
-8.281204914723729049e-02 -4.646563665145334587e-01 2.811808331541235106e-01 5.229545100604370278e-01 1.741189958238379965e-01 8.343866943454613105e-01
-2.911768143346780691e-01 -4.790642306255693539e-01 2.843414614593268719e-01 -8.360713317803166733e-01 1.447527778836543155e-01 5.291798951869325363e-01
-7.439118146697394629e-02 -4.758780332417980041e-01 2.845341653549539607e-01 5.247886523100907530e-01 1.768149889761198856e-01 8.326663978328496807e-01
-2.955263640388965940e-01 -4.924245145284092962e-01 2.855083178527831889e-01 -8.349731048172970294e-01 1.452985720842735751e-01 5.307619421002549576e-01
-6.987137511177529681e-02 -4.916420404599565197e-01 2.782210074575673930e-01 5.257494972025107405e-01 1.796958228888756448e-01 8.314426483093086961e-01
-2.947390865587100617e-01 -5.048786229636987866e-01 3.048479705447318944e-01 -8.338070955508669613e-01 1.413394712690990151e-01 5.336561451631555153e-01
-6.295770997554545056e-02 -5.039779054832689287e-01 2.801666826742737482e-01 5.262852119040207777e-01 1.808758109201605568e-01 8.308476495453989141e-01
-3.001279430452412078e-01 -5.098276869259017463e-01 2.910229058348415276e-01 -8.323643722234764786e-01 1.424286321121778776e-01 5.356151945265107406e-01
-5.177631275149936763e-02 -5.347158580259177008e-01 2.860501733533069579e-01 5.275254188166182967e-01 1.803344888705262494e-01 8.301785378014523431e-01
-3.121851627540538909e-01 -5.384022419683349714e-01 2.858658378321102256e-01 -8.295338526637319188e-01 1.450476113326341909e-01 5.392909954111630988e-01
-4.014632756755748960e-02 -5.522386967703061256e-01 2.787616121323260865e-01 5.298413463483225838e-01 1.768666756129194384e-01 8.294494118133011185e-01
-5.242448869420991697e-02 -5.516689473275739886e-01 2.813806404190917765e-01 5.288441293854582170e-01 1.748860545851559367e-01 8.305051202287525580e-01
-3.949820770926776303e-02 -5.635970168165062022e-01 2.797293264349559050e-01 5.300490950586336236e-01 1.712510420624244745e-01 8.304944535757342594e-01
-3.138451508991546013e-01 -5.837342868494768133e-01 2.776433507094139275e-01 -8.262334435068052763e-01 1.487202843365441063e-01 5.433420413126009985e-01
-4.048302116027692465e-02 -5.828693558836133271e-01 2.868860534436890042e-01 5.329048960209893382e-01 1.657277172910262275e-01 8.297871386797727178e-01
-2.452047865826192941e-02 -5.949746545311891399e-01 2.762756325078324360e-01 5.371814215602530584e-01 1.643145592127849830e-01 8.273069841124356394e-01
-3.143838360625307859e-01 -5.919268201937742946e-01 2.975009645767741628e-01 -8.264052348014183647e-01 1.486520199866969427e-01 5.430994060452349892e-01
-3.200779919724089373e-01 -6.118227278705019589e-01 2.905377645160699962e-01 -8.246812354855048710e-01 1.466938693129257176e-01 5.462433235693628930e-01
-2.506447566101040539e-02 -5.979070524909813056e-01 2.774814113242765057e-01 5.367796020684499902e-01 1.592335080829912763e-01 8.285604073975658679e-01
-1.524634812589824133e-02 -6.267694734718637362e-01 2.754732291902468044e-01 5.368385848051604459e-01 1.581404408019244645e-01 8.287315215721949846e-01
-3.161309674060021613e-01 -6.308528714925260017e-01 2.941522763925439321e-01 -8.241776755367310470e-01 1.439869873288674162e-01 5.477215593956726858e-01
-3.873369871109606788e-02 -6.338162230025428112e-01 2.846536029513512811e-01 5.362267797222062260e-01 1.562167845378586717e-01 8.294921078210478749e-01
-1.926729738379054716e-02 -6.281641865183266171e-01 2.816616204969603632e-01 5.359487130090548890e-01 1.571102633592494358e-01 8.295030694163372242e-01
-3.215517653926486252e-01 -6.458404464786997590e-01 2.923711854664314269e-01 -8.242737342776996767e-01 1.427852548624420070e-01 5.478915786665859988e-01
-3.257095783995750948e-01 -6.724425979503695361e-01 2.988826586507681293e-01 -8.225609523740893270e-01 1.453170422838367115e-01 5.497967232089591150e-01
-1.481720471380532089e-02 -6.643970648658087397e-01 2.846137208657450457e-01 5.345051816018310253e-01 1.609665619483418297e-01 8.296951107336503206e-01
-3.456728077328708598e-03 -6.908160829769857125e-01 2.908933937436708472e-01 5.343097299830478208e-01 1.631676145867927141e-01 8.293910067003972264e-01
3.633184040451438446e-03 -6.984659623962359287e-01 2.886569664952904901e-01 5.335969605197743437e-01 1.673373368182824728e-01 8.290189982326238161e-01
-3.303389631390968306e-01 -7.009084603379546197e-01 3.016162132246151262e-01 -8.209328380949376669e-01 1.479187965613009692e-01 5.515335936833291042e-01
-3.450731439250048771e-01 -7.090080340095286093e-01 2.863924506774308543e-01 -8.220328147078697079e-01 1.489595298464267137e-01 5.496117811795783181e-01
1.385196501060027494e-02 -7.190676429859232943e-01 2.735728970446847930e-01 5.336819513789806679e-01 1.717426524676961830e-01 8.280628213461121989e-01
-3.367236255439044479e-01 -7.393125299661380545e-01 3.014724782540998960e-01 -8.222759160707809878e-01 1.506347719562890486e-01 5.487909286127411468e-01
1.156476653368008686e-02 -7.372512797037570342e-01 2.780749231915226605e-01 5.336889164783382711e-01 1.708529724057520627e-01 8.282423571928065886e-01
1.769616087272044697e-02 -7.431748301376801535e-01 2.826690694832220685e-01 5.313819706070632698e-01 1.683978442647234008e-01 8.302260941218049251e-01
-3.353294628597707772e-01 -7.641704787314176350e-01 2.931721028467579870e-01 -8.242628731418927268e-01 1.527631848118569113e-01 5.452101661983298486e-01
-2.268395315588017311e-02 -8.198721423832329158e-01 -2.773439348542842686e-01 8.147623851751205626e-01 -1.639309762171959894e-01 -5.561374746771032829e-01
-2.392741903057586314e-02 -8.250937101019121256e-01 -2.790737066111644848e-01 8.150881744068373402e-01 -1.626065445535378462e-01 -5.560489003770148209e-01
-1.502242604891375344e-01 3.920092635553022037e-02 9.448728112892144926e-02 -4.872004934576416590e-01 1.241917913094056913e-01 8.644142977450058885e-01
1.959416390878327141e-01 4.352517987930265564e-02 6.749431721916940297e-02 6.847590036690377469e-01 -2.797240157932865401e-01 6.729484243853045555e-01
-1.557626023198930842e-01 1.806439072686553959e-02 8.458182824429462399e-02 -4.920654290496039307e-01 1.289203125779498638e-01 8.609594453509602507e-01
-1.432031430290962581e-01 2.372341184464695982e-02 8.259460122778054803e-02 -4.535848813050383788e-01 1.156222483138351492e-01 8.836810799979527564e-01
-2.254730116586933508e-01 -3.931718132326651460e-01 3.549763271130670361e-01 -2.888440543818021622e-01 3.514996745488058738e-01 8.905150706419100448e-01
-2.232976203080590250e-01 -3.912330961615851366e-01 3.575600323195763930e-01 1.898848741435995857e-01 3.051160252402916884e-01 9.331923412207340229e-01
-2.090839407834787778e-01 -3.971281706515295551e-01 3.571326698715467929e-01 4.123790732382215940e-01 1.904677907929966940e-01 8.908790718305266143e-01
-1.938024630643905566e-01 -4.111057433929536375e-01 3.607382897289266865e-01 4.576392225635437794e-01 1.505702815803646732e-01 8.762961441637439064e-01
-3.415514002623557532e-01 3.569978281137482501e-01 4.770081124592859961e-02 -6.883593319614242922e-01 3.670578359719219724e-02 7.244405534977577110e-01
2.539319826819290693e-01 3.564452952126668794e-01 5.987390916577568084e-02 7.676790171580570865e-01 5.192056638992565559e-02 6.387277834891706974e-01
2.577019810879631057e-01 1.010002617351193760e-01 -5.670191871026043079e-02 9.470945075089157728e-01 -4.144700980642129079e-02 -3.182674020765411393e-01
-3.892702304470730401e-01 1.203712618152195379e-01 -7.510283343361000286e-02 -6.024469322037859786e-01 -5.038796332823499702e-01 6.190016228100628792e-01
-4.315978640290837887e-02 -1.377232796363966616e-01 9.787505135529477041e-02 3.485814159635084453e-01 -5.723666839520284710e-02 9.355292407166613255e-01
-1.825953643826184469e-01 -1.380859283261156034e-01 1.045975341140947812e-01 -4.510309860856622222e-01 1.893853106799486818e-01 8.721836123714170608e-01
-3.951942314626751829e-01 1.235287122703716545e-01 -7.247733338680534265e-02 -6.637803484298199219e-01 -4.827234650394010562e-01 5.712912613883928126e-01
-3.880049953697321807e-02 -1.474673390801193029e-01 1.023204694956165450e-01 4.391518189324633559e-01 -9.473159757590500496e-02 8.934045020868350839e-01
-1.900300715554404107e-01 -1.528680621781716431e-01 9.674827674998269511e-02 -4.641696713477633796e-01 1.920071441301809123e-01 8.646847823362461272e-01
-1.273125211646915222e-01 -3.385236542875071364e-01 2.090192967102351973e-01 3.447543334819895555e-02 9.966024425754109739e-01 -7.479983922561940501e-02
-1.141225098468654775e-01 -3.337496306194481788e-01 2.029269691356078431e-01 9.709076622684249813e-02 9.942442602264851548e-01 -4.529607179627954949e-02
-1.544324241219648119e-01 -3.309769709349923428e-01 2.179118766628828363e-01 1.712566143517924369e-02 9.921920985985034358e-01 -1.235376509372966697e-01
-1.433799049618495469e-01 -3.309624286372797597e-01 2.006304015547702990e-01 9.121793663334668012e-02 9.854867831236656661e-01 -1.431610572918632640e-01
-1.114270452632282471e-01 -3.301575276189385733e-01 2.216093027716043162e-01 1.953188072465424363e-01 9.713135198727445019e-01 1.356488468369993761e-01
-2.035900252679314903e-01 -3.337472505421144042e-01 2.154078315208277916e-01 -2.768230040223484609e-02 9.911748276672895930e-01 -1.296385407321416772e-01
-1.765611894187867070e-01 -3.263005435253037989e-01 2.169535846866512407e-01 -5.217278178565941220e-04 9.902661057180534021e-01 -1.391860900596205708e-01
-2.177823108508910310e-01 -3.272734877721644176e-01 2.013262095854966294e-01 -8.876668847364962978e-02 9.905907019621960075e-01 -1.041659071072000703e-01
-6.920109792606661536e-02 -3.558461138663606693e-01 2.196735796404095942e-01 4.988437337984757414e-01 4.025104577491124269e-01 7.675547281155888912e-01
