-3.455007556576877858e-01 3.373539166347956364e-01 -7.995631095501342100e-01 4.147175048745920245e-01 2.601136900139842598e-02 -9.095783637671169819e-01
-4.094238988553668412e-01 3.369184342462197002e-01 -7.934203409032732912e-01 -4.160486141152437978e-01 8.470739031068984237e-02 -9.053884297468889342e-01
-5.842999418346878082e-02 3.452156263967189331e-01 -5.744770206359951503e-01 3.308870012655562021e-01 -5.690982606821268774e-01 -7.527555792433994197e-01
-9.374204435078328790e-02 3.399373384656622643e-01 -5.102542038307072980e-01 -9.222170306166090903e-01 -3.123703261035652434e-01 2.279046463120854848e-01
-9.227969529282295524e-02 3.383244992086179570e-01 -5.301755377674846059e-01 -9.222170306166090903e-01 -3.123703261035652434e-01 2.279046463120854848e-01
-3.009317981950133114e-01 3.265271272659772683e-01 -7.646954008658582991e-01 5.143064808468581495e-01 -1.117660621873729637e-01 -8.502924150561668171e-01
1.002536145740589302e-01 3.396953378324466533e-01 -3.020828280103805552e-01 8.780711467046906638e-01 4.571465354501190737e-01 1.414500139648718069e-01
-1.723996436931641840e-01 3.392481749589914553e-01 -6.783049846052290333e-01 2.894037942448168255e-01 -9.314552914175021625e-01 -2.205368086443622033e-01
-4.186032777044333408e-01 3.448044232983586976e-01 -7.860638658635268339e-01 -6.098803475574613442e-01 3.366871182199446255e-01 -7.174174141237018576e-01
-3.292539366256501121e-01 3.502159360192709792e-01 -6.668933292664588341e-01 -4.802044789199069186e-01 -5.607739879612602119e-01 6.744895794979232084e-01
-2.814731806112771156e-02 3.366512559756819623e-01 -2.666349572262177725e-01 -8.289932116680988061e-01 4.164487052527611199e-01 3.732837136837199310e-01
-3.052575241031031950e-01 3.453175130910089430e-01 -7.709592535634188781e-01 6.271817865860759289e-01 -1.382156645360735070e-01 -7.665112110410059465e-01
-2.359794770826960930e-01 3.238817127499456494e-01 -7.114041327893176891e-01 1.495712299818570956e-01 -9.853412742799588786e-01 -8.204279591811385053e-02
8.378178194594602946e-02 3.592237099507359921e-01 -3.585643669245726084e-01 9.453432050762543559e-01 3.232838431406075408e-01 4.258851230547638922e-02
-4.722625773453642539e-02 3.154700679801714092e-01 -3.267602879307450192e-01 -9.691802018906527927e-01 5.872738307879458303e-02 2.392505605843174010e-01
-1.424540196312997775e-01 3.438006445384730325e-01 -5.776686007881697282e-01 -1.917530265849211601e-01 -7.363566019651947014e-01 6.488526269791888845e-01
-3.310121953206760503e-01 3.334341208576575566e-01 -6.692897038862294368e-01 -7.928162449830421232e-02 -8.027154605694456491e-01 5.910687890420981416e-01
-3.167570050233514123e-01 3.287660572804626535e-01 -6.976295625104484976e-01 -7.928162449830421232e-02 -8.027154605694456491e-01 5.910687890420981416e-01
-1.324352628420915889e-01 3.332480695941671400e-01 -6.090005006280901911e-01 3.255924279001374821e-01 -8.640214307429542329e-01 -3.840007006647147558e-01
-1.619575009770276852e-01 3.281286629535071220e-01 -5.930217444897282197e-01 -1.255716214583403600e-01 -8.563689069805332510e-01 5.008633177237979961e-01
-3.899566031750550943e-01 3.266557953399639169e-01 -7.970687817765743644e-01 2.226066370108221171e-01 4.615733390147203075e-01 -8.587178453191328664e-01
-1.025251752552597956e-01 3.163805862201042873e-01 -4.696252646947204901e-01 -9.441933658214411995e-01 -2.655854821829864987e-01 -1.948415756259650189e-01
-9.846053090026896104e-02 3.446270486051823401e-01 -4.962918764368697278e-01 -9.441933658214411995e-01 -2.655854821829864987e-01 -1.948415756259650189e-01
-2.440343449427963551e-01 3.462541188460790398e-01 -7.211092161455375793e-01 3.016812164303318555e-01 -9.043394102818410607e-01 -3.019249487276719490e-01
1.025914438094662484e-01 3.372895298516666029e-01 -4.456729242634511201e-01 9.345282517114459342e-01 3.557027941962606632e-01 -1.150951580740888595e-02
-2.027205265093397490e-01 3.327788360649678867e-01 -6.278000185169390068e-01 -1.677741838963278664e-01 -9.795263533571139103e-01 1.112652070363214230e-01
-2.040489542428492731e-01 3.298677823027417744e-01 -6.250193873986376047e-01 -1.677741838963278664e-01 -9.795263533571139103e-01 1.112652070363214230e-01
-9.794232396667204577e-02 3.305139215981979794e-01 -5.778341841546422719e-01 -2.426559987036596422e-01 -8.855183256541205861e-01 -3.962011625725654351e-01
-9.892547936560149024e-02 3.308611131732687727e-01 -4.951194068603177456e-01 -9.744077845129675008e-01 -2.241657915794335321e-01 -1.670830231041439684e-02
-2.584297012514351621e-01 3.348487068930117716e-01 -7.093395791997230138e-01 1.596941209381698146e-01 -9.749852102391106667e-01 -1.546015121296760442e-01
-2.252588567493615246e-01 3.352585744640274035e-01 -7.179054882468582921e-01 1.596941209381698146e-01 -9.749852102391106667e-01 -1.546015121296760442e-01
-2.591666279978528387e-01 3.455297677575357440e-01 -7.371163639492180897e-01 2.074335006419210647e-01 -9.358857599968674057e-01 -2.847616319775611582e-01
8.872655031259939207e-02 3.382195258045121999e-01 -3.983669835618859345e-01 9.336128067338723691e-01 3.534396260747497132e-01 5.871590774774827770e-02
-1.494491300920350596e-01 3.386848496840541567e-01 -6.262747799306622731e-01 3.815335289062956048e-01 -8.830985552808549022e-01 -2.730734479607561105e-01
-1.309033574003387046e-01 3.392600597358517156e-01 -6.076831771010354766e-01 3.815335289062956048e-01 -8.830985552808549022e-01 -2.730734479607561105e-01
-1.940383884423948213e-01 3.391439901662774425e-01 -6.780731226905337694e-01 3.427091769557621265e-02 -9.692819464572065558e-01 -2.435528946090192437e-01
-2.405728829498863797e-01 3.312434949802412487e-01 -6.410954968355987438e-01 -1.183664480012567577e-01 -9.874110757772608382e-01 1.049225972798907558e-01
9.364483392055181210e-02 3.305383617622339454e-01 -2.696342816826063915e-01 8.370274925885362594e-01 5.462886067276825353e-01 3.088259721065464772e-02
9.257042749049182451e-02 3.351322028246689344e-01 -2.820810689182612907e-01 8.370274925885362594e-01 5.462886067276825353e-01 3.088259721065464772e-02
-1.345908351393217406e-01 3.358165305302079351e-01 -5.824862442547236174e-01 -8.872672720468541274e-02 -9.578696386099432303e-01 2.731543946357116170e-01
-2.515246943052762973e-01 3.274724410498837113e-01 -6.850333025108777951e-01 9.036355615572599920e-02 -9.944812554128147353e-01 -5.330535012025282293e-02
-2.770976438628050542e-01 3.352023590168389244e-01 -6.846788266640441156e-01 2.493349819164577055e-02 -9.887721440817771601e-01 1.473362404700644390e-01
-6.536921850447970084e-03 3.226057877109995142e-01 -1.846911564334585421e-01 -2.089008553013287639e-01 8.354156160308782164e-01 5.083711057348967444e-01
-2.400815049371983478e-01 3.355493586323556321e-01 -6.491130640296339793e-01 -1.020636479354226217e-01 -9.833044257218982453e-01 1.506499854823822038e-01
-2.471733352817994112e-01 3.357061998094975630e-01 -6.639739597718397057e-01 -1.020636479354226217e-01 -9.833044257218982453e-01 1.506499854823822038e-01
9.432172949358573477e-02 3.354010514761628370e-01 -3.713202356076292232e-01 9.643988955171031163e-01 2.596374564956396847e-01 -5.023108111385107821e-02
7.963137457153228460e-02 3.454577823072211284e-01 -4.841807620167489223e-01 8.924131767009989558e-01 9.326137348905916280e-02 -4.414759769968982783e-01
-2.915093755314940305e-01 3.542471475828425920e-01 -7.548116007408032235e-01 5.052035441441805608e-01 -6.481594005156001703e-01 -5.697883558896380540e-01
-2.733206365641610569e-01 3.446288899969220387e-01 -7.538881141115401086e-01 3.626363612413551207e-01 -7.655537833013427162e-01 -5.314341674926731374e-01
-3.311710800594795390e-01 3.241389116054457786e-01 -7.818606292970108340e-01 4.751212206492171353e-01 -4.118559476579912726e-01 -7.775824741257585382e-01
-3.365485340893382693e-01 3.273548699442726528e-01 -6.975382817818903680e-01 -5.932164666006382869e-02 -7.326215816769949818e-01 6.780461343438486388e-01
-2.550262690201828830e-01 3.265475941265418847e-01 -7.166793012678073227e-01 1.609092363446677498e-01 -9.834608035577998564e-01 -8.314484664982363382e-02
7.964488834053934374e-02 3.991613237498863875e-01 -3.646620621134983864e-01 9.395728632652319279e-01 3.292058840681286735e-01 9.394849924557469034e-02
6.801547165755050806e-02 3.990135151103753053e-01 -3.526240420043052493e-01 9.395728632652319279e-01 3.292058840681286735e-01 9.394849924557469034e-02
-2.723851120275254112e-01 3.385257289741386288e-01 -6.585239077658733287e-01 -3.890242282683183811e-02 -9.532746998578579545e-01 2.995896328465213476e-01
-2.191874681120976331e-01 3.267201315470760759e-01 -6.413929147434598299e-01 -1.660289421420292622e-01 -9.785568570383489373e-01 1.219051595070000660e-01
-2.350018912769555879e-01 3.384452682952661107e-01 -6.663879743274928602e-01 -1.109807736104088255e-02 -9.997376292282290633e-01 -2.003759925760244948e-02
-2.244447054222776516e-01 3.294231740611925363e-01 -6.839637358434630388e-01 3.427395739926810542e-02 -9.955417291736800012e-01 -8.787469099844541498e-02
-1.044299935524663075e-01 3.403793209849598211e-01 -5.883378441294840888e-01 2.082004506178849745e-01 -9.346252724934419609e-01 -2.883195664173158757e-01
-1.561504242218579031e-01 3.334367271548019374e-01 -5.949712355500900163e-01 -8.703741088837201045e-02 -9.403094412465525798e-01 3.290024981796412784e-01
-2.534456240327775944e-01 3.473133126292704542e-01 -6.750587647131444102e-01 -4.741038358598074348e-02 -9.988238340817995331e-01 -1.015893687174197063e-02
-1.988958744085687902e-01 3.404280168252953320e-01 -6.839503891260878543e-01 8.053425363838148665e-02 -9.749384406501948597e-01 -2.073867665341146971e-01
-2.199519272484285193e-01 3.374110749897930028e-01 -6.986462331652948388e-01 8.053425363838148665e-02 -9.749384406501948597e-01 -2.073867665341146971e-01
-2.856245100561370931e-01 3.380821336791511866e-01 -6.671342069878906100e-01 -1.321323669466107076e-01 -9.297667522930868067e-01 3.436201739354834972e-01
9.055702736175494372e-02 3.215856457202677654e-01 -2.546134238405997063e-01 7.980615680178455573e-01 5.900057955719099079e-01 1.224373098546970157e-01
-3.036480146996188845e-01 3.390334548035627837e-01 -6.719286097166938809e-01 -1.763935892751702927e-01 -8.422547355330423091e-01 5.094038301139749425e-01
-2.729416771594848565e-02 3.430284238198171853e-01 -5.615633702831867025e-01 4.460525380573362453e-01 -3.133038816002393090e-01 -8.383780836035922279e-01
4.944204379560934032e-02 3.534127047414312717e-01 -5.287854797405826535e-01 5.605404242642991752e-01 -2.035990180258592519e-01 -8.027090834321644053e-01
-1.446740510112838329e-01 3.323713800007228047e-01 -6.223630274856712941e-01 4.061357285380584603e-01 -8.544702293741871513e-01 -3.239357916595270170e-01
-3.457687828096917548e-01 3.389490943961632197e-01 -6.862930062845765677e-01 -4.179466105964311784e-01 -3.791219210926147221e-01 8.255829453410482577e-01
-1.413036001986890944e-01 3.509002620973009079e-01 -6.635193049535965670e-01 5.182232687537304816e-01 -8.266210195545626860e-01 -2.194136134171583707e-01
-2.161581489572715342e-01 3.312242649573391429e-01 -6.578768575793147999e-01 -7.076964835750218508e-02 -9.968881119656674006e-01 -3.472389800818154876e-02
-3.126258800370491225e-02 3.162459882686617929e-01 -2.192547834665600215e-01 -7.290767082878586436e-01 5.965026934975041772e-01 3.356064511930054728e-01
-1.310720031034034831e-02 3.253577725935100640e-01 -2.102259065344024569e-01 -7.290767082878586436e-01 5.965026934975041772e-01 3.356064511930054728e-01
8.833711222584847422e-02 3.302402223739722698e-01 -3.115480946435319476e-01 9.144884723263054793e-01 3.994738881853103218e-01 6.427633032781378264e-02
1.031520759179984648e-01 3.379270313452196750e-01 -3.193107062510527339e-01 9.144884723263054793e-01 3.994738881853103218e-01 6.427633032781378264e-02
-1.131623820423790922e-01 3.237596868109203219e-01 -5.859283680262296068e-01 -1.975446295153055476e-01 -9.727584480547849521e-01 1.213141421587239366e-01
9.413603286387374480e-02 3.422750736426450890e-01 -3.406395978850153550e-01 9.161764716801715780e-01 3.991669152628558592e-01 3.586706705611211049e-02
-3.918221834192303077e-01 3.333670306584887166e-01 -7.904856862404665563e-01 5.166344357241436924e-01 -2.474678707110437026e-01 -8.196636583317196134e-01
-2.567131191177577376e-01 3.292169925122104823e-01 -6.424784888970844765e-01 -1.971431664246594273e-01 -9.319584130013869316e-01 3.042829084388332661e-01
-2.691115047233336721e-01 3.315260413267446804e-01 -6.999115998227682933e-01 1.425183523346263970e-01 -9.897301032105968455e-01 1.108341312793551317e-02
-2.580476270762793733e-01 3.359266153438405511e-01 -7.002600267601146733e-01 1.425183523346263970e-01 -9.897301032105968455e-01 1.108341312793551317e-02
-1.871282903652778662e-01 3.310295103297971608e-01 -6.747454721443220116e-01 3.374380724040400292e-02 -9.682959410660936239e-01 -2.475163145892621819e-01
-3.648610424362405680e-01 3.271169164817144259e-01 -7.017482698507346850e-01 -1.903023835779939221e-01 -4.694234840781955631e-01 8.622218945262420942e-01
8.278742825523589810e-02 3.228331674078763758e-01 -2.220144770167947201e-01 6.913530877625132520e-01 6.387461177878751561e-01 3.376896578993151543e-01
7.805630067591709520e-02 3.126933408920575808e-01 -2.187285145932922059e-01 6.913530877625132520e-01 6.387461177878751561e-01 3.376896578993151543e-01
-2.067896074789602190e-01 3.268234406022652583e-01 -6.792610424471565711e-01 -5.803580040940571616e-02 -9.909018962241905593e-01 -1.214301360047951722e-01
-1.928271276199985118e-01 3.368880134282927208e-01 -6.644294188481002505e-01 -5.803580040940571616e-02 -9.909018962241905593e-01 -1.214301360047951722e-01
-9.172280086322497084e-02 3.188767186509576801e-01 -4.066654174878507888e-01 -9.011295059985684475e-01 9.576468587462755311e-02 4.228412685135048421e-01
-6.337786176421640605e-02 3.290416452725609120e-01 -3.165641128404942384e-01 -9.433750700023074698e-01 1.772351998980212506e-01 2.804124840574150346e-01
9.249662202711808612e-02 3.310686604087035856e-01 -4.630395550549940009e-01 9.664807677774259753e-01 1.255594087080768306e-01 -2.239414218076583307e-01
-1.504244921540846547e-01 3.350278000156652891e-01 -6.157924633600538877e-01 1.018489104575144300e-01 -9.923197425933358851e-01 7.020205052641093069e-02
-4.100787336160182095e-01 3.275829286198599366e-01 -7.226740557976801815e-01 -9.167797640316729391e-01 3.842592143993077691e-01 1.089023434608131502e-01
7.902973487368895877e-02 3.224421577344862566e-01 -4.957976518650571984e-01 7.894695309164148078e-01 -6.444903024514982148e-02 -6.103967416812411395e-01
7.731908135109551161e-02 3.335775982183599164e-01 -5.031216729991878633e-01 7.894695309164148078e-01 -6.444903024514982148e-02 -6.103967416812411395e-01
-2.694001802564855996e-01 3.406472023187814835e-01 -7.279751981939839300e-01 1.584209156770056137e-01 -9.836714813284177517e-01 -8.540041157521101323e-02
-7.570524864473998639e-02 3.301653129622095229e-01 -3.544216117974500202e-01 -9.773118414474085691e-01 -3.588565511167553235e-02 2.087433455798796966e-01
-1.785120184881878735e-01 3.250667994933981175e-01 -6.629792896909056932e-01 1.330272848601453117e-01 -9.876249983202598504e-01 -8.306987525959326490e-02
-4.425634171580528076e-01 3.307483265490539504e-01 -7.664500450072453397e-01 -9.725101825828799118e-01 -3.470870076214284394e-02 2.302590950733923170e-01
-1.685004150933974709e-01 3.293246891752720784e-01 -6.332783043890222174e-01 1.677743491981759649e-01 -9.781103005415604512e-01 -1.230934918085713897e-01
-4.143564941512875022e-01 3.235065651146265542e-01 -7.146964351192660603e-01 -5.795868762427600629e-01 2.614634771720017806e-02 8.144908970566896445e-01
-8.057037668336898550e-02 3.335322851297384816e-01 -5.645731810809593298e-01 -2.180694565755797107e-02 -8.736003727885800485e-01 -4.861551663664004930e-01
-1.523535922866822989e-01 3.365197452889502894e-01 -6.082101286171213150e-01 -6.465941643708437471e-03 -9.863241851231877577e-01 1.646899919234303677e-01
-1.636704337346735205e-02 3.344182868579163581e-01 -5.537817968089653320e-01 3.580525931535668560e-01 -3.955315034446723055e-01 -8.457855344700591083e-01
-3.760312144572519610e-01 3.436423381895709062e-01 -8.005170160550517666e-01 -3.412750102981249589e-01 3.044030437728145744e-01 -8.893088070450334559e-01
-2.067332733038778070e-01 3.310126361538562878e-01 -6.607483915846813494e-01 -6.068885290888006989e-02 -9.973718429122486739e-01 -3.957613041252208697e-02
-4.203912138152469669e-01 3.313740993937672186e-01 -7.463414968338161204e-01 -7.517161806760421783e-01 4.712871424563109257e-01 4.613146573274997664e-01
-2.967998559919205470e-01 3.302306312111276121e-01 -7.460244478182409544e-01 4.621199163001464827e-01 -8.537892304168545055e-01 -2.397689157979840946e-01
-1.985124726438140530e-01 3.202672184763991070e-01 -6.554685365088132043e-01 -6.430392592663189411e-02 -9.973047568355770665e-01 -3.533025762081204446e-02
-1.786984065562387813e-01 3.284347822877726197e-01 -6.465300900266259809e-01 -6.430392592663189411e-02 -9.973047568355770665e-01 -3.533025762081204446e-02
-1.694817543260947468e-01 3.414942127780650760e-01 -6.085330880404504761e-01 -1.035590645518570385e-01 -9.641477137738604375e-01 2.443250011230582719e-01
-1.875038410380751308e-01 3.345612801371318223e-01 -6.032988555637182060e-01 -1.035590645518570385e-01 -9.641477137738604375e-01 2.443250011230582719e-01
-1.768958708839553640e-01 3.292970285216068604e-01 -6.343415508003400483e-01 8.870188644898427399e-02 -9.917908164556626938e-01 -9.210294096608161174e-02
-1.782394423181791476e-01 3.338032671482886737e-01 -6.480746474397233170e-01 8.870188644898427399e-02 -9.917908164556626938e-01 -9.210294096608161174e-02
-1.603915112920783204e-01 3.315565278720919995e-01 -6.138034678641698383e-01 8.870188644898427399e-02 -9.917908164556626938e-01 -9.210294096608161174e-02
-2.857378533821252065e-01 3.264188276691692425e-01 -7.337892885974168777e-01 4.199941763262380334e-01 -9.065748975318794756e-01 -4.155534883871121743e-02
-1.815283131422734120e-01 3.331160752776986533e-01 -6.112805721529377401e-01 -6.042971242503508700e-02 -9.930314371207644708e-01 1.011771453743213617e-01
-1.898043456353504244e-01 3.275804640007702884e-01 -6.236523915874364610e-01 -8.841612167502943542e-02 -9.934150032769438754e-01 7.286439934711466671e-02
-1.553920350909280754e-02 3.431880547397967995e-01 -5.541778578333198535e-01 3.642954232011413329e-01 -3.179115305928402746e-01 -8.753405642096218076e-01
-9.744618771255182665e-02 3.407914786538090435e-01 -5.876106649595127518e-01 1.881769353832219716e-01 -8.709007639402982504e-01 -4.540058373611329245e-01
-2.892127105711396751e-01 3.228810981302482341e-01 -7.223914885085083171e-01 3.353173165046258730e-01 -9.360675142055849829e-01 -1.064889952113061422e-01
-3.064624571800277919e-01 3.254208191586257515e-01 -7.099429020955131397e-01 3.353173165046258730e-01 -9.360675142055849829e-01 -1.064889952113061422e-01
-4.215354171940429717e-01 3.398529307835090330e-01 -7.890810819866829195e-01 -6.994353133307542603e-01 8.786758982097235549e-02 -7.092739450487117736e-01
-2.288026351873315850e-02 3.088754025068557452e-01 -2.010203068300088491e-01 -6.022848982797255335e-01 7.276533360117517502e-01 3.282887812508208936e-01
-9.595335436631663439e-02 3.111952011507455040e-01 -5.034219733755741499e-01 -9.667091080509320200e-01 -1.904983300686756142e-01 1.708329202829979854e-01
8.514582013445841369e-02 3.322080965787624351e-01 -2.170929887618525400e-01 6.277749768362176352e-01 6.637107304185897449e-01 4.066775685792231032e-01
1.053907250735434953e-01 3.207011293144798603e-01 -3.977528721406585754e-01 8.893594982909746038e-01 4.529216619967882385e-01 6.246319631345484402e-02
-4.067083613180508816e-01 3.524105069567589066e-01 -7.212637699315621598e-01 -5.603430125285612240e-01 6.615684460859246052e-02 8.256143047584938444e-01
-2.749145045428292300e-01 3.357315995865582936e-01 -6.958235663622234224e-01 1.015853061387019807e-01 -9.664064760997252979e-01 2.360909751117507005e-01
-9.966395923081329544e-02 3.329897779588537610e-01 -5.443896576614537519e-01 -7.704740596562333899e-01 -6.243538825256951252e-01 -1.286543927424688705e-01
-2.929241588548346931e-01 3.205316519182472290e-01 -7.053499408430454753e-01 2.881239452585560579e-01 -9.574148847410640650e-01 -1.847513585605123007e-02
-4.654632631338413706e-02 3.196453615263402104e-01 -3.004747941748346918e-01 -9.564242538769509583e-01 2.730266161573599026e-01 1.034848465504940168e-01
7.345591692452163590e-02 3.090350570470666858e-01 -1.858062565105065012e-01 6.053184767821511159e-01 7.018636574337560052e-01 3.754689708083048805e-01
7.743290202488582741e-02 3.142307810880413110e-01 -1.902194964496496665e-01 6.053184767821511159e-01 7.018636574337560052e-01 3.754689708083048805e-01
-1.981533270023141946e-02 3.083393775359034028e-01 -1.708386690454527235e-01 -6.116861335174037517e-01 7.290366571016304587e-01 3.071573321029612003e-01
-2.465965818485795977e-02 3.127604271296537397e-01 -1.898908836439363035e-01 -6.116861335174037517e-01 7.290366571016304587e-01 3.071573321029612003e-01
-3.594998406221168452e-02 2.965023550479235492e-01 -1.621624666048957775e-01 -6.116861335174037517e-01 7.290366571016304587e-01 3.071573321029612003e-01
-6.709755201529842006e-02 3.082462738079400633e-01 -3.777925865330501454e-01 -9.237864197824576795e-01 3.490735952568944228e-02 3.813136856663464358e-01
2.079904317499441796e-02 3.364191525709387398e-01 -5.432742345710456222e-01 3.656553623895347216e-01 -3.023598154633189705e-01 -8.802696734233014242e-01
5.911972573663801939e-03 3.482071181268002191e-01 -5.493474847525303684e-01 3.656553623895347216e-01 -3.023598154633189705e-01 -8.802696734233014242e-01
1.961730350227679567e-02 3.606107446600071431e-01 -5.563775577865527344e-01 3.656553623895347216e-01 -3.023598154633189705e-01 -8.802696734233014242e-01
3.458456526865179986e-02 3.200124753242236664e-01 -5.260506109361287042e-01 4.400921449814952369e-01 -3.006284436478083855e-01 -8.461332299321915329e-01
3.027073335560382869e-02 3.234101437845515736e-01 -1.689973048037606007e-01 -5.167268633096290531e-02 8.264100055792954480e-01 5.606928180080166246e-01
-9.574227037715934974e-02 3.289711476339461926e-01 -5.581830467753025049e-01 -3.161294136209644723e-01 -9.262453362881862828e-01 -2.052602515053757182e-01
4.296951955083589542e-02 3.173172734804953210e-01 -1.709978778483698669e-01 1.744483727974994181e-01 8.072079024283229653e-01 5.638999623032189268e-01
3.825759258778205912e-02 3.223329144515207356e-01 -1.819122489186676128e-01 1.744483727974994181e-01 8.072079024283229653e-01 5.638999623032189268e-01
1.313431008068309015e-02 3.186213931358286011e-01 -1.696554513853806012e-01 -1.557342625676672865e-01 8.819489935698348049e-01 4.448739284377770664e-01
-7.825290003730114852e-02 3.283535806019637349e-01 -4.084362589513795827e-01 -9.429123528448224434e-01 6.389648471317328771e-02 3.268539950711026321e-01
-2.992050548806451937e-01 3.297835514471659790e-01 -7.069035394781798542e-01 1.179920837429022512e-01 -9.497773290253180845e-01 2.898290762562320544e-01
1.046428362324535177e-01 3.095386895619151035e-01 -2.411721204069756097e-01 7.500963331470145157e-01 6.079532970846374118e-01 2.602849968079637977e-01
8.328887454344567620e-02 3.328438619523512720e-01 -2.294207882396938347e-01 7.500963331470145157e-01 6.079532970846374118e-01 2.602849968079637977e-01
-4.994965347604361783e-02 3.387123025022473199e-01 -5.671454646648044218e-01 2.701229393285843328e-01 -4.759340004255347978e-01 -8.369709821059706512e-01
-3.963918066950964519e-02 3.200143426129613555e-01 -5.656328597638787814e-01 2.701229393285843328e-01 -4.759340004255347978e-01 -8.369709821059706512e-01
-2.799070116706038891e-01 3.329423058079427067e-01 -6.689828599475251547e-01 -6.050382618084139408e-02 -8.770995280938881367e-01 4.764826385451597091e-01
-3.097933030962520262e-01 3.305514554075864586e-01 -6.919675573964039206e-01 -6.050382618084139408e-02 -8.770995280938881367e-01 4.764826385451597091e-01
-3.389259663490385988e-01 3.233757560194465697e-01 -8.076008160724041929e-01 4.352285410216480410e-01 -1.558555618506237417e-01 -8.867272190027742917e-01
-3.536826882226224988e-01 3.196580041704146224e-01 -7.968506225040592472e-01 -1.063829301634825475e-01 2.220203690997468726e-01 -9.692211449791239275e-01
7.078652884108543875e-02 3.224699668155759369e-01 -1.938642116409957650e-01 6.918883681296448263e-01 6.463498875777238251e-01 3.217488288636976557e-01
-4.399719384613358097e-01 3.228766651719222613e-01 -7.811494397526390632e-01 -8.970094707362497033e-01 -1.775027275147313954e-01 -4.048046332915473666e-01
-4.571039407719907494e-02 3.324387160607090719e-01 -2.343417299535298093e-01 -7.973049219189730641e-01 5.644202782817914210e-01 2.138565195360794535e-01
-9.759102709583505897e-02 3.174635407437177981e-01 -4.672170820248612855e-01 -9.460310437978006748e-01 -2.394888007317681200e-01 -2.183354723697070454e-01
-3.319336077904215809e-01 3.270285786802745176e-01 -7.857009350661332547e-01 5.239900522950027284e-01 -4.811472895247642656e-01 -7.028027538924794815e-01
1.033900319032422244e-01 3.051488020415044078e-01 -2.506115273127190179e-01 7.813633016334421422e-01 6.163042943302066146e-01 9.818557761011900697e-02
-5.041859353878901800e-02 3.189271029881081132e-01 -2.751822537491527831e-01 -9.283817731139141216e-01 2.689306067944877143e-01 2.564831613946880751e-01
1.008915747944337804e-01 3.212687253215800731e-01 -2.957408233964287092e-01 8.032387110467951175e-01 5.954472288215776343e-01 -1.581678742940843818e-02
-3.637488138120105741e-01 3.038522872108687656e-01 -7.192456528792839920e-01 7.699908635676381424e-03 -5.977936088931138370e-01 8.016130691134901731e-01
1.133439560771923871e-01 3.211829256599469939e-01 -3.175598735267622375e-01 8.445543170414074874e-01 5.285134335281224116e-01 -8.603229711588879225e-02
-1.764643195948345858e-02 3.250469583783769933e-01 -1.913892106305757623e-01 -4.123103169579386829e-01 8.237208280064689525e-01 3.892097121583439900e-01
1.303130127407264166e-02 3.253038645483876667e-01 -5.325395150814017375e-01 3.909885334818809510e-01 -3.427057755653044047e-01 -8.542135084859471261e-01
3.136259969721681695e-02 3.161346280007413245e-01 -5.249271799331068911e-01 3.909885334818809510e-01 -3.427057755653044047e-01 -8.542135084859471261e-01
1.014762385664178257e-01 3.247773817913084948e-01 -4.611442492704826979e-01 9.449736862189132003e-01 2.163504237487626214e-01 -2.453919853979954213e-01
1.026842203486067057e-01 3.149019176249910346e-01 -4.558603813295212248e-01 9.449736862189132003e-01 2.163504237487626214e-01 -2.453919853979954213e-01
8.671040382488541531e-02 3.401350800602970237e-01 -3.941396931224317446e-01 9.643992132435624809e-01 2.595238978112514583e-01 -5.080850283223121294e-02
9.779645050718198396e-02 3.102027972908563691e-01 -4.538366473327151707e-01 9.311694135333254962e-01 8.984466812505165212e-02 -3.533432593237090802e-01
7.995729364184431254e-02 2.873599376509829439e-01 -4.893887994184473178e-01 7.236874538284193692e-01 -5.513057474714622153e-02 -6.879222985914824617e-01
7.415658736233225745e-02 3.056601464821397385e-01 -5.027954873890908560e-01 7.236874538284193692e-01 -5.513057474714622153e-02 -6.879222985914824617e-01
-4.047248755038773682e-01 3.155642359652491291e-01 -8.016866143057189698e-01 -7.143435522030076867e-02 -8.543316643212219008e-02 -9.937798080901227848e-01
-5.519009964562868187e-02 3.234249562741258188e-01 -3.259642408187047868e-01 -9.848301006395979718e-01 2.253133802430376184e-02 1.720523515707758633e-01
5.982878810535404573e-02 3.240164675242993009e-01 -1.909371666258314615e-01 4.766871065400214436e-01 7.465079742435345445e-01 4.642146560044357329e-01
-3.608753150846248821e-03 3.491262050109152915e-01 -5.577377552898921120e-01 3.922623115895700341e-01 -3.001721969072583263e-01 -8.694980914931770277e-01
4.983112526337412501e-03 3.370275447166414806e-01 -5.437042391086128745e-01 3.922623115895700341e-01 -3.001721969072583263e-01 -8.694980914931770277e-01
5.440365610554621228e-02 3.152417092111509112e-01 -5.067646184907774742e-01 5.789667237844258185e-01 -2.282642796658559681e-01 -7.827470545322773310e-01
5.767079553090671828e-02 3.198676793048965683e-01 -5.120676276897042634e-01 5.789667237844258185e-01 -2.282642796658559681e-01 -7.827470545322773310e-01
-3.023053705880807129e-01 3.200946401394033636e-01 -7.545835656616356468e-01 4.897462513110437676e-01 -8.562112540251114456e-01 -1.644715714265725659e-01
-7.234833414863593715e-02 2.987026776591042987e-01 -3.545147340696808147e-01 -9.782155982752084311e-01 -2.773501417462346380e-02 2.057304359588283948e-01
-6.278195708774853001e-02 3.055167009944065870e-01 -3.652881865864617827e-01 -9.782155982752084311e-01 -2.773501417462346380e-02 2.057304359588283948e-01
-6.829857152416723975e-02 3.201989570941668473e-01 -3.456613387178282815e-01 -9.782155982752084311e-01 -2.773501417462346380e-02 2.057304359588283948e-01
-3.414832451657059953e-01 3.069267021116626193e-01 -7.831952502044228215e-01 5.547440455954373295e-01 -4.579274095622882235e-01 -6.946664893659255657e-01
9.845379320941373413e-02 3.253254764382867426e-01 3.487579112863012920e-01 2.261055014698401533e-02 9.995847014961692922e-01 1.786582091214013179e-02
1.125885262399739933e-01 3.123260584726489375e-01 3.302998806259409004e-01 2.261055014698401533e-02 9.995847014961692922e-01 1.786582091214013179e-02
5.672217957306605052e-02 3.123926597895492763e-01 3.152673626137176277e-01 -5.908373532282426566e-02 9.979750546628799457e-01 -2.355636837299244710e-02
6.283330970015957306e-02 3.120966287021511576e-01 3.315110371046908755e-01 -5.908373532282426566e-02 9.979750546628799457e-01 -2.355636837299244710e-02
-4.173845831474743417e-01 3.292997294813082010e-01 -7.351272314172250244e-01 -8.962496652342162307e-01 3.351033968063912294e-01 2.905894888263745313e-01
7.199087311175576820e-02 3.142822530338739151e-01 3.143361385228997662e-01 -1.063075406697789813e-02 9.982596433669462810e-01 -5.800578844274845852e-02
6.906163687386673855e-02 3.260020906271391961e-01 3.454696751293686585e-01 -5.479245606399711643e-02 9.983497839788970651e-01 1.718998510076034589e-02
4.012217489874363857e-02 3.011032424853468115e-01 3.489735312245055843e-01 -5.479245606399711643e-02 9.983497839788970651e-01 1.718998510076034589e-02
6.986975795307440174e-02 3.226915558192355316e-01 3.415258482375305715e-01 -2.340802120801357966e-02 9.985034028979927756e-01 4.942690506448530613e-02
8.969138192963711786e-02 3.142779126366881393e-01 3.629557532370339956e-01 -2.340802120801357966e-02 9.985034028979927756e-01 4.942690506448530613e-02
5.928225519744848016e-02 3.128471299394950389e-01 3.660025686922215304e-01 -2.340802120801357966e-02 9.985034028979927756e-01 4.942690506448530613e-02
7.253788825722617961e-02 3.141302752031360224e-01 3.532063571488963660e-01 -2.340802120801357966e-02 9.985034028979927756e-01 4.942690506448530613e-02
2.352757815795983309e-02 3.055780585680207273e-01 -1.561920513869195504e-01 -1.476993362957990975e-02 8.328204862067440928e-01 5.533460823164287889e-01
-3.203661174664284017e-01 3.083382356649115863e-01 -7.670839589150718618e-01 5.608963060108947962e-01 -8.250439930791166887e-01 -6.854008598914226869e-02
-3.189747690218292520e-01 3.159422168660181995e-01 -7.410053796534873394e-01 5.608963060108947962e-01 -8.250439930791166887e-01 -6.854008598914226869e-02
3.957701569743196646e-02 3.219288226041336354e-01 3.234562255576103329e-01 -4.591780248002765713e-02 9.988191826945146401e-01 -1.586807161778171216e-02
3.320720193764318401e-02 3.195978086436901955e-01 3.361692365390444026e-01 -4.591780248002765713e-02 9.988191826945146401e-01 -1.586807161778171216e-02
-5.036129408223835591e-02 3.151550793428548602e-01 -5.622483671218039269e-01 1.011756082072600982e-01 -6.153707146390239302e-01 -7.817175831900854410e-01
-3.241009250997692326e-01 3.204616274384174401e-01 -7.088268663151703342e-01 5.277328838584462861e-02 -8.379438282390487824e-01 5.431989697606501855e-01
9.072546225953763421e-02 3.239619809434777231e-01 3.300539143206825954e-01 -2.773897259809161592e-03 9.985042611209363761e-01 -5.460353484276478375e-02
9.318577570964557688e-02 3.164069373954857545e-01 3.017782413812798992e-01 -2.773897259809161592e-03 9.985042611209363761e-01 -5.460353484276478375e-02
9.797885537083894647e-02 3.185506481500945397e-01 3.338533750108210185e-01 -2.773897259809161592e-03 9.985042611209363761e-01 -5.460353484276478375e-02
-3.092844573025999577e-01 3.174929492658856711e-01 -7.647060960397158436e-01 5.880505352877302139e-01 -8.031536888471006996e-01 -9.560711291064442896e-02
1.040670502615974602e-01 3.194656702450954233e-01 3.505782730223472310e-01 9.898159092156649796e-02 9.935833783072879344e-01 5.472398934756706607e-02
-2.033520761329894733e-02 3.086568282624801984e-01 -5.444587118574325535e-01 1.632635433631051125e-01 -4.652389942101345932e-01 -8.699986745247753062e-01
8.877162577107292063e-02 3.058150283739154984e-01 2.892247572760206498e-01 -5.456871359549509554e-02 9.852168305136626003e-01 -1.623885844791609911e-01
6.054643306426501365e-02 3.155251520986636082e-01 2.967273890700545258e-01 -5.456871359549509554e-02 9.852168305136626003e-01 -1.623885844791609911e-01
1.096640130485437292e-01 3.130394574461386470e-01 3.079981778845467533e-01 6.243286301336599398e-02 9.940657349362123085e-01 -8.908115536791373634e-02
1.087518566856903734e-01 3.160971106181074686e-01 2.963680852900265061e-01 6.243286301336599398e-02 9.940657349362123085e-01 -8.908115536791373634e-02
-4.326206591227104575e-03 3.209676517408996399e-01 -1.666208048129770858e-01 -2.792860255060591324e-01 8.928875406184449970e-01 3.532012963812192208e-01
-4.290518901036831645e-01 3.065103951001902360e-01 -7.511927303148873136e-01 -9.596162057481928409e-01 -1.431586482635180957e-01 2.421618035380566358e-01
9.585218207928264400e-02 3.234489247581438520e-01 -2.373148455537827106e-01 7.532775224980539086e-01 6.113574373239045734e-01 2.425181599961986900e-01
9.587631262852359948e-02 3.311823965460606867e-01 -2.432654983963104811e-01 7.532775224980539086e-01 6.113574373239045734e-01 2.425181599961986900e-01
7.531062789023570958e-02 3.457687970092044316e-01 -2.366209098269196620e-01 7.532775224980539086e-01 6.113574373239045734e-01 2.425181599961986900e-01
8.808117712006750810e-02 3.187474468440428255e-01 -4.791929177349474878e-01 8.831373005045464186e-01 4.116567329618862209e-02 -4.673049280711834563e-01
7.420832773412275318e-02 3.303626597194470049e-01 -4.970312449503055396e-01 8.831373005045464186e-01 4.116567329618862209e-02 -4.673049280711834563e-01
5.033567510577235254e-02 3.196335924898789371e-01 3.106250309850666635e-01 -8.190690714328549560e-02 9.924769674951386955e-01 -9.099850303095304016e-02
2.670742796463576943e-02 3.171878019130704440e-01 3.235370529490088076e-01 -8.190690714328549560e-02 9.924769674951386955e-01 -9.099850303095304016e-02
6.749221052565089474e-02 3.226950803407913071e-01 3.859874743380115047e-01 -2.671082667345073616e-02 9.921660248657035996e-01 1.220373337983463591e-01
6.422323373096590349e-02 3.136663765319331887e-01 3.695243676664425325e-01 -2.671082667345073616e-02 9.921660248657035996e-01 1.220373337983463591e-01
8.624317613181700648e-02 3.154243790909097567e-01 4.041251707376654623e-01 -2.671082667345073616e-02 9.921660248657035996e-01 1.220373337983463591e-01
6.945090796320604887e-02 3.238243688027873657e-01 3.609449835588650624e-01 -2.671082667345073616e-02 9.921660248657035996e-01 1.220373337983463591e-01
-3.698983341047785700e-01 3.038332239459651807e-01 -7.186097829040651863e-01 -1.769847305475331090e-01 -4.988320902769131093e-01 8.484355902854280318e-01
-3.804758009999542612e-01 3.167104729860026335e-01 -7.110183482706995406e-01 -1.769847305475331090e-01 -4.988320902769131093e-01 8.484355902854280318e-01
1.043764141675411206e-01 3.203859893194518360e-01 -4.338783246670110394e-01 9.452986246909772516e-01 3.249613485678769509e-01 -2.847160154072139390e-02
8.311903058608269279e-02 3.161425855198315427e-01 3.845951283774067253e-01 5.959356016329567934e-02 9.885551235971409278e-01 1.385906749998178089e-01
1.208553421040202136e-01 3.141054156298297984e-01 3.837878570882127249e-01 5.959356016329567934e-02 9.885551235971409278e-01 1.385906749998178089e-01
1.023554908771743405e-01 3.150882313381602740e-01 3.962574999395385711e-01 5.959356016329567934e-02 9.885551235971409278e-01 1.385906749998178089e-01
9.518158436250456766e-02 3.084220039595920171e-01 3.770473571535243873e-01 5.959356016329567934e-02 9.885551235971409278e-01 1.385906749998178089e-01
1.173198595121861393e-01 3.200752620531406301e-01 3.363222684124045903e-01 1.417757077228119222e-01 9.898655016089680236e-01 -8.120186212261392214e-03
1.330554195769489967e-01 3.076791189563982676e-01 3.194415734371640614e-01 1.417757077228119222e-01 9.898655016089680236e-01 -8.120186212261392214e-03
1.400996745784831854e-01 3.168748165531488081e-01 3.316916399099913981e-01 1.417757077228119222e-01 9.898655016089680236e-01 -8.120186212261392214e-03
1.339012341533486194e-01 3.149581091766250895e-01 2.984292728801932748e-01 1.147874076954616962e-01 9.897742570130148021e-01 -8.468040616866745474e-02
1.097674252653513538e-01 3.119499888610333671e-01 3.141941354514594109e-01 1.147874076954616962e-01 9.897742570130148021e-01 -8.468040616866745474e-02
1.052996368374038844e-01 3.112419923473233041e-01 3.655734468737884546e-01 1.062176370024434796e-01 9.914182150858446008e-01 7.620850599254108682e-02
1.368922897979490128e-01 3.202930939580931335e-01 3.966613450466288104e-01 1.062176370024434796e-01 9.914182150858446008e-01 7.620850599254108682e-02
1.075428254019462765e-01 3.183844740517616234e-01 3.770083393627660096e-01 1.062176370024434796e-01 9.914182150858446008e-01 7.620850599254108682e-02
1.358664919303276264e-01 3.148195478912049206e-01 3.709060725574057082e-01 1.062176370024434796e-01 9.914182150858446008e-01 7.620850599254108682e-02
1.250197364069411676e-01 3.145209654826312540e-01 3.555769048330198467e-01 1.062176370024434796e-01 9.914182150858446008e-01 7.620850599254108682e-02
2.525477141818415448e-03 2.954800255148664623e-01 2.838649526314447336e-01 -1.758312587146081962e-01 9.606697702681316064e-01 -2.149347830199009324e-01
-2.117094267307265826e-02 2.990156354438141539e-01 2.690744751229551257e-01 -1.758312587146081962e-01 9.606697702681316064e-01 -2.149347830199009324e-01
-2.305600969188591892e-02 3.058017308525317057e-01 2.948596028224335641e-01 -1.758312587146081962e-01 9.606697702681316064e-01 -2.149347830199009324e-01
4.051070438459013212e-02 3.116318152121695939e-01 3.520878369646618933e-01 -6.125299423026195345e-02 9.978824747216833435e-01 2.187778190668287354e-02
5.104499216506849096e-02 3.208560339186356525e-01 2.915839558267890319e-01 -4.644994892146894067e-02 9.863071045135106685e-01 -1.582425285167291806e-01
-4.250911104782139627e-01 3.260443819526218645e-01 -7.424593382873591052e-01 -9.554331967382035939e-01 -1.326797598699707426e-01 2.637109931183455047e-01
-4.394396047500040980e-01 3.262861251093892578e-01 -7.563587227677098790e-01 -9.554331967382035939e-01 -1.326797598699707426e-01 2.637109931183455047e-01
-3.094580105747310461e-01 3.295502976899457592e-01 -7.084411644549093445e-01 3.608252433028125150e-01 -9.102972783437757176e-01 2.028891540604887134e-01
1.702748692255987711e-02 3.106823371330609262e-01 3.531554091949988816e-01 -1.085745845223454326e-01 9.940215626486892386e-01 1.151922676476981391e-02
1.565648067601242699e-02 3.187796013764612191e-01 3.613962461357905775e-01 -1.085745845223454326e-01 9.940215626486892386e-01 1.151922676476981391e-02
2.215482475061146192e-02 3.140965459718240704e-01 3.348795038150295111e-01 -1.085745845223454326e-01 9.940215626486892386e-01 1.151922676476981391e-02
-3.200334485222778615e-04 3.088527776851782147e-01 3.570388564977580170e-01 -1.085745845223454326e-01 9.940215626486892386e-01 1.151922676476981391e-02
5.159457022180870961e-03 3.171459284077280394e-01 3.384595326121779824e-01 -1.397093202838589066e-01 9.900181715240689018e-01 -1.858294589028826674e-02
-2.044614794259339875e-03 3.095929506426640110e-01 3.261646490279304644e-01 -1.397093202838589066e-01 9.900181715240689018e-01 -1.858294589028826674e-02
4.776895232148220538e-04 3.145519517186471381e-01 3.721741943620769377e-01 -1.164178684500888350e-01 9.886834642849817723e-01 9.461441409735119046e-02
1.398405159554989147e-02 3.091728970494212470e-01 3.753322103748197858e-01 -1.164178684500888350e-01 9.886834642849817723e-01 9.461441409735119046e-02
-3.175070725369066871e-01 3.121292964182360574e-01 -7.223857680097638401e-01 5.588292846169397032e-01 -8.262725037507601122e-01 -7.059447712087191240e-02
-3.010740396291302634e-01 3.298620009445051848e-01 -7.260232342295777075e-01 5.588292846169397032e-01 -8.262725037507601122e-01 -7.059447712087191240e-02
9.624075492111815178e-02 3.160170963591716342e-01 2.780470417218723345e-01 -1.330647996503353525e-02 9.784475210543355228e-01 -2.060664604771137720e-01
6.426105974692805645e-02 3.040689098539736124e-01 -1.623917113103865717e-01 5.325076069401530887e-01 7.537065174499618658e-01 3.851780550658639446e-01
-6.460386590912872706e-02 2.889303715355311386e-01 -3.373827841117676418e-01 -9.874766241125022548e-01 8.442170143998568854e-02 1.332775043184478980e-01
2.475137036350728847e-02 3.111838988219535751e-01 3.904482725258201503e-01 -4.625852203208594138e-02 9.938060164093466264e-01 1.010433119409324676e-01
3.493686021937455338e-02 3.146458133428547965e-01 3.765169589957030327e-01 -4.625852203208594138e-02 9.938060164093466264e-01 1.010433119409324676e-01
-3.423757945369452771e-01 3.176253937618094270e-01 -7.042831604554324887e-01 -1.099765941913374567e-01 -6.141222385964483221e-01 7.815107323583987409e-01
7.217438415307514399e-02 3.235981212610438695e-01 -4.971594877208748153e-01 7.224311593989674041e-01 -1.796254610779844663e-01 -6.677034623708232308e-01
-4.320915742423368788e-02 3.266513374568909556e-01 -5.606295425250709119e-01 2.172950944197226675e-01 -5.573605018636731412e-01 -8.013314625692654625e-01
1.454119688740844740e-01 3.058973414603418650e-01 3.032698266240795859e-01 1.260364826348208955e-01 9.874508222828759507e-01 -9.516132942490120039e-02
1.433120910446889495e-01 3.079124486732152111e-01 2.909176897422590113e-01 1.260364826348208955e-01 9.874508222828759507e-01 -9.516132942490120039e-02
3.100757693278415744e-02 3.159284521946211788e-01 2.997328273570282198e-01 -9.216865326452829132e-02 9.881223521153759126e-01 -1.229599796900613939e-01
1.541679795766746908e-01 3.112277985749686837e-01 3.395213506245866597e-01 2.542828980627594992e-01 9.662698496549401161e-01 4.077726573255964493e-02
1.787732255421042860e-01 3.078036004827744421e-01 3.532446048157319440e-01 2.542828980627594992e-01 9.662698496549401161e-01 4.077726573255964493e-02
1.662826327585958594e-02 3.103983490445091364e-01 3.751868816465130374e-01 -8.340681993723148002e-02 9.897360998245231523e-01 1.160420401927678702e-01
-1.582265461415707092e-03 3.075319506688113935e-01 4.100241963641413911e-01 -8.340681993723148002e-02 9.897360998245231523e-01 1.160420401927678702e-01
1.899649736143946277e-02 3.170569012016813959e-01 3.915762286770096412e-01 -8.340681993723148002e-02 9.897360998245231523e-01 1.160420401927678702e-01
-4.058814436929041869e-01 3.261268464095921082e-01 -8.044041097544119001e-01 -5.699979326568491711e-01 -2.017679298845709845e-01 -7.964873252205668663e-01
-4.176931614055081066e-01 3.247569218627359144e-01 -7.867678276604619381e-01 -5.699979326568491711e-01 -2.017679298845709845e-01 -7.964873252205668663e-01
1.506451457876319400e-01 3.126339488841344827e-01 3.657908779675863031e-01 2.023634585958477283e-01 9.738365549830992896e-01 1.033992011757139812e-01
1.394143420662066202e-01 3.192724672079078618e-01 3.481074198266947972e-01 2.023634585958477283e-01 9.738365549830992896e-01 1.033992011757139812e-01
1.404675266101359510e-01 3.188732704368885673e-01 3.714725461068408841e-01 2.023634585958477283e-01 9.738365549830992896e-01 1.033992011757139812e-01
5.431964088237187932e-02 2.996214812060811195e-01 -1.464277361150191636e-01 3.572823783882167481e-01 8.038539435500319241e-01 4.755713821628895777e-01
-6.388497491338283873e-02 3.236900395932508778e-01 -5.467058358506748927e-01 -5.849581222599520292e-01 -6.749371156586030374e-01 -4.497598082405277475e-01
-5.313024985197741488e-03 3.100199988739641976e-01 3.186901923085914135e-01 -7.721743174279784017e-02 9.929833915661552268e-01 -8.956256086569883146e-02
1.500292452743878790e-02 3.123276882347311711e-01 3.076286083627532419e-01 -7.721743174279784017e-02 9.929833915661552268e-01 -8.956256086569883146e-02
1.233721149018440072e-02 3.140895040770330104e-01 3.231442568546742389e-01 -7.721743174279784017e-02 9.929833915661552268e-01 -8.956256086569883146e-02
2.720648831410571455e-02 3.117027783649238826e-01 3.997478932130653084e-01 -1.705075989885241824e-02 9.932359488193917008e-01 1.148547846618252627e-01
6.414480755606873086e-02 3.110962747213547597e-01 4.002320755844959721e-01 -1.705075989885241824e-02 9.932359488193917008e-01 1.148547846618252627e-01
6.817327263852901442e-02 3.041761018599908883e-01 3.920251977669708676e-01 -1.705075989885241824e-02 9.932359488193917008e-01 1.148547846618252627e-01
5.300338068087592086e-02 3.173566567944355876e-01 3.853430557291325775e-01 -1.705075989885241824e-02 9.932359488193917008e-01 1.148547846618252627e-01
1.010156294463002841e-01 3.069181326485783678e-01 -4.414844361032513875e-01 9.475688599992718730e-01 2.166335467367166423e-01 -2.349109660870508098e-01
-2.678777019447308935e-02 3.268467573855310393e-01 -5.561647142922074849e-01 3.545725637815130282e-01 -4.020029941631221293e-01 -8.441989633358297773e-01
1.044046439079633626e-01 3.113279745994645409e-01 4.112394022477260935e-01 7.208161363979478931e-02 9.818921989125249938e-01 1.751911832536376390e-01
1.073921830501985142e-01 3.048081480513771813e-01 4.151788998915977857e-01 7.208161363979478931e-02 9.818921989125249938e-01 1.751911832536376390e-01
9.614438751485616941e-02 3.097022739547503067e-01 4.152073921048352600e-01 7.208161363979478931e-02 9.818921989125249938e-01 1.751911832536376390e-01
4.603052688597342873e-02 3.059668803844924900e-01 3.994252786672976563e-01 -1.619783287359748136e-02 9.775258500533171580e-01 2.101923944574081993e-01
6.474430016214538508e-02 3.156905072540604484e-01 4.072202945649097128e-01 -1.619783287359748136e-02 9.775258500533171580e-01 2.101923944574081993e-01
5.519181685801731463e-02 3.133313086175814055e-01 4.250159417638871839e-01 -1.619783287359748136e-02 9.775258500533171580e-01 2.101923944574081993e-01
-5.636464154614792554e-02 3.284718963368868927e-01 -5.602661432789096674e-01 -1.335093968738024772e-01 -6.755872535882331276e-01 -7.250911003008529976e-01
2.444441029036714674e-02 3.030629115456023315e-01 2.774937193649789635e-01 -6.318783998687636794e-02 9.788556294485929454e-01 -1.945480752271580849e-01
4.794663551315755251e-02 3.045366466912707293e-01 2.675457146248774176e-01 -6.318783998687636794e-02 9.788556294485929454e-01 -1.945480752271580849e-01
4.782555457937607418e-02 3.169708122929766891e-01 2.838652434722319651e-01 -6.318783998687636794e-02 9.788556294485929454e-01 -1.945480752271580849e-01
-3.631321858671874847e-01 3.070126227916211148e-01 -8.055917663671481321e-01 1.130243598312946213e-01 -2.645549377568890970e-01 -9.577244796877515398e-01
1.214331960611062661e-02 3.135474800579530763e-01 2.793080537128857510e-01 -1.078895167122331279e-02 9.752283900199345545e-01 -2.209370630314486106e-01
1.366966523744107265e-01 3.039768334499359792e-01 2.814204870073948594e-01 1.039074371824595805e-01 9.653623976985712396e-01 -2.393296588553927018e-01
1.271359749174345022e-01 3.114619054953293165e-01 2.759863390332232824e-01 1.039074371824595805e-01 9.653623976985712396e-01 -2.393296588553927018e-01
1.232926252349224594e-01 3.009963480094344224e-01 2.829665049240916441e-01 1.039074371824595805e-01 9.653623976985712396e-01 -2.393296588553927018e-01
-8.512151673965517862e-02 3.156301783078140910e-01 -5.272537749883533520e-01 -8.553815179056186713e-01 -4.734489655693986387e-01 -2.101631171893539873e-01
-1.048844993028607252e-02 3.122075248547581117e-01 3.445475621513500730e-01 -1.506400466735525190e-01 9.883545929101634764e-01 -2.151220610664559760e-02
