3.593049472647080744e-01 7.850598977516937485e-03 -7.252867789074979310e-01 3.567660815307677757e-01 0.000000000000000000e+00 -9.341937502837307505e-01
3.736559514318321118e-01 8.291413105310255216e-02 -7.101106299603068273e-01 3.567660815307677757e-01 0.000000000000000000e+00 -9.341937502837307505e-01
3.906498649624992603e-01 1.733143189177007160e-01 -7.111081309684927909e-01 3.567660815307677757e-01 0.000000000000000000e+00 -9.341937502837307505e-01
3.946240288147748743e-01 6.198642404827312685e-02 -7.142225744983622393e-01 3.567660815307677757e-01 0.000000000000000000e+00 -9.341937502837307505e-01
3.763649751528769793e-01 2.474554815136389280e-03 -6.917382631249752167e-01 3.567660815307677757e-01 0.000000000000000000e+00 -9.341937502837307505e-01
3.762386702448722309e-01 2.620483234690850760e-01 -7.122973037777197147e-01 3.567660815307677757e-01 0.000000000000000000e+00 -9.341937502837307505e-01
3.781537109398251384e-01 -1.197861197762373070e-01 -7.039585615154995146e-01 3.567660815307677757e-01 0.000000000000000000e+00 -9.341937502837307505e-01
3.806098526339902199e-01 1.837177045082883375e-01 -6.975591361163896442e-01 3.567660815307677757e-01 0.000000000000000000e+00 -9.341937502837307505e-01
2.617599398268422584e-01 7.872470353446042735e-02 -7.442777262730181365e-01 3.567660815307677757e-01 0.000000000000000000e+00 -9.341937502837308616e-01
2.621749866721223010e-01 -2.960796663873069834e-01 -7.486659977940897104e-01 3.567660815307677757e-01 0.000000000000000000e+00 -9.341937502837308616e-01
2.866423344334110834e-01 -3.236891627726543041e-01 -7.424253821306210366e-01 3.567660815307677757e-01 0.000000000000000000e+00 -9.341937502837308616e-01
2.722849688830100146e-01 1.425796443655324985e-01 -7.515487838688583722e-01 3.567660815307677757e-01 0.000000000000000000e+00 -9.341937502837308616e-01
2.699747441026785211e-01 -1.539876349596023541e-01 -7.468732765017250808e-01 3.567660815307677757e-01 0.000000000000000000e+00 -9.341937502837308616e-01
2.861422370121512460e-01 -2.033952433185322595e-01 -7.335243717354222870e-01 3.567660815307677757e-01 0.000000000000000000e+00 -9.341937502837308616e-01
2.752634466294646698e-01 -6.173356118086475997e-02 -7.458133850219160754e-01 3.567660815307677757e-01 0.000000000000000000e+00 -9.341937502837308616e-01
2.816810021073580805e-01 -1.317119056102648289e-01 -7.499526523797115374e-01 3.567660815307677757e-01 0.000000000000000000e+00 -9.341937502837308616e-01
2.680406900658378055e-01 2.958779757900829518e-02 -7.502882184790727882e-01 3.567660815307677757e-01 0.000000000000000000e+00 -9.341937502837308616e-01
3.014488393922144516e-01 -2.288285965909429287e-01 -7.295004933408311132e-01 3.567660815307677757e-01 0.000000000000000000e+00 -9.341937502837308616e-01
2.704732913125296734e-01 1.703982175518126974e-01 -7.530868559324442879e-01 3.567660815307677757e-01 0.000000000000000000e+00 -9.341937502837308616e-01
2.394652710988588729e-01 -1.368719184520816035e-01 -7.641499162004237178e-01 3.567662560621515100e-01 0.000000000000000000e+00 -9.341936836306458103e-01
2.101230404811083863e-01 1.258636863871254730e-01 -7.567470456223459596e-01 3.567662560621515100e-01 0.000000000000000000e+00 -9.341936836306458103e-01
2.143951865459157169e-01 -7.213693878193629117e-02 -7.731391628757739998e-01 3.567662560621515100e-01 0.000000000000000000e+00 -9.341936836306458103e-01
2.381464173319170763e-01 -1.769892572080070670e-01 -7.833112151649779253e-01 3.567662560621515100e-01 0.000000000000000000e+00 -9.341936836306458103e-01
2.432106489926354753e-01 -2.464991788319737531e-01 -7.756270799227000801e-01 3.567662560621515100e-01 0.000000000000000000e+00 -9.341936836306458103e-01
2.030882144297054270e-01 -4.589819643557681295e-02 -7.588404625819658023e-01 3.567662560621515100e-01 0.000000000000000000e+00 -9.341936836306458103e-01
2.232249460681868802e-01 -3.667838145901648472e-01 -7.686284007443835442e-01 3.567662560621515100e-01 0.000000000000000000e+00 -9.341936836306458103e-01
2.270528803005755214e-01 -2.357998189248829146e-02 -7.680229531665873077e-01 3.567662560621515100e-01 0.000000000000000000e+00 -9.341936836306458103e-01
2.176427027369635114e-01 -5.130689747515831262e-03 -7.593317956960115023e-01 3.567662560621515100e-01 0.000000000000000000e+00 -9.341936836306458103e-01
2.394811991614023416e-01 -2.107497331393012319e-01 -7.673151783203245868e-01 3.567662560621515100e-01 0.000000000000000000e+00 -9.341936836306458103e-01
2.343363549833855641e-01 -3.167241014824836443e-01 -7.642908117796191059e-01 3.567662560621515100e-01 0.000000000000000000e+00 -9.341936836306458103e-01
2.153444352895172165e-01 2.479419769407079782e-02 -7.717524888197135891e-01 3.567662560621515100e-01 0.000000000000000000e+00 -9.341936836306458103e-01
2.116303255879791734e-01 1.976942338429691914e-01 -7.679151615974584288e-01 3.567662560621515100e-01 0.000000000000000000e+00 -9.341936836306458103e-01
-3.347546023915271562e-01 1.870015655489556949e-01 -7.373397139792924326e-01 -3.567779500255017222e-01 0.000000000000000000e+00 -9.341892176511141788e-01
-3.320977615189031340e-01 5.754058931449980430e-02 -7.217587676031168575e-01 -3.567779500255017222e-01 0.000000000000000000e+00 -9.341892176511141788e-01
-3.314434966459769982e-01 2.343713218776902196e-01 -7.375487562392206708e-01 -3.567779500255017222e-01 0.000000000000000000e+00 -9.341892176511141788e-01
-3.186032671083851575e-01 1.462778240584033940e-01 -7.305698237807832784e-01 -3.567779500255017222e-01 0.000000000000000000e+00 -9.341892176511141788e-01
-3.301166052356134251e-01 2.672205074797820989e-01 -7.113900854783259398e-01 -3.567779500255017222e-01 0.000000000000000000e+00 -9.341892176511141788e-01
-3.396986711879684262e-01 2.481030294747875176e-01 -7.298930960814652424e-01 -3.567779500255017222e-01 0.000000000000000000e+00 -9.341892176511141788e-01
-3.383124442573093860e-01 3.083819400375469866e-01 -7.162942292147710388e-01 -3.567779500255017222e-01 0.000000000000000000e+00 -9.341892176511141788e-01
-3.313920803209603472e-01 -9.801300026409806576e-02 -7.185673782044673663e-01 -3.567779500255017222e-01 0.000000000000000000e+00 -9.341892176511141788e-01
-3.261474770131529977e-01 1.554829417217851867e-02 -7.326029150113080313e-01 -3.567779500255017222e-01 0.000000000000000000e+00 -9.341892176511141788e-01
-3.396372223185444850e-01 1.859065518016719265e-01 -7.193687126681563848e-01 -3.567779500255017222e-01 0.000000000000000000e+00 -9.341892176511141788e-01
-3.203959432387434303e-01 -9.783710153215380637e-03 -7.136174823582001059e-01 -3.567779500255017222e-01 0.000000000000000000e+00 -9.341892176511141788e-01
-3.800125966442485792e-01 -2.484106854895553607e-01 -6.988788526109601662e-01 -3.567660815307677757e-01 0.000000000000000000e+00 -9.341937502837307505e-01
-4.010671143791092463e-01 -1.364710234932572930e-01 -6.936391731815434447e-01 -3.567660815307677757e-01 0.000000000000000000e+00 -9.341937502837307505e-01
-3.740141744069533369e-01 1.447849729894324922e-01 -7.036149398188995541e-01 -3.567660815307677757e-01 0.000000000000000000e+00 -9.341937502837307505e-01
-4.012865347626237145e-01 -2.216293066093343866e-01 -6.925571920678552651e-01 -3.567660815307677757e-01 0.000000000000000000e+00 -9.341937502837307505e-01
-3.746403691431914318e-01 -6.674812158345630464e-02 -7.116388295010956933e-01 -3.567660815307677757e-01 0.000000000000000000e+00 -9.341937502837307505e-01
-3.698323642876126804e-01 2.385331019520306739e-01 -7.085038019752246674e-01 -3.567660815307677757e-01 0.000000000000000000e+00 -9.341937502837307505e-01
-3.764468966810505246e-01 -1.804286725715386619e-01 -7.000026428816434887e-01 -3.567660815307677757e-01 0.000000000000000000e+00 -9.341937502837307505e-01
-3.743269214478153750e-01 2.129295295530554410e-01 -7.131841193652038724e-01 -3.567660815307677757e-01 0.000000000000000000e+00 -9.341937502837307505e-01
-3.784973577535585831e-01 -1.592370792170086091e-01 -7.090078654574925032e-01 -3.567660815307677757e-01 0.000000000000000000e+00 -9.341937502837307505e-01
-2.116016441932622449e-01 -3.033212377049639419e-01 -7.686903821363937350e-01 -3.567662560621515100e-01 0.000000000000000000e+00 -9.341936836306458103e-01
-2.200398751333764447e-01 1.118887231315850717e-01 -7.691189206712203408e-01 -3.567662560621515100e-01 0.000000000000000000e+00 -9.341936836306458103e-01
-2.227405500873979316e-01 1.548663784215423833e-01 -7.665669776637826782e-01 -3.567662560621515100e-01 0.000000000000000000e+00 -9.341936836306458103e-01
-2.218521003695851923e-01 3.447652976334947272e-01 -7.496740459367695619e-01 -3.567662560621515100e-01 0.000000000000000000e+00 -9.341936836306458103e-01
-2.234637795712508257e-01 1.955074395463390624e-01 -7.612334098962312279e-01 -3.567662560621515100e-01 0.000000000000000000e+00 -9.341936836306458103e-01
-2.267593880254360206e-01 7.744588219180736921e-02 -7.639409512451403872e-01 -3.567662560621515100e-01 0.000000000000000000e+00 -9.341936836306458103e-01
-2.327327340615278628e-01 1.598207765134315173e-01 -7.593613047908807090e-01 -3.567662560621515100e-01 0.000000000000000000e+00 -9.341936836306458103e-01
-2.294853939762738770e-01 2.196467621114312485e-01 -7.680968640836978167e-01 -3.567662560621515100e-01 0.000000000000000000e+00 -9.341936836306458103e-01
-2.429554446412241220e-01 2.494327272745376911e-01 -7.622387302269605369e-01 -3.567662560621515100e-01 0.000000000000000000e+00 -9.341936836306458103e-01
-2.308027317071380258e-01 1.160100803370846777e-02 -7.557654225629232281e-01 -3.567662560621515100e-01 0.000000000000000000e+00 -9.341936836306458103e-01
-2.265336976970847016e-01 3.134635057257156854e-01 -7.569358214035700749e-01 -3.567662560621515100e-01 0.000000000000000000e+00 -9.341936836306458103e-01
-2.253147858865623965e-01 -2.232420107536854659e-02 -7.612805709160210821e-01 -3.567662560621515100e-01 0.000000000000000000e+00 -9.341936836306458103e-01
-7.242557115920830180e-01 -3.191976111213939427e-01 -1.315489532345987533e-01 -9.341892176511141788e-01 -3.567779500255017222e-01 0.000000000000000000e+00
-7.214493661997229967e-01 -3.256181214134086788e-01 4.960803817520411524e-02 -9.341892176511141788e-01 -3.567779500255017222e-01 0.000000000000000000e+00
-7.224341043349227220e-01 -3.190366217333795995e-01 3.012834571161430164e-01 -9.341892176511141788e-01 -3.567779500255017222e-01 0.000000000000000000e+00
-7.143095336850822097e-01 -3.209360006357641626e-01 -2.250330913824165335e-01 -9.341892176511141788e-01 -3.567779500255017222e-01 0.000000000000000000e+00
-7.168219591578329775e-01 -3.151220894270984063e-01 3.211437909555506232e-01 -9.341892176511141788e-01 -3.567779500255017222e-01 0.000000000000000000e+00
-7.293950322795903496e-01 -3.236885307919168953e-01 2.571520412087823781e-01 -9.341892176511141788e-01 -3.567779500255017222e-01 0.000000000000000000e+00
-7.199563978809110365e-01 -3.429487783660541966e-01 2.325537482469662576e-01 -9.341892176511141788e-01 -3.567779500255017222e-01 0.000000000000000000e+00
-7.063995416035501185e-01 -3.336338036679233343e-01 2.095627758194575641e-01 -9.341892176511141788e-01 -3.567779500255017222e-01 0.000000000000000000e+00
-7.339783956766242623e-01 -3.276381999042916049e-01 9.749992629676679234e-02 -9.341892176511141788e-01 -3.567779500255017222e-01 0.000000000000000000e+00
-7.260227061023528661e-01 -3.346739923732497402e-01 1.495856316133449271e-01 -9.341892176511141788e-01 -3.567779500255017222e-01 0.000000000000000000e+00
-3.182463428946499251e-01 -3.181321233746681743e-01 7.195619021332808618e-01 -3.567779500255017222e-01 0.000000000000000000e+00 9.341892176511141788e-01
-3.294473871161845979e-01 -1.759859915961020649e-01 7.267426444851652345e-01 -3.567779500255017222e-01 0.000000000000000000e+00 9.341892176511141788e-01
-3.399711724739560292e-01 -2.439863997172241061e-01 7.191027905416085275e-01 -3.567779500255017222e-01 0.000000000000000000e+00 9.341892176511141788e-01
-3.313778160520238769e-01 -4.944536907494449102e-02 7.319604537226264140e-01 -3.567779500255017222e-01 0.000000000000000000e+00 9.341892176511141788e-01
-3.283785708366714906e-01 4.425585991201226588e-02 7.291682034572565252e-01 -3.567779500255017222e-01 0.000000000000000000e+00 9.341892176511141788e-01
-3.273278285008179855e-01 -9.568803973369152671e-02 7.335847840792752983e-01 -3.567779500255017222e-01 0.000000000000000000e+00 9.341892176511141788e-01
-3.298847995827278168e-01 8.169780862940520527e-02 7.235704855426219329e-01 -3.567779500255017222e-01 0.000000000000000000e+00 9.341892176511141788e-01
-3.184904991534221463e-01 -2.063639690077401501e-01 7.373834443803655159e-01 -3.567779500255017222e-01 0.000000000000000000e+00 9.341892176511141788e-01
-3.930623229091757542e-01 2.445145962664306283e-01 6.943982670713158001e-01 -3.567660815307677757e-01 0.000000000000000000e+00 9.341937502837307505e-01
-3.783664815964356554e-01 9.909372279874152645e-02 7.025256801334224255e-01 -3.567660815307677757e-01 0.000000000000000000e+00 9.341937502837307505e-01
-3.809685768229739700e-01 2.689323965400455818e-01 6.873953651618677219e-01 -3.567660815307677757e-01 0.000000000000000000e+00 9.341937502837307505e-01
-3.815248237011021892e-01 1.897013805183710156e-01 6.878235775000111074e-01 -3.567660815307677757e-01 0.000000000000000000e+00 9.341937502837307505e-01
-3.909158487016003436e-01 1.547925208386089491e-01 6.991568478087453187e-01 -3.567660815307677757e-01 0.000000000000000000e+00 9.341937502837307505e-01
-3.839190037973760905e-01 2.151543776167611499e-01 7.130512553837747847e-01 -3.567660815307677757e-01 0.000000000000000000e+00 9.341937502837307505e-01
-2.853154587154259625e-01 -2.017588920928773677e-01 7.397562062670012262e-01 -3.567660815307677757e-01 0.000000000000000000e+00 9.341937502837308616e-01
-2.767060449702234415e-01 -9.805710743570428267e-02 7.361962146229729109e-01 -3.567660815307677757e-01 0.000000000000000000e+00 9.341937502837308616e-01
-2.708662384363371145e-01 -1.634224994775040074e-01 7.433333504241899092e-01 -3.567660815307677757e-01 0.000000000000000000e+00 9.341937502837308616e-01
-2.661930077076062329e-01 1.094207346729326180e-01 7.439323823848690287e-01 -3.567660815307677757e-01 0.000000000000000000e+00 9.341937502837308616e-01
-2.661150577202255341e-01 -2.192009771865213036e-02 7.544638505582513810e-01 -3.567660815307677757e-01 0.000000000000000000e+00 9.341937502837308616e-01
-2.595200084371538374e-01 -2.823578567132835615e-01 7.384080221314810455e-01 -3.567660815307677757e-01 0.000000000000000000e+00 9.341937502837308616e-01
-2.783345907556749599e-01 -6.933412967913123170e-02 7.504759760271115798e-01 -3.567660815307677757e-01 0.000000000000000000e+00 9.341937502837308616e-01
-3.004954893074840983e-01 -3.160667062598386812e-01 7.298706311589154838e-01 -3.567660815307677757e-01 0.000000000000000000e+00 9.341937502837308616e-01
-2.580424308372460396e-01 1.543932804455261931e-01 7.483032785483995086e-01 -3.567660815307677757e-01 0.000000000000000000e+00 9.341937502837308616e-01
-2.709774595482958848e-01 -1.734718009520235527e-01 7.443440065302905362e-01 -3.567660815307677757e-01 0.000000000000000000e+00 9.341937502837308616e-01
-2.305153918384184042e-01 -2.959684710299974042e-01 7.562470194045740612e-01 -3.567662560621515100e-01 0.000000000000000000e+00 9.341936836306458103e-01
-2.210667343313966193e-01 -3.273646348050882615e-01 7.484331187085657699e-01 -3.567662560621515100e-01 0.000000000000000000e+00 9.341936836306458103e-01
-2.204187447963502078e-01 -2.220407729881984094e-01 7.624498201785915308e-01 -3.567662560621515100e-01 0.000000000000000000e+00 9.341936836306458103e-01
-2.117386640775343054e-01 -2.127243670907664475e-01 7.690023123045577336e-01 -3.567662560621515100e-01 0.000000000000000000e+00 9.341936836306458103e-01
-2.147048854758751568e-01 -1.456871922747290660e-01 7.714349198192693713e-01 -3.567662560621515100e-01 0.000000000000000000e+00 9.341936836306458103e-01
-2.311805095111135189e-01 9.033935575526501338e-02 7.713692591738668947e-01 -3.567662560621515100e-01 0.000000000000000000e+00 9.341936836306458103e-01
-2.135118226767458993e-01 -1.664062542499523956e-01 7.561062562419677002e-01 -3.567662560621515100e-01 0.000000000000000000e+00 9.341936836306458103e-01
-2.199963881050093217e-01 -1.078114286381973846e-01 7.642583298101665035e-01 -3.567662560621515100e-01 0.000000000000000000e+00 9.341936836306458103e-01
-2.183944932582765897e-01 -2.799117771013212574e-01 7.696702605972028932e-01 -3.567662560621515100e-01 0.000000000000000000e+00 9.341936836306458103e-01
-2.343473530253544213e-01 -3.389303133025177717e-01 7.534743831354665522e-01 -3.567662560621515100e-01 0.000000000000000000e+00 9.341936836306458103e-01
-2.202899184021434031e-01 -2.305131833089992671e-02 7.681344708954488398e-01 -3.567662560621515100e-01 0.000000000000000000e+00 9.341936836306458103e-01
-2.210883138594176012e-01 -7.119369576977943592e-02 7.752308138625240153e-01 -3.567662560621515100e-01 0.000000000000000000e+00 9.341936836306458103e-01
-2.204009049580480106e-01 2.926141773225325871e-01 7.561885406949550026e-01 -3.567662560621515100e-01 0.000000000000000000e+00 9.341936836306458103e-01
-2.126395164946569827e-01 3.490782120952933693e-02 7.801654791280566714e-01 -3.567662560621515100e-01 0.000000000000000000e+00 9.341936836306458103e-01
-2.074777856956626088e-01 -3.600650249149424664e-01 7.587330275671202440e-01 -3.567662560621515100e-01 0.000000000000000000e+00 9.341936836306458103e-01
3.396424878125470226e-01 -1.488898804959961630e-01 7.239937095971029635e-01 3.567779500255017222e-01 0.000000000000000000e+00 9.341892176511141788e-01
3.182886836817396259e-01 9.689032749303241182e-03 7.301304457169434103e-01 3.567779500255017222e-01 0.000000000000000000e+00 9.341892176511141788e-01
3.351156100514293135e-01 2.974481546946109445e-01 7.193656787841459233e-01 3.567779500255017222e-01 0.000000000000000000e+00 9.341892176511141788e-01
3.323410535210873373e-01 2.666139337403060083e-01 7.181354877874248643e-01 3.567779500255017222e-01 0.000000000000000000e+00 9.341892176511141788e-01
3.175704124949957907e-01 4.778774815352833383e-02 7.281065455837401057e-01 3.567779500255017222e-01 0.000000000000000000e+00 9.341892176511141788e-01
3.266660839237317537e-01 1.923701756824076348e-01 7.320786056226089578e-01 3.567779500255017222e-01 0.000000000000000000e+00 9.341892176511141788e-01
3.321631439854779710e-01 1.090628744810451523e-01 7.126268137317952611e-01 3.567779500255017222e-01 0.000000000000000000e+00 9.341892176511141788e-01
3.229319644312013682e-01 -2.197156245184621048e-01 7.319258444519481932e-01 3.567779500255017222e-01 0.000000000000000000e+00 9.341892176511141788e-01
3.335829148272521083e-01 1.510041289775527207e-01 7.234830914043637318e-01 3.567779500255017222e-01 0.000000000000000000e+00 9.341892176511141788e-01
3.439869954739289137e-01 2.186538569420627409e-01 7.104910139860184382e-01 3.567779500255017222e-01 0.000000000000000000e+00 9.341892176511141788e-01
3.116067814687772941e-01 -3.825734418397720021e-02 7.393175383537911038e-01 3.567779500255017222e-01 0.000000000000000000e+00 9.341892176511141788e-01
3.831991229998850668e-01 -2.427069560899169365e-01 6.973207402139757205e-01 3.567660815307677757e-01 0.000000000000000000e+00 9.341937502837307505e-01
3.771885611253497084e-01 -9.524598886692654809e-02 7.118786048503428221e-01 3.567660815307677757e-01 0.000000000000000000e+00 9.341937502837307505e-01
3.804445780922043330e-01 2.030349447902050908e-01 7.127947339498891255e-01 3.567660815307677757e-01 0.000000000000000000e+00 9.341937502837307505e-01
3.692023388380404891e-01 -1.657351065237816223e-01 7.161410799085563550e-01 3.567660815307677757e-01 0.000000000000000000e+00 9.341937502837307505e-01
3.867346168631943248e-01 -2.825520788857330823e-01 7.153951773478313125e-01 3.567660815307677757e-01 0.000000000000000000e+00 9.341937502837307505e-01
3.734328530268651858e-01 6.024407353768351792e-02 6.978587580267493484e-01 3.567660815307677757e-01 0.000000000000000000e+00 9.341937502837307505e-01
3.730037258775730780e-01 -2.193934440742721925e-01 6.993986483316149139e-01 3.567660815307677757e-01 0.000000000000000000e+00 9.341937502837307505e-01
3.793057293264424090e-01 -3.148224997310276885e-02 6.965716761012809011e-01 3.567660815307677757e-01 0.000000000000000000e+00 9.341937502837307505e-01
3.877140324135119331e-01 -5.848782168353879041e-02 7.033749167789827839e-01 3.567660815307677757e-01 0.000000000000000000e+00 9.341937502837307505e-01
2.905304108505469829e-01 1.003529095464726212e-01 7.443221962074478837e-01 3.567660815307677757e-01 0.000000000000000000e+00 9.341937502837308616e-01
2.734421472632760919e-01 1.813266481505584060e-01 7.508735756305923159e-01 3.567660815307677757e-01 0.000000000000000000e+00 9.341937502837308616e-01
2.806444199886506952e-01 3.285030318137162342e-02 7.582470875335255434e-01 3.567660815307677757e-01 0.000000000000000000e+00 9.341937502837308616e-01
2.836571109083918518e-01 3.059368960888413369e-01 7.488543852432335557e-01 3.567660815307677757e-01 0.000000000000000000e+00 9.341937502837308616e-01
2.552593651440013822e-01 3.014990440134036609e-01 7.580338984469774388e-01 3.567660815307677757e-01 0.000000000000000000e+00 9.341937502837308616e-01
2.782841156314173614e-01 7.373741299590916287e-02 7.402304134402923896e-01 3.567660815307677757e-01 0.000000000000000000e+00 9.341937502837308616e-01
2.592471666003571817e-01 1.340823663560162526e-01 7.531528314962019355e-01 3.567660815307677757e-01 0.000000000000000000e+00 9.341937502837308616e-01
2.668792822196944803e-01 -1.916028839461170752e-01 7.294365025267421920e-01 3.567660815307677757e-01 0.000000000000000000e+00 9.341937502837308616e-01
2.835292824410655665e-01 2.611233038227909198e-01 7.372327723928054910e-01 3.567660815307677757e-01 0.000000000000000000e+00 9.341937502837308616e-01
2.882359897547545069e-01 2.235316426924188471e-01 7.469164341440396315e-01 3.567660815307677757e-01 0.000000000000000000e+00 9.341937502837308616e-01
2.118391465695988463e-01 -2.334433799581310531e-01 7.593463322331920340e-01 3.567662560621515100e-01 0.000000000000000000e+00 9.341936836306458103e-01
2.475249165552865505e-01 2.814540552996105949e-01 7.653381719607449396e-01 3.567662560621515100e-01 0.000000000000000000e+00 9.341936836306458103e-01
2.328781913293558881e-01 1.269395761454058039e-02 7.639751530221708942e-01 3.567662560621515100e-01 0.000000000000000000e+00 9.341936836306458103e-01
2.290965060566950706e-01 2.698149502253940901e-01 7.668394169384493697e-01 3.567662560621515100e-01 0.000000000000000000e+00 9.341936836306458103e-01
2.310246797484146464e-01 2.287934860173893858e-01 7.732053994342130698e-01 3.567662560621515100e-01 0.000000000000000000e+00 9.341936836306458103e-01
2.227625553711020945e-01 2.652388564359778877e-01 7.751855062765768967e-01 3.567662560621515100e-01 0.000000000000000000e+00 9.341936836306458103e-01
2.137036238978583802e-01 1.864604946734703950e-01 7.626339958169825461e-01 3.567662560621515100e-01 0.000000000000000000e+00 9.341936836306458103e-01
2.217454487487749148e-01 8.835232641520189556e-02 7.775136652255769665e-01 3.567662560621515100e-01 0.000000000000000000e+00 9.341936836306458103e-01
1.988194203891418266e-01 -1.768600152965429939e-01 7.713888527958590036e-01 3.567662560621515100e-01 0.000000000000000000e+00 9.341936836306458103e-01
2.250756563169893365e-01 4.139051652103967194e-02 7.611705511627515630e-01 3.567662560621515100e-01 0.000000000000000000e+00 9.341936836306458103e-01
2.112233789431400000e-01 -5.263010911970258943e-02 7.674208884911798423e-01 3.567662560621515100e-01 0.000000000000000000e+00 9.341936836306458103e-01
2.186848014652397476e-01 3.508263766517970561e-01 7.647139786126718741e-01 3.567662560621515100e-01 0.000000000000000000e+00 9.341936836306458103e-01
2.111309238604055782e-01 3.785562826150495330e-01 7.802803152380753948e-01 3.567662560621515100e-01 0.000000000000000000e+00 9.341936836306458103e-01
7.208331343593089580e-01 -3.186870970386567192e-01 -3.065090350813478789e-02 9.341892176511141788e-01 -3.567779500255017222e-01 0.000000000000000000e+00
7.289305275192667910e-01 -3.300610488268883591e-01 -2.497789113811652306e-01 9.341892176511141788e-01 -3.567779500255017222e-01 0.000000000000000000e+00
7.138719457960520653e-01 -3.356589701513604251e-01 -1.007998661333580070e-01 9.341892176511141788e-01 -3.567779500255017222e-01 0.000000000000000000e+00
7.243946657374951137e-01 -3.457808530478716502e-01 -2.859197450823727227e-01 9.341892176511141788e-01 -3.567779500255017222e-01 0.000000000000000000e+00
7.338085005143181183e-01 -3.268175738380102446e-01 -3.236910108854992307e-01 9.341892176511141788e-01 -3.567779500255017222e-01 0.000000000000000000e+00
7.279035464784122667e-01 -3.285835635448784431e-01 5.754607193889316186e-03 9.341892176511141788e-01 -3.567779500255017222e-01 0.000000000000000000e+00
7.313063383536609896e-01 -3.145443450968083976e-01 -2.019444560862743154e-01 9.341892176511141788e-01 -3.567779500255017222e-01 0.000000000000000000e+00
7.315614846446257813e-01 -3.183465141764071915e-01 3.097754569713809247e-01 9.341892176511141788e-01 -3.567779500255017222e-01 0.000000000000000000e+00
7.289118265307032996e-01 -3.335183503876985589e-01 -6.022773827820220027e-02 9.341892176511141788e-01 -3.567779500255017222e-01 0.000000000000000000e+00
5.479442007971132567e-01 4.123857904658294604e-01 4.221387082241143118e-01 5.773769026456744280e-01 5.773024193875065935e-01 5.773714825488168723e-01
4.642354129119649064e-01 4.171417191163186988e-01 5.061933623665659798e-01 5.773587746432456980e-01 5.773202977470472952e-01 5.773717339389851100e-01
5.548639980716990605e-01 3.430752813211357943e-01 4.819972110730888493e-01 5.773848771561702620e-01 5.773097480660273062e-01 5.773561798571954506e-01
5.603648277972667069e-01 3.805680861006651150e-01 4.323506841523054867e-01 5.773848771561702620e-01 5.773097480660273062e-01 5.773561798571954506e-01
5.267888528285814553e-01 3.878911253072330201e-01 4.773547071160712529e-01 5.772979564546097953e-01 5.774111731350175525e-01 5.773416723329213296e-01
4.290416719233581810e-01 5.165971764069992034e-01 4.151923742228786907e-01 5.773463435206467320e-01 5.773389410239387898e-01 5.773655226983130939e-01
4.485855283855136322e-01 4.943611619574279636e-01 4.259659963830350615e-01 5.773463435206467320e-01 5.773389410239387898e-01 5.773655226983130939e-01
4.840611617375289999e-01 4.702700682804473176e-01 4.310224817249569407e-01 5.773566905023956863e-01 5.773655836998783375e-01 5.773285327186068461e-01
5.107593313161286064e-01 4.639199264568467651e-01 4.142457721882848998e-01 5.773566905023956863e-01 5.773655836998783375e-01 5.773285327186068461e-01
4.221131598288243025e-01 5.476555655666692779e-01 3.991949493854384245e-01 5.773415754466800776e-01 5.772973894627890790e-01 5.774118368895758691e-01
4.850626297173867840e-01 5.076865596963141547e-01 3.829544213070537051e-01 5.773415754466800776e-01 5.772973894627890790e-01 5.774118368895758691e-01
4.271972920458114165e-01 4.056787675102802027e-01 5.501852820536587974e-01 5.773024193875065935e-01 5.773714825488168723e-01 5.773769026456744280e-01
4.170644174935179138e-01 5.145975193654788171e-01 4.477398884956760861e-01 5.773380816679017924e-01 5.773392460289342720e-01 5.773734791716440551e-01
4.204325459378523422e-01 4.759356411753716820e-01 4.837705756758097220e-01 5.773441716494523979e-01 5.773748940185018386e-01 5.773317410462822652e-01
4.217353243566853704e-01 4.986462226412418097e-01 4.816445699302827066e-01 5.773441716494523979e-01 5.773748940185018386e-01 5.773317410462822652e-01
3.779192696901327864e-01 4.707253869247171596e-01 5.243684601276423773e-01 5.774118368895758691e-01 5.773415754466800776e-01 5.772973894627890790e-01
4.445821609514806205e-01 5.064582074718536608e-01 -4.294548718959162459e-01 5.773463435206467320e-01 5.773389410239387898e-01 -5.773655226983130939e-01
4.717991565091581019e-01 5.469712508960343778e-01 -3.254469016329116782e-01 5.773561798571954506e-01 5.773848771561702620e-01 -5.773097480660273062e-01
4.644285574634592351e-01 5.383979736259073556e-01 -3.847360616995758043e-01 5.773416723329213296e-01 5.772979564546097953e-01 -5.774111731350175525e-01
4.771484880614092483e-01 4.063937953534728642e-01 -4.771277439956235211e-01 5.773655836998783375e-01 5.773285327186068461e-01 -5.773566905023956863e-01
4.985293482819424526e-01 4.147505757197285092e-01 -4.510006626708230604e-01 5.773389410239387898e-01 5.773655226983130939e-01 -5.773463435206467320e-01
5.317515849507913339e-01 3.843087652399702625e-01 -4.766214637721590819e-01 5.772973894627890790e-01 5.774118368895758691e-01 -5.773415754466800776e-01
4.100664055076090331e-01 4.853752588538559065e-01 -4.630953721098328146e-01 5.773285327186068461e-01 5.773566905023956863e-01 -5.773655836998783375e-01
4.306316619547704283e-01 4.478492653074052643e-01 -4.917300774574129285e-01 5.773655226983130939e-01 5.773463435206467320e-01 -5.773389410239387898e-01
3.701897641626614721e-01 4.809142647322040554e-01 -5.321914422987663595e-01 5.774118368895758691e-01 5.773415754466800776e-01 -5.772973894627890790e-01
3.809222866912804761e-01 4.615461268778067172e-01 -5.453916179613303994e-01 5.774118368895758691e-01 5.773415754466800776e-01 -5.772973894627890790e-01
-5.309256556117364356e-01 4.299187545038308245e-01 -4.272656671905301073e-01 -5.773769026456744280e-01 5.773024193875065935e-01 -5.773714825488168723e-01
-4.694478910158462193e-01 4.261640872333827268e-01 -4.831967114303675759e-01 -5.773587746432456980e-01 5.773202977470472952e-01 -5.773717339389851100e-01
-5.356877994459871006e-01 3.649812928439594151e-01 -4.746161555325515979e-01 -5.773848771561702620e-01 5.773097480660273062e-01 -5.773561798571954506e-01
-5.565051215365595105e-01 3.455438247554274422e-01 -4.667837123259063747e-01 -5.773848771561702620e-01 5.773097480660273062e-01 -5.773561798571954506e-01
-5.548836023594473366e-01 3.912155436569068612e-01 -4.135380960426757180e-01 -5.772979564546097953e-01 5.774111731350175525e-01 -5.773416723329213296e-01
-4.747585524116027522e-01 5.330572236170720846e-01 -3.715009668846399049e-01 -5.773415754466800776e-01 5.772973894627890790e-01 -5.774118368895758691e-01
-4.137202497692668013e-01 4.258270219976547644e-01 -5.241918000312382198e-01 -5.773024193875065935e-01 5.773714825488168723e-01 -5.773769026456744280e-01
-4.200555404966930251e-01 5.014122454318635791e-01 -4.684057271592131921e-01 -5.773380816679017924e-01 5.773392460289342720e-01 -5.773734791716440551e-01
-4.274809714125632487e-01 4.691851978915363985e-01 -4.836683114264413996e-01 -5.773441716494523979e-01 5.773748940185018386e-01 -5.773317410462822652e-01
-3.809812497753813920e-01 4.590303936008450214e-01 -5.396568004822661635e-01 -5.774118368895758691e-01 5.773415754466800776e-01 -5.772973894627890790e-01
-4.735999075250081347e-01 4.230594399610786982e-01 4.848813691935376369e-01 -5.773655836998783375e-01 5.773285327186068461e-01 5.773566905023956863e-01
-4.718418962771283587e-01 4.151322349273965373e-01 5.068167734809928549e-01 -5.773655836998783375e-01 5.773285327186068461e-01 5.773566905023956863e-01
-5.198639684176886711e-01 4.360837194544023854e-01 4.386076905100033674e-01 -5.773389410239387898e-01 5.773655226983130939e-01 5.773463435206467320e-01
-5.225036091780111969e-01 3.811205074941909632e-01 4.734654527306963456e-01 -5.772973894627890790e-01 5.774118368895758691e-01 5.773415754466800776e-01
-4.351502228904916003e-01 5.175683358224785202e-01 4.612955069967727417e-01 -5.773285327186068461e-01 5.773566905023956863e-01 5.773655836998783375e-01
-4.014781683339300189e-01 5.183142020524293958e-01 4.721720091551741549e-01 -5.773285327186068461e-01 5.773566905023956863e-01 5.773655836998783375e-01
-4.291950066407508868e-01 4.297414796593009845e-01 5.113185594840121695e-01 -5.773655226983130939e-01 5.773463435206467320e-01 5.773389410239387898e-01
-3.882153734380658361e-01 4.779492258168128171e-01 5.257044966262487407e-01 -5.774118368895758691e-01 5.773415754466800776e-01 5.772973894627890790e-01
-4.654700537656228376e-01 5.391361675563498546e-01 3.743626161455791967e-01 -5.773561798571954506e-01 5.773848771561702620e-01 5.773097480660273062e-01
4.345461654509878424e-01 -4.970481497279817251e-01 4.610937464182917611e-01 5.773285327186068461e-01 -5.773566905023956863e-01 5.773655836998783375e-01
4.173822285173779401e-01 -4.338722256345156625e-01 5.013933200705930071e-01 5.773655226983130939e-01 -5.773463435206467320e-01 5.773389410239387898e-01
3.767861616261498625e-01 -4.692736880041203928e-01 5.209510225101042780e-01 5.774118368895758691e-01 -5.773415754466800776e-01 5.772973894627890790e-01
4.938666862321584028e-01 -4.552850169066422481e-01 4.275020548766669815e-01 5.773566905023956863e-01 -5.773655836998783375e-01 5.773285327186068461e-01
4.983179151767573312e-01 -4.667446090062483677e-01 3.974168362133430610e-01 5.773566905023956863e-01 -5.773655836998783375e-01 5.773285327186068461e-01
4.269294226900678946e-01 -4.854196133773859279e-01 4.318668567792097734e-01 5.773463435206467320e-01 -5.773389410239387898e-01 5.773655226983130939e-01
4.556793822864527721e-01 -5.561827932970740962e-01 3.652839785254736182e-01 5.773561798571954506e-01 -5.773848771561702620e-01 5.773097480660273062e-01
4.360989257616948445e-01 -5.596134608975569247e-01 3.808344841076570786e-01 5.773416723329213296e-01 -5.772979564546097953e-01 5.774111731350175525e-01
4.582071708095166174e-01 -4.084116742436407210e-01 5.140100536265175268e-01 5.773655836998783375e-01 -5.773285327186068461e-01 5.773566905023956863e-01
5.037848877412642867e-01 -4.482080019394305004e-01 4.345564355677393187e-01 5.773389410239387898e-01 -5.773655226983130939e-01 5.773463435206467320e-01
5.281722053776775061e-01 -3.705227095700883155e-01 4.856391440488879718e-01 5.772973894627890790e-01 -5.774118368895758691e-01 5.773415754466800776e-01
4.848214525314167300e-01 -4.593437416430274367e-01 -4.306861900052076919e-01 5.773566905023956863e-01 -5.773655836998783375e-01 -5.773285327186068461e-01
4.596011439800875564e-01 -5.231218227567363543e-01 -3.838758110196203721e-01 5.773415754466800776e-01 -5.772973894627890790e-01 -5.774118368895758691e-01
4.433420151648648222e-01 -5.672510190222936899e-01 -4.162877934393977575e-01 5.773415754466800776e-01 -5.772973894627890790e-01 -5.774118368895758691e-01
4.315007664519411312e-01 -4.234192880887339139e-01 -5.243714498994508366e-01 5.773024193875065935e-01 -5.773714825488168723e-01 -5.773769026456744280e-01
4.198641795987950731e-01 -4.097292704953460762e-01 -5.582084205725629245e-01 5.773024193875065935e-01 -5.773714825488168723e-01 -5.773769026456744280e-01
4.194763424007606489e-01 -4.976079336951141907e-01 -4.600762818617011862e-01 5.773380816679017924e-01 -5.773392460289342720e-01 -5.773734791716440551e-01
4.038631456398168451e-01 -4.879389340553689225e-01 -4.865737239192385877e-01 5.773441716494523979e-01 -5.773748940185018386e-01 -5.773317410462822652e-01
3.930416165753050084e-01 -4.530465836135247892e-01 -5.124433290117073048e-01 5.774118368895758691e-01 -5.773415754466800776e-01 -5.772973894627890790e-01
5.235960245208443053e-01 -4.292144400338379073e-01 -4.241712506324825105e-01 5.773769026456744280e-01 -5.773024193875065935e-01 -5.773714825488168723e-01
4.518144032661723375e-01 -4.254609079811049188e-01 -5.068799392184428765e-01 5.773587746432456980e-01 -5.773202977470472952e-01 -5.773717339389851100e-01
5.788441833653197310e-01 -3.699223216347625187e-01 -4.359760153872185295e-01 5.773848771561702620e-01 -5.773097480660273062e-01 -5.773561798571954506e-01
5.689369494505277514e-01 -3.435378446065917579e-01 -4.843958540485417408e-01 5.773848771561702620e-01 -5.773097480660273062e-01 -5.773561798571954506e-01
5.601808565812150809e-01 -4.045313389081042210e-01 -4.203639519314767425e-01 5.772979564546097953e-01 -5.774111731350175525e-01 -5.773416723329213296e-01
5.371549089717894132e-01 -3.687553473460214448e-01 -4.476631849403099883e-01 5.772979564546097953e-01 -5.774111731350175525e-01 -5.773416723329213296e-01
-5.035309876173883481e-01 -4.717277248122227484e-01 4.128733035575905541e-01 -5.773566905023956863e-01 -5.773655836998783375e-01 5.773285327186068461e-01
-4.406968120189209137e-01 -4.234141186440720239e-01 5.179825847210488554e-01 -5.773024193875065935e-01 -5.773714825488168723e-01 5.773769026456744280e-01
-4.050850403524542398e-01 -5.090687764309745900e-01 4.776701838441607673e-01 -5.773380816679017924e-01 -5.773392460289342720e-01 5.773734791716440551e-01
-4.191626815083839275e-01 -5.045270228486539166e-01 4.604881957552521832e-01 -5.773380816679017924e-01 -5.773392460289342720e-01 5.773734791716440551e-01
-4.257599982031492480e-01 -4.824508953771652342e-01 4.624809127961092003e-01 -5.773441716494523979e-01 -5.773748940185018386e-01 5.773317410462822652e-01
-4.182324635216944086e-01 -4.651082236615234899e-01 4.973388445504822730e-01 -5.773441716494523979e-01 -5.773748940185018386e-01 5.773317410462822652e-01
-3.780225009608898512e-01 -4.404560744377626347e-01 5.350928161527200855e-01 -5.774118368895758691e-01 -5.773415754466800776e-01 5.772973894627890790e-01
-3.922608919441047948e-01 -4.789410430292807552e-01 5.228640258423545850e-01 -5.774118368895758691e-01 -5.773415754466800776e-01 5.772973894627890790e-01
-5.404530210676514734e-01 -4.122395757395307947e-01 3.968340836097340452e-01 -5.773769026456744280e-01 -5.773024193875065935e-01 5.773714825488168723e-01
-4.876784087583602711e-01 -4.164933505129840841e-01 4.877450074885757436e-01 -5.773587746432456980e-01 -5.773202977470472952e-01 5.773717339389851100e-01
-5.632938266241027669e-01 -3.751303923871438517e-01 4.592536999034224077e-01 -5.773848771561702620e-01 -5.773097480660273062e-01 5.773561798571954506e-01
-5.511553150720237548e-01 -3.456716178849369436e-01 4.653209436375974062e-01 -5.773848771561702620e-01 -5.773097480660273062e-01 5.773561798571954506e-01
-5.240568718762117495e-01 -4.079559101653680298e-01 4.427799777650386348e-01 -5.772979564546097953e-01 -5.774111731350175525e-01 5.773416723329213296e-01
-4.371265778976880512e-01 -4.419119894493794276e-01 -4.930859883302176616e-01 -5.773655226983130939e-01 -5.773463435206467320e-01 -5.773389410239387898e-01
-3.710623774586059853e-01 -4.570744014285798018e-01 -5.388353796635902970e-01 -5.774118368895758691e-01 -5.773415754466800776e-01 -5.772973894627890790e-01
-3.816810919432651605e-01 -4.631014887488547060e-01 -5.163876253997192745e-01 -5.774118368895758691e-01 -5.773415754466800776e-01 -5.772973894627890790e-01
-4.437010089434932358e-01 -4.976928217509594132e-01 -4.162184736549476849e-01 -5.773463435206467320e-01 -5.773389410239387898e-01 -5.773655226983130939e-01
-4.565797941601003052e-01 -4.736416121678437285e-01 -4.230954154852140658e-01 -5.773463435206467320e-01 -5.773389410239387898e-01 -5.773655226983130939e-01
-4.819078834479338380e-01 -5.684697836962459006e-01 -3.415629554615668417e-01 -5.773561798571954506e-01 -5.773848771561702620e-01 -5.773097480660273062e-01
-4.605929253574799209e-01 -5.634703501842333040e-01 -3.605136974078135825e-01 -5.773561798571954506e-01 -5.773848771561702620e-01 -5.773097480660273062e-01
-4.299521556578901338e-01 -5.482993644205368389e-01 -3.915918683108973730e-01 -5.773416723329213296e-01 -5.772979564546097953e-01 -5.774111731350175525e-01
-4.506573375523029168e-01 -4.126959655356373657e-01 -4.990454766437180112e-01 -5.773655836998783375e-01 -5.773285327186068461e-01 -5.773566905023956863e-01
-5.061696680874596677e-01 -4.353543116978038086e-01 -4.565906438190722172e-01 -5.773389410239387898e-01 -5.773655226983130939e-01 -5.773463435206467320e-01
-5.369251407448143443e-01 -3.661492386341459460e-01 -4.818898388978009040e-01 -5.772973894627890790e-01 -5.774118368895758691e-01 -5.773415754466800776e-01
-3.473378823372969548e-01 7.797379854745678518e-01 1.562497464702603811e-01 0.000000000000000000e+00 9.341936836306459213e-01 3.567662560621515100e-01
1.379658382236179093e-01 7.813201608500239814e-01 1.772994125853074310e-01 0.000000000000000000e+00 9.341936836306459213e-01 3.567662560621515100e-01
-3.246759440063291535e-01 7.799797087589349642e-01 1.907733378481344944e-01 0.000000000000000000e+00 9.341936836306459213e-01 3.567662560621515100e-01
-3.006027012798070386e-01 7.948180940207385525e-01 1.784264026438031336e-01 0.000000000000000000e+00 9.341936836306459213e-01 3.567662560621515100e-01
-2.182067219294248905e-01 7.860322585052770261e-01 1.789511285655366879e-01 0.000000000000000000e+00 9.341936836306459213e-01 3.567662560621515100e-01
2.185085707365925708e-02 7.807028801979142285e-01 1.795427003147364309e-01 0.000000000000000000e+00 9.341936836306459213e-01 3.567662560621515100e-01
1.833598575626919913e-01 7.638623641310703372e-01 1.761239942193175423e-01 0.000000000000000000e+00 9.341936836306459213e-01 3.567662560621515100e-01
-3.388965985562639172e-02 7.720581557032216713e-01 1.712048436099133653e-01 0.000000000000000000e+00 9.341936836306459213e-01 3.567662560621515100e-01
5.893468577067156183e-02 7.865274227523912920e-01 1.917540366639291505e-01 0.000000000000000000e+00 9.341936836306459213e-01 3.567662560621515100e-01
-2.612923003703096492e-01 7.839865873154285847e-01 1.704800258571818050e-01 0.000000000000000000e+00 9.341936836306459213e-01 3.567662560621515100e-01
-3.750381210328835313e-01 7.856244111472319158e-01 1.643815909935796571e-01 0.000000000000000000e+00 9.341936836306459213e-01 3.567662560621515100e-01
-5.753099242779180500e-02 7.753039195172505282e-01 1.806984829839970719e-01 0.000000000000000000e+00 9.341936836306459213e-01 3.567662560621515100e-01
-7.175351847403289851e-02 7.933567622566902733e-01 1.577523495618168847e-01 0.000000000000000000e+00 9.341186230112926703e-01 3.569627405535295561e-01
-4.055651371075990608e-01 7.848585257973768048e-01 1.684598321595461301e-01 0.000000000000000000e+00 9.341186230112926703e-01 3.569627405535295561e-01
5.661852973466930533e-02 7.941577435853196532e-01 1.460808860534161535e-01 0.000000000000000000e+00 9.341186230112926703e-01 3.569627405535295561e-01
-4.071709233402917016e-01 8.014767060007227384e-01 1.366455785603394868e-01 0.000000000000000000e+00 9.341186230112926703e-01 3.569627405535295561e-01
-3.547507222679368438e-02 7.963469982937985137e-01 1.490175482748621050e-01 0.000000000000000000e+00 9.341186230112926703e-01 3.569627405535295561e-01
-2.745215174784823575e-01 7.968889443051927479e-01 1.533380689595096324e-01 0.000000000000000000e+00 9.341186230112926703e-01 3.569627405535295561e-01
-3.306264530455788053e-01 7.875991346847331931e-01 1.351441200238327478e-01 0.000000000000000000e+00 9.341186230112926703e-01 3.569627405535295561e-01
-3.029797158456216111e-01 7.814133365767538253e-01 1.682108732479383473e-01 0.000000000000000000e+00 9.341186230112926703e-01 3.569627405535295561e-01
-3.841874140615323951e-01 7.826091259566240188e-01 1.441869511029051920e-01 0.000000000000000000e+00 9.341186230112926703e-01 3.569627405535295561e-01
1.225789182208122108e-01 6.295787184976435746e-01 6.173308391632159609e-01 0.000000000000000000e+00 9.341255943303855558e-01 3.569444971097103791e-01
8.843403806463995265e-02 6.133944311264167837e-01 6.298065131726515720e-01 0.000000000000000000e+00 9.341255943303855558e-01 3.569444971097103791e-01
5.493502861259131481e-02 6.101492243646188252e-01 6.283764268717334511e-01 0.000000000000000000e+00 9.341255943303855558e-01 3.569444971097103791e-01
4.103169199460756644e-01 8.211841236308698999e-01 9.264735305350563221e-02 0.000000000000000000e+00 9.341936836306460323e-01 3.567662560621515100e-01
2.292397706454159800e-01 8.220816169485163361e-01 9.692518916910036753e-02 0.000000000000000000e+00 9.341936836306460323e-01 3.567662560621515100e-01
4.431880108433347565e-01 8.152443398741670011e-01 8.535714832258192719e-02 0.000000000000000000e+00 9.341936836306460323e-01 3.567662560621515100e-01
3.044187723232887888e-01 8.146485056724466212e-01 9.291925136993679779e-02 0.000000000000000000e+00 9.341936836306460323e-01 3.567662560621515100e-01
3.565240081915946879e-01 8.201833657989510140e-01 1.004759545830835876e-01 0.000000000000000000e+00 9.341936836306460323e-01 3.567662560621515100e-01
3.246329421363770562e-01 8.012950616840809337e-01 9.355920657381773531e-02 0.000000000000000000e+00 9.341936836306460323e-01 3.567662560621515100e-01
3.534826890561395540e-01 8.043147032680081354e-01 7.449276033504917405e-02 0.000000000000000000e+00 9.341936836306460323e-01 3.567662560621515100e-01
1.164135108638454513e-01 7.653275967277558545e-01 1.997022293896464906e-01 0.000000000000000000e+00 9.342048533199384108e-01 3.567370068180092946e-01
4.102381675170265751e-01 7.671932733213971956e-01 1.859724861151231812e-01 0.000000000000000000e+00 9.342048533199384108e-01 3.567370068180092946e-01
2.762044672076885421e-01 7.754307990077980994e-01 2.153639205352259056e-01 0.000000000000000000e+00 9.342048533199384108e-01 3.567370068180092946e-01
3.796683077024045061e-01 7.702271412219781066e-01 1.898963580660703310e-01 0.000000000000000000e+00 9.342048533199384108e-01 3.567370068180092946e-01
1.961894308742534176e-01 7.859241077161922551e-01 1.981092258087143732e-01 0.000000000000000000e+00 9.342048533199384108e-01 3.567370068180092946e-01
3.403957004643937689e-01 7.893272545366615267e-01 1.995335116096726424e-01 0.000000000000000000e+00 9.342048533199384108e-01 3.567370068180092946e-01
1.329961400572485519e-01 7.740833335949780514e-01 2.042509729808851260e-01 0.000000000000000000e+00 9.342048533199384108e-01 3.567370068180092946e-01
1.784421200131183494e-01 7.734701356142617001e-01 2.048378214013324428e-01 0.000000000000000000e+00 9.342048533199384108e-01 3.567370068180092946e-01
-2.240265794335841859e-02 7.662123945484439203e-01 2.116001859230485227e-01 0.000000000000000000e+00 9.342048533199384108e-01 3.567370068180092946e-01
5.305263210459078282e-02 7.844151695669564495e-01 2.031637215278911668e-01 0.000000000000000000e+00 9.342048533199384108e-01 3.567370068180092946e-01
-1.749299636612236253e-01 7.708149436946737376e-01 2.033671486989838684e-01 0.000000000000000000e+00 9.342048533199384108e-01 3.567370068180092946e-01
-1.237351393297913410e-01 6.091475940705389780e-01 -6.250361657217087252e-01 0.000000000000000000e+00 9.341255943303855558e-01 -3.569444971097103791e-01
1.149573889762218852e-02 6.048800740847752877e-01 -6.292826316170861967e-01 0.000000000000000000e+00 9.341255943303855558e-01 -3.569444971097103791e-01
8.314452055903069627e-02 5.947478079493562220e-01 -6.329326154653258651e-01 0.000000000000000000e+00 9.341255943303855558e-01 -3.569444971097103791e-01
-7.533899416117599557e-02 6.119408571555436938e-01 -6.304381865745865010e-01 0.000000000000000000e+00 9.341255943303855558e-01 -3.569444971097103791e-01
-2.193053978742168508e-01 8.158529761694065519e-01 -1.033430206806043861e-01 0.000000000000000000e+00 9.341936836306460323e-01 -3.567662560621515100e-01
-3.058790567165574625e-01 8.098721168515765623e-01 -1.104496606770050543e-01 0.000000000000000000e+00 9.341936836306460323e-01 -3.567662560621515100e-01
-4.302112760099141564e-01 8.209927214449771471e-01 -7.892377565563961361e-02 0.000000000000000000e+00 9.341936836306460323e-01 -3.567662560621515100e-01
-3.490581585286363642e-01 8.189071151341229537e-01 -1.016491830824032411e-01 0.000000000000000000e+00 9.341936836306460323e-01 -3.567662560621515100e-01
-5.558756371928865597e-02 8.096733795648478615e-01 -9.755532955778926929e-02 0.000000000000000000e+00 9.341936836306460323e-01 -3.567662560621515100e-01
-4.497663000441609049e-01 8.212835869679432355e-01 -9.128992714507651318e-02 0.000000000000000000e+00 9.341936836306460323e-01 -3.567662560621515100e-01
-1.705044249724226302e-01 8.144877301025663652e-01 -1.022963521751425464e-01 0.000000000000000000e+00 9.341936836306460323e-01 -3.567662560621515100e-01
-1.847355073533285263e-01 8.193784599166110683e-01 -9.709362263251257452e-02 0.000000000000000000e+00 9.341936836306460323e-01 -3.567662560621515100e-01
-1.163136976825748445e-02 7.830189563647648177e-01 -2.183307454944281856e-01 0.000000000000000000e+00 9.342048533199384108e-01 -3.567370068180092946e-01
-3.580370912685051921e-01 7.819948869605748420e-01 -2.123704042588834828e-01 0.000000000000000000e+00 9.342048533199384108e-01 -3.567370068180092946e-01
