-1.976310020975853912e-02 -1.775916805378950358e-01 4.454923775942918329e-01 0.000000000000000000e+00 1.000000000000000000e+00 0.000000000000000000e+00
-1.306987307605779747e-01 -5.801238802501601510e-01 -4.993959240155160795e-01 0.000000000000000000e+00 -1.000000000000000000e+00 0.000000000000000000e+00
1.627060933400685250e-01 -5.351508510234025129e-02 2.265559166525168144e-01 5.529407579092077141e-02 4.487702545858577620e-03 9.984600270958711166e-01
-3.865391603307289370e-01 1.393936351652316774e-01 2.389955537127231577e-01 -1.000000000000000000e+00 0.000000000000000000e+00 0.000000000000000000e+00
2.097400137083182611e-02 -5.735238588492951317e-01 1.130504343133983958e-01 0.000000000000000000e+00 -1.000000000000000000e+00 0.000000000000000000e+00
1.411637529148618564e-01 1.951309105506321973e-01 1.108180011438323620e-01 8.264255324422607740e-02 -2.769022718486823659e-02 -9.961944888984909374e-01
4.742389720816470589e-01 2.084165323352743515e-01 5.746222921817106810e-02 8.292608723751341282e-01 -1.602608119448410695e-02 5.586318736602657875e-01
-3.629778390664576970e-01 -2.885094867337458235e-01 6.374208107592124195e-01 0.000000000000000000e+00 0.000000000000000000e+00 1.000000000000000000e+00
-3.838012316308750949e-01 7.795514388095980962e-02 -4.885996223116705756e-02 -1.000000000000000000e+00 0.000000000000000000e+00 0.000000000000000000e+00
4.657610122406568021e-01 -7.970864893470748502e-02 5.910166127961634375e-02 8.122125622421766389e-01 2.784510259914744698e-02 5.826966655106593507e-01
-3.851722289264629118e-01 5.188666723114030432e-01 -2.046815624439413811e-02 -1.000000000000000000e+00 0.000000000000000000e+00 0.000000000000000000e+00
-3.863568130726162675e-01 -2.122884507698066525e-01 -8.440705596066421651e-03 -1.000000000000000000e+00 0.000000000000000000e+00 0.000000000000000000e+00
8.956433915591643924e-02 8.212123202291131754e-04 2.363995072545578002e-01 1.886482864880821455e-04 3.510797224048016864e-05 9.999999815896268851e-01
4.670018828511012243e-01 -5.737463417221486672e-01 -2.370519169340317700e-01 0.000000000000000000e+00 -1.000000000000000000e+00 0.000000000000000000e+00
-1.215236642736314959e-01 3.812893493575728598e-01 6.026133967397012681e-01 1.000000000000000000e+00 0.000000000000000000e+00 0.000000000000000000e+00
4.212522720326692394e-01 1.087522476443227720e-01 -7.843118514753398551e-02 -9.402753584902310280e-01 2.291993540319349487e-02 -3.396423512714235038e-01
-1.612682729215175748e-01 3.032361687784855264e-01 6.359761932455503253e-01 0.000000000000000000e+00 0.000000000000000000e+00 1.000000000000000000e+00
-1.471380570791717274e-02 5.214033267588090714e-01 2.357431840538393164e-01 0.000000000000000000e+00 0.000000000000000000e+00 1.000000000000000000e+00
-2.324483631799076702e-02 1.575871494474921919e-01 -5.446576712824984234e-01 0.000000000000000000e+00 0.000000000000000000e+00 -1.000000000000000000e+00
-1.400377462219161151e-01 3.562115650702952219e-01 6.315322587140237420e-01 0.000000000000000000e+00 0.000000000000000000e+00 1.000000000000000000e+00
-1.247064270099627475e-01 2.479093120540437900e-01 5.753535544665396850e-01 1.000000000000000000e+00 0.000000000000000000e+00 0.000000000000000000e+00
4.624623743161159206e-01 -5.795054615776285001e-01 -1.562979234706612930e-02 0.000000000000000000e+00 -1.000000000000000000e+00 0.000000000000000000e+00
-3.315232884123875401e-01 5.801223229055536557e-01 6.433794401532305640e-01 0.000000000000000000e+00 0.000000000000000000e+00 1.000000000000000000e+00
-3.868270981045821566e-01 1.854800646372385120e-01 -5.281644505557544500e-01 -1.000000000000000000e+00 0.000000000000000000e+00 0.000000000000000000e+00
-1.203342465235947567e-01 2.558363902850563920e-01 -1.790536311490185384e-01 9.880198238295264668e-01 -9.809602863961069952e-03 1.540149324303419220e-01
3.331656969471631646e-02 -5.670404994014799360e-02 -3.895487578654306393e-01 4.545587974373749285e-01 -5.456039522434817830e-03 8.907000231868287266e-01
4.230539195402226449e-01 9.834486706593048577e-02 -1.612865208844189158e-01 -9.997792989628015992e-01 1.795481561224018113e-02 1.090770194768117540e-02
2.102233190244491012e-01 2.719795709101330630e-02 1.023952415675284805e-01 -2.174851865703771869e-01 2.825132289984335753e-03 -9.760595331484613890e-01
-1.111649030390252924e-01 4.722932759167475236e-01 3.428226044896693359e-01 1.000000000000000000e+00 0.000000000000000000e+00 0.000000000000000000e+00
-9.867758275933059819e-02 2.759536761678246797e-01 -2.320850357424255050e-01 9.515254349366255582e-01 3.724603852815916785e-03 3.075475150197206076e-01
1.931525091023439944e-01 5.353250438255721111e-01 2.325273039311090972e-01 9.672718413732254994e-02 -1.433939197130938703e-02 9.952076334548271008e-01
1.569076728871004467e-01 5.665802383088625049e-02 1.143491420969597466e-01 -7.769245857390174627e-03 3.834375711123582525e-02 -9.992344044864558406e-01
-3.253277325445677604e-01 -4.137192261338741295e-01 -5.421148825066185450e-01 0.000000000000000000e+00 0.000000000000000000e+00 -1.000000000000000000e+00
-4.687105002920348429e-03 -1.564238206743422122e-01 2.327400957514676183e-01 0.000000000000000000e+00 0.000000000000000000e+00 1.000000000000000000e+00
-3.868904896371710977e-01 2.527932856014813989e-01 3.647033077925825317e-01 -1.000000000000000000e+00 0.000000000000000000e+00 0.000000000000000000e+00
4.178124923630404108e-01 2.579146994483809685e-01 -1.862768997499024692e-01 -9.922774859339310582e-01 2.756433317170650307e-02 1.209363404665299291e-01
-3.848843195440355691e-01 5.965525034405195770e-01 3.412447848137546424e-01 -1.000000000000000000e+00 0.000000000000000000e+00 0.000000000000000000e+00
-3.879484196009863051e-01 4.326903791421293222e-01 4.011541095154768505e-02 -1.000000000000000000e+00 0.000000000000000000e+00 0.000000000000000000e+00
-8.393706631798411588e-02 2.499301097103837077e-01 -2.765185089297518828e-01 8.972669598009768155e-01 -1.689559908406730246e-02 4.411649822697885637e-01
-4.376448894068851736e-02 6.310613612715413323e-01 2.359635347152015949e-01 0.000000000000000000e+00 0.000000000000000000e+00 1.000000000000000000e+00
-1.980616888656727692e-01 -8.584180789721100602e-02 -5.469958526189853121e-01 0.000000000000000000e+00 0.000000000000000000e+00 -1.000000000000000000e+00
-3.866237924108569257e-01 2.134151949227229839e-01 3.908241180601952913e-01 -1.000000000000000000e+00 0.000000000000000000e+00 0.000000000000000000e+00
-2.408377619350318341e-02 1.203842412486715030e-02 4.778447591827383878e-02 6.804857389958053338e-01 2.596310378355305357e-02 -7.323012196256791784e-01
-3.809429888715771262e-01 1.277137241198449125e-01 6.371466575472901905e-02 -1.000000000000000000e+00 0.000000000000000000e+00 0.000000000000000000e+00
-3.830663930116265381e-01 -1.273360416632723369e-01 1.595092964737935826e-01 -1.000000000000000000e+00 0.000000000000000000e+00 0.000000000000000000e+00
-7.527509227318451845e-02 2.447351567062285294e-01 -3.151527973630112167e-01 8.141934206277524622e-01 -3.168016387117743998e-02 5.797287650475650977e-01
-3.777961776584556342e-01 -2.301592663851462217e-01 2.153684141445173783e-01 -1.000000000000000000e+00 0.000000000000000000e+00 0.000000000000000000e+00
-8.012463349211562669e-02 2.437548811263270387e-01 -2.874207285347740726e-01 8.632665439761531001e-01 2.679510183921416169e-02 5.040366024098794639e-01
-1.086976156294083840e-01 7.736888822180704173e-02 -8.352860012256123345e-02 9.673520246071516393e-01 -3.841657717076475687e-02 -2.505079381714820919e-01
-1.274424203285789703e-01 -7.997058901781893547e-04 2.670784997542600681e-01 1.000000000000000000e+00 0.000000000000000000e+00 0.000000000000000000e+00
1.544945468216682716e-01 -4.910973999446500149e-01 5.809677257263137218e-01 1.000000000000000000e+00 0.000000000000000000e+00 0.000000000000000000e+00
-3.264463382285169857e-01 -4.206709451324855409e-02 -5.427469879093886895e-01 0.000000000000000000e+00 0.000000000000000000e+00 -1.000000000000000000e+00
-3.845507057959229869e-01 -2.925055534486921682e-01 -3.407914443605830068e-01 -1.000000000000000000e+00 0.000000000000000000e+00 0.000000000000000000e+00
-3.835817747443273085e-01 -1.719990134870784948e-01 -3.806709179535350263e-01 -1.000000000000000000e+00 0.000000000000000000e+00 0.000000000000000000e+00
-3.913696223646877526e-01 -2.499736357168901302e-01 -2.591406955321826633e-01 -1.000000000000000000e+00 0.000000000000000000e+00 0.000000000000000000e+00
4.444469868513579169e-01 -1.176536917050194919e-01 -3.900050569085475316e-01 7.538793350010324357e-01 -2.679122764723708763e-03 -6.570074356958318651e-01
-9.319408402460105378e-02 -2.898854749172503076e-01 -5.483048592595739512e-01 0.000000000000000000e+00 0.000000000000000000e+00 -1.000000000000000000e+00
-1.042089394128936641e-01 1.456303788665961885e-01 -2.234311340937617796e-01 9.780409849329183558e-01 3.100510630056167727e-02 2.060934622319149923e-01
-3.801480617645610072e-01 4.536262507549707751e-02 -4.317282271475740285e-01 -1.000000000000000000e+00 0.000000000000000000e+00 0.000000000000000000e+00
5.166193163887152773e-01 3.214237467159167944e-02 -2.693404197116475163e-01 9.622137728740440821e-01 -4.174294375733489729e-03 -2.722631641591685137e-01
-3.803965127989367701e-01 4.536481033871879731e-01 4.930737576422777324e-01 -1.000000000000000000e+00 0.000000000000000000e+00 0.000000000000000000e+00
-3.852637464443770532e-01 -3.015925927909586801e-01 -4.655135380004275514e-01 -1.000000000000000000e+00 0.000000000000000000e+00 0.000000000000000000e+00
-3.892014935304931589e-01 4.758181534320267136e-01 -4.104854923953008550e-01 -1.000000000000000000e+00 0.000000000000000000e+00 0.000000000000000000e+00
-1.095939835159781689e-01 -4.746206798510992364e-01 -5.466075105079631902e-01 0.000000000000000000e+00 0.000000000000000000e+00 -1.000000000000000000e+00
-3.886700183863007196e-01 1.889351480003798878e-01 -2.534098190287564778e-01 -1.000000000000000000e+00 0.000000000000000000e+00 0.000000000000000000e+00
4.450944537051857441e-01 2.367171388598195980e-01 -4.048641656802361988e-01 7.763298225703407773e-01 1.709969282669493787e-02 -6.300949191138870420e-01
2.695267030157579291e-01 6.062647943600230072e-01 -5.253443787557565692e-01 2.821298979664474404e-01 1.348746822329964339e-02 -9.592814023394632406e-01
2.759156629056677135e-01 -2.113273800740018971e-01 2.073066489152137759e-01 2.817101493531657397e-01 1.544064607734174817e-02 9.593753062280324651e-01
-6.554298714275690052e-02 -2.666853445667236588e-01 -5.450662794177301151e-01 0.000000000000000000e+00 0.000000000000000000e+00 -1.000000000000000000e+00
1.591732910468547299e-02 1.843714341121016065e-01 -3.872981468939816208e-01 4.830851610543353547e-01 -4.094474074074235664e-02 8.746154900153439993e-01
-3.848211308014790055e-01 2.457223911473682132e-01 2.615495970756014921e-01 -1.000000000000000000e+00 0.000000000000000000e+00 0.000000000000000000e+00
-3.875938808586583129e-01 5.303445585702613041e-01 4.847783827324873146e-02 -1.000000000000000000e+00 0.000000000000000000e+00 0.000000000000000000e+00
-1.176707302172960989e-01 5.271230388822061019e-02 3.665358397724443051e-01 1.000000000000000000e+00 0.000000000000000000e+00 0.000000000000000000e+00
-1.147201665910283774e-01 3.742443943084855507e-01 2.342223218440262766e-01 0.000000000000000000e+00 0.000000000000000000e+00 1.000000000000000000e+00
5.452544070959850497e-01 4.846050403620193459e-01 -1.570532121402632708e-01 9.997561150933000906e-01 2.554797743087451525e-03 2.193589164004847505e-02
3.764987786714394935e-01 2.502678149842355038e-01 -5.109074400047653765e-03 -8.440515467116038728e-01 8.046235873879996683e-03 -5.362016827482091186e-01
-3.877276150488240258e-01 2.898078341525539003e-01 -1.895653662152194108e-01 -1.000000000000000000e+00 0.000000000000000000e+00 0.000000000000000000e+00
-3.882958521267679819e-01 2.557242090135453672e-01 -2.626590059148529721e-01 -1.000000000000000000e+00 0.000000000000000000e+00 0.000000000000000000e+00
-3.855728426493918448e-01 3.032823315273982523e-01 -3.877910302038623525e-01 -1.000000000000000000e+00 0.000000000000000000e+00 0.000000000000000000e+00
-3.276183766916764273e-01 -3.171058037088559933e-01 6.382706905805198838e-01 0.000000000000000000e+00 0.000000000000000000e+00 1.000000000000000000e+00
-3.961192730995116151e-01 3.924420456218314368e-01 -4.806744164643629857e-01 -1.000000000000000000e+00 0.000000000000000000e+00 0.000000000000000000e+00
-2.986109882359452294e-01 -3.301370773186897423e-01 6.400618775895324797e-01 0.000000000000000000e+00 0.000000000000000000e+00 1.000000000000000000e+00
3.002702677470768244e-01 -4.861403861140122656e-02 2.003641701713756162e-01 3.903067816750166452e-01 7.810684530213436554e-03 9.206517307786155069e-01
3.527649315360484872e-01 1.751056451693402682e-01 1.801110619198345308e-01 5.106173485886899011e-01 9.051235960528909372e-03 8.597604308456183730e-01
3.458367562733524192e-01 1.910601002780639712e-01 1.793386315554962307e-01 5.075873441107373596e-01 -4.614749805653448056e-03 8.615879480255275169e-01
-1.205215783313604572e-01 2.810720251806335113e-01 3.266007430119375887e-01 1.000000000000000000e+00 0.000000000000000000e+00 0.000000000000000000e+00
7.133141450265137462e-02 2.227858841494053943e-01 -4.068053123395872772e-01 3.462516303756477121e-01 -3.211920496837955812e-03 9.381361798955030196e-01
-3.886860678576418149e-01 -1.782949194479828414e-01 5.196529403039004125e-01 -1.000000000000000000e+00 0.000000000000000000e+00 0.000000000000000000e+00
3.325158476966336707e-01 2.316090026713382710e-01 4.806786198598173715e-02 -6.227787443819998714e-01 6.326918548378020028e-03 -7.823724213235417890e-01
-3.524578695417179830e-01 9.213187662177042825e-02 -5.505200141293733473e-01 0.000000000000000000e+00 0.000000000000000000e+00 -1.000000000000000000e+00
1.466872651834666696e-01 -2.510103500002816013e-01 2.836994463134830946e-01 1.000000000000000000e+00 0.000000000000000000e+00 0.000000000000000000e+00
-3.861077415227875398e-01 3.935907947947742680e-01 1.613335523128692495e-01 -1.000000000000000000e+00 0.000000000000000000e+00 0.000000000000000000e+00
-3.888423518256081124e-01 1.822143389622742915e-01 1.990582305307887420e-02 -1.000000000000000000e+00 0.000000000000000000e+00 0.000000000000000000e+00
-2.006777709367053575e-01 -5.670429734574237157e-01 -2.487921371632502709e-01 0.000000000000000000e+00 -1.000000000000000000e+00 0.000000000000000000e+00
-4.019965234693189671e-01 -3.996663885346092848e-01 -6.953036063833495373e-02 -1.000000000000000000e+00 0.000000000000000000e+00 0.000000000000000000e+00
-3.923047305260067286e-01 1.790524746429080216e-01 -2.817371747915520253e-01 -1.000000000000000000e+00 0.000000000000000000e+00 0.000000000000000000e+00
-3.860247829623345006e-01 -2.738325131701348503e-01 -3.849908749751320136e-01 -1.000000000000000000e+00 0.000000000000000000e+00 0.000000000000000000e+00
-3.807309904675124090e-01 2.492664941083954921e-01 -3.694806329806405443e-01 -1.000000000000000000e+00 0.000000000000000000e+00 0.000000000000000000e+00
-2.814936293192051298e-01 -5.625782429847260291e-01 -4.168119724110426749e-01 0.000000000000000000e+00 -1.000000000000000000e+00 0.000000000000000000e+00
-3.908256048182943143e-01 -1.699338542281730036e-01 -2.606298838291038478e-01 -1.000000000000000000e+00 0.000000000000000000e+00 0.000000000000000000e+00
3.168555195988746465e-01 -6.977992165863895757e-02 -3.727650256184646405e-01 -5.770093769578651388e-01 -4.086058010397357505e-03 8.167273002861065168e-01
-1.132844465647820098e-01 1.288672021648142041e-01 2.553430680705982558e-01 1.000000000000000000e+00 0.000000000000000000e+00 0.000000000000000000e+00
1.600233931118681951e-01 -5.283908319596893888e-01 2.491433874463355458e-01 1.000000000000000000e+00 0.000000000000000000e+00 0.000000000000000000e+00
-3.883544907562186954e-01 -3.463599922534151831e-01 3.062416355990064676e-01 -1.000000000000000000e+00 0.000000000000000000e+00 0.000000000000000000e+00
-1.869271154167447546e-01 -5.714552648157992243e-01 -1.283710161849025699e-01 0.000000000000000000e+00 -1.000000000000000000e+00 0.000000000000000000e+00
-1.563089958741968322e-01 -1.297514220565686160e-01 -5.477706346896037415e-01 0.000000000000000000e+00 0.000000000000000000e+00 -1.000000000000000000e+00
3.065369051258815536e-01 -5.714569970313565506e-01 -4.784171485722106265e-01 0.000000000000000000e+00 -1.000000000000000000e+00 0.000000000000000000e+00
1.892140594692396163e-02 6.477870193875729932e-01 -5.489315584152901772e-01 0.000000000000000000e+00 0.000000000000000000e+00 -1.000000000000000000e+00
3.231646241679794196e-01 -5.655605152194901342e-01 -4.767373281198883372e-01 0.000000000000000000e+00 -1.000000000000000000e+00 0.000000000000000000e+00
2.975039773562199175e-01 -5.790698311751438787e-01 -4.376468825239041016e-01 0.000000000000000000e+00 -1.000000000000000000e+00 0.000000000000000000e+00
2.505236396012437972e-01 -5.669285580728105067e-01 -4.312368966564993356e-01 0.000000000000000000e+00 -1.000000000000000000e+00 0.000000000000000000e+00
-1.222333218305690500e-01 -1.639262000056341262e-01 3.817019726707438498e-01 1.000000000000000000e+00 0.000000000000000000e+00 0.000000000000000000e+00
3.922304714095114497e-01 -5.714561626815483075e-01 -3.718432157303753205e-01 0.000000000000000000e+00 -1.000000000000000000e+00 0.000000000000000000e+00
3.877206090684041651e-01 -5.693428905669039031e-01 -3.450891467295458259e-01 0.000000000000000000e+00 -1.000000000000000000e+00 0.000000000000000000e+00
4.613079497173084298e-01 -5.742006215991454221e-01 -6.837447475928125351e-02 0.000000000000000000e+00 -1.000000000000000000e+00 0.000000000000000000e+00
-3.930207343190667557e-01 3.765977025431123670e-01 -7.170460740313477910e-02 -1.000000000000000000e+00 0.000000000000000000e+00 0.000000000000000000e+00
-3.900953521636772448e-01 -3.062035799807591441e-01 1.707634173446623271e-01 -1.000000000000000000e+00 0.000000000000000000e+00 0.000000000000000000e+00
-2.100783672881790243e-01 -5.789993835195503813e-01 -3.500885354351350176e-01 0.000000000000000000e+00 -1.000000000000000000e+00 0.000000000000000000e+00
-1.713200578592444789e-01 -5.802540003569325311e-01 -4.160905013594519697e-01 0.000000000000000000e+00 -1.000000000000000000e+00 0.000000000000000000e+00
-2.174629263254566625e-01 -5.693965292800793332e-01 -4.031807788157307781e-01 0.000000000000000000e+00 -1.000000000000000000e+00 0.000000000000000000e+00
1.612565486109197588e-01 -5.820792615954493154e-01 1.855743900525684553e-01 0.000000000000000000e+00 -1.000000000000000000e+00 0.000000000000000000e+00
1.675604614747000232e-01 -5.761723414578446834e-01 2.215565554811532167e-01 0.000000000000000000e+00 -1.000000000000000000e+00 0.000000000000000000e+00
-1.925866427991775598e-01 6.598162840531041073e-01 5.448263335998674295e-01 0.000000000000000000e+00 1.000000000000000000e+00 0.000000000000000000e+00
-3.823744898316539520e-01 2.933737369638315662e-01 -2.130089449343876562e-01 -1.000000000000000000e+00 0.000000000000000000e+00 0.000000000000000000e+00
1.166362802742324234e-01 -5.657713531696130227e-01 2.202298688120214454e-01 0.000000000000000000e+00 -1.000000000000000000e+00 0.000000000000000000e+00
-2.017579987090883931e-01 6.663655327857807009e-01 6.130612351608771826e-01 0.000000000000000000e+00 1.000000000000000000e+00 0.000000000000000000e+00
-3.348855854350931693e-01 6.633279501632537434e-01 -2.986478861027839771e-01 0.000000000000000000e+00 1.000000000000000000e+00 0.000000000000000000e+00
2.366674428233368488e-01 -5.662320148907468154e-01 1.651949344661449437e-01 0.000000000000000000e+00 -1.000000000000000000e+00 0.000000000000000000e+00
3.531798440504258507e-01 2.212239425424009087e-01 -3.410988440844117675e-01 -7.107126720916588924e-01 6.678968620758835364e-03 7.034507012623535394e-01
-3.934689932612238095e-01 3.420953911932307911e-01 -2.735335145862909934e-01 -1.000000000000000000e+00 0.000000000000000000e+00 0.000000000000000000e+00
-3.882510157274292606e-01 -6.142416251034341773e-02 -5.241339595622028780e-01 -1.000000000000000000e+00 0.000000000000000000e+00 0.000000000000000000e+00
-2.748300547400223670e-01 -2.450081445699557881e-01 -5.369457915380534407e-01 0.000000000000000000e+00 0.000000000000000000e+00 -1.000000000000000000e+00
-2.161213345257673724e-01 3.352701029554944201e-01 -5.474101849034018752e-01 0.000000000000000000e+00 0.000000000000000000e+00 -1.000000000000000000e+00
-3.958587749215443097e-01 4.617963984641939024e-01 4.447683303870900162e-01 -1.000000000000000000e+00 0.000000000000000000e+00 0.000000000000000000e+00
-3.855868706723436512e-01 4.340705846756434672e-01 3.990011023490904196e-01 -1.000000000000000000e+00 0.000000000000000000e+00 0.000000000000000000e+00
-3.733046268891009323e-01 -2.061371261437945079e-01 -4.769953515146224121e-01 -1.000000000000000000e+00 0.000000000000000000e+00 0.000000000000000000e+00
1.329351985724332164e-01 -5.653799130825832853e-01 -4.348598551521734024e-01 0.000000000000000000e+00 -1.000000000000000000e+00 0.000000000000000000e+00
-3.840128543264265115e-01 2.443903550348332232e-01 4.973795524277532798e-02 -1.000000000000000000e+00 0.000000000000000000e+00 0.000000000000000000e+00
-3.840818387839614045e-01 6.189089383127555771e-03 1.731389848775863605e-01 -1.000000000000000000e+00 0.000000000000000000e+00 0.000000000000000000e+00
-3.884693703628883665e-01 2.960302322952692577e-01 4.967604172539740737e-01 -1.000000000000000000e+00 0.000000000000000000e+00 0.000000000000000000e+00
5.458447025530602792e-01 -2.758147978820173485e-01 -1.349652510595427402e-01 9.989135007489980955e-01 -1.848870714700415196e-02 4.277833247584350573e-02
-3.898894665740396115e-01 3.738633628461748848e-01 4.590427587282543409e-01 -1.000000000000000000e+00 0.000000000000000000e+00 0.000000000000000000e+00
-3.853231648734948278e-01 -4.117570582527144835e-02 -4.435837737844455231e-01 -1.000000000000000000e+00 0.000000000000000000e+00 0.000000000000000000e+00
3.907740382112575017e-01 -4.808706134389838516e-01 -2.653955909679795999e-01 -9.079701125682816398e-01 9.652014020657906368e-03 4.189237559605410444e-01
-3.896424964933432600e-01 -4.753411329558087095e-01 -2.618734044467237454e-01 -1.000000000000000000e+00 0.000000000000000000e+00 0.000000000000000000e+00
-2.117748001702374760e-01 3.499206486956021322e-01 6.406001478997441767e-01 0.000000000000000000e+00 0.000000000000000000e+00 1.000000000000000000e+00
-3.858997231275577700e-01 1.876022409813234842e-02 5.453821707639271432e-01 -1.000000000000000000e+00 0.000000000000000000e+00 0.000000000000000000e+00
5.373528510031263528e-01 -2.327609713703207017e-01 -8.368530347301868233e-02 9.887234906701720671e-01 1.812829895570425287e-02 1.486513497212941237e-01
-1.203471058573440805e-01 2.486763555916600976e-01 5.344469235014329689e-01 1.000000000000000000e+00 0.000000000000000000e+00 0.000000000000000000e+00
-3.859806725276024308e-01 -5.614653507856589565e-01 -3.453968074502994923e-01 -1.000000000000000000e+00 0.000000000000000000e+00 0.000000000000000000e+00
4.152161127216679737e-01 6.283753463757831004e-02 -1.294450702104069928e-01 -9.942031184509301234e-01 2.697711717583105295e-02 -1.040787894401505181e-01
-9.654953120984194337e-02 6.360354440351929650e-01 -3.141030731455149438e-02 8.871545090107237908e-01 4.643047161277806534e-02 -4.591307966666544060e-01
5.395506829397699322e-01 6.366009537217147685e-01 -1.288910010431458530e-01 9.921881094995684824e-01 -1.025839980346462434e-02 1.243282775604340890e-01
-2.465162809114949671e-01 -5.658412574184523702e-01 4.764771248420131000e-01 0.000000000000000000e+00 -1.000000000000000000e+00 0.000000000000000000e+00
2.329529458211763715e-01 -7.741579478912599677e-02 2.120675995058952101e-01 2.046468112860739541e-01 6.007525350919962030e-03 9.788174458343087414e-01
-3.010427547145230753e-01 -5.697368092353931601e-01 4.628743395435369057e-01 0.000000000000000000e+00 -1.000000000000000000e+00 0.000000000000000000e+00
-5.215869781659936144e-02 2.674198297186189954e-01 3.006178962263017507e-02 7.742175069625177874e-01 -7.829566816840174970e-03 -6.328711952650433181e-01
1.954581520644721737e-01 1.300045197101272754e-01 -5.461576776866182703e-01 9.519667020729301321e-02 -4.516896766301948390e-03 -9.954482365372127051e-01
4.074180179456696194e-01 -4.975821461725853379e-01 -2.315792481291724658e-01 -9.646160782630816000e-01 -9.537846480358675577e-03 2.634859598553017657e-01
-3.859796287835882134e-01 6.462320965490251368e-01 -2.999137038584741011e-01 -1.000000000000000000e+00 0.000000000000000000e+00 0.000000000000000000e+00
-3.891270242623355857e-01 6.005626881715508958e-01 -2.310659981256666662e-01 -1.000000000000000000e+00 0.000000000000000000e+00 0.000000000000000000e+00
3.450525398622351081e-01 6.752219488875338405e-01 1.282886763034538635e-01 0.000000000000000000e+00 1.000000000000000000e+00 0.000000000000000000e+00
-2.353262783738662989e-01 6.690333465981549432e-01 -4.500926062782957260e-01 0.000000000000000000e+00 1.000000000000000000e+00 0.000000000000000000e+00
-1.188813369315790403e-01 2.895747648483297798e-01 4.033995494105123147e-01 1.000000000000000000e+00 0.000000000000000000e+00 0.000000000000000000e+00
-9.123585904457318096e-02 5.651583502604707876e-01 2.315530929558610451e-01 0.000000000000000000e+00 0.000000000000000000e+00 1.000000000000000000e+00
4.280960346796661153e-01 7.373929734930681490e-02 -1.936980479735792293e-01 -9.795049269150158944e-01 -3.093221557460282614e-02 1.990308925490101022e-01
-1.422225492385159329e-01 -5.790974146724269245e-01 4.087791447925734900e-01 0.000000000000000000e+00 -1.000000000000000000e+00 0.000000000000000000e+00
3.933006373479514539e-01 4.956644106447786746e-01 -2.885494347473157584e-01 -8.527869341205421838e-01 1.082111081505531328e-02 5.221468649278806495e-01
-1.220471382390922177e-01 -5.777295749612232356e-01 4.588168758789704094e-01 0.000000000000000000e+00 -1.000000000000000000e+00 0.000000000000000000e+00
4.058400371550777153e-01 1.341989834169371176e-01 -2.526443332335208125e-01 -9.509924273621130908e-01 4.232727932870380266e-02 3.063034517019779801e-01
-3.845391515658048709e-01 -4.522499592557662207e-01 -4.788553066453997697e-01 -1.000000000000000000e+00 0.000000000000000000e+00 0.000000000000000000e+00
2.770511304250607987e-01 -4.756577415659609676e-01 -5.140766746405227572e-01 3.336269194795546400e-01 -2.855860133402172985e-02 -9.422725109480946104e-01
-6.475053403710906430e-02 -5.692748972900002480e-01 5.165546675424912415e-01 0.000000000000000000e+00 -1.000000000000000000e+00 0.000000000000000000e+00
4.792489147168699226e-01 8.501732330015637773e-02 -3.622545571802632813e-01 8.399459099951459562e-01 1.453084301436970323e-02 -5.424755504939534623e-01
2.185517477159120148e-01 6.672666412922114709e-01 -4.307278981314303645e-01 0.000000000000000000e+00 1.000000000000000000e+00 0.000000000000000000e+00
4.090067007927952192e-01 6.466042436683685501e-01 -7.867297926118535512e-02 -9.703585326572345959e-01 6.415694291954282535e-02 -2.329982935012981926e-01
-3.839179449510939368e-01 -1.726617045352181745e-01 3.227636261834374021e-01 -1.000000000000000000e+00 0.000000000000000000e+00 0.000000000000000000e+00
-3.924688736889491159e-01 -4.734384335744825645e-01 2.178992594555383047e-03 -1.000000000000000000e+00 0.000000000000000000e+00 0.000000000000000000e+00
-3.891801030805547845e-01 -5.491594598564688567e-01 2.433405250418072818e-01 -1.000000000000000000e+00 0.000000000000000000e+00 0.000000000000000000e+00
-1.223248469396484711e-01 2.028459961118225241e-01 6.119292631177478681e-01 1.000000000000000000e+00 0.000000000000000000e+00 0.000000000000000000e+00
-3.785558208973717753e-01 -4.987617473095508625e-01 -5.174010018873336225e-01 -1.000000000000000000e+00 0.000000000000000000e+00 0.000000000000000000e+00
-3.903215504140506997e-01 -5.516404069145467437e-01 5.757669172396051582e-01 -1.000000000000000000e+00 0.000000000000000000e+00 0.000000000000000000e+00
-3.867025116837009557e-01 -5.354761864245202174e-01 5.481880103313596653e-01 -1.000000000000000000e+00 0.000000000000000000e+00 0.000000000000000000e+00
3.640890007383583704e-01 -5.610487069793700377e-01 1.449687805648636890e-02 -7.602637243444619886e-01 -1.802533185906907837e-02 -6.493644253092853980e-01
4.204442045784784754e-01 2.211985520855134779e-01 -1.228998285401862317e-01 -9.920876343839485356e-01 -1.554193697277608983e-02 -1.245815953405447762e-01
1.734557440727728106e-01 6.698539321412935177e-01 1.409713280275315395e-01 0.000000000000000000e+00 1.000000000000000000e+00 0.000000000000000000e+00
-3.961127670786142585e-01 -5.077612094458147096e-01 5.604471317014342313e-01 -1.000000000000000000e+00 0.000000000000000000e+00 0.000000000000000000e+00
8.393376805387244011e-02 -1.839836658642549361e-01 6.129035694850186733e-01 0.000000000000000000e+00 1.000000000000000000e+00 0.000000000000000000e+00
1.302639685565897820e-01 6.652416213776325415e-01 1.247028968576703867e-01 0.000000000000000000e+00 1.000000000000000000e+00 0.000000000000000000e+00
2.771969127628287066e-01 5.554748038055902226e-01 -3.963493956822651265e-01 -4.734155971752329606e-01 -1.535940213827782785e-02 8.807052634776132427e-01
-7.759788191836845817e-02 -3.535278575336908702e-01 5.387978180892017965e-01 3.032710055919748959e-02 -2.744528422763344300e-01 -9.611222109274729641e-01
4.341776152269198330e-01 -1.095571516591927058e-01 -4.101161174468299087e-01 7.504787206257977905e-01 6.458736871841011355e-03 -6.608630528376404634e-01
-8.117770365243187625e-02 -3.859048689308675617e-01 5.425215088031850597e-01 2.184787478637521818e-02 1.297235050720660643e-01 -9.913094787195049218e-01
-7.286845133381941730e-02 -4.563790367144320292e-01 5.142334577187807065e-01 -1.209554575921889356e-02 6.831290742499195323e-01 -7.301974840323912641e-01
-5.121353330119265274e-02 -4.804114234983243303e-01 4.823992485999358815e-01 -3.344474577233341045e-02 8.993888378441120546e-01 -4.358682912780436070e-01
4.280121374516233090e-01 2.116850733026693632e-01 -1.613663873771340740e-01 -9.996051569997179698e-01 -1.350592782840165720e-02 2.463980545912139442e-02
-1.817431978418026020e-02 6.650577062495290903e-01 1.539193714799982626e-01 0.000000000000000000e+00 1.000000000000000000e+00 0.000000000000000000e+00
-3.526114212248304680e-02 6.688547292817259571e-01 1.828658706839740022e-01 0.000000000000000000e+00 1.000000000000000000e+00 0.000000000000000000e+00
-9.219508559065482667e-02 -4.708568433677015608e-01 3.778202736305702469e-01 -6.100843603721986530e-02 7.435002072450387356e-01 6.659470043170681031e-01
-1.943388245297841474e-02 2.931256369709092091e-01 5.280637304167081630e-02 6.753382224411907941e-01 5.285090897830958118e-03 -7.374892223783166001e-01
-6.548844754111687871e-02 -3.437619730297319376e-01 3.221099469281452632e-01 1.567191697768981814e-03 -2.462609234303336503e-01 9.692023016385287182e-01
1.633179670683841123e-01 -3.990180681130024443e-01 2.322789491666436834e-01 8.213590221393785029e-02 0.000000000000000000e+00 9.966211384309999755e-01
-3.677023042969487787e-01 5.980657546845705719e-01 6.408506988334861099e-01 0.000000000000000000e+00 0.000000000000000000e+00 1.000000000000000000e+00
5.342703902199650301e-01 6.347989887548491361e-02 -9.060285769736495243e-02 9.830399113943708578e-01 -2.590564836084535694e-02 1.815528297459218787e-01
1.134750520112445954e-01 -5.157794336223847642e-01 1.155741394719720927e-01 1.875091150085441694e-01 2.643058476977089982e-02 -9.819072033432896252e-01
4.306745895352159237e-01 2.494613272427969042e-01 -1.078217623321907348e-01 -9.912630486787608053e-01 2.360787992059165674e-02 -1.297699361552729913e-01
1.000086253975608769e-01 -4.776140661724897485e-01 -4.176493831287780290e-01 1.681906113413627057e-01 -3.889606268780224519e-03 9.857468180114469236e-01
4.282858807068221085e-01 6.323259263073718328e-01 -1.855690945200811348e-01 -9.991718829815960934e-01 5.440359091698367296e-03 4.032307964385851290e-02
4.068201589580759392e-01 6.531398854087254735e-01 -2.638749006436598710e-01 -9.227129036638137549e-01 4.985073686011598504e-02 3.822509665740518869e-01
2.530159589513550911e-01 5.782808277959077259e-01 -4.066438805836554149e-01 -4.053737827649527836e-01 -2.443088897208181912e-02 9.138245060791849728e-01
-6.637175735758248096e-02 -2.949675834095483729e-01 5.086074334076959857e-01 -7.785816084438648699e-02 -7.295498833209620448e-01 -6.794814747557879064e-01
-4.781265011556468103e-02 5.875145591238064569e-01 -3.387612115350716602e-01 7.513722059609213577e-01 -2.889083458415623445e-02 6.592458780959117304e-01
-7.823242692047521762e-02 5.838131306523686170e-01 -2.951994438056236847e-01 8.442918311909470841e-01 -2.395223897140650801e-02 5.353481054720321541e-01
2.921277113988625662e-01 -4.700961322855619073e-01 6.444641115396827769e-02 -5.111576709937616370e-01 -2.502394737742053357e-02 -8.591225974457227244e-01
-3.883693798897338567e-01 4.515664320737204362e-01 3.340098876881023582e-01 -1.000000000000000000e+00 0.000000000000000000e+00 0.000000000000000000e+00
-3.073003959339515867e-01 -5.789515838130591119e-01 -5.221775340374708030e-01 0.000000000000000000e+00 -1.000000000000000000e+00 0.000000000000000000e+00
-3.515894212760219961e-01 6.574344786104256988e-01 -1.039783654014594418e-02 0.000000000000000000e+00 1.000000000000000000e+00 0.000000000000000000e+00
8.206785642198059783e-03 -2.447897198721096790e-01 -3.879477195784934995e-01 4.783781701583253443e-01 -3.549826184975811427e-02 8.774361513646552480e-01
-3.819179559701010862e-01 -2.242815957236592717e-01 -3.537294658042194340e-01 -1.000000000000000000e+00 0.000000000000000000e+00 0.000000000000000000e+00
4.557337102145024577e-02 5.928020974366614987e-02 -4.022160092822981703e-01 3.744350689824323952e-01 -1.997879791889060203e-02 9.270378777319928654e-01
-1.470257791215987542e-01 -1.149269263718847717e-01 -5.423245805319268920e-01 0.000000000000000000e+00 0.000000000000000000e+00 -1.000000000000000000e+00
2.264390923265780786e-01 3.509129901921013706e-01 2.283496955360571345e-01 2.506277064771693652e-01 1.834310156917314319e-02 9.679097496000425016e-01
1.905905893798450490e-01 -1.847859943001618765e-02 -5.447755256353477016e-01 1.046292317969599733e-01 -1.396303715436392028e-02 -9.944132729640146051e-01
-3.831304670842781701e-01 -2.417331352531814082e-01 -1.210971524655745507e-01 -1.000000000000000000e+00 0.000000000000000000e+00 0.000000000000000000e+00
-8.118091021456575254e-03 2.905006271595849121e-01 5.900326585517502720e-02 5.607650531079858558e-01 -6.761276444390176658e-03 -8.279473656903802992e-01
2.379371635208286928e-01 6.717019042389209549e-01 -5.294911885014134123e-01 0.000000000000000000e+00 1.000000000000000000e+00 0.000000000000000000e+00
4.516679138803447735e-02 1.028162416954992997e-01 8.307274188272435744e-02 4.110606344162060499e-01 -1.398502124173258386e-02 -9.115007262828782597e-01
1.995362065037032395e-01 1.586298263312677093e-02 -5.416241735969596904e-01 1.191843081857592024e-01 3.214370673375396923e-03 -9.928669440078343733e-01
1.236258360431666259e-01 2.372688538656274326e-02 -5.439857771024579902e-01 1.298158544978467513e-02 2.800896782080064106e-03 -9.999118128197237443e-01
3.748478658707329880e-01 -8.760363077743765770e-02 -1.985067202469948180e-02 -8.755430308133517192e-01 3.062490135341624370e-03 -4.831304403040044271e-01
1.423463604346996980e-01 6.315778563712342031e-01 1.202145351425708969e-01 9.740490743193883083e-02 1.549334536962972651e-02 -9.951242335796234295e-01
1.473753091468741894e-01 -5.663672733349499611e-01 -5.158725210421196694e-01 0.000000000000000000e+00 -1.000000000000000000e+00 0.000000000000000000e+00
8.384333290579532028e-02 4.523673769467695394e-02 2.194431368340364064e-01 1.349805327781045778e-04 5.520193342131085006e-06 9.999999908748915534e-01
2.336882788231486041e-01 5.224841749362476584e-01 -5.310555871255461247e-01 2.163261234482272699e-01 -1.728540503814780804e-02 -9.761681325911687468e-01
1.264261330339492562e-01 6.741207125321425631e-01 1.883180302868888989e-01 0.000000000000000000e+00 1.000000000000000000e+00 0.000000000000000000e+00
1.076582787871351310e-01 -3.243132467757802728e-01 1.142041996383541119e-01 1.645276466873548116e-01 -2.365046367345682854e-02 -9.860888951020346793e-01
-1.417207900523338171e-01 -1.479601079315708834e-01 6.383056236265185479e-01 0.000000000000000000e+00 0.000000000000000000e+00 1.000000000000000000e+00
8.611641245972095904e-02 5.734093379350077013e-01 2.414429063343654924e-01 3.542072261907542804e-03 -1.636559007594616446e-03 9.999923876703793457e-01
-1.957263262944202165e-01 -5.736488035976121669e-01 1.285369686711210491e-01 0.000000000000000000e+00 -1.000000000000000000e+00 0.000000000000000000e+00
4.308116990712117511e-01 5.906898974674223979e-02 1.232309715557572405e-01 6.907542409498309555e-01 -1.481509760915038047e-02 7.229378199351963463e-01
-1.251057514646386204e-01 2.639715404602684945e-01 2.592447843316492695e-01 1.000000000000000000e+00 0.000000000000000000e+00 0.000000000000000000e+00
-1.188222429267090929e-01 6.289992687320068443e-01 5.734893339764136622e-01 1.000000000000000000e+00 0.000000000000000000e+00 0.000000000000000000e+00
-3.848728889684314702e-01 -3.003772697191493535e-01 1.290446340850126272e-01 -1.000000000000000000e+00 0.000000000000000000e+00 0.000000000000000000e+00
-3.907726338764291318e-01 -3.007018513969239026e-01 -1.283762841850827063e-01 -1.000000000000000000e+00 0.000000000000000000e+00 0.000000000000000000e+00
-3.855309307012707021e-01 -3.116596046852885826e-01 -9.594582294786679899e-02 -1.000000000000000000e+00 0.000000000000000000e+00 0.000000000000000000e+00
-3.871398895809889940e-01 -2.741391498014878261e-02 -3.001888664279628860e-01 -1.000000000000000000e+00 0.000000000000000000e+00 0.000000000000000000e+00
2.847181485377685006e-01 1.571027060034499989e-01 8.401146565256636944e-02 -4.950275286119991680e-01 2.212435529570165593e-02 -8.685955668888978298e-01
-3.805518814269715500e-01 -3.107024611613200538e-01 -2.933733310131598770e-01 -1.000000000000000000e+00 0.000000000000000000e+00 0.000000000000000000e+00
4.053588756456008579e-01 5.967063365200102609e-01 -2.041367570974006174e-01 -9.821139053717485856e-01 -1.301999934979077705e-02 1.878370477099324254e-01
3.397545052303633240e-01 -7.063047616751179369e-02 4.773753484470794062e-02 -6.739404148915686399e-01 -2.233291783914769565e-03 -7.387823289600180532e-01
1.271095348753920606e-01 3.674459781684937254e-01 -5.437108450994814213e-01 1.912329095580930782e-02 -6.667690116461959422e-03 -9.997948997927176285e-01
4.503596129132595438e-01 -5.648797226017200357e-01 5.877120747311106314e-02 0.000000000000000000e+00 -1.000000000000000000e+00 0.000000000000000000e+00
3.554209494902778599e-01 -1.447677584551516072e-01 1.893987627417604430e-02 -7.552790656636561017e-01 1.882620506041371086e-02 -6.551328926052011337e-01
-1.338540054737411278e-01 -5.784857513454719768e-01 -4.421798398409807485e-01 0.000000000000000000e+00 -1.000000000000000000e+00 0.000000000000000000e+00
3.077731850045221651e-01 -2.923891982456332528e-01 6.015273502462178262e-02 -5.703496097085636318e-01 -2.754911578055959168e-02 -8.209399301562803064e-01
-3.664241376705772435e-01 -4.478109060544275821e-01 -5.440555179646798800e-01 0.000000000000000000e+00 0.000000000000000000e+00 -1.000000000000000000e+00
-7.897756884121011345e-02 5.874807494929974727e-02 2.322204666183451671e-01 0.000000000000000000e+00 0.000000000000000000e+00 1.000000000000000000e+00
2.013508819563223501e-02 6.376240271647226621e-02 8.126375223888047949e-02 4.608027142593196790e-01 4.419251084739517915e-02 -8.864016474015864455e-01
-3.616853912451741815e-01 3.879620595648437809e-02 6.313525964092167042e-01 0.000000000000000000e+00 0.000000000000000000e+00 1.000000000000000000e+00
2.142691598358355820e-01 -1.455953982798448010e-01 1.097084211716244095e-01 -1.737790181272826917e-01 -1.630157995815144714e-02 -9.846497404405212261e-01
-2.723461063077357580e-01 1.992389283636540886e-01 6.361462902029807465e-01 0.000000000000000000e+00 0.000000000000000000e+00 1.000000000000000000e+00
2.525948163055032336e-01 -3.579184425503213057e-02 9.824025540973163606e-02 -3.439937178979990406e-01 -3.137953304307427443e-02 -9.384474662721992155e-01
2.155881532160339176e-01 -9.659679544593864631e-02 1.175579978084926591e-01 -2.383468069897895780e-01 -2.535397260510753939e-02 -9.708491003605612679e-01
1.933612975475562101e-01 -1.247806424372957107e-01 1.132328043624275110e-01 -1.805518970330874662e-01 2.719674150843894717e-02 -9.831893763304588862e-01
-3.692650306393584492e-01 -5.717982542859492145e-01 4.406502528887785153e-01 0.000000000000000000e+00 -1.000000000000000000e+00 0.000000000000000000e+00
-3.972695784473550540e-01 6.003286549526887228e-01 -5.416556095213366229e-01 -1.000000000000000000e+00 0.000000000000000000e+00 0.000000000000000000e+00
1.448113592996902732e-01 -1.351849682767237715e-01 1.185268179570668212e-01 1.368345231465212253e-02 2.679519890090331299e-02 -9.995472877501162534e-01
-1.119917857486399937e-01 2.881347987513214748e-01 -2.111816235120587137e-01 9.891395505757416551e-01 8.765280325873332301e-04 1.469768049231847951e-01
4.185556315942016159e-01 -4.054069508871942229e-02 -4.323656004526010843e-01 6.807335079930338928e-01 1.662882158146679204e-03 -7.325292662538652744e-01
-3.933154627914049045e-02 -1.042242087957749586e-01 4.399159189219821464e-02 6.878146960572116830e-01 2.093691580119024648e-02 -7.255843089844621341e-01
-1.131653162268673463e-01 3.819254047158754384e-02 5.637833459508465594e-01 1.000000000000000000e+00 0.000000000000000000e+00 0.000000000000000000e+00
-3.469833875471901585e-01 -5.791457347009357770e-01 -2.540333046559170582e-01 0.000000000000000000e+00 -1.000000000000000000e+00 0.000000000000000000e+00
-1.203932597230552293e-01 2.419956453748723646e-01 -1.179604718085358883e-01 9.876035833468045366e-01 -7.577967303024212183e-03 -1.567856389217629209e-01
-3.946468497714367141e-01 2.553361142112750004e-01 -3.524528587117100042e-01 -1.000000000000000000e+00 0.000000000000000000e+00 0.000000000000000000e+00
-4.000047643487281146e-01 2.063950753204835675e-01 2.973408176784321233e-01 -1.000000000000000000e+00 0.000000000000000000e+00 0.000000000000000000e+00
-3.884896735857148453e-01 2.367554232679186244e-01 3.050712282840287171e-01 -1.000000000000000000e+00 0.000000000000000000e+00 0.000000000000000000e+00
-1.073586980256814455e-01 -1.383512446921112138e-01 -7.030453794579845372e-02 9.495920897810056216e-01 -1.910441188519238637e-02 -3.129055519991033041e-01
-1.076830277602777719e-01 -1.088912206959139761e-01 -9.696766583256526129e-02 9.870605540215223739e-01 9.102883662934704509e-03 -1.600893506881216621e-01
-8.343111941214560734e-02 2.864621192138445266e-02 -1.719797127203048434e-02 8.602419298241011925e-01 -1.924550662110658186e-02 -5.095227498820861234e-01
-2.153151301338393220e-01 -3.393243908124574659e-01 6.415018825694400739e-01 0.000000000000000000e+00 0.000000000000000000e+00 1.000000000000000000e+00
-3.913399290052924639e-01 1.907792777774059909e-02 -4.286591341612310258e-01 -1.000000000000000000e+00 0.000000000000000000e+00 0.000000000000000000e+00
-2.498249483397652904e-01 -5.743180964854406323e-01 -1.894333404578307234e-01 0.000000000000000000e+00 -1.000000000000000000e+00 0.000000000000000000e+00
-1.187544121932025132e-01 -8.325365694418765394e-02 -1.862239348858915622e-01 9.809161775606805023e-01 5.358929814161886469e-03 1.943572341617113564e-01
-9.687259886827752353e-02 -3.138678201614976682e-01 -2.381255264807446703e-01 9.295059778020337005e-01 -2.488495374918350128e-02 3.679665423746922293e-01
-4.744641669245818622e-02 -5.060541858981754126e-01 -3.277099505831356230e-01 7.524138325889118128e-01 2.872725323047827656e-03 6.586844251825627605e-01
3.189784011954345244e-01 -2.308892630270589497e-01 -5.156498397251815247e-01 4.452698792282287488e-01 2.705785261340677705e-02 -8.949874900042065207e-01
3.195114286799977665e-01 -2.000419608968188323e-01 -4.997759517277864383e-01 4.454847780000086854e-01 -2.345043114731582001e-02 -8.949823405237044005e-01
-9.303357756859387262e-02 4.843378345356913472e-01 -5.639796348048588953e-02 9.211121021215363802e-01 -2.401921001347525134e-02 -3.885557525961658709e-01
-4.153628354628437908e-02 2.172443951779878535e-01 2.305458785619891870e-01 0.000000000000000000e+00 0.000000000000000000e+00 1.000000000000000000e+00
-1.148781368738368974e-01 -1.498981265626929960e-01 4.338571556264724793e-01 1.000000000000000000e+00 0.000000000000000000e+00 0.000000000000000000e+00
-8.328479910555922072e-02 -7.723110199660845887e-02 -2.966955250156027568e-01 8.576462459777633995e-01 1.165050758864604602e-02 5.141081427415605809e-01
-1.006925627863737571e-02 6.020915201643061154e-01 2.381770846726021240e-01 0.000000000000000000e+00 0.000000000000000000e+00 1.000000000000000000e+00
-1.133281509352895566e-01 2.321525135875230073e-01 4.266494291748978984e-01 1.000000000000000000e+00 0.000000000000000000e+00 0.000000000000000000e+00
1.361047453780031835e-01 5.919144924442312772e-02 1.122745033977648327e-01 1.355324496641164278e-01 -2.415146481721586191e-02 -9.904785014502972551e-01
1.190588789742133696e-01 1.819936495325159831e-01 1.136771240202509164e-01 1.468731308468885777e-01 1.721175308194889536e-02 -9.890055808695311645e-01
-3.292825866492133935e-01 6.695710697634906783e-01 -2.014902564406094443e-01 0.000000000000000000e+00 1.000000000000000000e+00 0.000000000000000000e+00
4.018779549723763833e-01 1.767331026668880478e-01 -3.555226549721228479e-02 -9.077987859314472496e-01 -1.663116804616312366e-02 -4.190760891661691190e-01
-3.961542888633260429e-01 5.928834267078455511e-01 -2.939034043553575559e-01 -1.000000000000000000e+00 0.000000000000000000e+00 0.000000000000000000e+00
3.607477148793218902e-01 -1.908986799451344377e-02 -4.847829538950620964e-01 5.125120123369893976e-01 1.677497676157238549e-02 -8.585161835195295188e-01
2.479539209026588031e-01 -5.553039596677473710e-01 -5.311805098427690996e-01 2.333878745243601616e-01 1.346265568194151370e-03 -9.723827886146594324e-01
-3.685427061874665955e-01 -5.754474794661953441e-01 4.660142433177564270e-01 0.000000000000000000e+00 -1.000000000000000000e+00 0.000000000000000000e+00
-3.897364574503672241e-01 3.711247189821725301e-01 -4.909464239830916288e-01 -1.000000000000000000e+00 0.000000000000000000e+00 0.000000000000000000e+00
3.949246551284656404e-01 5.452983490870151329e-01 -2.719979035185079996e-01 -8.961312001853980469e-01 -6.194934298168050177e-03 4.437459800869404947e-01
-3.842247460454861208e-01 3.509085328474865206e-01 -5.408780705016166257e-01 -1.000000000000000000e+00 0.000000000000000000e+00 0.000000000000000000e+00
-3.897470084445559535e-01 3.478144727796833036e-01 -4.695840288738459267e-01 -1.000000000000000000e+00 0.000000000000000000e+00 0.000000000000000000e+00
-2.539575024582854668e-01 6.639550613003557533e-01 8.324103159684559383e-02 0.000000000000000000e+00 1.000000000000000000e+00 0.000000000000000000e+00
-3.861317570458975279e-01 -2.064675889994924962e-01 3.718524420364275329e-01 -1.000000000000000000e+00 0.000000000000000000e+00 0.000000000000000000e+00
1.979791441800320406e-01 -1.734506963549956593e-01 2.312779336266614916e-01 1.677944583084061414e-01 -7.158904985063321499e-03 9.857960082290876391e-01
-3.795668345678083200e-01 1.073491727576156435e-01 -5.531662219972515171e-01 0.000000000000000000e+00 0.000000000000000000e+00 -1.000000000000000000e+00
1.829037277605520817e-01 6.003900676028294248e-01 -5.464849581383761645e-01 8.932716473337146135e-02 -2.233524329378060169e-02 -9.957518739865391932e-01
5.604234419053985561e-02 6.039210086960747903e-01 -4.016182150501503845e-01 3.672856783289299432e-01 2.674120617513256817e-02 9.297236892683529152e-01
-3.992217073365039171e-01 6.005613996902986473e-01 2.707569099288963388e-01 -1.000000000000000000e+00 0.000000000000000000e+00 0.000000000000000000e+00
1.440126472929751655e-01 -9.038233751103934288e-02 2.329300676345769927e-01 3.067679715954897690e-02 3.259857544222588988e-03 9.995240404536668288e-01
-3.829452804786097619e-01 2.841964833914307209e-01 -3.306100094220280616e-01 -1.000000000000000000e+00 0.000000000000000000e+00 0.000000000000000000e+00
