-1.158053817052282219e-01 9.868615631449589864e-02 5.923989428640124011e-01 -6.865258194853430807e-01 -2.623708194322951770e-01 6.781178749232350533e-01
-1.240583133895394041e-01 1.065760351076940060e-01 5.896987043617183399e-01 -6.865258194853430807e-01 -2.623708194322951770e-01 6.781178749232350533e-01
-1.232550893600239256e-01 8.927081238563490395e-02 5.791144324220210970e-01 -7.081332915113219828e-01 -2.582550024954282097e-01 6.571541639063299689e-01
-1.082893269781046164e-01 6.740148794275978295e-02 5.746615572969028252e-01 -6.865814301859225477e-01 -2.964422131519077186e-01 6.638734472664590269e-01
-1.269058310327122463e-01 7.213882327904763692e-02 5.687688998996948131e-01 -6.921243701761355949e-01 -2.961307554884734516e-01 6.582328097733456396e-01
-4.202502313845406234e-02 1.123167055074092285e-01 6.734592031099866372e-01 -5.404380094784418942e-01 -3.697065580296575449e-02 8.405711918216554057e-01
-1.604019212239548350e-03 9.589047737188101383e-02 6.775026146122480331e-01 -6.820576093457590972e-01 -1.250744921323261247e-02 7.311914805628728642e-01
7.940900250720773004e-03 9.700466886009405376e-02 6.844634711388634107e-01 -6.252536862196528267e-01 7.164917113295481144e-02 7.771256167085835997e-01
1.731771395470210056e-02 1.036465512228749719e-01 6.941350740680044540e-01 -6.265568594177340911e-01 7.121727006304050256e-02 7.761150703093927516e-01
-1.706772366217109219e-03 1.061286614881277318e-01 6.873857750539157374e-01 -6.014912097103506383e-01 6.400151924113681168e-02 7.963115785771328614e-01
-1.736682538303818343e-02 8.453209013675794248e-02 6.707794987557806898e-01 -6.013865867615657557e-01 -2.769511113594403523e-02 7.984780235438175833e-01
-3.176015444838090757e-02 3.698123511554963355e-02 6.560347339875481909e-01 -6.666313054124226589e-01 -1.622487878372509684e-01 7.275149713163790999e-01
-3.380161377837052894e-02 4.047443462393474772e-02 6.650762161705614517e-01 -6.666313054124226589e-01 -1.622487878372509684e-01 7.275149713163790999e-01
-7.781261201419258262e-03 6.180198411038633627e-02 6.681717117109585713e-01 -7.105266063616640926e-01 -2.339216174327067577e-02 7.032814148128425646e-01
-2.982530103299415626e-03 7.865683407573011154e-02 6.702542972122036424e-01 -6.075491081604804666e-01 -7.418123783074445643e-02 7.908104862274546454e-01
-4.040781523755363619e-02 7.092151793253079206e-02 6.549286985618625323e-01 -6.773925404349800949e-01 -1.216618016757069348e-01 7.254913867001212546e-01
-1.918628464047880677e-02 6.737592279665502448e-02 6.670199604676411154e-01 -6.701387666792539832e-01 -1.210912051354507968e-01 7.322915767864960346e-01
-2.982159329094239558e-02 9.016982192586700529e-02 6.659856936721724185e-01 -6.744166578098883535e-01 -3.394439361483830159e-02 7.375703016056577299e-01
-5.922588394194362726e-02 6.499992000690014982e-02 6.305700548990623711e-01 -6.609575066035022761e-01 -1.933537725716496514e-01 7.250858522249568061e-01
-4.773575684006695075e-02 4.358494912471978094e-02 6.445258162083585818e-01 -6.894341224555701197e-01 -1.358909642773749038e-01 7.114873411535044267e-01
-5.586420353303400699e-02 7.375232540431574113e-02 6.322862505453745730e-01 -6.570591149525836228e-01 -1.511988559270463495e-01 7.385202945241788886e-01
-2.642218818190224597e-02 9.566533342478109048e-02 6.658975764495089766e-01 -6.494191785026468544e-01 -1.047742386671922793e-01 7.531779932424059743e-01
-6.261248324674313637e-02 8.444442211545664934e-02 6.490629719270657461e-01 -6.039981603002512189e-01 -1.638842504851263648e-01 7.799539568441462567e-01
-3.022070529528775307e-02 1.006206106056357769e-01 6.507446299255971178e-01 -6.003559661747043252e-01 -1.417932586997550926e-01 7.870625042941263860e-01
-6.415538615336642547e-02 9.595885423394265312e-02 6.441955328252906288e-01 -5.894101334351662391e-01 -2.184245571789668050e-01 7.777444358046619044e-01
-1.096053210411047640e-01 1.016580585855170887e-01 6.096588458410584499e-01 -6.286690903466339853e-01 -2.420932248711742674e-01 7.390304765801007925e-01
-8.673344041774057323e-02 1.144387403439536127e-01 6.153585611843741532e-01 -6.286690903466339853e-01 -2.420932248711742674e-01 7.390304765801007925e-01
-8.546593243366541748e-02 9.368696759307405808e-02 6.234738671066968330e-01 -6.460051992713047309e-01 -2.333810051692005727e-01 7.267809772831532733e-01
-7.607407228400096810e-02 6.815339829977608288e-02 6.180011622658119208e-01 -6.460051992713047309e-01 -2.333810051692005727e-01 7.267809772831532733e-01
-7.687788295288632001e-02 1.037208948916898132e-01 6.289653300684771020e-01 -6.039954362067219140e-01 -2.287559848984727362e-01 7.634528226515253646e-01
-6.950754028912514704e-02 9.921201675066897152e-02 6.403233061549145066e-01 -6.189022090037411550e-01 -2.188362968105317663e-01 7.543677689884042969e-01
-7.373771143600373057e-02 7.517780542791409337e-02 6.320200900809185285e-01 -6.189022090037411550e-01 -2.188362968105317663e-01 7.543677689884042969e-01
2.384244798162721279e-01 -3.155974586751667532e-01 -3.559991705151048791e-01 4.466984968922467214e-01 3.621810106377448268e-01 -8.180986299998487254e-01
2.228370087323811588e-01 -3.192525851030005302e-01 -3.735999267518891886e-01 4.360665704054603742e-01 3.807539866211620549e-01 -8.153970492017442728e-01
2.203954246895195035e-01 -2.953954586503718116e-01 -3.588045669522013648e-01 3.878214912511218082e-01 4.664581388810329354e-01 -7.949913808308861629e-01
2.136957342487171840e-01 -3.316446108095285616e-01 -3.880308840767903722e-01 3.283695907144132398e-01 3.953439395867791029e-01 -8.578324902485646719e-01
2.220934954313291410e-01 -3.488434141012478062e-01 -3.853277986819466649e-01 4.055214576260582349e-01 3.677869739763678925e-01 -8.368303825615698299e-01
1.800082880780344841e-01 -4.520061554714385199e-01 -4.462343774458315537e-01 2.877271283184181794e-01 4.315660098478051321e-01 -8.549642558456352903e-01
1.982894132657176955e-01 -4.420893369981204191e-01 -4.342241983016337237e-01 3.426875628674133090e-01 4.015360221455788747e-01 -8.493138743571176930e-01
1.911327855038522372e-01 -4.237283578062160938e-01 -4.339100349662289302e-01 3.276755104804668917e-01 3.690762627359898684e-01 -8.697191915303468246e-01
2.026193671215698877e-01 -3.809897686304198339e-01 -4.127723911713873650e-01 3.833888957036438172e-01 3.922628463003345334e-01 -8.361476030363900191e-01
1.740886471985870210e-01 -3.921407957616316886e-01 -4.301385501974105963e-01 3.224038162523010231e-01 3.881521761171869978e-01 -8.633618403899055993e-01
2.317417527249746867e-01 -4.382740516046252921e-01 -4.168350752867199249e-01 4.956087247045894983e-01 3.463751676882136921e-01 -7.964899467072086292e-01
2.320433521595720583e-01 -4.655006984780796220e-01 -4.266521525766764911e-01 6.307822630808970210e-01 3.212526416784393102e-01 -7.063359517943046395e-01
2.326141332768708603e-01 -4.686047562393771959e-01 -4.276866285154451441e-01 5.474945406033496775e-01 3.239318811425653255e-01 -7.715684443968443551e-01
2.768061308586715064e-01 -4.981452597223219314e-01 -3.991818193525392133e-01 5.981186086278089675e-01 4.963768171424831621e-01 -6.291773878777207063e-01
2.797234196637845005e-01 -4.870924327666453779e-01 -3.982923988011750627e-01 6.939260348850654347e-01 3.726357379258957159e-01 -6.161243907922443475e-01
2.755346053706794196e-01 -4.962177872148700875e-01 -4.074660893371374604e-01 6.809831753814568067e-01 4.312632659453244366e-01 -5.918394294853634996e-01
2.568155598892333802e-01 -4.710300375504021253e-01 -4.178698642031707378e-01 7.365711376051579107e-01 2.818202948105663075e-01 -6.148498033503215776e-01
2.375995671635473261e-01 -4.400909751296606665e-01 -4.170143720913900287e-01 6.446533110969092650e-01 2.793961212149382312e-01 -7.115897103962640635e-01
2.422848339217296976e-01 -4.204227127651183338e-01 -4.046635252148737538e-01 5.639242406197513269e-01 3.478070441445132999e-01 -7.490124904732184952e-01
2.313640235869980355e-01 -3.649515510527861495e-01 -3.721638133622690026e-01 5.142940671191312818e-01 3.669509504937605304e-01 -7.751442526767443608e-01
2.211970153040344889e-01 -3.977963135343056678e-01 -4.032457198362820461e-01 4.485291363961879108e-01 3.618996707911042998e-01 -8.172210484838114963e-01
2.110860152364099351e-01 -3.878515688280398943e-01 -4.156670793783925344e-01 4.032996351550910963e-01 3.865334545651993858e-01 -8.294222644622359919e-01
2.204032472717082636e-01 -3.584284668851447919e-01 -3.881696790894788029e-01 3.869504727984910963e-01 3.736598039738295296e-01 -8.429992185614784139e-01
1.217209904065640336e-01 -5.508409490059014146e-01 -5.070123586866972509e-01 -1.219556525171104355e-01 4.761493042406280685e-01 -8.708666137189390311e-01
1.155665532989125499e-01 -5.405236214791293570e-01 -4.926937316619081075e-01 -1.000647471290453117e-01 4.188713827690303537e-01 -9.025152691667663873e-01
3.556230044770639781e-02 -5.660195847204352315e-01 -5.143193031068558074e-01 9.143010093310623143e-02 4.294135582194409384e-01 -8.984678807061946548e-01
1.945325025440924893e-02 -5.977733871916032227e-01 -5.164472895626899263e-01 -6.081191866964279907e-02 5.088216913039258493e-01 -8.587213733256725545e-01
1.727861831639052048e-02 -5.717772450059509515e-01 -5.092323629132263774e-01 1.401196433269758512e-01 4.113356618296579170e-01 -9.006494650312507622e-01
3.853313395042477600e-03 -5.666877121636703096e-01 -4.914214249875747953e-01 -1.126108490766845605e-01 3.578929632863513399e-01 -9.269473682471633946e-01
1.059237967253019719e-01 -5.270057600700036593e-01 -4.815644111058301480e-01 -7.313122565688724708e-02 3.728416052303031303e-01 -9.250086276587977663e-01
4.895302576120662968e-02 -2.945501815566184400e-01 -3.399958422236452060e-01 -3.068980638450952703e-01 5.099060358613980437e-01 -8.036226807403127337e-01
4.049353657735076106e-02 -2.748301383229561079e-01 -3.344386161536201940e-01 -3.156514116742198950e-01 4.867910438694307840e-01 -8.144928888066377271e-01
6.470146390732626346e-03 -3.334832580884793951e-01 -3.456758513222176199e-01 -4.586751840839422556e-01 5.121347436925028918e-01 -7.261784076992211512e-01
-1.181001187114498335e-01 -4.869093584045197654e-01 -3.539809315823840286e-01 -7.381682638765888482e-01 2.653654045291584107e-01 -6.202328726248704793e-01
-1.351629928785479939e-01 -4.855870430125452941e-01 -3.361416942631971216e-01 -6.911894558419345858e-01 1.693565750434096184e-01 -7.025492770065998593e-01
-1.681328245625610673e-01 -5.253569592203316541e-01 -2.781769195550633511e-01 -8.935375986216403943e-01 1.268270790578313878e-01 -4.307034384203713429e-01
-1.721195154333665933e-01 -5.564134692831632645e-01 -2.995505017708617879e-01 -8.541033015993340083e-01 3.094692383596487906e-01 -4.180147613496633663e-01
-1.816811635830908600e-01 -5.546852227111865874e-01 -2.792007207897869714e-01 -8.596081846961728390e-01 3.218948346994705001e-01 -3.968091281676255355e-01
-1.636033868329841157e-01 -5.310712179967918001e-01 -2.690631368600303608e-01 -8.637263062603204311e-01 3.072134103303448827e-01 -3.994956675448462224e-01
-1.791656500975355726e-01 -5.316450350945319814e-01 -2.645830679919862760e-01 -8.790231196891180598e-01 2.454999604132258872e-01 -4.087152119619659185e-01
-1.559916983989469152e-01 -5.251088134041571598e-01 -3.038568124689326466e-01 -8.784908444276086081e-01 2.234533233803842056e-01 -4.222824274429717306e-01
-1.551018377583852637e-01 -5.297905941374321248e-01 -3.072653701582974684e-01 -8.600240421087288478e-01 3.040424681644510740e-01 -4.097765544140271610e-01
-1.326103018643828846e-01 -4.990032664982332888e-01 -3.482055007545169500e-01 -8.276264425938261171e-01 2.578719672312103639e-01 -4.985343719702722831e-01
-8.099253726044303159e-02 -5.508453074590400345e-01 -4.142281259403324256e-01 -5.236427995490245957e-01 3.515393417915569363e-01 -7.760272608956588769e-01
-8.783601667688321901e-02 -5.255202434655855681e-01 -4.085369786995647901e-01 -5.261598787566974522e-01 3.405148441536835491e-01 -7.792338691931519623e-01
-6.286699979261255178e-02 -4.802657657078745479e-01 -3.894518029693517791e-01 -6.017770584121580058e-01 4.500948861227762055e-01 -6.597567471840930509e-01
-5.561234995745709120e-02 -4.697427450148953243e-01 -3.986933864282530826e-01 -6.219414898684669790e-01 4.774668552365799457e-01 -6.206562537594237927e-01
-4.924147161447319648e-02 -4.529176527248405804e-01 -3.880287091570007174e-01 -6.001833238201456089e-01 5.203720810750720460e-01 -6.074478373044065460e-01
1.558018309037269011e-01 -6.314330908414490517e-01 -6.511011715929924115e-01 -3.144235963796596089e-01 -6.547535429958137310e-02 -9.470220588872390044e-01
9.751069887115489110e-02 -6.251375823745060067e-01 -6.340825551250635073e-01 -2.636495295286016005e-01 7.697007289722065382e-01 -5.814204274008618611e-01
1.330148088281711549e-01 -6.211861983687705369e-01 -6.400150930906192137e-01 -2.775745182899891916e-01 4.664487836953248867e-01 -8.398677985166667082e-01
1.434163431164500180e-01 -6.226500822421010550e-01 -6.296098132046866747e-01 -1.374576903171110046e-02 9.403125088195245507e-01 -3.400344682399982776e-01
1.440213064322962422e-01 -6.103406544160128178e-01 -6.135677859831892844e-01 -2.887818259651565855e-02 9.704467909706895323e-01 -2.395810436253527076e-01
1.455922841319374494e-01 -6.105923406382093299e-01 -5.698092506170873150e-01 -9.415899361062579631e-02 9.941822503958366308e-01 -5.230427248422535313e-02
1.596923213235393602e-01 -5.998224934250162566e-01 -5.733807877771085471e-01 -9.437532683387729604e-02 9.941934174556076309e-01 -5.169861093819455578e-02
1.524870216886133056e-01 -6.088602027978657905e-01 -5.896480447125294067e-01 -7.844600787711164536e-02 9.862447216064481603e-01 -1.454908002299934167e-01
1.205948980842578566e-01 -6.201549881071144465e-01 -5.992710294575972485e-01 -1.079182147436283379e-01 9.856517670677761300e-01 -1.297854113632140316e-01
2.701813604692506199e-01 -6.009421862051729235e-01 -4.843703018307211061e-01 4.129944154208568530e-01 7.531753976884196788e-01 -5.120180008047330311e-01
2.732660671243791195e-01 -5.963379498134243617e-01 -4.999887263004005877e-01 2.975453336909772428e-01 8.102853309643586188e-01 -5.048806362128624992e-01
2.605883409070892665e-01 -6.220817729160349474e-01 -5.122042128994571675e-01 2.846089520120012595e-01 8.611079009563069597e-01 -4.212967212609817214e-01
2.311328954478470976e-01 -5.715606551204993613e-01 -4.976591232128895759e-01 5.409573739894608657e-01 4.973557614782139202e-01 -6.782347425861142698e-01
2.445438187318140777e-01 -6.022519534777094341e-01 -5.050603267865935164e-01 4.747381066907078728e-01 7.037954180597918441e-01 -5.284843796875787758e-01
2.064700949575100086e-01 -6.085271317048390749e-01 -5.406810204201727421e-01 1.811498686666348501e-01 8.976696184220155361e-01 -4.017138051450731551e-01
2.197518367768054037e-01 -5.969841252074670201e-01 -5.187471390137339267e-01 3.436077919705374795e-01 7.001655517277418639e-01 -6.258609154364240812e-01
2.266642671016236843e-01 -5.980054536821769462e-01 -5.225663858889464386e-01 2.883694787764429779e-01 8.427239730020942288e-01 -4.545980081761994973e-01
2.401867465758553699e-01 -6.060483145574915298e-01 -5.182232446674063242e-01 4.456038962234406542e-01 7.634992955606116904e-01 -4.674462464807463968e-01
2.525729652673031067e-01 -6.074409818364989722e-01 -5.192612260306072036e-01 3.527981134816531861e-01 9.042168732142706888e-01 -2.406768317025838044e-01
2.498960616697619430e-01 -6.088266602594515353e-01 -5.338239067906161983e-01 2.849431114449201830e-01 9.480525563175516979e-01 -1.414346976517547316e-01
2.750195759513169302e-01 -6.196531423571144392e-01 -5.350790997256165138e-01 3.743568474207860652e-01 9.194248042963870660e-01 -1.204781309355376778e-01
2.301874312029949798e-01 -6.056431982534090652e-01 -5.520437192854370512e-01 1.966079900000600456e-01 9.728234044136858660e-01 -1.223107603324516263e-01
2.283157908654737667e-01 -6.077699157725454659e-01 -5.709746586442606686e-01 1.715431416887829574e-01 9.835424949457771682e-01 -5.671958370244031128e-02
2.422382737697044708e-01 -6.044191140813167662e-01 -5.575000539829209067e-01 2.242196863850341726e-01 9.745322697234732878e-01 3.519588756171073383e-03
2.162002001391089834e-01 -5.943211827420791238e-01 -5.605456476548946743e-01 1.343931912904748616e-01 9.732567396368589918e-01 -1.863056329964103419e-01
2.369313956180508773e-01 -6.062940436484105522e-01 -5.832029888427762154e-01 8.975846442621572552e-02 9.894337311152802128e-01 -1.138609230383411525e-01
1.893449286820785837e-01 -6.040839680928973277e-01 -5.769087406628597980e-01 1.893092399156576580e-02 9.900187365505787040e-01 -1.396585886926448583e-01
1.798705237855963146e-01 -6.106076090693759451e-01 -5.720917913140277644e-01 -4.597115384982984436e-03 9.816060993440355320e-01 -1.908620765388573393e-01
2.069487215640830602e-01 -6.075675297750593451e-01 -5.634757416433973098e-01 6.491502143486081733e-02 9.861067195992927470e-01 -1.529038179812184650e-01
6.772007948432161306e-02 -6.673774109403831645e-01 -6.014255208667748098e-01 -3.056624459724937570e-01 -4.384747168096183589e-01 -8.451688540409172390e-01
7.408909337833169406e-02 -6.487921967141138113e-01 -6.189175762032123052e-01 -3.533866733494096524e-01 -3.908454809181724499e-01 -8.499162718438094677e-01
9.382462844851177652e-02 -6.470448944316893325e-01 -6.168181155253745773e-01 -3.711100298403990361e-01 -3.618065411208257753e-01 -8.552037023739095245e-01
5.223679819596491886e-02 -6.640812434507801232e-01 -5.999153783591305578e-01 -3.958273642780312240e-01 -4.211045935049629874e-01 -8.160830956573764672e-01
6.125270012217185617e-02 -6.429230054629281321e-01 -6.007041994752245762e-01 -3.902133320501965374e-01 -4.111472193230629735e-01 -8.238273602722819833e-01
-2.121165784818098421e-01 -3.870701139731260731e-01 -6.545416255649204318e-02 -4.739316373247030034e-01 -8.799458960858621559e-01 -3.292450613714677232e-02
-1.955090842525903372e-01 -3.854648532975750719e-01 -4.122805496420281490e-02 -4.409654213417880109e-01 -8.973977353279075642e-01 1.505994054443875706e-02
-2.156958535939484667e-01 -3.914054656584785574e-01 -3.633335265199670594e-02 -5.946774773576531947e-01 -8.016460341526098210e-01 6.101093222473116806e-02
-2.221994009941833659e-01 -3.738963490416051805e-01 -6.088445863356868604e-02 -5.525343684441545999e-01 -8.333456145689976946e-01 1.551961232243895088e-02
-2.294831847830195171e-01 -3.801432718701558966e-01 -5.879866337701047940e-02 -5.809452385383605533e-01 -8.110458884204859720e-01 6.860901322590373663e-02
-3.189709581716719811e-01 -2.918778211782530607e-01 1.015024796140702873e-01 -6.683422684517330570e-01 -6.591065049600877135e-01 3.448147724795004310e-01
-3.232231073032841295e-01 -2.939498263351110197e-01 1.119498903229015907e-01 -6.687394092128898793e-01 -6.592196534069592051e-01 3.438270657286940368e-01
-7.372940582293179002e-02 -1.502989817772586445e-01 5.190335236514240780e-01 -4.442646035289156692e-01 -5.849975241724691966e-01 6.785328722791377221e-01
-8.917944588495922698e-02 -1.616500498863705504e-01 5.009231524940677138e-01 -4.549034221438697512e-01 -5.804898860139675598e-01 6.753475910649916480e-01
-9.442436958242345080e-02 -1.621317181791368245e-01 4.938873467010116980e-01 -4.476854708141915773e-01 -5.374245218008346647e-01 7.146695758104019136e-01
-7.223723832490712427e-02 -1.738034289319137227e-01 5.099465647036006688e-01 -4.312986170884697823e-01 -6.727738139820762520e-01 6.011296849412646193e-01
-3.711098963648614552e-02 -1.621156505173711182e-01 5.445638935273937609e-01 -5.961814244626990611e-01 -4.464553713496642318e-01 6.672670458809278893e-01
-4.976887273011835339e-02 -1.649291529579080817e-01 5.303556194696337212e-01 -5.247038747674721559e-01 -5.504428229039559639e-01 6.493832015978895367e-01
-6.201928117340470975e-02 -1.965574804954437760e-01 4.805201309987732761e-01 -3.705886449026389862e-01 -6.836057995817405031e-01 6.287663851124954961e-01
-5.355141323066014980e-02 -1.913711775892721623e-01 5.027727537787700651e-01 -4.410758781134326290e-01 -6.839624035007734193e-01 5.810744361473060282e-01
-7.960569211766330144e-02 -1.837246281486799304e-01 4.947692610878182129e-01 -5.280448649891582580e-01 -5.788502538200960279e-01 6.213702633784402574e-01
-6.336561338801223464e-02 -1.741914303031399380e-01 5.210249855835387134e-01 -5.280448649891582580e-01 -5.788502538200960279e-01 6.213702633784402574e-01
-7.631520721172038724e-02 -1.706425147678604648e-01 5.118621458099713584e-01 -4.339267970583101097e-01 -6.028981320202733141e-01 6.694933735304491318e-01
-9.665554269177881186e-02 -2.062003586264949395e-01 4.796321535468742181e-01 -3.238364215286426151e-01 -6.870594347657972278e-01 6.504454667309370608e-01
-8.836403448263589755e-02 -1.833923374821609387e-01 4.863297072136872345e-01 -3.787562665190923883e-01 -6.186861813685009537e-01 6.883103221339781363e-01
-1.011292708197651796e-01 -1.861591658102846603e-01 4.880082412789173429e-01 -3.944202843505900669e-01 -5.801108467543378833e-01 7.126738698526590143e-01
-1.175617353988327451e-01 -1.923938433128192793e-01 4.770234209715342732e-01 -3.787026540501784444e-01 -6.200555628845950684e-01 6.871065410481980162e-01
-9.594973344700850892e-02 -1.849126130603472029e-01 4.813339357517192330e-01 -4.079026774546616330e-01 -5.852683604133847028e-01 7.007684011314627703e-01
-7.777259468143021826e-02 -2.021702618755130132e-01 4.688170732432518362e-01 -3.083509222950494011e-01 -6.143824781758012721e-01 7.262602007754199729e-01
-1.120460704231970583e-01 -1.985178504736066496e-01 4.555984852199155277e-01 -3.822342039150227189e-01 -7.054322575175769883e-01 5.968771593980656265e-01
-1.262801903666947445e-01 -2.077736446145250770e-01 4.459358553018095139e-01 -3.918648654664932396e-01 -7.890598485050014377e-01 4.731030360187847839e-01
-1.149263105499363918e-01 -2.069553338684998467e-01 4.471287490711465806e-01 -5.138025858102877041e-01 -6.886705511136079760e-01 5.116050965769802783e-01
-1.008689808501645191e-01 -2.374135178443149141e-01 4.323523699974954893e-01 -5.511380716921125966e-01 -6.453647299389854153e-01 5.289151078219267443e-01
-1.064919060918273208e-01 -2.274790831112014911e-01 4.212739340635833218e-01 -5.511380716921125966e-01 -6.453647299389854153e-01 5.289151078219267443e-01
-1.050786812541249643e-01 -2.125900234145713663e-01 4.593930082606115795e-01 -4.138082211788809972e-01 -6.531581318913841638e-01 6.341507792543722433e-01
-1.499749818603293428e-01 -1.647000164865272398e-01 4.635585938674256501e-01 -4.856712771338785872e-01 -4.758224879997663415e-01 7.332914635265158632e-01
-1.678661291211929196e-01 -1.750096285276272201e-01 4.526012191052665723e-01 -4.869847257407829977e-01 -5.093974502495297596e-01 7.094787625957893473e-01
-1.450275487889011450e-01 -1.663052471795611054e-01 4.712142223324602974e-01 -4.683240249647814268e-01 -5.405012811367111425e-01 6.989499071681466447e-01
-1.366396844842831249e-01 -1.766771922151055552e-01 4.713684981711450117e-01 -4.137069918611915864e-01 -5.590513333037561150e-01 7.185458451737485319e-01
-1.228479352559248283e-01 -1.765453423075994122e-01 4.739202551085631709e-01 -4.194651648499633234e-01 -5.632692539673255228e-01 7.118825205133819667e-01
-1.268533098910999968e-01 -1.702698867604485466e-01 4.719428718152001712e-01 -4.194651648499633234e-01 -5.632692539673255228e-01 7.118825205133819667e-01
-1.298875105188207757e-01 -1.456733028948821451e-01 4.874442533422851942e-01 -4.701636831628007718e-01 -4.420911808729893200e-01 7.638726980519170429e-01
-1.231220269223000235e-01 -1.586264927507587130e-01 5.011289548834008123e-01 -4.590396493435123793e-01 -4.790582210641599059e-01 7.481883594132079374e-01
-9.534100695535936698e-02 -1.549121113080870749e-01 5.050957011813095310e-01 -4.768774397121821051e-01 -5.070598557834522513e-01 7.179681122072336663e-01
-1.452259132236760064e-01 -1.526175858350631298e-01 4.751532895872010442e-01 -4.810477667019776304e-01 -4.009232790908410227e-01 7.796496459526468525e-01
-1.120830037428241777e-01 -1.412371686361646450e-01 5.045085071836541424e-01 -4.998879382895738965e-01 -3.797529518192220288e-01 7.783956222495005406e-01
-1.535508567360287790e-01 -1.514267001243138067e-01 4.731808540673483332e-01 -5.322318688007863230e-01 -3.242086844512424570e-01 7.820600787402571807e-01
-1.637421938076588090e-01 -1.580082069707206271e-01 4.535661185430996944e-01 -5.851676397813601049e-01 -4.611863602192728950e-01 6.669977320054478742e-01
-1.677252941459748403e-01 -1.521582352491799572e-01 4.700208134919505176e-01 -5.381697627357741043e-01 -3.753666342066340200e-01 7.546344786724920040e-01
-2.133238031121937051e-01 -1.164486780222088735e-01 4.450992283245142622e-01 -6.579084458508001054e-01 -2.340030263244565201e-01 7.158205505216936881e-01
-2.276557465394327961e-01 -1.170037264567818786e-01 4.358111573892498036e-01 -6.671413274088813239e-01 -4.209473863572370522e-01 6.145939693668713844e-01
-1.914178843679135433e-01 -1.281524436460927951e-01 4.622180967561652087e-01 -5.901880543573443383e-01 -3.455511949219533530e-01 7.295700324039512408e-01
-1.895817804311709098e-01 -1.104578051323850535e-01 4.476462489746816376e-01 -6.085557677406625565e-01 -2.818305362314950657e-01 7.417758599449302270e-01
-1.773445700915666501e-01 -1.405593164145996776e-01 4.543291615270008688e-01 -5.516765845550237746e-01 -4.905898940123738505e-01 6.745179774821657981e-01
-1.999754392074311604e-01 -1.279072104111345087e-01 4.494292823011066806e-01 -6.548259659478387062e-01 -3.704483221481492117e-01 6.587647493135171395e-01
-2.052174986603562679e-01 -1.493839481059983654e-01 4.386860233280335253e-01 -6.464303514233038506e-01 -4.956561863140809820e-01 5.800454686723488518e-01
-1.835935629210810049e-01 -1.530605030736438554e-01 4.503130579343038176e-01 -6.247680731259070974e-01 -5.111515083337223597e-01 5.902448562509475805e-01
-2.162945612279580376e-01 -1.379123670318253003e-01 4.374900221233126163e-01 -6.894550496796675310e-01 -5.006360424300588807e-01 5.234646955537455293e-01
-1.815087498333174953e-01 -1.648398068938689842e-01 4.244326740545165677e-01 -6.588998586534194901e-01 -6.385634914617580593e-01 3.976023687538505769e-01
-2.027710532721657688e-01 -1.519068750637525556e-01 4.208805526990715973e-01 -6.577335798951052803e-01 -6.387883936073380786e-01 3.991690444798116078e-01
-2.057447708540803555e-01 -1.543310052737048299e-01 4.249467984922570274e-01 -6.758440947435609969e-01 -5.659111383725845545e-01 4.722068858732389462e-01
-2.867309920432308257e-01 3.328667025745107866e-02 4.132515535124740569e-01 -7.828289689567010656e-01 1.154537495687159854e-01 6.114321197587782031e-01
-2.738808303697480295e-01 2.287271410186909534e-02 4.085236215896219658e-01 -7.836982626164321619e-01 1.163031081871358785e-01 6.101562260585375874e-01
-2.734641217558958504e-01 1.825817086723879185e-02 4.222979978367051301e-01 -8.249186109022609292e-01 8.319777825186468190e-02 5.590951753333575081e-01
-2.794310373577238993e-01 3.137046158547786984e-02 4.213179947133993686e-01 -8.271352437707368832e-01 8.312316253444516911e-02 5.558217595260156463e-01
-2.507650567046265100e-01 1.880367781202482019e-02 4.200982157640672510e-01 -7.361583043099564350e-01 5.657468678526066108e-02 6.744406985129524079e-01
-2.744332009808291284e-01 8.382590198542232141e-02 3.590167378619197325e-01 -7.913583504469867691e-01 4.681885215555146029e-01 3.931303466555152726e-01
-2.719217664285897285e-01 8.625765337007768041e-02 3.397036032046240606e-01 -7.860992747072164111e-01 5.313788980535764095e-01 3.157283595246952457e-01
-2.819533886924884269e-01 7.059936606243709389e-02 3.661070941472963636e-01 -6.533067349562824422e-01 7.039883714541114168e-01 2.785510418543606370e-01
-2.948807036411326132e-01 7.299932069582090732e-02 3.444497717520024205e-01 -4.792417393153394212e-01 7.957301724224755679e-01 3.703253272387745931e-01
-2.931589359662832850e-01 5.722178081902169061e-02 3.594647955871400624e-01 -5.047131629018475341e-01 7.572276245877070933e-01 4.145732115741100898e-01
-2.842048569927429491e-01 8.269233682398555163e-02 3.664775727043823039e-01 -8.860622137273155285e-01 3.097441046034983825e-01 3.448946840240161293e-01
-2.778040369270953214e-01 6.606339685225594283e-02 3.840337221554795399e-01 -6.362440004284567463e-01 6.920828590845200523e-01 3.409030479185988782e-01
-2.814857144342984840e-01 5.578260362131817057e-02 3.754153695395292534e-01 -5.966918899420101674e-01 6.689139956850711499e-01 4.432977045440959496e-01
-2.800449328683634054e-01 5.419020223896300892e-02 3.958829036211486407e-01 -6.649879787685889498e-01 6.447595189634357515e-01 3.769299017049528855e-01
-2.740973719811595766e-01 5.259754247112664871e-02 4.051297696818532135e-01 -7.466364706932132611e-01 3.910513544816169307e-01 5.381568719145702895e-01
-2.588190588303614370e-01 5.474988692252370781e-02 4.339271049598066310e-01 -9.135666345523376641e-01 1.688489203815847495e-02 4.063384114916718248e-01
-2.658585432524240844e-01 7.149113637520186637e-02 4.307462232500692823e-01 -9.215295637009304208e-01 2.200271126106693731e-01 3.199552045855556526e-01
-2.761459025684041557e-01 6.151996738732979503e-02 4.065079019719105569e-01 -8.422151793182913737e-01 4.369895531193641047e-01 3.157747966358251945e-01
-2.704762255083616451e-01 4.656831174833465231e-02 4.278000569353932470e-01 -8.646061882883269156e-01 5.502987365104469730e-02 4.994275244512261236e-01
-2.508499224998956278e-01 5.508095511346598749e-02 4.484989579376665314e-01 -9.199903806029146036e-01 2.660736281012371016e-02 3.910367602187736491e-01
-2.598392117987773919e-01 3.373175726788026768e-02 4.433624129392220725e-01 -9.017033976725232769e-01 2.953152010690209255e-03 4.323450722733277463e-01
-2.555275300630889812e-01 3.377396242349905292e-03 4.392635329322238102e-01 -6.616054424272740375e-01 -2.330764040038071638e-01 7.127086560771273005e-01
-2.651413056230438881e-01 1.437671074986335805e-02 4.271994819960148182e-01 -8.284881993195553074e-01 -7.455789115304951864e-02 5.550211027114652085e-01
-2.390819446308486418e-01 9.951500475490879585e-03 4.530452762590430060e-01 -6.715655219712595159e-01 -2.433487322632150174e-01 6.998436569730098755e-01
-2.554245879622051296e-01 3.514810274897636755e-02 4.452178112605056914e-01 -7.881406372479567990e-01 -1.320907961344199577e-01 6.011541877879247320e-01
-2.654500642419462264e-01 -1.278601510842381980e-02 4.274415250763026752e-01 -6.846799545885003946e-01 -9.689377762273271300e-02 7.223745258816131054e-01
-2.581742692665935368e-01 -7.078175644127456152e-03 4.261068398851751149e-01 -6.277064391871781668e-01 -1.867545198249118965e-01 7.557164650369343484e-01
-1.603844095229133848e-01 -1.130396804454251863e-01 4.743387815019642906e-01 -5.814013617961915070e-01 -2.116245064628335670e-01 7.856128338856843696e-01
-1.582128402583683480e-01 -1.089895674527811276e-01 4.867110007615071399e-01 -5.853603413887086271e-01 -2.152559851680463932e-01 7.816764877995425742e-01
-1.665285128805379655e-01 -1.277934600304111989e-01 4.899087746920389175e-01 -5.582088481955767012e-01 -2.530618139568091007e-01 7.901661851237731238e-01
-1.383892932446164348e-01 -1.087294369180049070e-01 5.015352108858536218e-01 -5.691839890941826630e-01 -2.459089664743404069e-01 7.845752779474733929e-01
-1.458499540167526309e-01 -8.352245893878955385e-02 5.200370291631063457e-01 -5.846821901810256294e-01 -2.177026663555212405e-01 7.815064206689639192e-01
-1.283062839419229773e-01 -8.541769026968332179e-02 5.226625118083758625e-01 -6.011919053322714035e-01 -2.603802969813944768e-01 7.554934770776212671e-01
-1.351882963576816199e-01 -6.662321719762005767e-02 5.215411003202616858e-01 -6.065477749063612478e-01 -2.441464735382060380e-01 7.566322066995297968e-01
-1.597997323186197416e-01 -6.316951084170049913e-02 5.022350089377967119e-01 -6.235890671986000777e-01 -1.986227894897061863e-01 7.560989768315439230e-01
-1.675987731832006000e-01 -8.338804265438759522e-02 4.807547537579334729e-01 -5.988974961178434864e-01 -1.918865919439828593e-01 7.774968327754789854e-01
-1.562580749367137312e-01 -9.495051499605272616e-02 4.961964418148205880e-01 -5.988974961178434864e-01 -1.918865919439828593e-01 7.774968327754789854e-01
-1.626725960553787598e-01 -6.540502173492643290e-02 4.949092499546411950e-01 -6.003812927353509021e-01 -1.736635963465759103e-01 7.806300395433181105e-01
-2.080220344001564303e-01 -5.949769400223964277e-02 4.622264189331967144e-01 -6.428620572547260048e-01 -1.079484683071164214e-01 7.583373283258375563e-01
-2.026204992030711249e-01 -4.159533989886642774e-02 4.765243351513256398e-01 -6.494270854292613082e-01 -1.356976656885889865e-01 7.482182864896600449e-01
-1.118311224791040670e-01 -9.685612000050507209e-02 5.375757773077243229e-01 -6.290153151844815049e-01 -2.809090963315930556e-01 7.248653756812605264e-01
-9.075584495362004622e-02 -8.162251209371344796e-02 5.499319140567876518e-01 -6.076206972837454590e-01 -3.050746206308245778e-01 7.332984140712248688e-01
-7.995704183998102177e-02 -8.949207768860642509e-02 5.583268615618716124e-01 -6.128264769063035411e-01 -3.136361072386441018e-01 7.253110377202305337e-01
-1.036991704416894838e-01 -6.783915063033273130e-02 5.466717441616421036e-01 -6.423547505029582050e-01 -2.840658700392717506e-01 7.118194686752491451e-01
-1.939088943430616885e-01 -2.674851537675632107e-01 3.248274147634297448e-01 -5.781791689534168110e-01 -4.921533766803822818e-01 6.507640912115802978e-01
-2.154815060088574596e-01 -3.016189224032143623e-01 2.598688567410299965e-01 -5.710991556513858036e-01 -6.350850521506070656e-01 5.201083838481500576e-01
-2.141922619982128684e-01 -3.007110523066175434e-01 2.679666342045093352e-01 -5.751814970081169376e-01 -6.088866300132865783e-01 5.462813535995574288e-01
-2.373635115836995046e-01 -2.821000778508412909e-01 2.517768316545402896e-01 -6.332610676460598276e-01 -5.595225982802188858e-01 5.347100917483467164e-01
-2.588870110082271414e-01 -2.831850524866727503e-01 2.398951292356280296e-01 -6.332610676460598276e-01 -5.595225982802188858e-01 5.347100917483467164e-01
-3.610744951926804780e-01 1.432113112475101244e-02 2.382875504676580936e-01 -9.411765960882334525e-01 2.055838102235107989e-01 2.681826093350379581e-01
-3.631380560686304770e-01 2.098789024693831912e-02 2.521194945605134685e-01 -9.625432693470025169e-01 1.802395322716004999e-01 2.025442313207131695e-01
-3.629519160845640635e-01 2.443364209120673508e-02 2.373526183511308341e-01 -9.282599524383084999e-01 2.686141233791055627e-01 2.572545692898456915e-01
-3.479880893897239202e-01 2.274241973241691861e-02 2.641591100158792726e-01 -9.289006646490736152e-01 2.849900019005118801e-01 2.364830945992877909e-01
-3.635924455786240794e-01 2.572455575801876199e-02 2.538455032390213861e-01 -9.289006646490736152e-01 2.849900019005118801e-01 2.364830945992877909e-01
-3.477953773972515261e-01 5.876029472684968225e-02 2.578855756009829081e-01 -8.527204976535411873e-01 4.581836351965618004e-01 2.508695065558212423e-01
-3.419982426856401636e-01 6.420507766131941518e-02 2.600447913470839700e-01 -8.263504087633426476e-01 4.837965791911901237e-01 2.882462001476498448e-01
-3.276848842769542469e-01 1.341201174182584666e-01 2.158997869774124945e-01 -8.330274927818904773e-01 3.311685097649853526e-01 4.431620633690976918e-01
-3.110709713809875487e-01 1.546627840471851700e-01 2.241538543003493422e-01 -7.949052638312187336e-01 3.644322606539093790e-01 4.850925158442474516e-01
-3.337710262071570400e-01 1.359802160396502702e-01 2.091289336021022738e-01 -8.453709808722211783e-01 2.514555482429516875e-01 4.712939761518017412e-01
-3.209562263574053387e-01 1.479736053260898576e-01 2.099534754322120444e-01 -7.816607929303043267e-01 3.399445124916749550e-01 5.229188591190466751e-01
-3.168095320801738723e-01 1.357812069630537355e-01 2.431711836447283392e-01 -7.646951093854369441e-01 4.076881182223598965e-01 4.990308486880404293e-01
-3.155211094983020881e-01 1.334267769780536073e-01 2.224718596975775731e-01 -7.626756090933219934e-01 4.240901028083484681e-01 4.883374857556347370e-01
-3.287322871515738210e-01 1.240049414679369882e-01 2.262813323528344300e-01 -8.362376881127436823e-01 3.895925260147022340e-01 3.859069740926395209e-01
-3.240645754780719923e-01 1.079813683141613995e-01 2.232152275074818504e-01 -8.409244213119900779e-01 3.835565599002557780e-01 3.817466214632110888e-01
-3.503393860988340269e-01 7.061297712170430674e-02 2.501531853776666758e-01 -8.541951407314106737e-01 3.793598285729750108e-01 3.555795016813100839e-01
-3.299410087854870999e-01 9.815716512402680727e-02 2.658542949327412086e-01 -8.224008560735326379e-01 4.236539691121226636e-01 3.797027078979886561e-01
-3.282438826734199178e-01 7.978018251499179037e-02 2.547031071154832738e-01 -8.224008560735326379e-01 4.236539691121226636e-01 3.797027078979886561e-01
-3.252700948079592647e-01 9.680328680815858400e-02 2.423980264311498545e-01 -7.970072139781113618e-01 3.791910727411915705e-01 4.700995971283462027e-01
-3.281413483191579217e-01 9.253027491379960112e-02 2.467665763674683765e-01 -8.434281910600531784e-01 3.629321873384220853e-01 3.961175506322774931e-01
-3.550631883697334401e-01 7.184510531321545990e-02 2.115370210019763553e-01 -8.788084452845498218e-01 3.487053523048122550e-01 3.257304004395804031e-01
-3.596890731257641471e-01 7.121631637124943570e-02 1.835900936891735891e-01 -8.855364452878282666e-01 3.514197465139715093e-01 3.038574761743624841e-01
-3.686274786353282429e-01 5.270239150967506031e-02 1.913152807315769977e-01 -8.865851292890200019e-01 3.489384005667489630e-01 3.036590211627028801e-01
-3.650668674230082567e-01 6.122471693696696082e-02 2.040941521717220264e-01 -8.854077383673178980e-01 3.100556584468247556e-01 3.462926876276442023e-01
-3.669325183068472551e-01 4.132787946512907901e-02 1.895460697017740392e-01 -8.854077383673178980e-01 3.100556584468247556e-01 3.462926876276442023e-01
-3.476516168952269448e-01 6.110130174694625854e-02 2.037182959883586664e-01 -9.065775242219570318e-01 3.025537557362683594e-01 2.942421068872799195e-01
-3.528901573145362680e-01 5.198683119037390832e-02 2.379376990919750412e-01 -8.759577725684692950e-01 3.510543034911380866e-01 3.308456689715578714e-01
-3.427667812812714154e-01 9.322173202487545052e-02 2.259858960843834919e-01 -8.642574869265039483e-01 3.582286868121612455e-01 3.531730514016016564e-01
-3.457409119844455092e-01 1.010313639473386371e-01 2.185253966623598720e-01 -8.649277390670000454e-01 3.634778963635706406e-01 3.460979991961248281e-01
-3.524732005335083906e-01 8.277260850730266961e-02 1.974920131497222564e-01 -8.792968082248500128e-01 3.645265321929695990e-01 3.065249261853907337e-01
-3.378917488894161991e-01 -9.383473195288799529e-02 2.527093556831239152e-01 -8.912421262165128866e-01 -3.884704307271286128e-01 2.340474244843306351e-01
-3.228472845350541243e-01 -9.963295749652388567e-02 2.614879265588655466e-01 -8.908480556708504583e-01 -3.961462513081967507e-01 2.223912976758049831e-01
-3.454260224117162714e-01 -8.987714726469595017e-02 2.483924619140535917e-01 -9.113471565673354480e-01 -3.491681356472570719e-01 2.180091128032293490e-01
-3.496746793599617709e-01 -1.085951368761778751e-01 2.276917748977147493e-01 -9.113471565673354480e-01 -3.491681356472570719e-01 2.180091128032293490e-01
-3.806057894924474438e-01 -4.981684052110874755e-03 1.988504575400320828e-01 -8.804132118413394714e-01 8.360554906715450540e-02 4.667790575640646811e-01
-3.964682604879074534e-01 -1.691455650420816206e-02 1.853603580668209960e-01 -8.812483032175851827e-01 8.371935456243458085e-02 4.651800702392314135e-01
-3.821446185603568080e-01 -3.061305449459043176e-02 1.959561081681792660e-01 -9.041023124181505333e-01 -8.981486718623273025e-02 4.177706288293523418e-01
-3.883575204724084573e-01 -2.664236061691152915e-02 1.807559207242891708e-01 -8.704095529439520584e-01 -3.203039737614368776e-02 4.912853181073456033e-01
-3.667697042990157863e-01 -2.500597835131430566e-02 2.097596450613448682e-01 -9.373572943120959122e-01 -1.490296143855671385e-01 3.148832749385016561e-01
-3.650541517161365324e-01 -2.714024076378720660e-02 2.335663760217917551e-01 -9.511323191055180981e-01 -1.550527244759541123e-01 2.670317662480304333e-01
-3.622484046887282094e-01 -7.628465476353783747e-03 2.172132312960950440e-01 -9.688371370567550045e-01 -8.164036494446637315e-02 2.338577616231819478e-01
-3.752093478550374006e-01 -7.303305482175784930e-03 2.262955700374816581e-01 -9.334293755232984102e-01 -1.393160753361889770e-02 3.584906013017837845e-01
-3.602173200428627764e-01 -1.590308683216406019e-02 2.306078869656488506e-01 -9.659662300224274301e-01 -6.267351508318753928e-02 2.509607000376274932e-01
-3.534051328478118315e-01 -1.110377215893552753e-02 2.652571434167193543e-01 -9.819494683085969733e-01 2.317280867048130202e-02 1.877185729404126646e-01
-3.588706746233746303e-01 5.543020413677843782e-03 2.428231698057220778e-01 -9.790797266389819065e-01 7.331240244177045229e-02 1.898109073071203856e-01
-3.499898478763525111e-01 4.864922652876160075e-03 3.097502161571561441e-01 -9.809272998220526230e-01 3.368890135113564860e-02 1.914332530924817699e-01
-3.426190610210496090e-01 2.948938321524550380e-03 2.945910657525300791e-01 -9.794491436133957452e-01 1.041007678870797398e-01 1.727495447180860122e-01
-3.573900261408274881e-01 5.714875385874723136e-03 2.758812067138434188e-01 -9.794491436133957452e-01 1.041007678870797398e-01 1.727495447180860122e-01
-3.562879897992737299e-01 -1.215547363539760256e-02 2.976569907583874741e-01 -9.794491436133957452e-01 1.041007678870797398e-01 1.727495447180860122e-01
-3.480771193235938643e-01 -1.920881165743148003e-02 2.707771706123031641e-01 -9.790902866082416001e-01 -9.987708092538329085e-03 2.031808464310788653e-01
-3.562876825142070047e-01 -1.867932579698802081e-02 2.412073858832689821e-01 -9.830498928734673347e-01 -2.557164689822237144e-02 1.815461346225174799e-01
-3.489639895151813165e-01 -2.671095506660377261e-02 3.162391462171358358e-01 -9.526702582785575579e-01 -1.572512087646112111e-01 2.601757796827658398e-01
-3.472392531975191932e-01 -1.798402118741296990e-02 2.942412792539839117e-01 -9.781919761787271073e-01 -8.989950616027980734e-02 1.872392494422422948e-01
-3.488271111769474797e-01 -4.908478111196761667e-02 2.478345370826882110e-01 -9.363204875780336556e-01 -2.840359584009488070e-01 2.064643283400011131e-01
-3.468058138055379325e-01 -5.415854725386932966e-02 2.864897911001914599e-01 -9.387454849118241906e-01 -2.777828311642874248e-01 2.039451231778224849e-01
-3.500003431814612265e-01 -5.375763072253533781e-02 2.656386197851002273e-01 -9.387454849118241906e-01 -2.777828311642874248e-01 2.039451231778224849e-01
-3.415644733523485743e-01 -2.561497765614068056e-02 2.895726030297081088e-01 -9.665174785053474160e-01 -1.877611599518491936e-01 1.748991439578860552e-01
-3.457281104447840758e-01 -4.316986008243609008e-02 2.786616923427397419e-01 -9.519738446427201684e-01 -2.593513997587857944e-01 1.627349088527621501e-01
-3.599689230819476116e-01 -4.123360359640362849e-02 2.609189270418320605e-01 -9.514706464519095963e-01 -2.295488943011410321e-01 2.049656411828792713e-01
2.242884878399455106e-01 2.657533475073684537e-01 -9.235043063451447987e-02 3.816817436434470912e-01 6.351319600011222644e-01 -6.715105657801898609e-01
2.149907961623637731e-01 2.869095919440879383e-01 -6.263366532835565326e-02 4.096065530276412625e-01 6.389067373884316225e-01 -6.511686821680567894e-01
2.320147448670256962e-01 2.616619097314671349e-01 -8.808992236901699857e-02 2.649678299989846608e-01 7.081467129282319473e-01 -6.544618262622881044e-01
2.095610845464283556e-01 2.696693878089100327e-01 -9.795478396623134854e-02 3.301727164398986503e-01 5.871449469909101326e-01 -7.390851023676092701e-01
4.648696503549579195e-02 4.291478279583013089e-01 8.302297678575577822e-02 6.604597683350396653e-02 7.917477295807909821e-01 -6.072672077823492165e-01
5.890379476790785773e-02 4.143316524786398447e-01 4.933163091258661870e-02 2.216344534958412937e-02 8.234821303463965014e-01 -5.669091308934762763e-01
7.430861409966385556e-02 4.024376040670891719e-01 3.057511265066424275e-02 -4.319633462727671264e-02 8.675928163098606261e-01 -4.953955810887828437e-01
6.744489280629308026e-02 4.062327848198850067e-01 3.668111442905063607e-02 -3.026222523797846356e-02 8.480954189499693152e-01 -5.289785988863081601e-01
1.763856083603146108e-01 3.157869329478432130e-01 -7.238603352018117831e-02 3.373283702780624504e-01 6.830861358173129227e-01 -6.477676293700680432e-01
1.435071929170740335e-01 3.170016732547603633e-01 -6.932501414537840800e-02 3.208386017294418413e-01 7.246500122105624664e-01 -6.098728977775027538e-01
1.757460509958761186e-01 3.489919875978704789e-01 -2.893210409018499851e-02 2.218377134307061849e-01 7.303443579429553800e-01 -6.460535176908552835e-01
1.467759851045513375e-01 3.481973975172305558e-01 -3.234162332077335222e-02 1.209714837126927844e-01 7.855913817192915483e-01 -6.068048130138090634e-01
1.445651875538929709e-01 3.479530524142876446e-01 -4.394446029388955621e-02 1.194956568589385926e-01 7.664900587206688876e-01 -6.310418194337332753e-01
1.192482747633529933e-01 3.649373933020034211e-01 -1.987836945442041786e-02 2.107724873012133474e-02 8.369046140354791108e-01 -5.469427909682093025e-01
2.148606962099834372e-01 3.177116146339108438e-01 -5.154845480564185928e-02 3.768686922948660811e-01 6.676657682723244891e-01 -6.420221262894949543e-01
1.788482104571566533e-01 3.328598541150535328e-01 -3.406886018702764973e-02 3.159976300661924697e-01 6.569452788212132299e-01 -6.845205609965767657e-01
2.024267890617282850e-01 3.495008260626326635e-01 -3.761125727712575501e-02 2.592466662667292088e-01 6.491990508954861294e-01 -7.150746522888271617e-01
1.926205682253064322e-01 3.645464747375397052e-01 -1.476112465585448404e-02 1.795855796299927754e-01 7.108413390090001505e-01 -6.800394182287164968e-01
1.812395815733762738e-01 3.617933987709449628e-01 -2.219820689247170228e-02 2.384533191994213097e-01 7.462049719417034321e-01 -6.215449737647796846e-01
2.212663780242766776e-01 3.944112882420628963e-01 1.869520481466749318e-02 -2.341692605132231209e-01 6.510759374301634539e-01 -7.219867596640010543e-01
2.445940662203306970e-01 3.682112781392166134e-01 -1.327302079287537295e-03 -1.532352127580161316e-01 5.820335103923244269e-01 -7.985962448893642041e-01
2.230012094948818635e-01 3.740505373379880427e-01 1.374225772129206331e-02 1.061050155011066254e-01 7.095428112484508665e-01 -6.966281107529002092e-01
2.242983409719276344e-01 3.689830839965935194e-01 2.175210201428690385e-02 1.446478007078672856e-01 7.815072450856308528e-01 -6.068965641928160126e-01
2.039848680139016435e-01 3.726193343380376777e-01 -6.790431366539718266e-03 2.254597078965215884e-01 7.971527229904733503e-01 -5.601030765351041607e-01
1.754906801046484666e-01 3.653728164848743520e-01 -1.475837826074137896e-02 1.113482749242844516e-01 7.739845882895972640e-01 -6.233373234145124231e-01
1.462419336680546023e-01 3.961467502957450870e-01 1.513028313785958444e-02 1.339011540164621317e-01 8.171453117257488907e-01 -5.606639104469703927e-01
9.816785898399368882e-02 3.977909291783889856e-01 2.358327328936526274e-02 4.180276356645015734e-02 8.434226864865480566e-01 -5.356217890247013669e-01
8.470023901872168748e-02 3.997624341766055633e-01 2.984790032334183607e-02 -1.494976201122010396e-03 8.584142120206618154e-01 -5.129549742882939523e-01
1.434828692370525294e-01 3.981983274551884056e-01 2.740745614636764735e-02 5.399848332795194328e-02 8.214432756960012849e-01 -5.677280234514623380e-01
1.175645464771438997e-01 3.902889094956216720e-01 2.575706953346677125e-02 3.293385824154508590e-02 8.335570625975834425e-01 -5.514507995959514464e-01
1.757704377542271823e-01 4.203684712511000510e-01 7.830423873727997142e-02 3.146340202874941400e-02 7.998297399223401882e-01 -5.994017362908945490e-01
1.715429919658545688e-01 4.150554212246342356e-01 5.035919844893330111e-02 1.157213456346752323e-01 8.166744903119973475e-01 -5.653771723709222208e-01
2.011837275699572547e-01 3.832781100919396833e-01 1.158226621469959049e-02 1.432153604480263798e-01 8.130454573741859869e-01 -5.643105924709747034e-01
1.841295727620497757e-01 3.819007679093033292e-01 -1.133524874501107976e-02 7.391256327552211958e-02 8.212992323205758893e-01 -5.656894059284430787e-01
1.872510946101152152e-01 3.956327260299644655e-01 1.675921715067967346e-02 1.403875403243222131e-01 8.143699109722294383e-01 -5.631101016895099232e-01
