-5.233493530524587767e-01 1.204103219030137339e-01 -2.853056042446309726e-01 1.692175052481923944e-02 8.929233376097314157e-01 4.498906172738807441e-01
-5.449183289952642673e-01 1.171036082217968843e-01 -2.631612505305807037e-01 8.325845975738297572e-03 8.782787908639285712e-01 4.780764016424403628e-01
-4.811866131980497285e-01 1.078238137955157966e-01 -2.355446856664606126e-01 1.572913316727168540e-02 8.508666352717868531e-01 5.251462304454581620e-01
-4.548827824505871087e-01 1.144694368663878858e-01 -2.761075740926793309e-01 -5.838960160508546021e-02 8.947611429227830815e-01 4.427111378087458249e-01
-3.955270455509128369e-01 7.834601058334668133e-01 9.528528146217725425e-02 -8.807760497870515959e-01 4.381784693543159248e-01 1.795360106380504139e-01
-4.028988954099302355e-01 7.550926254689361850e-01 1.239640288800764739e-01 -8.611463697874184309e-01 3.727655690156086998e-01 3.456483189000351119e-01
-3.950902114877955507e-01 7.524611394997398062e-01 1.425145603559248297e-01 -8.308438537706496207e-01 3.278445813022570765e-01 4.496848020139027069e-01
-3.349806142647833718e-01 8.645442618045396932e-01 8.816581225728901960e-02 -6.517519819002371984e-01 7.493763746853504548e-01 1.168520566894481055e-01
-3.478209293337510832e-01 8.533695026388380400e-01 9.928595184209373925e-02 -6.398191616613277954e-01 7.578949403698509446e-01 1.273840638886032384e-01
-3.540688450783782693e-01 8.359819356556349446e-01 8.904432617215517209e-02 -7.455661361337927451e-01 6.509289411975459627e-01 1.429078380004698834e-01
-3.434565107800370831e-01 8.669789642307641486e-01 5.867674102101110012e-02 -7.054183554446352700e-01 7.038282478115088781e-01 8.373017009637373498e-02
-3.709646838236554389e-01 8.434579411418681172e-01 6.846053130303615675e-02 -7.171387489854679220e-01 6.958179737583749525e-01 3.936193717727084346e-02
-3.846863235643377399e-01 8.154426604323161687e-01 7.536052841669138580e-02 -7.771626135784270861e-01 6.154388489405459017e-01 1.313517996476801231e-01
-3.768629454333315976e-01 8.059451064042805202e-01 9.407779089896770031e-02 -8.144371258204753383e-01 5.356367078373900359e-01 2.231266127166495472e-01
-2.504457766746561176e-01 9.184061932689203678e-01 1.215676243678078944e-01 -3.008917749823249999e-01 9.183955953990993182e-01 2.569312555909067930e-01
-2.213181078316035222e-01 9.205530505000805164e-01 1.358302906564220480e-01 -2.521789757103829466e-01 9.309277557988763219e-01 2.641576758167925032e-01
-1.904670929632369392e-01 9.209927732183407212e-01 1.236227916647701791e-01 -8.704635801437546339e-02 9.666248608696433875e-01 2.409549956012031202e-01
-2.227722000777880296e-01 9.159628993013994025e-01 1.062987528039512630e-01 -1.815288207783246621e-01 9.801296194001276607e-01 7.995759126807001904e-02
-1.893049357867580551e-01 9.198831481126878984e-01 9.892024746506755672e-02 -1.815288207783246621e-01 9.801296194001276607e-01 7.995759126807001904e-02
-2.905621221401120668e-01 5.179921467430638193e-01 3.830199614139512820e-01 -9.000851095855977313e-01 4.230968194125044324e-01 1.040955181806835356e-01
-3.073509405418620721e-01 5.038413516072984821e-01 3.613878077698223223e-01 -9.000851095855977313e-01 4.230968194125044324e-01 1.040955181806835356e-01
-3.142143832740174059e-01 4.639877053126239548e-01 3.586961678205550230e-01 -8.793069835174884830e-01 4.324160469340811441e-01 1.995885545097158820e-01
-2.846545796576344656e-01 5.005733728039274411e-01 4.334698926702604815e-01 -8.658903318052610931e-01 2.442134495200874722e-01 4.365704116859897010e-01
-2.928983989757774076e-01 4.374040391061019273e-01 4.442497389179898559e-01 -5.185392629081586602e-01 2.093446631680875303e-01 8.290306657933128598e-01
-2.915778050012018952e-01 4.614807624399859809e-01 4.303028213760673459e-01 -5.767979495104348375e-01 1.013872839815495863e-01 8.105706286853738840e-01
-3.038088013097382523e-01 4.762213796306046798e-01 4.166235355202232982e-01 -8.401237625371298368e-01 3.246756801634608225e-01 4.344856342053787790e-01
-3.410925416161721402e-01 4.501473856299013643e-01 3.408931242713632570e-01 -8.460512362066373582e-01 4.881802468011505192e-01 2.141899912376589166e-01
-3.385461565321368216e-01 4.514719135169656394e-01 3.378821785181680415e-01 -8.460512362066373582e-01 4.881802468011505192e-01 2.141899912376589166e-01
-3.277005530599226280e-01 4.594548081666163242e-01 3.607612044989147448e-01 -8.774671441381072245e-01 4.371487810921649286e-01 1.973635076394536780e-01
-3.101081413614612536e-01 4.749374522585171898e-01 3.852416800324548474e-01 -8.774671441381072245e-01 4.371487810921649286e-01 1.973635076394536780e-01
-2.617488637096446538e-02 4.654449157399361825e-01 5.054427413440181205e-01 3.628679454282324190e-02 3.717947539856787942e-01 9.276054815763733474e-01
-2.972585306778359818e-02 4.740701846406016329e-01 4.963263373129783718e-01 -2.797587172369507547e-02 3.319030694127183545e-01 9.428985645952143724e-01
-2.113378449135476511e-02 4.594748168630328200e-01 5.136690243946481216e-01 -2.797587172369507547e-02 3.319030694127183545e-01 9.428985645952143724e-01
-3.187340179045023564e-02 5.216387157243475015e-01 4.687757992151187492e-01 -4.307294545521933582e-02 5.292497378386554763e-01 8.473720766980266106e-01
-6.094667604264338706e-02 5.282096039545074451e-01 4.806265257707668659e-01 -2.381183290999758922e-02 6.248177732196005252e-01 7.804074236463709457e-01
2.442007569213483775e-01 3.864776027669241110e-01 3.599262595964040634e-01 -1.987730325630609196e-01 7.471562648836819198e-01 6.342292940023739334e-01
2.354291693763737314e-01 3.691426412858168082e-01 3.905349808688182156e-01 -3.299938374997264390e-01 6.821449703690767308e-01 6.525199664472922656e-01
2.619088010460918770e-01 3.800831856186421831e-01 3.807543578405232498e-01 -6.793604228928630251e-01 6.352524743350469461e-01 3.673196287404617566e-01
2.812751266582407816e-01 4.158888212989152455e-01 3.819915050258647637e-01 -1.533740486357489108e-01 7.904721295985183138e-01 5.929841595970858359e-01
2.713001035853518927e-01 4.259570998226616667e-01 3.548593930797516172e-01 -1.357967234777613108e-01 8.569461305794640049e-01 4.971947095229279356e-01
2.832944581177947452e-01 3.888649559260626276e-01 3.908302465428323824e-01 3.170553230985045379e-01 7.364609732936951980e-01 5.975794147309678728e-01
2.870528482685784644e-01 3.500391570674828423e-01 4.243910596173771088e-01 3.287499436797124419e-01 7.447754761174029126e-01 5.807176290631114179e-01
3.104617061453408544e-01 3.666396025032694350e-01 4.049875992653954593e-01 4.130178474961725965e-01 7.223151288835247819e-01 5.546864990565438802e-01
3.183117541806662620e-01 4.045411986529383608e-01 3.476301410492343424e-01 4.076576629432701604e-01 6.785895771963238454e-01 6.110085233154654016e-01
2.995533792196392042e-01 4.105982695547329975e-01 3.752788162531174865e-01 3.227903111180716045e-01 7.419341226994594640e-01 5.876565090445963202e-01
1.296142185796245183e-01 4.006852328464944879e-01 4.685285778534774570e-01 6.459134051124120202e-01 1.761142724013480820e-01 7.428187101525061120e-01
1.314787978374191701e-01 4.184882698526567468e-01 4.513828045929065280e-01 6.459134051124120202e-01 1.761142724013480820e-01 7.428187101525061120e-01
9.144512462692055976e-02 2.281401207956290644e-01 5.091164167062045554e-01 4.684250629397131438e-01 -2.996232523828046626e-02 8.829950280019934761e-01
9.958768993080525933e-02 2.621994771787738432e-01 5.084292930887405193e-01 4.684250629397131438e-01 -2.996232523828046626e-02 8.829950280019934761e-01
1.200956895841169270e-01 2.648151406214004910e-01 4.938748605397373925e-01 5.173548168152948268e-01 1.210297778821054909e-01 8.471692784702600232e-01
1.315441012410102362e-01 3.239543304243294175e-01 4.895172447875029142e-01 5.800597230826997075e-01 1.921271141227991752e-01 7.915919969757568841e-01
1.322039951951847481e-01 2.758926410340383772e-01 4.821986615128773801e-01 5.800597230826997075e-01 1.921271141227991752e-01 7.915919969757568841e-01
9.642127695451169211e-02 4.818641815179480759e-01 4.657831009589144533e-01 5.558924526683620693e-01 3.262484517086347569e-01 7.645557722129049383e-01
1.134256506601334230e-01 4.371138376258730807e-01 4.697705564026428693e-01 5.767127499481621289e-01 2.366624386053036710e-01 7.819164240509464125e-01
1.221140744292607133e-01 4.674067724051242934e-01 4.553875810928871837e-01 6.082047097208178599e-01 2.500949712281196891e-01 7.533521994657091936e-01
-5.027906501559333691e-02 1.702641921932815661e-01 5.914810476629757119e-01 3.330746028036427053e-01 -2.697076306734852436e-01 9.035037924235240769e-01
1.200077350734628234e-01 4.871877847075163359e-01 4.497049679592560745e-01 6.417267507156196871e-01 3.211340507755144902e-01 6.964622738156620585e-01
2.067673568117003313e-01 3.705658252136900255e-01 4.115904939878051727e-01 7.121710790317381523e-01 2.602843604818647072e-01 6.519696357034708845e-01
1.440944275745064951e-01 4.182420756839319020e-01 4.409360793302318782e-01 6.749349131749244890e-01 1.874779442779154759e-01 7.136630040760724158e-01
1.779621068357445657e-01 4.415245768366421464e-01 4.115784023763655042e-01 6.749349131749244890e-01 1.874779442779154759e-01 7.136630040760724158e-01
1.544883521703029616e-01 4.934053271525011275e-01 4.101818936189388642e-01 6.337722484019004954e-01 3.113204600310794379e-01 7.081047297692881770e-01
1.481554757555468560e-01 4.727071865317267196e-01 4.264712350137541685e-01 6.548453386731880599e-01 2.637684832637655630e-01 7.082399096737844735e-01
1.818528140812736005e-01 4.663986894787446325e-01 3.992328335286752239e-01 6.960772324285544599e-01 2.294159679107759808e-01 6.803269803279639039e-01
-1.300242930360568649e-01 2.695029474107202838e-01 5.830532281334011024e-01 -1.319973650480109340e-01 2.563014169566522060e-01 9.575417898381222148e-01
-1.374097585459265192e-01 2.629287503874341847e-01 5.683304471390467905e-01 -4.612322245910069896e-01 3.274541368570911271e-01 8.246445435786308176e-01
-9.391420798728883357e-02 2.805533574270259733e-01 5.908562420844617469e-01 -1.048427513842174336e-01 5.134305358850546064e-01 8.517024611347396856e-01
1.422111907816165643e-01 6.120917514197231624e-01 3.755553293753048361e-01 2.359232160692738001e-01 6.421145223802057211e-01 7.294033015197909364e-01
1.029441245153612100e-01 6.074218036579319691e-01 3.471961810583414909e-01 2.357322036924400788e-01 6.718788781660846032e-01 7.021460682910569684e-01
2.239209817036146716e-02 6.830295271703648030e-01 3.071430887267597720e-01 4.882427832608735030e-01 7.514855661790091623e-02 8.694663185149392737e-01
5.579380557218793779e-03 6.527427297853118926e-01 3.276823136773062140e-01 3.419892978613011669e-01 1.926857487057906382e-01 9.197366592639565352e-01
5.655021850139052564e-02 6.673383507955112925e-01 2.969348324241086745e-01 2.735988839575207495e-03 4.176089505678945435e-01 9.086227373176678501e-01
3.256046852703432803e-02 6.663063645535632906e-01 3.149763141879398098e-01 2.519000927831422376e-01 7.031096259641734791e-01 6.649685685296443660e-01
-4.896260079090674483e-02 6.119489485338309720e-01 3.495289989253580476e-01 7.001207125673695186e-01 2.140653505242253937e-02 7.137035435607756995e-01
-1.605618091953260607e-02 6.505568235017221701e-01 3.299412199180427052e-01 2.071491871787594641e-01 3.419685703283624201e-01 9.165951729955570393e-01
-3.562774878346358642e-02 6.443682757960556007e-01 3.351842059554901443e-01 4.753337519361221508e-01 -3.112823063891606568e-01 8.228980191976245084e-01
6.227465588734232282e-02 6.529691509447712594e-01 3.008564572702824291e-01 -8.183198079199785480e-02 4.446603494253236755e-01 8.919533062714701810e-01
1.013742156694604907e-01 6.556778642315634897e-01 3.020804974003222787e-01 -6.731488406048333206e-02 6.208077657428884288e-01 7.810674902831680200e-01
7.175506764483723099e-02 6.784537637163289281e-01 3.147879881945855884e-01 -5.206863221012723170e-02 5.190085777250843524e-01 8.531816651731044532e-01
2.914202919789471088e-02 6.455815105893885075e-01 3.260274543058114816e-01 -7.444951986544412785e-04 6.381907339191956741e-01 7.698779337444200399e-01
3.882631745344220509e-01 3.328448201840168985e-01 3.622042582503172126e-01 4.906580656588960254e-01 6.770759426818007132e-01 5.484731811542122859e-01
3.737846132991055059e-01 3.486857328892829511e-01 3.471558397650869598e-01 1.023646331971078682e-01 8.117529516766681663e-01 5.749596745117334651e-01
3.663594147218132147e-01 3.453795436859106727e-01 3.651582565635443367e-01 8.951364287707068434e-02 8.112146122411444393e-01 5.778565225255539728e-01
3.462042581249066275e-01 3.060467671387783750e-01 3.967350150974179868e-01 1.051201081328849846e-01 8.169379758741129871e-01 5.670644640963121708e-01
3.804727143119417954e-01 3.028146915173856590e-01 3.976622222165401288e-01 6.905520070583709424e-01 4.808251284349326360e-01 5.403194623675759978e-01
3.864527861420904986e-01 2.797520334588677327e-01 3.848647961510069937e-01 8.038364545760636748e-01 3.603759610187728946e-01 4.732611551927539684e-01
3.715279814364204625e-01 4.465123764515039895e-01 2.199459511234111431e-01 2.356722443088345997e-01 9.473249911884215058e-01 2.168731295764742550e-01
3.904041877453027221e-01 4.466487717335935748e-01 2.053650896904105905e-01 6.055010300162049219e-01 7.840399380357147008e-01 1.365645569475019971e-01
4.061753631145306187e-01 4.245497991769053847e-01 2.122715687078691738e-01 7.032211881280053811e-01 6.510393165628562961e-01 2.857057382293982095e-01
4.036322838503875743e-01 4.194539996467763765e-01 2.594451834854890615e-01 7.688643769477765400e-01 5.294432805444221346e-01 3.585211047442922738e-01
3.831844257121744812e-01 4.335298058045324865e-01 1.768555678803893083e-01 3.920498544150933240e-01 8.472571129054468075e-01 -3.584024222633421797e-01
4.221243952253840859e-01 4.072372795500035503e-01 2.042755745558456626e-01 8.578626394109925002e-01 5.128983535877643662e-01 3.173280305560892411e-02
4.169352971076639158e-01 3.929443069943686639e-01 2.157553514337951506e-01 8.839219609003433620e-01 3.866059124462517538e-01 2.630928267735417325e-01
3.985355541254198553e-01 3.951238779195115347e-01 2.637683557361374387e-01 8.743449392450823865e-01 3.888666323643403810e-01 2.903509418791854757e-01
4.239084299539599976e-01 3.625665094368321628e-01 2.255625085530865992e-01 9.736066343871166984e-01 2.225739046110535302e-01 5.050721199572454079e-02
4.299618958437018135e-01 3.884526138801359108e-01 1.884058314429555292e-01 9.499959160847204487e-01 3.079909970072567393e-01 5.147140162098518684e-02
4.190015024915884623e-01 3.634307891419220060e-01 2.060797343468049880e-01 9.627337203641586072e-01 2.148548923423635182e-01 1.642594256362101268e-01
3.426036410107358154e-01 3.519613019079276262e-01 3.880676345432747532e-01 8.325626135913651860e-01 3.594023714451599627e-01 4.215085169359101269e-01
3.424866854149907769e-01 3.354032405536294115e-01 4.207999528687296209e-01 9.770815114689851422e-01 -7.445615824898904438e-03 2.127352409697825519e-01
3.990145338943016373e-01 4.004611543766598558e-01 2.649123885911066068e-01 2.670310116181066618e-01 7.799938165540540869e-01 5.659541368093807812e-01
3.806023209385710482e-01 4.225841068435890469e-01 2.437294673976614090e-01 4.048520846212598778e-01 6.496085359355032729e-01 6.435087719818216589e-01
3.617276746316439584e-01 4.341774275157245233e-01 2.630829941276010553e-01 8.305053716548295162e-01 5.000428823548564994e-01 2.453934462423977558e-01
3.193303342594555616e-01 4.470922385351489559e-01 3.045303720202189313e-01 4.370149002119202986e-01 8.425355263890699220e-01 3.148838893386866067e-01
3.425453968434777341e-01 4.331094936856662581e-01 2.876870068960522553e-01 8.046877475902217691e-01 2.448400249123762196e-01 5.408613418234683445e-01
3.348258011618815422e-01 4.370392681699142301e-01 3.023486226931365595e-01 5.520279708963340415e-01 3.766966788544724443e-01 7.438848912890264620e-01
3.424353282628551098e-01 4.213754316609619188e-01 3.152002258076400665e-01 8.408018526815069782e-01 4.958488866819089069e-01 2.172236775852409429e-01
3.298884886393979587e-01 3.887950930219997714e-01 3.554377556436673080e-01 5.973005921752705394e-01 5.891128985141393937e-01 5.442223767830026704e-01
3.345166089221883188e-01 4.188364089527537582e-01 3.396874172466203823e-01 5.742256864927792748e-01 7.295629568893305938e-01 3.714872176896441558e-01
3.357463216206593160e-01 3.838914791428379436e-01 3.842263923147664628e-01 5.735179135464676392e-01 6.394159381877068116e-01 5.120785690036648852e-01
3.374908667564126552e-01 3.790991101234439387e-01 3.629974843337632207e-01 8.188126972630415112e-01 3.922762041215187567e-01 4.191242613841809073e-01
4.042253932720699661e-01 2.248202132870292524e-01 3.893545340964247314e-01 5.505178082583106480e-01 6.291534717914272212e-01 5.487221990436137453e-01
4.446404459490388983e-01 2.876837247408054951e-02 3.679355915526439924e-01 9.261229247906984652e-01 -2.511300117790152830e-01 2.814783212984506844e-01
4.485809082092638289e-01 6.911863474072052482e-02 3.344010398251027749e-01 9.805695809344532332e-01 -1.958610368812642999e-01 1.103409161764400299e-02
4.583191068832822568e-01 8.309901934700401893e-02 3.412133804610281707e-01 9.839490811024697026e-01 -1.737171222083107869e-01 4.082361141874100291e-02
4.293909532831723941e-01 4.192626927781958196e-02 3.578318986060589624e-01 9.233556797720248177e-01 -3.707806583007843271e-01 -9.967944654129605453e-02
4.221000641262336872e-01 -2.538495028017486929e-02 3.614723864238831297e-01 8.186015541267889217e-01 -5.566415922750438394e-01 1.415684757660041759e-01
4.240825126181616000e-01 -1.222060715050729551e-02 3.425875542147413522e-01 8.781255502435078020e-01 -4.752066447779645930e-01 5.544513295507498551e-02
4.075704980884589101e-01 3.362711382971903321e-03 3.947454951628121544e-01 8.626510678796069920e-01 -4.615849898804432194e-01 2.068149709359668742e-01
4.372540662046869309e-01 4.573755960205524995e-02 3.940673509060059199e-01 9.214944272850215112e-01 -2.981353497113013451e-01 2.489243534392931445e-01
4.453307233426556655e-01 6.369615405847030287e-02 3.673581875021527110e-01 9.620649134439568373e-01 -1.497117903096684410e-01 2.280734139752938761e-01
4.443713085425851084e-01 7.878161654018470128e-02 3.984969001353169671e-01 9.626788596930843100e-01 -1.162278057531077879e-01 2.444187191477786569e-01
4.313894313966848415e-01 7.035385986176237449e-02 4.175885654495454791e-01 9.036339225512627360e-01 -9.054542026127285204e-02 4.186254422324662827e-01
4.126025858640219313e-01 5.927626676173291392e-02 4.412270903092151420e-01 8.711789104922028626e-01 -1.308181309188773400e-01 4.732165704373736403e-01
4.398081795621092693e-01 2.694492914545364992e-01 2.083918399636223162e-01 9.242892309914527704e-01 -3.018270005097758446e-01 -2.336447714726367642e-01
4.533243052222085678e-01 2.652089577299529544e-01 2.296505774082440166e-01 9.831035824887021102e-01 -1.524246399884877368e-01 -1.013611129687316259e-01
4.383408806998854712e-01 2.334164824836281182e-01 2.323117755767247217e-01 8.858816541789086285e-01 -4.097838671529387966e-01 -2.174646569225061055e-01
4.387388074368437363e-01 1.333047692529436556e-01 3.184803200828209002e-01 9.225603722081867630e-01 2.749295740049061965e-01 2.707325044551773807e-01
4.541101054497790890e-01 1.469780334201558625e-01 2.958195955363370211e-01 8.991180083997515338e-01 3.333870851131408020e-01 2.836192138255579365e-01
4.294016463570656805e-01 1.391433444997597080e-01 3.540077774782176001e-01 8.273071744270902306e-01 4.379524719735553573e-01 3.517960651197174493e-01
4.442540618674455932e-01 1.259010818388678066e-01 3.732226243189051273e-01 7.849412934971593536e-01 5.841705813682616100e-01 2.064264944886523012e-01
4.417032738899299149e-01 1.693429013572632924e-01 3.081737220282885770e-01 9.067759456814481478e-01 3.506620870483547203e-01 2.340800825367412574e-01
4.316797309485289058e-01 1.583631223072247962e-01 3.316199610340964110e-01 8.739571794128488946e-01 -4.403860360127733742e-01 -2.055699098547592030e-01
4.528564867342190214e-01 2.305758063748290787e-01 2.932063990172069090e-01 9.954462165030780740e-01 -9.335748197978437080e-02 -1.926682662249795328e-02
4.541874106194354610e-01 2.346077023125642258e-01 2.683406302759938633e-01 9.954462165030780740e-01 -9.335748197978437080e-02 -1.926682662249795328e-02
4.519621493929062428e-01 1.918044344803262469e-01 3.098915346121146608e-01 8.551760884232713078e-01 -4.459115842905406746e-01 -2.642663746763352361e-01
4.449642286441028438e-01 2.319298828993385242e-01 2.514489181752608826e-01 8.083651424041194966e-01 -4.956157944878734622e-01 -3.176645727809783715e-01
4.509552438395200702e-01 1.999765955820227981e-01 3.260885674292453018e-01 9.869190174089459422e-01 -1.505537706933098296e-01 5.765774194838964306e-02
4.402846103916411846e-01 3.028601265353241812e-01 2.389935330766757016e-01 9.587302143901700324e-01 2.475758671607500572e-01 1.397947281372989292e-01
4.455817519457588860e-01 2.909394724490605433e-01 2.321091069970230847e-01 9.607318793687751324e-01 2.635630785949906740e-01 8.676842493714057025e-02
4.265898418743409026e-01 3.202462645830528309e-01 2.425837191504270351e-01 7.705502009851662448e-01 5.954226344383296565e-01 2.274297125712453904e-01
4.403683779865370518e-01 2.888319040330931120e-01 2.757842962881689175e-01 6.643371344759340102e-01 5.921400443275477432e-01 4.560990458881430398e-01
4.470706333934774679e-01 2.687799400525428539e-01 2.782368507136919189e-01 9.397762141508753109e-01 2.352563418539463380e-01 2.479417692397697381e-01
1.223010552983248150e-01 7.153999570100662009e-01 2.856924376565490586e-01 2.466541155490611925e-01 3.992845057299894695e-01 8.830252718731600448e-01
6.137949547059570049e-02 7.452536595493407523e-01 2.724377019422984381e-01 8.838153354549291296e-02 2.075280402785789069e-01 9.742283187355412766e-01
6.891005872531980048e-02 7.309096504008425477e-01 2.738092970246653324e-01 1.947257015957761794e-01 3.270242314435402586e-01 9.247362073514774350e-01
1.025487044315474966e-01 7.232189103247108619e-01 2.841730824422793455e-01 8.469673988996591352e-02 3.104908474278270103e-01 9.467955935235234932e-01
6.225119414434090309e-02 7.190155494763160737e-01 2.996107927408317440e-01 5.361943452155060880e-02 2.701330960379756951e-01 9.613288025782473767e-01
-4.978981892445482477e-02 7.271186040874896284e-01 2.838743326779193388e-01 4.331998333179687410e-01 8.424231838791326199e-01 3.204076835474285456e-01
-2.409993038409520907e-02 7.227048309813015603e-01 2.949096681253486896e-01 2.251618629669463745e-01 8.565680061544872492e-01 4.643203487871066515e-01
7.504746936497230098e-03 7.264193901561735167e-01 2.952187154114240264e-01 1.773267975725208445e-01 5.429492690497009777e-01 8.208296401209386195e-01
-8.970902022187368652e-02 7.201014758929060733e-01 3.328671099038663650e-01 5.366357216293708016e-02 -2.121385728969461815e-01 9.757650572304586989e-01
-6.512610340198787817e-02 7.113339318042478654e-01 3.317447888826324798e-01 2.580714578050825603e-01 -8.649782176473756745e-02 9.622459402337405487e-01
-6.544077434548621619e-02 7.347016008149260813e-01 3.073417544145062852e-01 4.024827506023844759e-01 8.479550225002194797e-01 3.449346536435429211e-01
-1.594090756302198042e-01 6.894149761010976984e-01 3.275693506014898948e-01 1.487962122889626426e-01 2.078018347323561388e-01 9.667875075166850740e-01
-1.362217980988824351e-01 7.293580117430742416e-01 3.294390370595431383e-01 -5.592193833138198178e-01 7.534650389523772640e-01 3.457804453733668293e-01
-9.583485572056898993e-02 7.243975509669108304e-01 3.143219640507457502e-01 4.279423855647083996e-02 9.268581255060336366e-01 3.729647011847280202e-01
-7.757850360400819767e-02 7.681716801957034768e-01 2.745953471713497018e-01 -1.601151806617578249e-02 2.186773062755968666e-02 9.996326493499585464e-01
-9.473367715412267520e-02 7.449089644980408931e-01 2.937900900332314214e-01 1.298772511572738597e-01 4.534758514937118346e-01 8.817548138478652486e-01
-6.468058723634163842e-02 7.423224018417359238e-01 2.864209064580056641e-01 2.724785722235755214e-01 4.926232385364817112e-01 8.264851919622216991e-01
2.156177934216631509e-01 5.396506270421285167e-01 3.346017314916921448e-01 7.472609147222467607e-01 3.497840255464881309e-01 5.650241240876044957e-01
1.739972710894669428e-01 5.755969082187223362e-01 3.641268338266847038e-01 5.934343227842702184e-01 4.141243254749379932e-01 6.901715349038253233e-01
1.935858125016431674e-01 5.380337708616043102e-01 3.528144959763896971e-01 6.573875656247673005e-01 3.623535893329334345e-01 6.607128459924795916e-01
2.345928951014095432e-01 5.630764810461945657e-01 2.692230516858076239e-01 1.167763843867768575e-01 3.081301149539059092e-01 9.441499395265798844e-01
2.567116453870803006e-01 4.421137336046887523e-01 3.183340467094020743e-01 -2.351178918853533972e-01 7.933798807657589380e-01 5.614872587258746828e-01
2.767124740079093814e-01 4.487681270711080805e-01 3.186678043970553320e-01 1.606354934455869188e-01 8.161276489734611284e-01 5.550962968950017284e-01
3.058635183770286314e-01 4.545389306558179632e-01 3.158298786077529119e-01 7.056249835450839614e-02 6.980877447632092281e-01 7.125267955925493890e-01
2.806032150227514288e-01 4.601347925092629243e-01 3.084320215817231148e-01 4.531777917746988016e-01 5.925844100495702982e-01 6.659381397760686383e-01
2.453811843146311289e-01 4.812653637823275377e-01 2.985901816406446585e-01 6.312870944105512805e-02 5.797859748826608151e-01 8.123195118755115463e-01
2.511087338424852211e-01 4.911385588479187381e-01 2.874053301499639446e-01 3.026361410840590072e-01 3.743132751579595907e-01 8.765277737472276787e-01
2.571732552781086367e-01 5.361429480178648843e-01 2.722660317060944801e-01 6.668848326198542065e-01 2.658582532881509919e-01 6.961206857867122677e-01
1.712984297856658400e-01 6.225424740575756788e-01 3.097552350239644037e-01 4.294653509118502854e-01 5.445616048388927100e-01 7.204249932515188748e-01
1.556397622300938477e-01 5.976163445053660483e-01 3.403789240960122253e-01 3.802218295743265974e-01 5.834549982680423685e-01 7.176431044127647985e-01
1.614529658941813439e-01 5.855706630848541705e-01 3.557109371312640045e-01 5.780881967402935473e-01 4.508824734757282959e-01 6.800875178254373044e-01
1.910454025743543449e-01 6.164928299398304556e-01 3.203759432345286706e-01 6.782152745642678893e-01 4.072258494715170207e-01 6.117116550057846158e-01
2.166753548033559795e-01 6.373884387969086518e-01 2.475764037884747859e-01 7.520141263575851331e-01 4.007344615135441934e-01 5.233418052421265898e-01
1.890411888659960238e-01 6.351076812616592848e-01 2.950059475335135573e-01 6.600089825266873822e-01 4.207607710813943136e-01 6.223732935329707727e-01
1.977655805058380900e-01 5.732040979650566692e-01 3.262318800161893573e-01 6.849708864662630292e-01 3.660333412890212634e-01 6.299479960746098284e-01
1.962383367019870650e-01 5.759090992375996976e-01 3.442561124241730330e-01 7.388896319169542259e-01 3.196594241393871938e-01 5.931778522538609932e-01
3.774625627761258873e-01 4.581908113995447063e-01 1.204890362337094484e-01 9.033630426550562920e-01 2.183885641313834391e-01 3.691092632563313103e-01
1.453071886225558162e-01 8.104670831752748272e-01 1.997627807262126742e-01 4.801530578205396305e-01 6.981765574863212365e-01 5.310391093338936441e-01
1.361760884990749487e-01 7.986249318537108621e-01 2.099915464660463971e-01 5.595772913937142184e-02 4.262792155339859557e-01 9.028592154667827163e-01
1.596863390056381948e-01 7.769880978828237472e-01 2.153661494829068601e-01 5.608782368918679984e-01 6.167526985410994866e-01 5.522967610110903758e-01
1.548791130832742058e-01 7.410817193226968413e-01 2.323667413453743835e-01 6.305691727541575808e-01 5.917839616978801676e-01 5.021695540843742478e-01
1.808266510756695589e-01 7.693170827992306116e-01 2.124759810504974200e-01 2.486231848029953895e-01 3.846866267168231324e-01 8.889334683786223046e-01
1.957605952240458747e-01 7.409873544310233706e-01 1.995069685165682671e-01 5.976137043550702188e-01 4.968310317204599480e-01 6.292986463409834252e-01
1.990765067609830408e-01 7.921322148624286852e-01 1.451228173005590372e-01 6.413022161610023586e-01 6.608048746705251775e-01 3.899594660457143536e-01
1.878570185426641503e-01 8.001918856278087411e-01 1.621539480064241034e-01 6.443981974662371659e-01 6.459479709000117698e-01 4.092703043129586882e-01
1.638216473148277619e-01 7.983309435206880078e-01 1.746726133790705848e-01 6.255817187562990878e-01 6.416229699054881719e-01 4.438101820007915865e-01
1.853286826743617000e-01 7.574328112139137037e-01 1.900159330694709547e-01 6.077622446100522380e-01 6.170584084061446761e-01 4.998639561338932280e-01
2.307422757954243342e-01 7.636566500145711700e-01 1.315103729243836117e-01 7.037878357749728364e-01 5.886129151185238717e-01 3.977656576061504023e-01
2.189631773986746299e-01 7.669714322639794579e-01 1.539357722511762450e-01 6.827609111704878719e-01 5.946085545659490768e-01 4.245918098770133375e-01
2.221738456937295547e-01 7.589942997986027784e-01 1.689498753653689844e-01 6.767725647226562335e-01 5.845859906426751351e-01 4.474797371759310360e-01
2.042349328530611852e-01 7.746365180090682978e-01 1.658603557408257212e-01 6.767725647226562335e-01 5.845859906426751351e-01 4.474797371759310360e-01
2.282476700537424130e-01 7.340248857965846474e-01 1.702250696973225952e-01 6.888971162021380046e-01 5.259156822103677742e-01 4.988320944903015808e-01
2.754713131021299666e-01 6.159918081025447245e-01 2.262718922454409753e-01 7.305188181955097892e-01 4.037928277734409432e-01 5.507209897043727764e-01
2.702916204835040248e-01 6.950460481045558359e-01 1.627263690997398926e-01 7.651872495114900863e-01 4.790422963246116494e-01 4.301243442506870185e-01
2.675865788665613421e-01 6.351497549634562700e-01 1.993222033430851747e-01 7.422071111366332907e-01 4.186547896692683901e-01 5.233132630319952128e-01
2.227389985535792316e-01 7.152713128580675539e-01 1.952859174747995641e-01 6.957468157097915773e-01 5.167529533386359120e-01 4.989015470465920088e-01
2.328629615682556997e-01 7.197395412390698022e-01 1.820669009011731954e-01 6.957468157097915773e-01 5.167529533386359120e-01 4.989015470465920088e-01
2.606439938148406021e-01 6.854792246505756470e-01 1.870516313287721999e-01 7.312056937767027476e-01 4.887814807634145442e-01 4.758475569457666365e-01
2.424858500253710414e-01 7.722985302247047379e-01 7.404813191635961633e-02 7.406655048184730417e-01 6.367773440245263483e-01 2.143110452334796023e-01
2.515154571629610869e-01 7.646636329330293025e-01 7.466089834700755101e-02 7.282564692398516559e-01 6.300343491153365116e-01 2.696279546803689864e-01
1.564374601736638337e-01 7.439322952401586919e-01 2.448632646474001029e-01 4.012459860741454110e-01 4.652896934283663466e-01 7.889912292596943377e-01
1.402244217429416406e-01 7.107358536770271851e-01 2.747454079692896456e-01 3.780752991947971542e-01 4.185200066661557972e-01 8.257724094197659293e-01
1.068768969153856829e-01 7.412377598195774020e-01 2.760750423585942026e-01 3.780752991947971542e-01 4.185200066661557972e-01 8.257724094197659293e-01
1.575443202032013879e-01 6.553585348780379682e-01 3.070335429088741352e-01 3.680364571889405689e-01 4.961537182599359830e-01 7.863718293763155565e-01
1.335598182536399114e-01 6.809851771869508408e-01 2.872125046008677796e-01 3.147391935327701895e-01 5.677435423763305122e-01 7.606618895043429918e-01
1.380888077874090625e-01 6.772053825299680918e-01 3.067824055604129185e-01 3.406655086758569873e-01 5.306058177216307348e-01 7.761472008572722903e-01
1.939623743954695945e-01 6.976497289460998896e-01 2.387354517184475666e-01 6.845866171317516180e-01 5.248676456176840643e-01 5.058212314917730490e-01
1.795614468380370421e-01 6.985289966542269635e-01 2.531536547507189372e-01 6.845866171317516180e-01 5.248676456176840643e-01 5.058212314917730490e-01
1.631092288435431470e-01 7.281728174697577050e-01 2.476826946001516594e-01 5.054706893749176810e-01 5.565993504445025941e-01 6.593152093404209824e-01
1.657467870142706745e-01 6.911906836226296980e-01 2.680899085925330105e-01 4.848401346372204768e-01 5.664992002969563289e-01 6.663397781221462868e-01
1.719368642107018119e-01 6.676216950701749919e-01 2.781373865607085216e-01 5.098116364856433158e-01 4.885843057823062718e-01 7.080801306681695495e-01
6.512742681384327270e-02 9.131626034177886542e-01 4.543015706240964569e-02 4.174695478433349538e-01 8.939307989638395346e-01 1.631162263153274061e-01
8.998224004762393757e-02 9.150920373014450604e-01 2.992663969959011988e-02 4.174695478433349538e-01 8.939307989638395346e-01 1.631162263153274061e-01
9.978877623759883908e-02 8.884108328522454245e-01 6.225171355536156248e-02 4.176390644704829347e-01 8.938471356788092459e-01 1.631407670296060042e-01
-5.099578585914368162e-02 8.334859498047205717e-01 2.544708461717541392e-01 1.406927952573926166e-01 7.331630829648685399e-01 6.653400868278647184e-01
-1.967910585707895871e-02 8.226719377001220357e-01 2.632946380148023513e-01 1.638457267906291703e-01 7.195451948902693573e-01 6.748401961374077551e-01
-1.553936146699433883e-02 8.188547973867672525e-01 2.472004845644243387e-01 1.702929867483499171e-01 7.221812920931568458e-01 6.704136633564271586e-01
2.497503375012119220e-01 -2.971301874887626870e-01 6.907677326744599000e-01 4.864002832232972584e-01 1.478077159297027099e-01 8.611432189780864332e-01
2.438021438076211356e-01 -2.661126624053285483e-01 6.846821083783232176e-01 1.934161483894884237e-01 4.944401824895096054e-01 8.474190813770454689e-01
2.356749732637931638e-01 -2.781876212347482724e-01 6.953329026185104400e-01 -1.688550819908505862e-01 6.634605423133176361e-01 7.289088215128017856e-01
1.351718400358909444e-01 -3.579249156489630046e-01 7.263587317039419400e-01 -1.358190335959986172e-01 5.633606790221860061e-01 8.149711255282057198e-01
1.838091190631210847e-01 -2.933465319570953689e-01 6.906924254537377683e-01 -2.616103100506491086e-01 7.515537087434174257e-01 6.055799439786770932e-01
1.564860822230187687e-01 -3.034261124500033935e-01 6.923038136805802489e-01 -3.767835926198017660e-01 7.228288191532868945e-01 5.792690415808360305e-01
2.007844285913769067e-01 -2.643710371588932628e-01 6.769294724348470238e-01 -2.867457625118038367e-01 7.212937448575730270e-01 6.304856868405995796e-01
2.297926162415025175e-01 -2.576592582228938166e-01 6.598290155163775150e-01 -2.868391065157802067e-01 7.478374432820825701e-01 5.987173668756793354e-01
1.795397626184519757e-01 -2.844524560134588653e-01 6.713723181517655680e-01 -3.892930507874113877e-01 7.720542244676520394e-01 5.023775423825016517e-01
1.990405899504757992e-01 -2.883101416645960646e-01 6.929444641340973821e-01 -2.771152033407263682e-01 7.234016809918762947e-01 6.323742341490167229e-01
1.561684195145723320e-01 -2.806012931529316412e-01 6.646329969969557716e-01 -4.416268008962750957e-01 7.600336189025873601e-01 4.767752792122914030e-01
-8.703953041363676757e-02 -3.354556919137535731e-01 6.243792651198654120e-01 6.786517790593304955e-01 3.222766547579606344e-01 6.599769091245724084e-01
-8.363506890022283369e-02 -3.610749146900306128e-01 6.276479235331584583e-01 7.285828050210789719e-01 2.416374035754083882e-01 6.409200117182733969e-01
-2.825189605144999561e-02 -3.140792796812985621e-01 5.688609499284189575e-01 6.587159261620223472e-01 3.334032321254188913e-01 6.744891499711713756e-01
2.768349823500053652e-01 -2.730709853560270295e-01 6.826968676630874588e-01 4.775892846650021117e-01 1.202183168595644808e-01 8.703194996463223809e-01
2.850850053850342292e-01 -2.568720930561464999e-01 6.696535633588325265e-01 3.710073500279317260e-01 3.766832555428729079e-01 8.488010787097731713e-01
3.170801966732001431e-01 -2.260555736713440178e-01 6.535177826794352773e-01 3.630627599232917890e-01 3.306682632228383767e-01 8.711164859271541827e-01
3.595329057797519434e-01 -2.399954853954261724e-01 6.226829749644000600e-01 5.851277423361145313e-01 1.478306550324662294e-01 7.973528846008607340e-01
3.095149877196172739e-01 -2.744821012094698087e-01 6.468605047816962106e-01 5.265447850225933868e-01 5.099826203757217707e-02 8.486163836708894292e-01
2.891473256702228878e-01 -2.873200532599738954e-01 6.618035395495347473e-01 5.641740097914914598e-01 5.783637498327830889e-02 8.236277316874315302e-01
1.957361510843756147e-01 -3.354179881331402213e-01 7.268328464503699404e-01 2.167098526488141219e-01 3.155208880942823590e-01 9.238416579377251026e-01
2.337944537131954048e-01 -3.058890724953164941e-01 7.085382710590306665e-01 2.253054627183238290e-01 2.853081209416570285e-01 9.315775462053724754e-01
1.803088694993585372e-01 -3.143012401180568238e-01 7.099656582225926105e-01 -1.101421806980320828e-01 5.620814684595980548e-01 8.197152693743016139e-01
1.631534793106131087e-01 -3.289996567866246280e-01 7.335968341929987035e-01 -1.113100135300663651e-01 5.717888611209729355e-01 8.128146032066090321e-01
1.832482472937631557e-01 -3.532419571318818341e-01 7.310422681883417262e-01 4.319610185789721224e-01 9.623486383462299953e-02 8.967432906974818208e-01
1.541636478912551955e-01 -4.414489817630183888e-01 7.316241741882909544e-01 5.277850675748686493e-01 -2.197921724673404797e-01 8.204476359689741871e-01
1.766089897144463294e-01 -3.915377626444696002e-01 7.363096374079814987e-01 4.917497813878642932e-01 -6.520138541978061364e-02 8.682919623285296762e-01
5.159647988601343549e-01 -5.702591252094313390e-01 3.863774748946715021e-01 3.896759860792589625e-01 -4.774024244766155167e-01 7.875528877332661493e-01
3.905462146922486499e-01 -3.848722173858340478e-01 5.431414634440222544e-01 7.209876993011182789e-01 -2.716620371185659577e-01 6.374766466664258946e-01
2.652026768942650770e-01 -6.013926508542616345e-01 5.527883577550958272e-01 5.491700786575048898e-01 -5.217629370950337409e-01 6.528213095336837801e-01
3.988647544539100087e-01 -5.100979729424973685e-01 4.489392505953398449e-01 8.086045983167342577e-01 -3.903591615124117897e-01 4.402025994975037881e-01
3.772206878611232272e-01 -5.419263528367191940e-01 4.720005022494757618e-01 8.285737254074523328e-01 -3.416052838681212234e-01 4.435892374683994555e-01
3.713301772196964667e-01 -5.658739593651599398e-01 4.532383006645407386e-01 8.238318729322875456e-01 -3.714560922443709279e-01 4.281605034042962887e-01
3.992046329659865722e-01 -5.562075651152437183e-01 4.450130739786691270e-01 7.691761510114044631e-01 -3.748104601928757273e-01 5.175762433161765763e-01
3.582885138004733849e-01 -4.936403089447445325e-01 5.246650214957354619e-01 6.759374979892766033e-01 -3.630549083634691532e-01 6.413264631411911276e-01
2.426020683458123828e-01 -5.548402869847599561e-01 5.807395419689682647e-01 5.666273819719124250e-01 -4.810391253790960997e-01 6.689803957173712234e-01
3.561936379259370566e-01 -4.267278214797354807e-01 5.659058948846640291e-01 6.732432260855539807e-01 -3.033138955602996401e-01 6.743472690609426667e-01
3.250621844217485013e-01 -3.810325822994050649e-01 6.157012810776404388e-01 6.582816031130841461e-01 -2.665633870470054956e-01 7.039952355583782850e-01
3.267312952209598387e-01 -3.745887671281387110e-01 6.336995333547638110e-01 6.582816031130841461e-01 -2.665633870470054956e-01 7.039952355583782850e-01
2.018838295691251783e-01 -5.074021510999167095e-01 6.737079622539653423e-01 5.881940814944278673e-01 -4.074409591122178931e-01 6.985839873147984269e-01
4.002736718887317524e-01 -2.523581244706424309e-01 5.456675832256768777e-01 8.001245933492148188e-01 -5.717465277327569290e-02 5.971027501176066066e-01
3.814275649756883046e-01 -3.196342371160648121e-01 5.922858665736221440e-01 7.108709192348355854e-01 -2.140137063021406716e-01 6.699706483877044816e-01
3.353084249028501218e-01 -2.571460032316078004e-01 6.321731510268832066e-01 6.424379929718398996e-01 -4.815038044274522894e-02 7.648234868579371071e-01
3.333308609185439697e-01 -2.776051344920624775e-01 6.315113877363732753e-01 6.392379408813607666e-01 -5.051912892785217352e-02 7.673478171925224300e-01
3.550483717641322867e-01 -2.825573970741052099e-01 6.159604104821327919e-01 6.965704906525552742e-01 -9.641211511157131431e-02 7.109811921645827759e-01
3.679014966909329720e-01 -2.426829837167829296e-01 5.906604678663683883e-01 6.885045259708700849e-01 -1.224278943887056881e-02 7.251287001797562803e-01
2.893730213208193236e-01 -4.066151939935448989e-01 6.312837552019429088e-01 6.359128842796679670e-01 -3.117508692477303223e-01 7.059930588400979978e-01
3.043745783548136852e-01 -3.851097940800201069e-01 6.418669494626143557e-01 6.470660938888784797e-01 -2.651886823001128324e-01 7.148289536101058994e-01
4.073394361287606680e-01 -2.757247616386389044e-01 5.537266959803035515e-01 7.749495074660623928e-01 -1.494951916958525417e-01 6.140883067913991411e-01
4.173589643400806293e-01 -3.144311811232640697e-01 5.607942751063880182e-01 7.502731588657484130e-01 -1.788175989222223206e-01 6.364860198003586822e-01
3.932566695690346559e-01 -2.714178304398413566e-01 5.758377712654533243e-01 7.386753319324648182e-01 -1.149203489538126455e-01 6.641927938413642041e-01
3.882857180514187045e-01 -2.660609798047138819e-01 5.957695774383765519e-01 7.318814459177929166e-01 -1.212281178115048041e-01 6.705619229967957340e-01
3.882089041877143654e-01 -2.908620330278529065e-01 5.784444170431712884e-01 7.236431644896190729e-01 -1.621431329999142856e-01 6.708577903761885342e-01
1.336057849169677014e-01 -4.782281995994895341e-01 7.260354167567952821e-01 5.466869104763736331e-01 -3.690740916656225501e-01 7.516100962433865940e-01
1.512914356567925667e-01 -4.566709644713878302e-01 7.335126767212574173e-01 5.478840147855666975e-01 -3.175684077312606601e-01 7.739337263315771986e-01
1.542141887469247463e-01 -4.170084974295036884e-01 7.342001537429097002e-01 4.850214272627179635e-01 -2.305070188315428148e-01 8.435761550479190518e-01
1.396667356176325148e-01 -4.377779165106263637e-01 7.336984082550027653e-01 3.859744685087560523e-01 -1.641010443085286208e-01 9.077965393832659879e-01
1.328092252609277546e-01 -4.716739234200164055e-01 7.487243294801726456e-01 3.859744685087560523e-01 -1.641010443085286208e-01 9.077965393832659879e-01
1.007168423577618210e-01 -4.851661810877798131e-01 7.562808987601796762e-01 4.144441798698653145e-01 -2.750433757110616328e-01 8.675178172518757114e-01
-9.673357274246199150e-03 -4.818104711713191435e-01 7.506087063190167719e-01 -3.893020923032061154e-01 3.392488774981636812e-01 8.563609519616023347e-01
1.542475644013102491e-02 -4.475505862729207140e-01 7.666056024723875151e-01 -3.310047100787861796e-01 3.809493257418937739e-01 8.633154076711795355e-01
1.271539413003396762e-02 -4.345347250527318850e-01 7.352944798522393910e-01 -4.563085272368145318e-01 5.160288774645050980e-01 7.249115294942494181e-01
-1.888883199408579461e-02 -4.532504769151598500e-01 7.387171403429356742e-01 -5.735619934420838062e-01 4.597829131241457645e-01 6.779574562447243657e-01
-4.706325848491524355e-02 -4.729494629103811465e-01 7.399309256466786167e-01 -5.735619934420838062e-01 4.597829131241457645e-01 6.779574562447243657e-01
-3.493645599396365264e-02 -4.996847869936252851e-01 7.572957246069026427e-01 -4.860614697698644737e-01 3.012304473379939784e-01 8.203684935452550953e-01
-4.991652029540949442e-02 -4.739557272189336423e-01 6.509564672792258477e-01 -5.862029271469811897e-01 5.803998281644329182e-01 5.652452279064440477e-01
-2.072170547638384208e-02 -4.124450520279571153e-01 6.353806366370875480e-01 -6.151478087694579600e-01 7.810482302368114693e-01 1.075027228030946552e-01
-4.098521295160365008e-02 -4.343116496542382410e-01 6.353001127997238706e-01 -8.002390379688906208e-01 5.471935254468413001e-01 2.453502146314146537e-01
-4.919491604254289108e-02 -4.704191071194281926e-01 7.001926920368265472e-01 -8.654678560216716443e-01 4.940626894697851546e-01 8.287007341093489965e-02
-4.346187292193056523e-02 -4.503557698597742687e-01 6.733827771782164850e-01 -8.105304314455074044e-01 5.531039646960825840e-01 1.926562325444838020e-01
-2.429471463312529375e-02 -4.297983069463329753e-01 7.014243928768214564e-01 -8.616091815087151273e-01 5.042776484340801835e-01 5.773795657690364291e-02
-3.030139679722024248e-02 -4.366826009058929481e-01 6.557298091858151379e-01 -7.991948973765871100e-01 5.501414415133839553e-01 2.421402699610339382e-01
3.095383624670301481e-01 7.785545223532204517e-02 5.242585948146251118e-01 4.798857194023474770e-01 -1.146911385092083818e-01 8.698020688990991678e-01
3.147015130723297416e-01 -1.075013482119506758e-01 4.879225935248052703e-01 3.442138920674008840e-01 4.818215256326596196e-01 8.058317528770059246e-01
3.689646479510899080e-01 -6.829148849626358320e-02 4.520193024541437343e-01 -1.740373064686938920e-01 7.904931150183132083e-01 5.872236806071140514e-01
3.545852434090270289e-01 -5.395230995293887749e-02 4.453609276037558962e-01 7.522605454387828461e-01 -3.603457975942235270e-01 5.515931271619757270e-01
3.184065114963917642e-01 -9.180060132240172588e-02 4.801874317591930397e-01 7.486462683612971070e-01 -3.626342214704342815e-01 5.550001678263140059e-01
3.239737784868937931e-01 -7.036634021540673356e-02 4.672709510444491565e-01 7.486462683612971070e-01 -3.626342214704342815e-01 5.550001678263140059e-01
3.499163631193360491e-01 -6.503836012018029966e-02 4.551982191847974701e-01 7.403072240382198022e-01 -3.743087959095388051e-01 5.584246944231392451e-01
3.628039848486927510e-01 -5.230290177824804126e-02 4.541271046735536054e-01 6.566626300173997732e-01 -3.978829405629928373e-01 6.406897501502403225e-01
3.778591065585484854e-01 -2.099466241524674745e-02 4.466170328801813971e-01 7.253141762309358587e-01 -3.909077903635331253e-01 5.666660790902690037e-01
2.875635524903352724e-01 -6.733774097418264437e-02 5.135705435615186554e-01 6.735181524898636862e-01 -3.121691016364138149e-01 6.700177238328515195e-01
3.406007137732409706e-01 -6.054203906876715058e-02 4.742730398422804750e-01 6.917764182541735751e-01 -2.578167521197085033e-01 6.745190208391989017e-01
2.705075512568008711e-01 -1.016643584273500267e-01 5.130862921200571858e-01 6.705191951634961178e-01 -2.560831564138075223e-01 6.962940656923902738e-01
3.021142325182031296e-01 -8.587132338656874864e-02 4.863735483899338519e-01 6.863537530254173458e-01 -2.427229023756793114e-01 6.855684636637328078e-01
2.717327959324289388e-01 -3.004958053639680479e-02 5.333014739723714870e-01 5.602419065209159887e-01 -2.541886231496452431e-01 7.883635900008935105e-01
2.744172711008969201e-01 -4.965476737005796587e-02 5.353501073211954786e-01 6.141271333667637222e-01 -3.087898342357762727e-01 7.262896821071900266e-01
2.006389695768224513e-01 -1.846636002850674252e-01 5.429959162011057661e-01 1.455502581026779096e-01 2.764529069174986864e-01 9.499415311602649181e-01
1.661040341615722116e-01 -1.974055913352185387e-01 5.483780780398321841e-01 4.753277058655471232e-01 -3.208430928470653032e-01 8.192211434093515932e-01
2.192691797260481468e-01 -1.547008659504833517e-01 5.307420766285365632e-01 5.468410533126358830e-01 -3.764699742321116482e-01 7.478203132528563613e-01
2.504665464422205501e-01 -1.300322927037401710e-01 5.200806298532866245e-01 5.951408926487681272e-01 -2.600148256122670753e-01 7.603943768591727714e-01
2.720122214267855498e-01 -8.824647316611571035e-02 5.191580376181607059e-01 6.169566207022317839e-01 -2.315714141925873659e-01 7.521563722395281371e-01
3.939947701889560117e-01 -1.514034477147829794e-02 4.310721264090996430e-01 7.688893233843629993e-01 -4.162183204222904553e-01 4.853571037188843529e-01
4.226349523283514653e-01 1.141925881001980628e-02 4.184475420910650501e-01 8.206067583121576803e-01 -3.792429756918028749e-01 4.275269741207433638e-01
4.176916924384194707e-01 2.545991993938510195e-02 4.280492789980655521e-01 8.530125771871743812e-01 -2.780167596762601057e-01 4.416743421341196574e-01
3.853274735389313754e-01 -1.929291656942728160e-03 4.653769344926078078e-01 6.932277006002843800e-01 -3.511337269626329527e-01 6.293969025263580486e-01
3.730797351066127976e-01 -1.932260162106273077e-02 4.721736389184930660e-01 6.734831262260647655e-01 -3.412953919499462918e-01 6.556965259344441632e-01
4.128376326584998202e-01 6.213216871258945770e-03 4.382389063619717140e-01 7.655483075455008501e-01 -4.132342396992194078e-01 4.931260000795206211e-01
3.752891952659519470e-01 1.384362489012325725e-01 4.828638139967343368e-01 7.146693184777747065e-01 9.139934206268181260e-02 6.934651580988204778e-01
