7.450192568892928247e-01 1.254745651363301517e-01 -1.530369622380672590e-01 -2.375501466414408624e-01 1.638209799177005044e-01 -9.574615472014709194e-01
-1.815697547759180519e-01 8.343540132669746701e-01 -2.199828788933666859e-02 -2.073661609596565980e-01 3.137293900471304076e-01 9.265922215891461144e-01
-9.129459226246006143e-02 4.231305444249834902e-01 4.002415753765957707e-01 -1.222803422424720288e-01 -5.104180426013662369e-02 9.911822496992840348e-01
-2.501048760395163661e-01 4.188080030756081706e-01 3.095110188870491275e-01 -3.270026664373795744e-01 3.981991311655075361e-01 8.570336679978675098e-01
-3.686421674594311249e-01 4.137257144954701871e-01 2.743009710142779722e-01 -4.168813466818608870e-01 2.676994065555423075e-01 8.686466315588454723e-01
3.060307308141325122e-01 -5.042204965268428651e-01 -2.724084987906112976e-01 -1.105088776729217376e-01 4.470768963377089178e-01 -8.876429669166049363e-01
2.085281359872635520e-01 4.195255532127828979e-01 3.269949335320307959e-01 2.717632941282698278e-01 4.265960737534009173e-01 8.626473797692395529e-01
-1.847924677739825883e-01 4.195074177886053413e-01 3.377244922687779871e-01 -4.743850885929101202e-01 3.943884813362743547e-01 7.870301858950291551e-01
1.974952395676057015e-01 4.037731815049949713e-01 2.145126642493233315e-01 7.238643844265980898e-02 2.712320448292711572e-01 -9.597881961075158674e-01
-7.808278190609627689e-01 4.145035035255125733e-01 2.213541040823715778e-01 3.534238088205268746e-01 -3.956587927499338742e-01 8.476707680924573385e-01
2.615579584644543987e-01 4.328948276768433412e-01 3.155851441711244876e-01 8.098159441379779167e-02 2.652526671193528723e-02 9.963625803853032314e-01
-7.548545497139087790e-02 4.250008025208316109e-01 3.906869547665149378e-01 -6.209647986435485462e-02 2.596794555294749118e-01 9.636963253869816892e-01
-3.448078507256734371e-01 4.380696792447760224e-01 2.761273228743598707e-01 -3.694306118706345843e-01 2.559623982015608035e-01 8.933108494358468210e-01
-7.831791138795752838e-01 5.069256962969181241e-02 -2.348891629971554262e-01 3.317615828424116953e-01 1.955445173227559341e-01 -9.228740942809632308e-01
-4.026005117111612908e-01 4.310401801774737529e-01 2.435243480252847204e-01 -5.532938405848923935e-01 4.850724992120997725e-01 6.771784081606169181e-01
3.039851360824620818e-01 -6.132473086688970954e-01 -2.819006504843506455e-01 7.691001103382257009e-02 -4.350851076181931898e-01 8.970985449389842215e-01
-1.519452915744028965e-01 4.434243241130132462e-01 3.289428803713172478e-01 -3.835639081108664361e-01 6.223118362477033649e-01 6.823537988908177088e-01
-3.099742233042412920e-01 4.236070327112247402e-01 3.033910448669757676e-01 -2.219788652670415252e-01 1.305829740657857563e-01 9.662678046271079291e-01
3.630291145877626025e-01 -6.116723485484648615e-01 -2.844647205059014361e-01 9.240061807280425255e-02 -4.263626148611633360e-01 8.998205634616909254e-01
-6.810013489868060876e-02 6.516071509006855500e-01 -6.745727494912364536e-03 -5.383977651611469156e-02 -2.847233746348441438e-02 9.981435790827190013e-01
-1.765327227539985611e-01 4.589717620244314622e-01 3.062878111548819615e-01 -2.573306534766903741e-01 4.613216934928284219e-01 8.490955363763069697e-01
-2.438174307196342427e-01 7.560831157777171685e-02 1.346518439842484260e-01 7.012827194208426373e-01 -2.515970127631745323e-01 -6.670093632104086012e-01
-2.124918187277613224e-01 4.428090060474422773e-01 3.096638762608134865e-01 -2.541107591077261252e-01 3.248681805786268195e-01 9.109821004570989311e-01
-2.697676766076033683e-01 4.425810771887779271e-01 3.100113066358006764e-01 -2.172309029791910373e-01 1.331885425043437543e-01 9.669909756230478104e-01
-5.341002633551263923e-01 4.496898009132346830e-01 7.761743627403076828e-02 1.609186673906496390e-01 -3.482186811192882758e-01 9.234982038990443565e-01
2.154228031743536942e-01 -6.210031961021578173e-01 -2.889718047904861198e-01 5.580394425979626205e-02 -4.637478791443203074e-01 8.842080209963005810e-01
7.381372777825211395e-01 4.584272375669903310e-01 3.054183790503068874e-01 -2.290416496283292636e-01 -3.037315647217025960e-01 9.248173113254529731e-01
5.856471229515911592e-01 4.335934355384964967e-01 -7.851732890138005128e-02 -1.991108891246467227e-01 3.714450778403750181e-02 -9.792727604572050160e-01
6.104114691734867648e-01 4.705983558073579265e-01 -8.985806302293777859e-02 -1.991108891246467227e-01 3.714450778403750181e-02 -9.792727604572050160e-01
4.050637211554682787e-02 7.594644948759038394e-01 -3.204832687907400654e-03 7.181607101693561479e-02 2.582961095198029952e-03 9.974145478464162551e-01
6.947618002545024041e-01 4.790932004356254215e-01 2.931231284159318551e-01 -6.560990964952329030e-01 -5.578584191975961559e-01 5.082597364620750069e-01
-2.661185264586041765e-01 4.638286295203132292e-01 2.889146780242121126e-01 -2.326609237529125573e-01 1.967339233502297391e-01 9.524519189763162030e-01
6.304841956691704663e-01 -1.014934579359998840e-01 2.053942116250475833e-03 8.467823998056191181e-02 1.850085083906107264e-01 -9.790819411555273799e-01
7.237557917864059220e-01 4.869676471620591474e-01 3.066536024982572939e-01 -1.535830434744377970e-01 -2.267855958500729630e-01 9.617590874392902833e-01
-1.318606922153863770e-01 4.815197148162047580e-01 3.121691291961936066e-01 -2.410063279154502358e-01 2.729746979792342931e-01 9.313435264003590008e-01
-2.007462589946862053e-01 4.678798145798755415e-01 3.023880081476474913e-01 -1.531306293356496095e-01 1.362143926671330607e-01 9.787730327249478668e-01
4.457669495155066469e-02 8.380636856461218809e-01 2.558874856397083675e-01 3.953043779262760404e-02 9.394994689745272964e-01 -3.402617996256770416e-01
6.571061616147738649e-01 4.911783112630122017e-01 1.894201821278823361e-01 -4.538280171807791974e-01 -4.949411866987192821e-01 7.409948397465572212e-01
-2.275672299599061921e-01 4.882139401114635735e-01 2.899022375319973421e-01 -1.819751593226408837e-01 2.021248329090856166e-01 9.623048338811219793e-01
-3.138176838597010465e-01 4.698681063687926152e-01 2.624650634192974841e-01 -3.829829196152784720e-01 4.692709051311002022e-01 7.956814066448927303e-01
-1.205178127173138838e-02 4.926009137744069566e-01 3.310492691036008850e-01 -1.367248272692386845e-03 4.628873193998152558e-01 8.864160762142201389e-01
-1.057133323079170878e-01 4.822129340748199655e-01 3.139425283865427962e-01 -1.115601173420017050e-01 2.961018488796531289e-01 9.486190148361406393e-01
-7.398340326116896737e-01 4.786987708577479794e-01 2.432767486419619707e-01 3.314071597593343799e-01 -4.159194789950302895e-01 8.468649723850629751e-01
3.190106673920356517e-01 -6.625187716935648785e-01 -2.998455333114244392e-01 5.440565853637014532e-02 -4.105564767242333435e-01 9.102106370170632843e-01
5.934792905789451067e-01 5.118931323876868555e-01 1.827833436215192675e-01 -2.992516158217867206e-01 -4.060814575373825064e-01 8.634502419203811119e-01
2.421780138023682249e-01 -6.670091746047305259e-01 -3.058798473470787371e-01 4.852906893182771381e-02 -4.379947551488349577e-01 8.976667109404926626e-01
-2.480534351329864717e-01 4.922261147838091211e-01 2.852132930784664344e-01 -2.659242397726258034e-01 3.897697777398431151e-01 8.816823799203341583e-01
1.891846257964330258e-01 8.358840302158628832e-01 3.311865048389679989e-01 1.140099329712983833e-01 6.983897718094025375e-01 -7.065787017847979801e-01
6.969513050792498499e-01 5.057030289454104155e-01 3.155001049141158975e-01 -3.578208984765097189e-01 -4.367808910635785358e-01 8.253403284798155326e-01
6.684201557491431522e-01 5.033891891122620477e-01 3.062420170506043871e-01 -6.019007283533195363e-01 -5.956004857659339402e-01 5.319544854243896115e-01
-1.923151790956656171e-01 5.062210643697372392e-01 3.018439422493115476e-01 -2.030031902388830800e-01 3.328309683468401725e-01 9.208763496051683983e-01
-2.763226760769166290e-01 4.995799231711452459e-01 2.747156560344270471e-01 -3.900662861390838398e-01 5.336293851872584426e-01 7.503918787422548808e-01
4.945944483951995596e-01 -3.646149756969608302e-01 -2.343171701414169250e-01 -2.086101167926636135e-01 3.806093208807833084e-01 -9.008986424845029095e-01
7.011279357800670464e-01 5.244187911053640461e-01 3.152166524367773781e-01 -2.016241728259919042e-01 -3.302570026339071707e-01 9.221052028610955409e-01
1.730119614189584987e-01 -6.836018167867311535e-01 -3.123488616491444936e-01 3.628589630659193738e-02 -4.538657861419460593e-01 8.903309395382036362e-01
-7.968690948697104703e-01 7.488717618783315155e-02 -2.350887083529810961e-01 3.401634504506388934e-01 1.880582896664996784e-01 -9.213701246867226358e-01
2.373653175730981446e-01 -7.053698926859295337e-01 -3.118043450773709258e-01 3.384400052164045214e-02 -4.176212858143215079e-01 9.079906636433461298e-01
-4.245028086163054049e-01 5.145555075726807592e-01 7.998486804463933453e-02 1.487067959459055511e-01 -3.881585897784433636e-01 9.095159141107498346e-01
-4.485444347421183031e-02 -7.848693672074720240e-01 -4.677308171092928735e-01 7.178342652510968924e-02 8.949405338998974724e-01 -4.403732285905679888e-01
-7.455077656738522407e-01 5.045946613703459205e-01 2.558984370958916066e-01 2.068409346353389522e-01 -3.548995737500350023e-01 9.117363217022906863e-01
-1.155144298393036145e-01 5.110679832479160245e-01 3.135585937658874056e-01 -1.060641985305794815e-01 2.569228468839564461e-01 9.605941060297574774e-01
-1.425770822315789443e-01 5.094451488053418631e-01 3.121696254539265691e-01 -1.655811565561769172e-01 3.244157501284403167e-01 9.313094553702976341e-01
-2.223824059797931685e-01 5.169023481934063025e-01 2.904904578849812902e-01 -2.872730038883909431e-01 5.173020140035829995e-01 8.061469143678323679e-01
8.425415636166222466e-01 7.181563992301121663e-03 -1.677187935280171072e-01 4.637495095916093213e-01 -1.544927450860797968e-01 8.723923337978787274e-01
3.634019190696581580e-02 5.305359995713710974e-01 3.314488191020534269e-01 -2.237853152392184700e-02 2.006248816930141787e-01 9.794125066449258510e-01
3.884311982950983122e-01 5.550608981886817617e-01 -4.655845392528353693e-02 -1.336828766835184701e-01 -4.000643806790497164e-02 -9.902163265644219337e-01
-5.032076138664035719e-02 5.271202105664335447e-01 2.984760928878633091e-01 -8.871769692134290342e-02 2.941292689951875983e-01 9.516391875986032201e-01
-8.079485181866459531e-02 5.271202222213487998e-01 3.054775460722508607e-01 -1.025730265441815448e-01 3.515937924367278922e-01 9.305162971950172723e-01
-3.745125538974564683e-01 5.335875139931756106e-01 8.900673345507645329e-02 -7.652404144826401022e-02 -1.985325178662799284e-01 9.771023029499519286e-01
-2.451120170214207694e-01 -4.759004325548407688e-01 2.700614581939837083e-02 -1.685443236648640486e-01 -8.970402442975868029e-02 -9.816037891947335670e-01
3.163353059330727655e-04 5.248351547341517653e-01 3.147723301384685590e-01 -5.800834390857763367e-02 2.216695017797356282e-01 9.733949167823447990e-01
1.314324415042261440e-01 2.822980012403261130e-01 1.997829086572442125e-01 5.006035675659887413e-02 1.912538182410681575e-01 -9.802631981716004583e-01
-1.949734578896793191e-01 5.375276313725372290e-01 2.859501541115974099e-01 -2.685105989371808222e-01 6.047936196379501972e-01 7.497511159735762432e-01
-4.586340370534410793e-01 -4.074577181664189585e-01 -2.781807110030909969e-01 2.453374876203330002e-01 3.926918382274630637e-01 -8.863422800237382715e-01
-4.776797153724160472e-01 -3.502987344819728510e-01 -2.547929648787909951e-01 2.648734985329017633e-01 3.731622815279715955e-01 -8.891523724423051611e-01
2.178451106587769581e-01 8.356362031029753723e-01 3.224264336946581211e-01 2.247442403372280073e-01 7.389555391251253491e-01 -6.351651262715370949e-01
-6.229803490076223360e-01 -1.301010813911137598e-01 -2.332057954214280526e-01 3.024360406096598397e-01 2.681637009518744175e-01 -9.146697058677224490e-01
6.177850834515866696e-01 -1.988449441377230786e-01 -1.977335464054257030e-01 -2.102551777492844554e-01 2.972277474400139563e-01 -9.313691139292478161e-01
5.983246062749431049e-01 -1.449208537433845090e-01 1.489864122949582648e-01 9.540215541687767642e-01 -2.303140430383508463e-01 1.918288710301987721e-01
-8.084948829379422219e-02 8.602581027275284509e-01 3.363662249345875654e-01 -5.107675953817399084e-03 8.441853657963085400e-01 -5.360270327340810326e-01
-3.949663657748215262e-01 5.532494689723160830e-01 1.076922918275839414e-01 1.322809556282411869e-01 -4.230825667789515077e-01 8.963832274567689051e-01
6.620651170511503425e-01 -4.257778028017757399e-01 -4.342074422789376359e-02 4.503579003479049603e-01 -4.727033411330543861e-02 -8.915959158200776891e-01
2.784933454419010745e-01 -6.938937846431438849e-01 -3.257044180796520028e-01 3.329698104360496319e-02 -4.132225678605466190e-01 9.100211099002690762e-01
1.073254740595028581e-02 7.639420054792904757e-01 1.915191851881399843e-01 6.518418104200600360e-02 4.961163967522039808e-01 -8.658057192092766252e-01
7.447715173899176200e-02 7.417212177646828053e-01 1.716341601411172646e-01 7.198629978015086417e-02 4.799956591844508624e-01 -8.743123811361971365e-01
-5.619599233021406182e-01 4.113021778810312945e-01 5.836257739692634477e-02 -3.370662077619638874e-01 4.142763757913264233e-01 -8.454356605006512204e-01
-4.037302293643527662e-01 5.799939819346922043e-01 1.149590539641502374e-01 1.135899517493141747e-01 -4.309176127869206452e-01 8.952135688491377197e-01
1.768253224227650782e-03 7.472174214876564635e-01 1.714852107850624585e-01 8.991774788602596713e-02 5.286621020734132426e-01 -8.440563846369655288e-01
-6.797765122534286109e-01 5.653184883367073921e-01 2.583791163914447853e-01 2.642294632801516774e-01 -4.203760743669263111e-01 8.680246234033544006e-01
7.420679164907136860e-01 -8.104154991730395940e-02 -1.828289670448074999e-01 -2.371429876448535035e-01 2.457770704702198217e-01 -9.398706480372442940e-01
-3.515327842532104952e-01 5.767721636012080877e-01 1.000864413357328425e-01 9.908359869788842256e-02 -4.437271544800570622e-01 8.906675321611916551e-01
1.539705473045758222e-01 7.523062685953907369e-01 1.802651551152562870e-01 9.145903033546026739e-02 4.722631718414139201e-01 -8.766999157593117209e-01
-4.759099357577156186e-01 5.630219972260970263e-01 1.173497900686380629e-01 1.525619420258577941e-01 -4.040612849625887515e-01 9.019198034413484777e-01
6.040351017713501136e-01 5.853903414004195671e-01 3.061134734539711078e-01 -5.569587635846079410e-01 -6.542212261398466788e-01 5.116556683301576314e-01
5.345586489455499413e-01 5.617942927866290681e-01 1.947700014031273352e-01 -2.646034338937840458e-01 -4.322043186832703054e-01 8.620814634842509649e-01
-6.077879213590841045e-01 -1.987324609592173441e-01 -2.539197951807433129e-01 2.852552026330010260e-01 3.011902179594772577e-01 -9.098977535835155450e-01
-6.079846912636976963e-01 3.343829027383998787e-01 3.354008879181431119e-02 -3.308099694542857572e-01 3.702904990359978665e-01 -8.680148100310998149e-01
-6.776582992254779336e-01 5.843318756408462100e-01 2.838029533915989444e-01 7.871426236200210202e-02 -3.574862110955515648e-01 9.305953329870899626e-01
-3.746234891868708283e-01 5.926220143844245225e-01 1.286163628033820117e-01 1.001297892137421736e-01 -4.372146894438035947e-01 8.937658198021279921e-01
5.164345922896566021e-01 6.100514099890410602e-01 2.048745809876532931e-01 -4.331741430264543502e-01 -6.324738575180870459e-01 6.421347065604594562e-01
-2.435840118227467210e-01 6.085942296558309872e-01 1.235141475742400075e-01 3.341184824482539700e-02 -4.246020847330928549e-01 9.047633491898177116e-01
-2.795386099199658747e-01 5.994439218686411497e-01 1.173655622812537214e-01 7.110092267492527929e-02 -4.475495905734399038e-01 8.914280805383688611e-01
-2.182215359805100285e-01 5.095672399939192854e-01 8.704138738332875547e-02 3.997219313253293493e-01 -8.994152544692952667e-01 -1.768461977128195639e-01
-5.698199941774868549e-01 -2.648776649722690557e-01 -2.436856594069869431e-01 2.837135107845073501e-01 3.334532752433703173e-01 -8.990637113285120385e-01
-2.200822373080268402e-01 4.981516999621097841e-01 1.244969941226356791e-01 3.991895301152579845e-01 -9.023657923195737007e-01 -1.624305879378246664e-01
-4.237311345210168501e-01 6.097305383645869048e-01 1.377846242247884601e-01 1.138944464768172626e-01 -4.283215646232469975e-01 8.964199308027643864e-01
-6.338273440177899509e-01 6.039592268200287828e-01 2.759504627684686295e-01 2.494597327528663699e-01 -4.950635089824034218e-01 8.322751731301963884e-01
-1.446702635811068227e-01 1.208620968291128639e-01 1.718278450099887944e-01 7.019313456901582482e-01 -6.927555352058275551e-01 -1.654755401238837131e-01
1.374815306703836559e-01 6.652092532775362166e-01 1.545562723790543658e-01 1.035034893684266127e-01 4.982795723884672623e-01 -8.608161798136266807e-01
-7.986016735541734413e-02 6.218079782773442421e-01 1.315746275967585310e-01 -9.684208252118541027e-03 1.292427549500974049e-01 9.915656944466355593e-01
-1.171291795115041168e-01 6.267109936434760442e-01 1.266596441851330079e-01 -6.176060247686190885e-02 -1.615974342891655091e-01 9.849222797829551013e-01
2.679019870621116572e-01 6.745974768744803507e-01 1.637866280848807310e-01 1.325816745930704088e-01 4.682587962211099963e-01 -8.735878887230833501e-01
-2.022448881782436259e-01 5.099894124833536102e-01 1.197095141531234336e-01 3.542866334277029461e-01 -9.194622159793177651e-01 -1.704998966594025167e-01
2.379828877417910216e-01 6.711431243042492722e-01 1.558691079636202459e-01 1.232117809388121182e-01 4.667368372107704166e-01 -8.757714209931567462e-01
-2.405186477304835646e-01 -6.272526572561769598e-01 -3.594329196486203415e-01 1.281513984442216592e-01 4.508894855909517108e-01 -8.833322652662005670e-01
1.646411425873288426e-01 6.577703574463444891e-01 1.539048557125115291e-01 1.114170832730731475e-01 4.865525056313785290e-01 -8.665176817692462619e-01
5.726163525532065313e-01 6.319931341491911159e-01 3.287300201611887962e-01 -2.316266510649935828e-01 -4.053270690949154487e-01 8.843410323938052375e-01
4.763469937367080242e-01 6.224990050719979573e-01 2.090062129276165359e-01 -2.674628931144388821e-01 -4.787827561613609562e-01 8.362001394459254167e-01
-1.702191278829977283e-01 6.653728682530060112e-01 1.269078391045998233e-01 4.289255136730318885e-02 -4.400446689934495170e-01 8.969509007340639162e-01
-5.958048657841211737e-01 -2.330368058905121220e-01 -2.490658951555218825e-01 2.740402832566904978e-01 3.223567620653272625e-01 -9.060839040085365559e-01
5.429330756932722046e-01 6.473237053321684309e-01 3.204907356365668258e-01 -4.254994361771379796e-01 -6.363009118391880214e-01 6.434837833275642849e-01
-1.680617790411192969e-01 5.167928691986238832e-01 1.522270347842802352e-01 2.985742490002789018e-01 -9.366246900037464851e-01 -1.832692224824050975e-01
-1.187935075385778971e-01 6.550487774201593227e-01 1.190496225811830400e-01 -1.510863441830670277e-02 -3.747710203690258757e-01 9.269942887944743193e-01
2.692907140685844025e-01 6.410338197766400903e-01 1.387466647504340678e-01 1.359095050207279887e-01 4.808040718043152251e-01 -8.662309455228506261e-01
-6.144933646683037320e-01 6.394429376362068540e-01 2.722539679559769499e-01 1.837576685929212805e-01 -4.069331846211872161e-01 8.947840535499907988e-01
5.894657358904388245e-01 6.517000413279288029e-01 3.461788396709589710e-01 3.032532517717743681e-01 1.962934714657182944e-01 9.324732373370199223e-01
-3.188152657745804697e-01 -5.435871677740017338e-01 -3.274438823865123971e-01 1.579284004835170285e-01 4.332992202672721338e-01 -8.873051369379599818e-01
-7.586693929379451085e-02 5.489981686894994661e-01 1.017865822173471546e-01 1.527370505509441645e-01 -9.665263919106549251e-01 -2.061507388518643014e-01
-1.435059448441732277e-01 5.180987102166692004e-01 1.223705346355866697e-01 2.514440909648221756e-01 -9.492577717930956727e-01 -1.889061984406057437e-01
1.772066087058349892e-01 6.294308308677613040e-01 1.346426831580549155e-01 1.336346670484006571e-01 5.540134334979349706e-01 -8.217121705723314795e-01
-2.213959832818344076e-01 4.876269526849650870e-01 1.889851110507798082e-01 3.893415199818228700e-01 -8.878303130019881140e-01 -2.452967919338445990e-01
-3.773430803521223842e-01 6.626945412615192765e-01 1.405775365509052688e-01 1.205044868126730062e-01 -4.072360572884284879e-01 9.053383137270785141e-01
-1.614805267198360650e-01 -7.096727268779178255e-01 -3.679272049790218158e-01 8.720753497974556567e-02 4.878870021888437880e-01 -8.685396473034144860e-01
4.827651708418438381e-01 6.369884402325787232e-01 2.341110924413874472e-01 -4.424851682514524542e-01 -6.335288956816838013e-01 6.347030913851215983e-01
4.450273677337464040e-01 6.616725837853016934e-01 2.009376191899437114e-01 -2.444910204977044921e-01 -4.836016581242594814e-01 8.404484381301793317e-01
8.466268560330187515e-03 6.698786033455664812e-01 1.430543571205789843e-01 -4.714655125164136235e-02 -4.674286331730904132e-01 8.827727202372154247e-01
3.858471041472718577e-01 6.287121039672346479e-01 1.703285139792528879e-01 1.840124996049470607e-01 4.573112276750806449e-01 -8.700608260526672133e-01
-1.584884006513573029e-01 6.553999655377280575e-01 1.342733917035005553e-01 2.660704816475241083e-02 -4.564747501327088286e-01 8.893384437205217319e-01
5.354728844367541152e-01 6.744339554934769554e-01 3.374980427371154779e-01 -2.385604564200173305e-01 -4.202434595373107373e-01 8.754909156289319982e-01
5.097377089300189068e-01 6.731661796822738797e-01 3.228418470646226002e-01 -4.410865280885021278e-01 -7.007907306381025991e-01 5.606558896422522142e-01
-1.106023769777165211e-01 5.296777382220916319e-01 1.262716120155834565e-01 2.025651429328884090e-01 -9.584983858621068942e-01 -2.006195582895993756e-01
-4.346108675404352500e-02 5.445745018872809595e-01 1.004833423214407245e-01 7.781865660893401426e-02 -9.750104402424750738e-01 -2.080838727574909619e-01
-2.499320162454922167e-01 6.615224982044928259e-01 1.380122217474492596e-01 5.746644586282245726e-02 -4.596681081174236461e-01 8.862295627994158931e-01
4.035625901836610852e-01 6.715580818969483223e-01 2.138961930486333318e-01 -1.955220475344230935e-01 -4.555913830004948428e-01 8.684512770810133286e-01
-4.469372151141461913e-01 -4.125328531870054438e-01 -2.876073484580594086e-01 2.160527954152863250e-01 3.894776745510348248e-01 -8.953369927683982876e-01
1.762590140191687693e-01 6.808171739593316119e-01 1.610063436417605298e-01 -1.224954923379689420e-01 -4.695929056369178012e-01 8.743439582523317988e-01
-8.204862012040316926e-03 5.568560279337848584e-01 6.678469277280600636e-02 -3.179959400987057358e-03 -9.700201313120326851e-01 -2.430037709740219265e-01
-8.362626142328365153e-02 5.274746669446298553e-01 1.334327132540317207e-01 1.388066360357136098e-01 -9.668822403823679190e-01 -2.141762148923672393e-01
8.262382890276107617e-01 -3.276988865742024859e-01 5.742720264964615295e-02 9.272294437160657488e-01 -2.894686077537724778e-01 -2.375994188357538894e-01
-4.834584744541863266e-01 -3.803725112484219739e-01 -2.751784671424714057e-01 2.405701436596403564e-01 3.718122832363180419e-01 -8.965944635196985146e-01
5.658685418855580185e-01 6.759186773744803034e-01 3.376291147897469425e-01 1.318161067204720871e-01 8.897649506122283503e-02 9.872728586037790022e-01
4.273841330744648226e-01 6.698626369552062032e-01 2.114767394797058553e-01 -3.467437900202577916e-01 -6.749831196774190856e-01 6.512806862121172102e-01
2.419433059725608071e-01 5.872601995193762470e-01 1.075602456851403321e-01 1.609405627463617039e-01 4.747116734726125609e-01 -8.653016597301290691e-01
3.543148792174215522e-01 5.840741986492128390e-01 1.301606956221668387e-01 1.938596640587751108e-01 4.639202929719352664e-01 -8.644052246602010880e-01
-1.287254819173431208e-01 5.109701907149848399e-01 2.051101239358220363e-01 1.815056891426355956e-01 -9.034391566432076193e-01 -3.883984745756178247e-01
-3.018879655464402068e-01 -5.942753393245531202e-01 -3.310874986940936515e-01 1.495091431629807233e-01 4.396660999685765292e-01 -8.856301353551002675e-01
2.505216618696397279e-02 5.574356707266122646e-01 7.374684279557987276e-02 -2.137198089608569745e-02 -9.730651636217428901e-01 -2.295374169462748026e-01
2.908329738706236789e-01 5.721451718952659249e-01 1.060364630106319789e-01 1.674490527934492656e-01 4.316456250937257821e-01 -8.863649750842050867e-01
-3.762855977363082083e-01 6.849686266059580309e-01 1.569429795465737687e-01 -3.185299753706466452e-02 -4.027056582785121797e-01 9.147751304765417979e-01
-3.958006676970223792e-01 6.820364809057838373e-01 1.571207061397884575e-01 1.991038463352431676e-01 -3.339994206753804651e-01 9.213045345394877961e-01
-4.209834201570643586e-01 6.796738445686568708e-01 1.745386853110301173e-01 1.966062363896376175e-01 -4.523173576344095004e-01 8.699166602585144403e-01
3.132936791637168095e-01 5.473653546874778231e-01 1.127148504394390877e-01 1.572938265450090634e-01 4.100115923424647035e-01 -8.984147963360938904e-01
-1.065869530638531432e-01 5.103922993636358374e-01 1.968052183731655302e-01 1.820927495582631561e-01 -9.432065657020737293e-01 -2.778553670073901638e-01
3.798426866544943881e-01 5.478670499150977147e-01 1.205139198195828848e-01 1.994092301141603962e-01 4.614613748341878097e-01 -8.644589975709774388e-01
3.361978207173882960e-01 5.409801474739336369e-01 1.147352746141492574e-01 1.252934894715278802e-01 3.800149362088278138e-01 -9.164552306328164200e-01
-7.036217456080115507e-02 5.258812596390275429e-01 1.741306032594685527e-01 7.229727664423794831e-02 -9.683873336545144594e-01 -2.387447922098547282e-01
-5.778111936884153810e-01 6.720678909129655931e-01 2.977617758805111703e-01 1.386201116568480385e-01 -4.577527904658397206e-01 8.782066086434215935e-01
5.229142800023195425e-01 6.979542933515594516e-01 3.295729121257262029e-01 -1.030530056978638254e-01 -2.648658192603983164e-01 9.587628360570480401e-01
-1.174754095136602665e-02 5.499078120341334142e-01 1.073980326287442694e-01 1.461780067033410433e-04 -9.763573675828597365e-01 -2.161625994446280397e-01
5.675547005287088220e-01 4.309854138495750053e-01 1.051163735974381674e-01 2.748608728378653665e-01 3.513794426075641519e-01 -8.949770879165590554e-01
-7.426343585558488336e-02 5.266932389635686773e-01 2.129367145970879061e-01 1.076114678728850721e-01 -9.472307847679612980e-01 -3.019496851631330303e-01
-3.607786390056752501e-02 5.277971519730362271e-01 1.983539863591466945e-01 5.185052802051904469e-02 -9.682323995165135200e-01 -2.446171360932993533e-01
6.510194255166661392e-01 3.491324071966196430e-01 9.954492335163468708e-02 2.701219501380865418e-01 3.711925409496958927e-01 -8.883975628044604722e-01
4.832115005234731142e-01 6.886922521986207357e-01 3.450280300609815387e-01 -2.959860308282062924e-01 -5.264879949023727468e-01 7.969960230630032116e-01
1.720574107672253050e-01 7.098675275332670953e-01 1.790089197382555009e-01 -1.107660156578716137e-01 -4.738400964984021413e-01 8.736168798310074424e-01
9.251385390949996845e-02 5.397483044444183475e-01 9.673183183838300614e-02 -1.714669897477413274e-01 -9.568074653579849986e-01 -2.347733921509767008e-01
3.672274614883496158e-01 6.977961818921311066e-01 2.083173964752101648e-01 -2.314580965038519067e-01 -5.716985214808160132e-01 7.871390919649857709e-01
6.146444135006909892e-01 2.418008370626490433e-01 6.439946151872888436e-02 2.694129634780789706e-01 2.300982284687698443e-01 -9.351317876991953604e-01
6.622615876541199098e-01 2.403154485301455534e-01 6.131595987923182250e-02 3.302914285745388034e-01 2.523872909524301766e-01 -9.095098831655891169e-01
-1.503929154359654428e-02 5.374566529162111417e-01 1.906673627358110301e-01 3.752626554231568851e-02 -9.719886121496882359e-01 -2.320127523343723797e-01
8.309396092688791091e-01 -2.907248670268184343e-01 8.674551824619969320e-02 9.346930101758770260e-01 -2.794679472550911092e-01 -2.196511852583165059e-01
6.885054449160676882e-01 2.213978788459208258e-01 7.487747873656816489e-02 3.220394893204199804e-01 2.766113930607616012e-01 -9.054152111309087259e-01
-2.320250540354096558e-01 6.943960597908606092e-01 1.559226556457705137e-01 3.839928778398964127e-02 -4.585712622648374648e-01 8.878276252305488114e-01
-3.417397703428298739e-01 6.874012543313707813e-01 1.687004968304880170e-01 6.406400866233882829e-02 -4.198376518887002584e-01 9.053353792107620146e-01
-5.387262387268452191e-01 7.013025793449937373e-01 2.987900703678549874e-01 1.983922808313401398e-01 -4.176146435202254259e-01 8.867009148658940854e-01
-5.532790214438920717e-02 4.983328248856003784e-01 2.374003659198503091e-01 1.482122036446320290e-01 1.734556642650846026e-01 -9.736253258955215317e-01
6.346351584489084985e-01 1.761036805205639100e-01 3.624800144996700307e-02 3.470624160642101774e-01 2.451157027902352847e-01 -9.052435979344576333e-01
9.997544694358059814e-02 7.230674148907464405e-01 1.915191520178058382e-01 -7.778844527293861388e-02 -4.830806530053663450e-01 8.721135479247686950e-01
-1.284267510569962745e-02 5.085514451004946590e-01 2.233417060156603073e-01 7.204560344980234787e-02 -4.701287871337552771e-01 -8.796524055169165912e-01
-3.691508692158100846e-01 7.193079777787215745e-01 1.844199281563952686e-01 8.120761960562404569e-02 -5.085562706036158565e-01 8.571906684908149332e-01
7.294237227577117233e-01 1.352767702167449460e-01 6.839348598812244884e-02 3.128893761025343112e-01 2.478717663688737305e-01 -9.168750327930962341e-01
-1.322306002553628665e-02 4.832820674393028537e-01 2.378893570259406343e-01 1.290380622537981928e-02 4.644743196688536080e-01 -8.854925737424641508e-01
-3.113318992079207592e-01 7.254914532574232577e-01 1.743441741243202114e-01 1.496422085798320388e-02 -4.686686681582639125e-01 8.832472765771047785e-01
4.731401574952228128e-01 7.170323887682860109e-01 3.431572451071976948e-01 -1.221505369287751441e-01 -3.715093543433600209e-01 9.203586507244834181e-01
3.221115869027735834e-01 7.124110521710556032e-01 2.147152000149680773e-01 -1.622966210673175147e-01 -5.052496889830261351e-01 8.475745150561612151e-01
2.180371034622677687e-02 5.001185296011003700e-01 2.371717182423653258e-01 2.177632624546367301e-01 -3.701132316021410462e-01 -9.031031819887098688e-01
-5.536463059013315702e-01 -3.622195305162652645e-01 -2.827011166553640709e-01 2.513652730837830362e-01 3.532740450025277368e-01 -9.011176108672316332e-01
-6.400924965205334605e-02 7.063883461534846697e-01 1.827032601789207178e-01 -2.385290525500629796e-02 -4.825114810072156368e-01 8.755647946366500456e-01
6.791893471893943879e-01 1.184271698843590709e-01 3.602839360296156840e-02 3.346841421187529697e-01 2.241198106251676980e-01 -9.152905743530703742e-01
7.405217733443324457e-01 6.983074421048857117e-02 5.752868599043804709e-02 3.144167334504203160e-01 2.393090903284027793e-01 -9.186257545989876538e-01
6.900499721274233611e-01 7.985202757196137313e-02 3.381122820594339995e-02 3.338455781596266769e-01 2.202746784366815258e-01 -9.165294299600428296e-01
3.449276189696613981e-01 3.657061524644584782e-01 2.114999008133041924e-01 -6.857604755863285773e-01 -6.044138942342349718e-01 -4.054829399373290344e-01
-4.922729661286850966e-01 1.684675135333545959e-01 2.740920696846507743e-01 -8.799309004417198432e-01 4.738001723590171133e-01 3.514266808866286368e-02
-5.244040887250402960e-01 7.163566060908198585e-01 3.073235499343448529e-01 1.233254246705121765e-01 -4.726572602379518484e-01 8.725743257592392110e-01
-2.591835594144504262e-01 -5.960604429536245918e-01 -3.389738192553026219e-01 1.363594762915461833e-01 4.461215654546590303e-01 -8.845233982556818253e-01
4.281230243354207654e-01 7.186160019845421187e-01 3.457541468978183596e-01 -2.149159128358464066e-01 -4.416306193369826660e-01 8.710760853530351566e-01
1.003336219279082342e-01 5.016584328970428164e-01 2.285375770173624921e-01 -1.317544893355757363e-01 -8.970144066172033304e-01 -4.219074648084674695e-01
-3.412541709462222350e-01 -5.691583429635034275e-01 -3.250922067888888933e-01 1.647782089518398385e-01 4.317511350638629231e-01 -8.868140161418796019e-01
1.466942144149361790e-02 4.775492352892045655e-01 2.366132948078957243e-01 4.553924473894040842e-02 4.735738401681368615e-01 -8.795760314475440378e-01
-3.798983837716224388e-01 -5.250532601284070289e-01 -3.090381335893219172e-01 1.836345398844719534e-01 4.176139834071071477e-01 -8.898746634354000040e-01
-3.839705217944067162e-01 -5.346692852609699065e-01 -3.178761257735762680e-01 1.868549815112617307e-01 4.190888921186798344e-01 -8.885098290886620509e-01
7.509083050409258719e-01 3.423849182165302762e-01 2.267893102982890541e-01 -8.753971388321456493e-01 -4.767508169737333379e-01 7.992814172349535506e-02
-1.391088686917957007e-01 -8.489739454141144170e-01 -1.299093429726381199e-01 -7.708899391998111361e-02 -5.081748527983653840e-01 -8.577969491667387647e-01
3.769460192098795237e-01 7.475942289103617577e-01 3.330337501520321264e-01 -2.812630273204814735e-01 -6.567967246982263640e-01 6.996493206515677077e-01
4.255097008225861011e-02 4.743678379753886731e-01 2.422979115279707274e-01 3.588326518766208478e-02 4.608706202886844738e-01 -8.867415985698399172e-01
2.563757914724909201e-02 4.522945699330394032e-01 2.264159915969767012e-01 4.445625710536402903e-02 2.629353728839344817e-01 -9.637886858075104257e-01
7.934994948355286737e-02 4.800189017617350062e-01 2.302705476903198489e-01 1.836321224020448228e-01 3.099036012402082707e-01 -9.328660147955173398e-01
1.213425997619210495e-01 5.069458722007622598e-01 2.329677104558101064e-01 -5.869806294848384925e-02 -8.193179174129617826e-01 -5.703268252609051681e-01
-4.630188520240391403e-01 7.350489974611069677e-01 3.048455465550091725e-01 1.949717534521529239e-01 -6.319916575510474699e-01 7.500483718678898626e-01
7.071515673123892620e-01 -1.040687838934007264e-01 3.780638449778449955e-03 3.162484490551398797e-01 1.637368074722798661e-01 -9.344394984957582473e-01
-3.939585799511100550e-01 -5.635439267966555477e-01 -3.364650780960220522e-01 1.735871403373923372e-01 4.246963354095893428e-01 -8.885384220162637625e-01
-6.355580837958240137e-01 -2.769828788101263428e-01 -2.915457618599832657e-01 2.770049965436185979e-01 3.184151023173983353e-01 -9.065760059179100994e-01
5.531640490039881758e-02 4.587069751663964134e-01 2.372870428056475800e-01 7.390417344007813027e-02 3.735502993219331769e-01 -9.246612066182039458e-01
7.317027992375085832e-01 -1.282922942832103452e-01 1.415205956079104363e-02 3.126539626912767655e-01 1.493207503008415760e-01 -9.380569349154854741e-01
7.025681429488577212e-01 -1.091355996372078141e-01 -3.295769627616341318e-03 3.126539626912767655e-01 1.493207503008415760e-01 -9.380569349154854741e-01
-4.854794302680180973e-01 7.365986590798838662e-01 3.020875547383056192e-01 1.458771094794454048e-01 -3.528085812550969536e-01 9.242542799049879854e-01
4.134484213550466136e-01 7.664069293063235921e-01 3.601041767392380577e-01 -1.719623483993348023e-01 -4.081022211645194964e-01 8.965944054105910999e-01
6.677499541215848877e-01 -1.724433443226164042e-01 -7.315617041208033466e-03 3.208225037386484568e-01 1.302654799508593531e-01 -9.381384896847785315e-01
1.113793331252845714e-01 4.711807676193869865e-01 2.443040893133507085e-01 1.013101627036781249e-01 4.987829037240110175e-01 -8.607856097110350158e-01
1.526032881308369560e-01 4.692733595175800354e-01 2.521241131692874005e-01 7.067023020415388532e-03 1.966425091375586243e-01 -9.804497849383791985e-01
-2.552197513057096190e-01 7.559169576600415219e-01 2.011581987088584267e-01 4.992858554837908275e-02 -5.034897544785961188e-01 8.625573624288538355e-01
-2.834987995976996911e-01 7.387131492148950596e-01 1.874858308552319885e-01 1.174355796421081150e-01 -6.208077909160711894e-01 7.751171339688147643e-01
7.180981558191790182e-01 -1.849532959363155149e-01 1.422493671852943613e-02 3.087841264639056282e-01 1.164263398082966555e-01 -9.439794863463748520e-01
1.744685499945780871e-01 4.741047025246102886e-01 2.458955587020324185e-01 -9.438825551865111241e-02 1.680046589959752756e-01 -9.812569957843825241e-01
-2.004245966819201419e-01 7.597882014516712523e-01 2.007550849672149196e-01 2.053844539383461662e-02 -4.749364732719152937e-01 8.797803809001651931e-01
1.690588662755570792e-01 7.531409731217741932e-01 2.160126647801329514e-01 -1.097990111635277627e-01 -4.806761028113715750e-01 8.699969317954996395e-01
-3.544795871818887112e-01 -5.450589929644659160e-01 -3.114261046055304960e-01 1.696380606675075842e-01 4.255121331572315202e-01 -8.889107676864700380e-01
-8.115424738794280168e-02 -7.793129438758134020e-01 -4.887152311498632606e-01 8.837965318004620263e-02 8.355706421728632538e-01 -5.422275710830312123e-01
2.064896503904883052e-01 4.459876918900285148e-01 2.373789409533920147e-01 1.869117363762443917e-01 5.003242835257973864e-01 -8.454227428447939063e-01
2.364021907328313632e-01 4.365547864996190408e-01 2.539864637521365709e-01 1.140525021603878836e-01 1.682459988491762093e-01 -9.791247676482286444e-01
-3.051241061210104299e-01 3.911704009651604252e-01 3.056947284278533905e-01 -4.264141525705430480e-01 5.044630394069484769e-01 7.507915904962237930e-01
-4.177856380293090144e-01 7.683161595365787244e-01 3.057696450575826952e-01 1.744319814667965318e-01 -5.330387762686901176e-01 8.279149393721220163e-01
1.500578784277975808e-01 7.705570827785839239e-01 2.313900309240243813e-01 -1.102159114349595542e-01 -4.904467110895795456e-01 8.644735255911402128e-01
-1.007645163822451367e-01 1.456897391329505798e-01 2.265031902115011986e-01 4.895869846696004890e-01 -8.599816511876896552e-01 -1.440005002165734016e-01
-2.061981613904200206e-01 7.712189390962693736e-01 2.095865971351616730e-01 6.231816091472312108e-02 -6.650898532656591700e-01 7.441585408387589862e-01
5.854407605215408150e-01 -3.024183116227213697e-01 -6.006021721726856333e-02 3.122431744190700131e-01 5.145272157094541582e-02 -9.486078312304009330e-01
6.885860248190783794e-01 -2.948511483946277822e-01 -2.943182965090505865e-02 2.714728527745339237e-01 1.060861169414392818e-01 -9.565815312866663422e-01
8.178857820932648737e-02 7.727241266390636465e-01 2.070269092178315395e-01 -7.241230041701554598e-02 -4.930938584866509933e-01 8.669572685381110588e-01
-5.079325068193241144e-01 -3.561991102000602871e-01 -2.785146242948424722e-01 2.451502295487774097e-01 3.589352058117351585e-01 -9.005925177243419011e-01
-5.670739953083462348e-01 -3.161412832187516231e-01 -2.727433006930137793e-01 2.655636478546975487e-01 3.367843566188219451e-01 -9.033561014765728592e-01
-3.945046062561275990e-01 7.697161793622361303e-01 2.986671128508698314e-01 9.680710841464001959e-02 -5.085098673530097368e-01 8.555969252896018507e-01
3.869139472862740958e-01 7.785956271177087995e-01 3.483102143116777460e-01 1.304757549098361363e-02 -3.163010569953985437e-03 9.999098740076235448e-01
-1.806301636403465916e-01 1.036039746541800310e-01 2.629371639893494650e-01 6.561307234704701896e-01 -6.902519598808429802e-01 3.050323025497015950e-01
-3.579353995470174049e-02 7.765084225907598059e-01 2.046825323379379002e-01 -1.525158830057047124e-02 -4.865133110060856358e-01 8.735400318635692107e-01
-6.407641365480511997e-01 -2.294566237764953387e-01 -2.685490233076681110e-01 2.848667966180731259e-01 3.077832643283829328e-01 -9.078107569223456963e-01
5.644301397217118543e-01 -4.028814873173565125e-01 -7.698639295101558644e-02 1.871275581098876817e-01 5.918384747741308599e-02 -9.805511456286208904e-01
-5.866888101030829361e-01 -5.100853197312412712e-01 -1.156403598346626704e-01 -1.844479118536183071e-01 -1.051806285720335334e-02 -9.827860083286552584e-01
-3.586493070918496118e-01 8.032946946979314662e-01 3.237278306634640002e-01 5.675905514559212439e-02 -4.992675801061867702e-01 8.645867759304973754e-01
2.513638458371110218e-01 8.222509912858980696e-01 3.605369488870376338e-01 -9.938693635327949805e-02 -4.493641454696568061e-01 8.878029633024628886e-01
3.430933462165734749e-02 6.231382444180140201e-01 1.014172204323011695e-01 6.510352569828635472e-02 5.151517823471484236e-01 -8.546228244589590961e-01
-2.645076572382717983e-01 -6.350803830584923482e-01 -3.555694452115056303e-01 1.325180385333256106e-01 4.524464079688245155e-01 -8.818907060284669752e-01
1.622690901184462575e-01 8.268522151120069053e-01 3.517434505893777819e-01 -1.365691232395277732e-01 -7.639294627435287977e-01 6.306826860870449192e-01
-3.073095676124256159e-01 8.265969391487458795e-01 3.277135866074313286e-01 4.126121834088668922e-02 -4.393020373205553386e-01 8.973913482238589090e-01
-7.445719021191464504e-02 -6.253891117762387930e-01 -1.366375684665010193e-01 2.408392214581368124e-02 6.930716507136544524e-02 -9.973046082134811030e-01
2.076144278413898925e-01 8.355333063517519365e-01 3.690459220295232434e-01 -5.852649168397629914e-02 -3.363956406679157740e-01 9.399003259446121472e-01
1.371084160845026378e-02 2.711026624838406840e-01 1.965022520574892517e-01 5.671668461332289579e-02 2.135928283679632278e-01 -9.752749978115129448e-01
-1.946537646777029562e-01 8.307649200272168022e-01 3.254045851707085268e-01 7.505917183463726994e-02 -7.146634562962745907e-01 6.954295542743067493e-01
-2.452305385454772446e-01 8.199334137746606688e-01 3.311692081918118369e-01 8.234131866230240404e-02 -6.270668095344135162e-01 7.746012675056017649e-01
1.896355853517790735e-01 8.260154576756522093e-01 3.510503054080956753e-01 -1.279081051376359801e-01 -4.915386698056237180e-01 8.614111983981966869e-01
-1.242297872257258906e-01 8.295388104834943155e-01 3.298449737630754219e-01 3.675923427187324788e-02 -7.774275396692992279e-01 6.278974273394386518e-01
3.695748064224954055e-01 -5.016914705002082364e-01 -1.162016358467765909e-01 1.628218603274193543e-01 5.267352672028514232e-02 -9.852484668256864531e-01
-2.676098843045421893e-01 8.441773178244525999e-01 3.329677522630368203e-01 -2.980665544950280091e-02 -2.082643021892788548e-01 9.776183016517885349e-01
1.207327692621398135e-01 8.528489316243800245e-01 3.538539214198540561e-01 -7.820882254702961334e-02 -4.366267573076259012e-01 8.962368296822190716e-01
-2.460634428239511645e-02 8.408987886370107301e-01 3.490977540627821507e-01 -5.887866705719492499e-02 -5.137453231688648980e-01 8.559199994670568801e-01
6.489212852922912056e-01 -1.513177049842967803e-01 -1.855747104126780622e-01 -2.289770490813362591e-01 2.712909072059652149e-01 -9.348640300393249447e-01
-7.087715905701026387e-01 -6.141384435219812143e-01 -3.030627614822508590e-03 -3.596715695369058219e-01 -1.254475049941576048e-01 -9.246076387082250436e-01
-1.703006472723794795e-01 8.456455759011805018e-01 3.465739930867149932e-01 -3.812713999232553597e-03 -5.006727602047746917e-01 8.656282402976996915e-01
4.584207952499089189e-02 8.486237742843121268e-01 3.499747010137981285e-01 -4.521809963307150959e-02 -3.507822504504509165e-01 9.353647076058037024e-01
-6.258335088689497006e-02 8.641093894161705480e-01 3.506650665219164797e-01 -4.334925083432648180e-02 -3.822415933803711696e-01 9.230450729743037153e-01
2.852383298980450954e-01 -5.423889162358715987e-01 -1.336128445954641308e-01 1.454263569018158786e-01 1.603743954544484956e-02 -9.892390890230187139e-01
3.034712469905068710e-01 -5.661239551139264359e-01 -1.186722174741648150e-01 1.669189005382963609e-01 -6.377981572582011593e-02 -9.839055929046580662e-01
-2.150062922500740881e-01 8.392526671027019658e-01 3.634136413487972228e-01 -4.193189425452852753e-02 -2.871759485089819264e-01 9.569596077380662091e-01
1.596756729473384206e-01 4.197348208928117219e-01 2.214214573206623460e-01 6.990546045300265188e-02 2.580844668939837883e-01 -9.635899722116777477e-01
-1.398204138924992630e-02 8.717371706054082292e-01 3.661514199237593803e-01 -7.610878416647724742e-02 -3.366442093937906943e-01 9.385510797257281546e-01
2.557056583289349927e-01 -5.546769811540241957e-01 -1.294852303841228236e-01 1.473781441142473503e-01 -2.609030842020864521e-02 -9.887360509478647641e-01
2.270966581250392358e-01 -6.060654353883208056e-01 -1.327682077127581572e-01 1.356465864975701652e-01 -5.463003693033650909e-02 -9.892500000690155337e-01
8.355766638157045845e-02 8.654400297021492827e-01 3.724789922866502678e-01 -5.565238270470802134e-02 2.127880424987649288e-01 9.755122045719532009e-01
-6.438675331258540968e-01 -6.612986894257145698e-01 -1.383162186951629805e-02 -3.338590376827597628e-01 -2.061441074623344138e-01 -9.198058218537753516e-01
-4.783237973185519021e-01 -2.437370960856118374e-01 5.568392131233955433e-02 -2.450099314638637116e-01 1.788663790737727022e-01 -9.528782461160031358e-01
-7.636827397328893596e-01 -1.901707437680787982e-01 -2.708302774628814635e-01 -3.044908513777454528e-01 -2.759367703055948806e-01 9.116711140650300971e-01
-3.341641596626521160e-01 -5.818926314936131439e-01 -3.245647010845538749e-01 1.561286149884846264e-01 4.348987073047950735e-01 -8.868410060244146242e-01
1.709530417630714394e-01 -8.444011945450916601e-01 -2.583403841758201772e-02 -1.955326803246819067e-01 8.450945544117395292e-01 4.975762906617127723e-01
1.092461481776378918e-01 -8.323568010548230145e-01 -6.753824854706028114e-02 -1.460552949753051444e-01 8.182270478488489207e-01 5.560326869692412410e-01
3.871451632712805124e-01 -4.733407460779676668e-01 -1.013056167911017963e-01 -4.010304543231400093e-02 3.216802390417892732e-01 -9.459987154098419282e-01
-2.268693706466683446e-01 -8.166535646251058544e-01 -3.589576961086924506e-02 1.239770468044170543e-01 8.369249235722621139e-01 5.330913281692160055e-01
-6.831611332284914795e-01 -4.107883488567713459e-01 -3.275153732302071852e-01 -4.274659726822205852e-01 -4.657073100406225463e-01 7.748480777375462702e-01
1.422343830116967189e-01 -8.097447722979225215e-01 -8.302872136429527428e-02 -2.124415195130373302e-01 7.571997543043864631e-01 6.176707317563042698e-01
-6.191750748757721690e-01 -7.042760908464116287e-01 -5.924310030291521367e-03 -3.501925070715420918e-01 -3.079979015228763162e-01 -8.845917140966518266e-01
-8.082320118082934879e-02 -8.216881308915986448e-01 -1.013854293166732978e-01 3.530232206294613845e-02 7.140473318305236017e-01 6.992068034299108170e-01
-1.136581755422551715e-01 -8.184355457317281646e-01 -9.044906228427827821e-02 7.986631247961378799e-02 7.470882915528297419e-01 6.599094307218096311e-01
-1.573388504414706957e-01 -8.180043152022108410e-01 -7.217149864354048538e-02 1.201436730363901334e-01 8.004151477731129560e-01 5.872828015910823707e-01
-2.655727674266112892e-01 -8.175653084988672159e-01 -3.691765874799715630e-02 2.264869477144513532e-01 8.137276572497355032e-01 5.353045510191822842e-01
8.041149182846822896e-01 7.059950653175677340e-03 -1.862351464240167842e-01 -2.695179686362479954e-01 2.055010742678015645e-01 -9.408131446025667088e-01
8.150147030641974322e-02 -8.153526080067188264e-01 -8.779348261849528878e-02 -9.798562706633054398e-02 5.417921476696986316e-01 8.347814597916471957e-01
2.322173339595343111e-02 -8.152135936373441361e-01 -9.303088563239685083e-02 -8.019927946033579558e-02 4.883842562863280889e-01 8.689354946057233908e-01
-2.275779240801467651e-02 -8.128686820616894959e-01 -8.985833110308009963e-02 -4.130249695440518787e-02 3.623660701772268844e-01 9.311202580384793093e-01
-1.759406964275487817e-01 -5.806274487044988941e-01 -8.147420348743254770e-02 -2.567904179166095591e-01 -9.359160406023829815e-01 2.410805803240312906e-01
-2.347020381937741929e-01 -8.108509339284022399e-01 -6.521431770358145086e-02 2.510413645974005070e-01 8.673560681518993620e-01 4.297344346234692192e-01
5.424875698847968220e-04 6.353005319533174822e-01 1.183458569465540428e-01 1.448234269268829921e-01 4.565030534006300211e-01 -8.778559889008307193e-01
-4.220261959037719390e-01 -5.060996926074554647e-01 -2.985316857323463968e-01 2.044001331436631208e-01 4.064031889824270549e-01 -8.905374969959245490e-01
-5.897854370624640019e-01 -7.046900632308811252e-01 -2.228940767859282496e-02 -2.846329793185197188e-01 -2.357355587807218600e-01 -9.292000933117710026e-01
-1.045745851175297753e-01 -7.937313886183106071e-01 -1.190043206783182594e-01 1.132782870364137245e-02 2.274204531838108778e-01 9.737307727347076503e-01
5.969088141859478155e-03 -8.006691527536079489e-01 -9.779907377933136359e-02 -5.426056621554201792e-02 1.630313403246268500e-01 9.851276937666123557e-01
-5.753941995869849002e-01 -7.278961782444105522e-01 -3.720299980518153998e-02 -2.959249728166669646e-01 -2.227336461102829568e-01 -9.288800424995006244e-01
