1.256410083883312268e-01 -1.493115222817014975e-01 -1.132172982636911046e-01 1.062343628844426568e-01 -9.925069406633101332e-01 6.036748195587840482e-02
2.261111075416731842e-01 -1.588965240757222175e-01 -1.113978482726283303e-01 -2.918370267595523093e-01 -9.517941509510863263e-01 9.444069052820923404e-02
2.196350368382128104e-01 -1.465985731999000785e-01 -1.197815210350383353e-01 -2.918370267595523093e-01 -9.517941509510863263e-01 9.444069052820923404e-02
2.141451508561300898e-01 -1.598896917346386559e-01 -1.702033177302045563e-01 -3.628442995436084728e-01 -8.779423013700053957e-01 3.123480906838500548e-01
1.952229984310035749e-01 -1.573169529212651852e-01 -1.852889649807578087e-01 -3.240689609765551871e-01 -8.844011859072011816e-01 3.358777320655721987e-01
2.147434358133127608e-01 -1.608559223253581694e-01 -1.926331565822572145e-01 -3.240689609765551871e-01 -8.844011859072011816e-01 3.358777320655721987e-01
2.118783302722412609e-01 -1.753058768874532214e-01 -2.123483349267672737e-01 -2.729159887983738098e-01 -8.384922667581907740e-01 4.716434899846674300e-01
1.828492455091388080e-01 -1.583376954684610760e-01 -2.039088937726420692e-01 -2.428111209085202504e-01 -8.391053472354156328e-01 4.867699413522579288e-01
1.540008057231347649e-01 -1.579335478362579592e-01 -1.927892025795307496e-01 -7.356416809549069791e-02 -9.325621410831628211e-01 3.534348117981669368e-01
1.579741417674175308e-01 -1.537177964354929094e-01 -1.724148418006726524e-01 -9.568840840109368862e-02 -9.530524867735996608e-01 2.872885064744555295e-01
1.494964774057742363e-01 -1.430911202165861540e-01 -1.608369135639295677e-01 7.153683260050033854e-02 -9.800513573972985393e-01 1.854233492449123000e-01
1.351629175411980799e-01 -1.501901196749839962e-01 -1.542069559058710237e-01 7.153683260050033854e-02 -9.800513573972985393e-01 1.854233492449123000e-01
1.679476701352348722e-01 -1.616856325259423133e-01 -1.601692499214800725e-01 -1.474397143866298387e-01 -9.544522656352817380e-01 2.593885179518683470e-01
6.092169232364250120e-02 -2.423144800080856420e-02 -3.181912810379095014e-01 -6.150490836827861019e-01 -5.223726567912068131e-01 -5.906279980646541583e-01
1.113979724425934320e-01 -7.121437370241705256e-02 -3.447272000126125335e-01 -8.848013896131330380e-01 -2.106261755857643803e-01 -4.156478258054330244e-01
1.185700369064856263e-01 -8.214889523987842224e-02 -3.449333878029186007e-01 -8.848013896131330380e-01 -2.106261755857643803e-01 -4.156478258054330244e-01
8.111219948533450463e-02 -4.862588343812180441e-02 -3.289996052523210257e-01 -8.084156900189571893e-01 -3.367994877953700006e-01 -4.827319930892813304e-01
1.046592359794369514e-01 -9.391123102011002255e-02 -3.313278613507526504e-01 -8.084156900189571893e-01 -3.367994877953700006e-01 -4.827319930892813304e-01
1.069985692574559888e-01 -6.844567515303338900e-02 -3.425193788970606334e-01 -8.084156900189571893e-01 -3.367994877953700006e-01 -4.827319930892813304e-01
7.456291636764705855e-02 -2.107022740648619580e-02 -3.637795524820255366e-01 -7.013244367770761212e-01 -5.761562670572798472e-01 -4.197475316305472881e-01
8.064209272433484066e-02 -3.918713870865180721e-02 -3.365991231158408925e-01 -7.013244367770761212e-01 -5.761562670572798472e-01 -4.197475316305472881e-01
7.052960625416643259e-02 -2.629783614563617825e-02 -3.274091921098001290e-01 -6.743593881768413789e-01 -5.947003578709793015e-01 -4.376881308944592375e-01
6.890794944002344435e-02 -9.406683395797569083e-03 -3.461480529289688302e-01 -6.743593881768413789e-01 -5.947003578709793015e-01 -4.376881308944592375e-01
7.597630386311379769e-02 -1.183993221670365161e-03 -3.547927583509833949e-01 -6.066914175022103395e-01 -7.390094749536831875e-01 -2.929001875346621819e-01
5.270507845532584196e-02 -8.807895946905742665e-03 -3.588553796916345018e-01 -6.066914175022103395e-01 -7.390094749536831875e-01 -2.929001875346621819e-01
3.962916645362103696e-02 1.489508434566802660e-02 -3.534313717854745129e-01 -4.778941980339032058e-01 -8.081407194001480887e-01 -3.442756354041678346e-01
2.891704682045512231e-02 1.491352040989919400e-02 -3.551672182484951201e-01 -4.343011292214966068e-01 -8.558540041051756475e-01 -2.808851238746379875e-01
3.631472489916885010e-02 1.172413076610387926e-02 -3.430753428836688657e-01 -4.509772975700723774e-01 -7.659631055682146750e-01 -4.581702718255413753e-01
4.348827652301277824e-02 2.226471612064721221e-03 -3.202680106940793969e-01 -4.865682048213510469e-01 -7.183105302556256344e-01 -4.972739327380931718e-01
5.396017426080303159e-02 -1.318328614500681797e-02 -3.188301051636041050e-01 -4.865682048213510469e-01 -7.183105302556256344e-01 -4.972739327380931718e-01
4.059754526567318361e-02 -2.719978729299342771e-03 -3.431947223505837918e-01 -4.865682048213510469e-01 -7.183105302556256344e-01 -4.972739327380931718e-01
3.293097678830873148e-02 -8.912227801229844620e-03 -3.107824440761340345e-01 -4.448683885302323060e-01 -6.475327339976655328e-01 -6.187030590582390799e-01
3.201617917183056938e-02 -2.962508149368494464e-02 -2.998710989967356966e-01 -4.791155783103803745e-01 -5.815092593787304365e-01 -6.574916302715267946e-01
3.102410611564067333e-02 -4.142482317094024757e-02 -2.927318871502624376e-01 -4.328208555404529645e-01 -4.970628354175303798e-01 -7.520602666381966950e-01
4.656486783111696282e-02 -4.085373444750368954e-02 -2.913029010508640382e-01 -4.328208555404529645e-01 -4.970628354175303798e-01 -7.520602666381966950e-01
4.463611771800490152e-02 -4.246208445629664346e-02 -2.867968258430785289e-01 -4.621800013424021691e-01 -4.068769603487329967e-01 -7.879345058420227366e-01
1.943716991428522806e-02 -4.324517957651138889e-02 -2.797748918498665915e-01 -4.621800013424021691e-01 -4.068769603487329967e-01 -7.879345058420227366e-01
2.275388671420838782e-02 -6.453352049452171224e-02 -2.835023958565854874e-01 -3.796964632583207933e-01 -3.371786726989137173e-01 -8.614761392320284816e-01
1.916886849175638424e-02 -5.547823389814102862e-02 -2.550721842817435525e-01 -3.796964632583207933e-01 -3.371786726989137173e-01 -8.614761392320284816e-01
6.358173403516517719e-02 -6.566824093935533235e-02 -2.838018237200560234e-01 -5.825752600659476199e-01 -3.355789670789989798e-01 -7.402653735068833729e-01
7.173702717142819985e-02 -3.714202877408318004e-02 -3.070796177531177062e-01 -6.644323296018200820e-01 -3.682824038545878254e-01 -6.503058898633661267e-01
7.064998461193396084e-02 -6.531812520490397345e-02 -2.986465855676058156e-01 -6.644323296018200820e-01 -3.682824038545878254e-01 -6.503058898633661267e-01
5.290460587382130736e-02 -5.604008091800100066e-02 -3.133067902291662987e-01 -6.644323296018200820e-01 -3.682824038545878254e-01 -6.503058898633661267e-01
7.453224573102708306e-02 -7.724871400941955846e-02 -2.902161241423216742e-01 -7.493372410458836175e-01 -3.115567262368039159e-01 -5.843167852443984511e-01
9.108613439825789804e-02 -7.195026217183261852e-02 -3.116290254013751038e-01 -7.493372410458836175e-01 -3.115567262368039159e-01 -5.843167852443984511e-01
8.076904576673923919e-02 -4.891113177788767447e-02 -3.212400074848246745e-01 -7.493372410458836175e-01 -3.115567262368039159e-01 -5.843167852443984511e-01
-2.480779637015698147e-02 7.076634020241262535e-02 -3.198144547518338987e-01 -8.305151139356092838e-01 -5.530279198341460090e-01 -6.636840670408979126e-02
-3.974437143646682158e-02 5.409043918330042749e-02 -2.915561618704177183e-01 -8.454062943448646950e-01 -4.683885788535771533e-01 -2.567106088217053772e-01
-3.610022698150096299e-02 6.437423803872742434e-02 -3.097750053604499954e-01 -8.454062943448646950e-01 -4.683885788535771533e-01 -2.567106088217053772e-01
-4.106618113656011065e-02 4.743692286810521214e-02 -2.783073099598702971e-01 -8.321179613768571182e-01 -3.618350511480978304e-01 -4.203035737591067078e-01
-2.281504931255711605e-02 3.744622659655255648e-02 -2.528739856301348010e-01 -7.764965112934103519e-01 -2.481701246972909114e-01 -5.791931950194975087e-01
-4.275636561994651530e-02 3.948729719876561267e-02 -2.501902512321885208e-01 -7.764965112934103519e-01 -2.481701246972909114e-01 -5.791931950194975087e-01
-4.224934157053605865e-02 9.944018477387564156e-03 -2.497462816421077980e-01 -7.612665307545189997e-01 -2.472134132822183805e-01 -5.994654263978315134e-01
-4.941031491013005844e-02 5.070812762111658739e-02 -2.314174960454421226e-01 -7.612665307545189997e-01 -2.472134132822183805e-01 -5.994654263978315134e-01
-4.498734852611385726e-02 7.841649258170085152e-03 -2.382013855383270373e-01 -6.894802913892582596e-01 -1.237089619991520173e-01 -7.136616989210476936e-01
-4.136010890723643141e-02 2.186318813069259084e-03 -2.283348427937352265e-01 -6.894802913892582596e-01 -1.237089619991520173e-01 -7.136616989210476936e-01
-5.627593344382292306e-02 1.419443019638472019e-02 -2.189493083179289978e-01 -6.698857873585856160e-01 -1.190575634416134732e-01 -7.328562809189221872e-01
-6.662567638862935959e-02 -8.141550173611006649e-03 -2.259737081176808327e-01 -6.698857873585856160e-01 -1.190575634416134732e-01 -7.328562809189221872e-01
-1.428348220524485075e-02 2.120702607125806993e-01 -2.391823038856435435e-01 -7.788734801927781337e-01 6.113383631090308912e-01 1.400767919519887439e-01
-2.714659768896874464e-02 2.143682083799612337e-01 -1.998914874113108531e-01 -7.686013913246130258e-01 6.367953648421247337e-01 -6.118467593649764419e-02
-2.508540942991902348e-02 2.120861373190078281e-01 -2.246765952968306779e-01 -7.686013913246130258e-01 6.367953648421247337e-01 -6.118467593649764419e-02
-2.692920115006285434e-03 2.143659294308785379e-01 -1.915062436044878691e-01 -7.772815852114977053e-01 6.249568992131246947e-01 -7.254110157019651173e-02
-1.000974007610578448e-02 2.254118234812379773e-01 -2.136763261979879036e-01 -7.772815852114977053e-01 6.249568992131246947e-01 -7.254110157019651173e-02
-3.364471648353724309e-02 2.084900369784228324e-01 -1.712099094508856556e-01 -7.729419355952704684e-01 5.768147094044939749e-01 -2.642830967217650873e-01
-8.283265623372070702e-03 2.266442037657250830e-01 -1.666213605626717387e-01 -7.774083742271082897e-01 5.681007533400587173e-01 -2.699958402198487373e-01
-1.791258131773693085e-02 2.392287387592571812e-01 -1.461685534822466104e-01 -7.346153481652945016e-01 4.992894776215056063e-01 -4.594021199085034923e-01
-3.244661235825128248e-02 2.403011160659123124e-01 -1.529879277919653779e-01 -7.346153481652945016e-01 4.992894776215056063e-01 -4.594021199085034923e-01
-2.620085454628294855e-02 2.414221463662306055e-01 -1.297708893747168968e-01 -7.068784490315618285e-01 5.158630559103347668e-01 -4.839505820242231970e-01
-3.895738165587821905e-02 2.312288224362859523e-01 -1.511167691921736222e-01 -7.068784490315618285e-01 5.158630559103347668e-01 -4.839505820242231970e-01
-4.656408575724969856e-02 1.891989004128600271e-01 -1.638768076555304765e-01 -6.016048157757808434e-01 6.783538375991940983e-01 -4.217910817571124404e-01
-4.617805812542261079e-02 2.059695859088864767e-01 -1.653456531371860216e-01 -6.016048157757808434e-01 6.783538375991940983e-01 -4.217910817571124404e-01
-4.521732039703940664e-02 1.955651657321329784e-01 -1.458981010907817177e-01 -5.805597825327296624e-01 6.886790879064156323e-01 -4.343632728327030401e-01
-2.387834814146380658e-02 2.029298258680666545e-01 -1.823734509036910867e-01 -6.290692986841091017e-01 7.439869047363107946e-01 -2.252893762119434207e-01
-3.936366653160167095e-02 1.841607002085010880e-01 -2.156674124999227726e-01 -7.495388749460925037e-01 6.589687558048777927e-01 -6.286218113871885893e-02
-4.785998594891169300e-02 2.422162136143288791e-01 -9.870800546590972890e-02 -7.194845214212541862e-01 5.208492559994247761e-01 -4.594105744974472660e-01
-7.688099134736856022e-02 2.354387793555195452e-01 -7.591289010308634178e-02 -6.719099593433874862e-01 5.496069203714155638e-01 -4.964566845304995146e-01
-6.114314780302720909e-02 2.136163904897296628e-01 -8.660790473065656248e-02 -6.719099593433874862e-01 5.496069203714155638e-01 -4.964566845304995146e-01
-8.903247080537363134e-02 2.500982077183348529e-01 -4.391591382421429490e-02 -5.299007755159369504e-01 5.243589219293320891e-01 -6.665229846754853194e-01
-7.212873242135826868e-02 2.553902588724900058e-01 -4.265240615881117636e-02 -5.299007755159369504e-01 5.243589219293320891e-01 -6.665229846754853194e-01
-9.030771366316167614e-02 2.222992722314863778e-01 -6.107739537711997374e-02 -5.299007755159369504e-01 5.243589219293320891e-01 -6.665229846754853194e-01
-1.084844497250412182e-01 2.238928125100365929e-01 -4.395323765978711300e-02 -4.646582136173014188e-01 4.835783343531655509e-01 -7.417848333999531585e-01
-1.047720636731757915e-01 2.383240641841751217e-01 -4.053858919558859381e-02 -4.646582136173014188e-01 4.835783343531655509e-01 -7.417848333999531585e-01
-1.102768253954804628e-01 2.450762195873519567e-01 -3.314658136635582203e-02 -4.646582136173014188e-01 4.835783343531655509e-01 -7.417848333999531585e-01
-9.254737789648968815e-02 2.627524642284305156e-01 -2.436823399683561014e-02 -4.634486174924092872e-01 4.749083283371178243e-01 -7.481159392904409566e-01
-1.224381988264216237e-01 2.580339805404568421e-01 -3.121304151458417081e-02 -3.317865969384448666e-01 3.864156964491524682e-01 -8.605815264283345201e-01
-1.175792692269794909e-01 2.788023490817609917e-01 -1.389889015584407084e-02 -3.324330984454165749e-01 3.750963524872100163e-01 -8.653270834827548885e-01
-9.976792743524587337e-02 1.960585960390535398e-01 -8.411175536802836805e-02 -4.681329669454917797e-01 6.523125794626118967e-01 -5.961038700877933083e-01
-8.149346343974100959e-02 2.133511494735955694e-01 -8.470457860699645569e-02 -5.871587006464580316e-01 6.819897939526611275e-01 -4.360442422502215365e-01
-8.453134935716626053e-02 2.019857090587878490e-01 -9.179214903838839312e-02 -5.833345802814480230e-01 6.929252403882595335e-01 -4.237633522152897680e-01
-1.729045867231178146e-01 2.624296091410382448e-01 -1.180490731614228586e-02 -1.853978190296819151e-01 2.697629799592096145e-01 -9.449103573051595983e-01
-1.659498310582591951e-01 2.586566378029442892e-01 -1.628927139749890979e-02 -1.853978190296819151e-01 2.697629799592096145e-01 -9.449103573051595983e-01
-1.795772663974870842e-01 2.333803150545196436e-01 -3.021538793877003026e-03 -2.781188053130388971e-01 3.954828215397084845e-01 -8.753532247031703406e-01
-1.522759593702057435e-01 2.263987701884482007e-01 -2.644084102511032666e-02 -3.176152999140185451e-01 3.993664873245192370e-01 -8.600156568706193161e-01
-1.333297191646200530e-01 2.051522716850944228e-01 -3.998129491932138346e-02 -4.024446484347530273e-01 5.129763535894898974e-01 -7.582173603949322604e-01
-1.533518281476613232e-01 2.137500916799606188e-01 -4.005622458540455955e-02 -4.024446484347530273e-01 5.129763535894898974e-01 -7.582173603949322604e-01
-1.339477533214451510e-01 2.160440317306814018e-01 -3.434204777679899373e-02 -4.024446484347530273e-01 5.129763535894898974e-01 -7.582173603949322604e-01
-1.167333842153544660e-01 1.909868654619215067e-01 -4.863329280123629417e-02 -5.130959708508437966e-01 6.102811714019630296e-01 -6.035639291151170260e-01
-1.928952272233497023e-01 2.011969595438264091e-01 -2.542659281274056021e-02 -2.382183897434076436e-01 4.404750758122896737e-01 -8.655828708888685386e-01
-1.736436712500014912e-01 1.922487820637109324e-01 -4.342590865979844422e-02 -3.932810559869363565e-01 5.268193768223469187e-01 -7.535193130944383144e-01
-1.785821142522489025e-01 1.643916443969080654e-01 -5.965380963022029470e-02 -3.753856204290689780e-01 5.804717863831072577e-01 -7.225912684140927134e-01
-1.572666370942526204e-01 1.786539858383042745e-01 -4.937585020828719196e-02 -3.753856204290689780e-01 5.804717863831072577e-01 -7.225912684140927134e-01
-1.506486501623802710e-01 1.736913428413746630e-01 -6.618299374178350514e-02 -4.839084806060569566e-01 6.275364850507685333e-01 -6.099430648246310094e-01
-1.342494734274979618e-01 1.638784014868777394e-01 -8.578781482584112161e-02 -5.113276358782375963e-01 6.098945586831364674e-01 -6.054524556692082449e-01
3.312491828266918986e-02 4.072454712871416693e-01 4.262126528340573484e-02 -6.552926270249649354e-01 4.079479205719935275e-01 -6.357437117799173976e-01
4.584827093162650857e-02 4.037741448234599684e-01 4.159907466341587062e-02 -6.552926270249649354e-01 4.079479205719935275e-01 -6.357437117799173976e-01
3.989595620747277138e-02 3.866910780295165218e-01 3.845434693507261692e-02 -6.159013893113767235e-01 5.234143007841980388e-01 -5.888148676612242616e-01
3.294789628526850062e-02 3.729913243110462018e-01 1.480298801828140894e-02 -6.557837745704497845e-01 5.712586819032189345e-01 -4.935698120431699087e-01
4.338161673585683165e-02 3.933845396111046999e-01 1.706824755917357370e-02 -6.557837745704497845e-01 5.712586819032189345e-01 -4.935698120431699087e-01
4.399806097127115928e-02 3.766483367249338077e-01 -1.477743569067046202e-03 -6.171339848707023679e-01 6.481667516720807098e-01 -4.461227485171215257e-01
9.965183970669370256e-03 3.874636706823320620e-01 5.483342598792710632e-02 -4.651851468944275259e-01 5.736675706448188805e-01 -6.741723054971047180e-01
1.061851652825974816e-02 3.815588565039419455e-01 4.446385309347897219e-02 -4.807620082540011719e-01 5.825626690931905438e-01 -6.553538189395081703e-01
1.536441306444505731e-02 3.697846717027303831e-01 1.773566849716961408e-02 -4.583832474504935250e-01 7.074078217783063005e-01 -5.380139144516725702e-01
2.334833659207815465e-02 3.667050727107026842e-01 2.246185494505563429e-02 -4.882740474965888144e-01 7.188702556645176767e-01 -4.947868329514541474e-01
-1.179108980744906707e-02 3.598741412401162409e-01 4.113561950438667653e-02 -3.076649872967333055e-01 7.573460681238919356e-01 -5.759940873732838362e-01
2.903810575602305474e-02 3.553261123004540223e-01 -2.218112964706265428e-02 -5.084314117975550218e-01 8.196719028817789354e-01 -2.638853370759901007e-01
4.674704115520528919e-02 3.611512635857583864e-01 -1.795760795851787661e-02 -6.515472664673743752e-01 6.886333415733960628e-01 -3.182299175633095389e-01
6.638949704846891509e-02 3.766765767751318883e-01 -1.559853799871366298e-02 -6.661483938533758753e-01 6.804934986568843547e-01 -3.052456644283101372e-01
7.574128376448240052e-02 4.072721178214022686e-01 -1.469616681106211513e-02 -7.612928728571060066e-01 4.906409754573941018e-01 -4.239157875559614874e-01
6.651978829592200548e-02 3.905770595131992096e-01 1.096411676041867886e-02 -7.612928728571060066e-01 4.906409754573941018e-01 -4.239157875559614874e-01
6.902711004866994571e-02 4.067776989320470715e-01 9.979411659357508360e-04 -7.612928728571060066e-01 4.906409754573941018e-01 -4.239157875559614874e-01
8.371607011680735899e-02 4.248462302245450406e-01 -1.120226198627375823e-03 -8.020964355532969048e-01 3.338965157614146029e-01 -4.951307148976753503e-01
7.788458154843744263e-02 4.123403939271892416e-01 1.644048601957556408e-02 -8.020964355532969048e-01 3.338965157614146029e-01 -4.951307148976753503e-01
6.618669051717444851e-02 4.210151912436067567e-01 3.092510422789890301e-02 -7.983978935844816549e-01 3.251864735843711385e-01 -5.067687450086317824e-01
7.112561722868356029e-02 4.257474435174338767e-01 -2.312106784004045248e-03 -7.983978935844816549e-01 3.251864735843711385e-01 -5.067687450086317824e-01
8.718767983016105505e-02 4.445502238173084097e-01 1.048326607246592192e-02 -8.858890585507283033e-01 1.216490443139914834e-01 -4.476629155487382716e-01
7.707246945664221471e-02 4.665460984311460835e-01 1.599695082316497305e-02 -8.411253345413733928e-01 4.119819932588906358e-02 -5.392688383032779864e-01
9.159813013321282948e-02 4.887971571712577123e-01 2.041584558907863500e-02 -8.615742866703688385e-01 -8.351224960845309020e-02 -5.007149415723285424e-01
7.182487076064802967e-02 4.805076600849724211e-01 4.178371084933467372e-02 -7.884222800958443633e-01 6.899016496047437330e-02 -6.112533561357322842e-01
5.913437363829698867e-02 4.713822865476808288e-01 4.080084076380150609e-02 -7.884222800958443633e-01 6.899016496047437330e-02 -6.112533561357322842e-01
7.870943248805349624e-02 4.337970343124628037e-01 3.031179649996262881e-02 -7.582110859983919315e-01 1.878921247132681882e-01 -6.243496604787037718e-01
6.363241381042329670e-02 4.361706956260386070e-01 3.697771279795378924e-02 -7.582110859983919315e-01 1.878921247132681882e-01 -6.243496604787037718e-01
4.199102492624140481e-02 4.455628744351827764e-01 6.021774687267186787e-02 -6.727743743069564131e-01 2.101806212211280167e-01 -7.093650313759369830e-01
3.601475031249991299e-02 4.196012849392314337e-01 5.318088014108215272e-02 -6.131638702824216969e-01 3.562249163956833220e-01 -7.050772135866892887e-01
9.694965804981836230e-03 4.177033295267610913e-01 6.132027336689958863e-02 -5.458177024645380904e-01 3.664126093783405813e-01 -7.535415286265837453e-01
-7.192620142816181020e-03 3.845056493071409287e-01 7.157446478679338475e-02 -2.749129151940752358e-01 6.230855236835862732e-01 -7.322481268227638562e-01
-2.788421419202974372e-02 3.740926556464642672e-01 5.614082555616148329e-02 -2.614967509206828078e-01 6.305431456074060970e-01 -7.307768406192439725e-01
-1.760511211359951436e-02 3.496281800098529069e-01 4.420571238235377481e-02 -2.614967509206828078e-01 6.305431456074060970e-01 -7.307768406192439725e-01
-6.039518558790264724e-02 3.815249181185083049e-01 5.694331298582173267e-02 -4.998416415034219462e-02 7.147740077868784958e-01 -6.975669868381636496e-01
-4.650744172420667732e-02 3.512846720991802951e-01 4.862899781558049916e-02 -4.998416415034219462e-02 7.147740077868784958e-01 -6.975669868381636496e-01
-6.342237020326481345e-02 3.591432856264021867e-01 4.096160225963162149e-02 -2.455417853828203989e-02 7.554650041729475962e-01 -6.547287375595167713e-01
-7.146181497444005493e-02 3.468752406625199014e-01 4.398228908243130564e-02 -2.455417853828203989e-02 7.554650041729475962e-01 -6.547287375595167713e-01
-7.627747868843436085e-02 3.602485473690927309e-01 4.269348972479313636e-02 1.573634595711558559e-01 7.331026332002169577e-01 -6.616625051993693107e-01
-7.058127303706482336e-02 3.305039571890039385e-01 2.964255188254077272e-02 -3.597081190083584179e-02 7.813148744508298105e-01 -6.230996450432938483e-01
-5.861171732125281669e-02 3.236969717091059406e-01 2.719435084240128669e-02 -3.597081190083584179e-02 7.813148744508298105e-01 -6.230996450432938483e-01
-5.644341209677886106e-02 3.565228998716492015e-01 3.087422853004196874e-02 -3.597081190083584179e-02 7.813148744508298105e-01 -6.230996450432938483e-01
-3.130899875921549363e-02 3.333429919707000533e-01 1.657042073680651748e-02 -1.917945039905052107e-01 8.362891778696176504e-01 -5.136489844409264371e-01
-1.144875549956205201e-03 3.610128855489112554e-01 1.425687883910257622e-02 -2.323757239823524279e-01 8.284015455262712102e-01 -5.096591039835969283e-01
-2.247695050939770706e-02 3.347886924456335289e-01 2.205103686690602222e-02 -2.323757239823524279e-01 8.284015455262712102e-01 -5.096591039835969283e-01
-2.933949615457167107e-02 3.218654492970894898e-01 2.654261259067717572e-03 -3.292988700038583239e-01 8.654719620836406335e-01 -3.775189227856998175e-01
-1.523095462715647400e-02 3.255498378774904777e-01 -1.818675301011201534e-02 -3.292988700038583239e-01 8.654719620836406335e-01 -3.775189227856998175e-01
3.344081099868195794e-02 3.566377591448522399e-01 -5.323058251834941225e-03 -4.440243531094171803e-01 8.277980209975676074e-01 -3.429180810022623982e-01
9.181150489700395587e-03 3.396471628725069025e-01 -1.943248299171666457e-02 -4.440243531094171803e-01 8.277980209975676074e-01 -3.429180810022623982e-01
1.468001256595454287e-02 3.359706674077204136e-01 -1.328632959786261482e-03 -4.440243531094171803e-01 8.277980209975676074e-01 -3.429180810022623982e-01
2.038627849517231708e-02 3.391815254189408102e-01 -3.259080320549947313e-02 -4.914535351082278680e-01 8.274144796754754339e-01 -2.717695745534957075e-01
1.054244743602283409e-02 3.417741083068580599e-01 -1.410811163185273116e-02 -4.914535351082278680e-01 8.274144796754754339e-01 -2.717695745534957075e-01
5.963742207781878857e-02 4.293051788399991908e-01 1.496328182140920504e-01 -6.166818640150506514e-01 5.215271962575551701e-01 5.896718258138641255e-01
7.082443894649993743e-02 4.390445724595636312e-01 1.559853165795469510e-01 -6.547312998651241278e-01 4.100052989972973738e-01 6.349980943050630433e-01
2.885753131542941052e-02 4.095002416904007791e-01 1.528560205380460890e-01 -4.812332108417688437e-01 5.807414127247272351e-01 6.566231859517370761e-01
9.322291482953060093e-02 5.010074932077300813e-01 1.581654685581425634e-01 -7.959711187147680000e-01 6.333507920432521199e-02 6.020121642576192755e-01
1.003738973192817713e-01 5.157562484065616459e-01 1.596249919581606558e-01 -7.959711187147680000e-01 6.333507920432521199e-02 6.020121642576192755e-01
9.270748161830810741e-02 4.840173901983116922e-01 1.639075280661541900e-01 -7.754274510205468873e-01 1.829405238564411618e-01 6.043550553564586147e-01
9.149978195031180372e-02 4.972617064989025559e-01 1.491739288165575827e-01 -7.754274510205468873e-01 1.829405238564411618e-01 6.043550553564586147e-01
1.081434789979759253e-01 4.751282556634579546e-01 1.903695341986634815e-01 -8.067898281331153942e-01 2.803219916711403581e-01 5.201055221841652809e-01
9.363186226592955241e-02 4.733529321749230800e-01 1.955631172012986252e-01 -8.067898281331153942e-01 2.803219916711403581e-01 5.201055221841652809e-01
8.381901562204156775e-02 4.638675989957368739e-01 1.650253462475465838e-01 -7.895868671973890196e-01 3.328587187728929142e-01 5.155168789538135954e-01
1.061483013438744571e-01 4.460322680272447160e-01 1.987856957155431092e-01 -7.902971894340489190e-01 4.732707518777474753e-01 3.891595402784248092e-01
9.220924055828180754e-02 4.434976375392022385e-01 1.757831289413069875e-01 -7.902971894340489190e-01 4.732707518777474753e-01 3.891595402784248092e-01
8.616316888247982364e-02 4.224268656253299947e-01 2.051811509959180213e-01 -7.668864716215029187e-01 5.143781075264152181e-01 3.837972148693440388e-01
7.827532235350143086e-02 4.286295008167940734e-01 1.985613005704592038e-01 -7.668864716215029187e-01 5.143781075264152181e-01 3.837972148693440388e-01
9.433261733553482964e-02 4.231157115921420075e-01 2.084317862180392611e-01 -7.668864716215029187e-01 5.143781075264152181e-01 3.837972148693440388e-01
7.255700997146614928e-02 4.147653511047977304e-01 1.780621936464834854e-01 -6.709438931294245956e-01 5.880837451037067565e-01 4.516545151076536979e-01
7.458266832043133898e-02 4.189166839855880675e-01 1.751711620165078975e-01 -6.709438931294245956e-01 5.880837451037067565e-01 4.516545151076536979e-01
6.729023396126362910e-02 4.014647279062734664e-01 1.893385670573632940e-01 -6.709438931294245956e-01 5.880837451037067565e-01 4.516545151076536979e-01
7.389282453308847198e-02 3.932269845672762276e-01 2.014081899784635199e-01 -6.066526562346661322e-01 6.718150825932613923e-01 4.250141756266880844e-01
4.949570376784837716e-02 4.043327249759777198e-01 1.606786815295873361e-01 -4.525711838600877668e-01 7.313676713007799535e-01 5.101770799590598093e-01
4.540643648039004165e-02 4.042421282794300130e-01 1.795680560619904720e-01 -4.525711838600877668e-01 7.313676713007799535e-01 5.101770799590598093e-01
3.199280605443639153e-02 3.840226193376242714e-01 1.839621354362216687e-01 -4.131756817769824397e-01 7.602386030069234746e-01 5.013213764504832470e-01
2.004742484555355198e-02 3.766960019655231084e-01 1.858670162559666050e-01 -4.131756817769824397e-01 7.602386030069234746e-01 5.013213764504832470e-01
4.082983825081402951e-02 3.975984038891740568e-01 1.937884755079015420e-01 -4.131756817769824397e-01 7.602386030069234746e-01 5.013213764504832470e-01
3.047471007914387062e-02 3.876163103487738626e-01 1.758924388393209026e-01 -4.131756817769824397e-01 7.602386030069234746e-01 5.013213764504832470e-01
2.011469839305650431e-02 3.846006706461303493e-01 1.538878333731435732e-01 -3.134474865900933604e-01 7.758363645536318076e-01 5.475660769136062589e-01
2.115228629549667505e-02 3.777860394723404625e-01 1.733249428360250088e-01 -3.134474865900933604e-01 7.758363645536318076e-01 5.475660769136062589e-01
-9.031027823018684952e-05 3.822125154413285042e-01 1.628056841172771940e-01 -2.025394831460833600e-01 8.316763257984030044e-01 5.170031401001218274e-01
-2.100885737710247309e-02 3.728753363457006365e-01 1.777368569954952404e-01 -1.351186776438376425e-01 8.253339790481610816e-01 5.482396975596625088e-01
-3.850749957907049353e-02 3.866758295523537448e-01 1.626209806832959459e-01 9.538392693128598665e-02 8.444831621689228296e-01 5.270200141326171206e-01
-6.560786163440569807e-02 3.780814221779336126e-01 1.648105607791876814e-01 9.538392693128598665e-02 8.444831621689228296e-01 5.270200141326171206e-01
-2.547640158191013388e-02 3.715809501164908935e-01 1.648659953359369323e-01 -9.063377791945594064e-02 7.861119517969501480e-01 6.114029093339646836e-01
3.220914229170546757e-03 3.976221702713482742e-01 1.454584433026028800e-01 -2.729047640562464738e-01 6.655707014837887181e-01 6.946500061770545242e-01
4.199683800203619921e-02 4.287602488567585635e-01 1.420750200093922611e-01 -4.468472782354357409e-01 5.606647755740311601e-01 6.971244647579830644e-01
3.211516974775878441e-02 4.160699732430137021e-01 1.459903750178360715e-01 -4.468472782354357409e-01 5.606647755740311601e-01 6.971244647579830644e-01
4.034926499899140623e-02 4.371014037694648247e-01 1.313155877758695189e-01 -4.446164524263220841e-01 5.413845281413387500e-01 7.135958260254975372e-01
5.991362525382520204e-02 4.408242943076750575e-01 1.396924370778364066e-01 -5.629801736395276812e-01 3.740685217531645179e-01 7.369708712847540255e-01
5.040628404645725730e-02 4.486924822486264008e-01 1.349870321123476380e-01 -5.629801736395276812e-01 3.740685217531645179e-01 7.369708712847540255e-01
7.340447556037564547e-02 4.590490105235306983e-01 1.470199179226197028e-01 -6.248806270178983713e-01 3.731640376847501495e-01 6.857643931821864047e-01
8.423698021716713447e-02 4.717066999282879536e-01 1.437250549023296464e-01 -6.802171584789359349e-01 2.066462372632909550e-01 7.032794252185723405e-01
1.103757768356524033e-01 5.074964734490423623e-01 1.657360344653239226e-01 -9.444649221056001798e-01 -1.316583553240553706e-01 3.010848524675848181e-01
1.270887800048943195e-01 4.893691840190527720e-01 1.809927620356442668e-01 -7.560152734001135411e-01 3.212063730522554672e-01 5.703221653560089921e-01
1.097545956631082315e-01 4.888751706915989148e-01 1.704441161604550448e-01 -7.560152734001135411e-01 3.212063730522554672e-01 5.703221653560089921e-01
3.632558167901054347e-01 2.802606552241472260e-01 1.775034093548257252e-01 4.508364550723933939e-01 -6.611399938516200336e-01 5.997002578852519417e-01
3.399455233168882651e-01 2.750391275238232014e-01 1.952602539183227182e-01 4.508364550723933939e-01 -6.611399938516200336e-01 5.997002578852519417e-01
3.695151891382373321e-01 2.562490664279625241e-01 1.464398621131507705e-01 3.325520330801381985e-01 -5.312721264878091931e-01 7.792041278839505480e-01
3.501967270993007197e-01 2.720112075230032844e-01 1.671836091138228786e-01 3.325520330801381985e-01 -5.312721264878091931e-01 7.792041278839505480e-01
3.286879356663328644e-01 2.977148507965580171e-01 1.963099075915372138e-01 5.438492996644250788e-01 -7.378740421256856363e-01 3.997121929734145374e-01
3.363416045276831912e-01 2.726898340389794506e-01 1.974026942812221463e-01 5.438492996644250788e-01 -7.378740421256856363e-01 3.997121929734145374e-01
2.911083948597774640e-01 2.130545430754304248e-01 1.436661737887167944e-01 3.071364123347180564e-01 -6.901880635122231711e-01 6.552157363826096592e-01
2.737815316102176766e-01 2.085069036180159097e-01 1.575980682905018526e-01 3.071364123347180564e-01 -6.901880635122231711e-01 6.552157363826096592e-01
2.966091663360778674e-01 1.872425848576457497e-01 1.245809028020850306e-01 1.297008183797392356e-01 -6.059895839321882693e-01 7.848275746158001054e-01
2.699951286292023300e-01 1.804946563602025933e-01 1.360669047657986630e-01 2.776662157571149758e-01 -6.111262298816364513e-01 7.412328944250792251e-01
2.688702313809190336e-01 1.797846815695934020e-01 1.200474944501481317e-01 3.564007775341258566e-01 -4.994822773637470625e-01 7.896175912253953211e-01
2.445950983697593450e-01 1.634827716548428178e-01 1.298559987872213717e-01 4.745365623711327863e-01 -4.928780252664045625e-01 7.293053566116717290e-01
2.671764426264754411e-01 1.706965097713783464e-01 1.271788930558497288e-01 4.745365623711327863e-01 -4.928780252664045625e-01 7.293053566116717290e-01
2.406563215450728543e-01 1.452211956408828997e-01 1.196061607426976980e-01 5.485809575387767811e-01 -3.355743416859443551e-01 7.657994477850476045e-01
2.461786038561852574e-01 1.959881590348175884e-01 1.489225247756867376e-01 5.108135824095531019e-01 -5.482519569820402117e-01 6.621852276299147189e-01
2.388428960525683376e-01 1.783503428900338195e-01 1.321066909942959222e-01 5.108135824095531019e-01 -5.482519569820402117e-01 6.621852276299147189e-01
2.593810800655814153e-01 1.943036045039692739e-01 1.410279030464571814e-01 5.108135824095531019e-01 -5.482519569820402117e-01 6.621852276299147189e-01
2.657929133765987717e-01 2.028232990443145090e-01 1.470092862829247282e-01 4.505152749814262947e-01 -6.474736278179016313e-01 6.146656719621940157e-01
2.618258935486476036e-01 2.207916048210784299e-01 1.708197606597655627e-01 4.895289566836664719e-01 -7.172632305060827607e-01 4.958778667496456238e-01
2.503527166666459913e-01 2.304759348809960473e-01 1.948197739287587382e-01 3.719581022865509068e-01 -8.075506500634511697e-01 4.577216596639110957e-01
2.714284060767813145e-01 2.306114703281429701e-01 1.762808344273221750e-01 3.719581022865509068e-01 -8.075506500634511697e-01 4.577216596639110957e-01
2.563682525600115558e-01 2.359137336976139532e-01 1.891841600269804080e-01 3.772856144214342122e-01 -8.626463211814568988e-01 3.368929944399848275e-01
2.731099350394806669e-01 2.502298751685975153e-01 2.090956981591066133e-01 3.772856144214342122e-01 -8.626463211814568988e-01 3.368929944399848275e-01
2.876391975651551580e-01 2.289590472090038409e-01 1.660041676878163952e-01 2.645512856265940793e-01 -8.009228399171702817e-01 5.371547465789828779e-01
2.672603100912162022e-01 2.284019165258429906e-01 1.559625870106217671e-01 2.645512856265940793e-01 -8.009228399171702817e-01 5.371547465789828779e-01
2.870956538806100355e-01 2.153713661657756517e-01 1.381452884232438894e-01 2.678350275793007218e-01 -7.342183589002515554e-01 6.238491800550967081e-01
2.993063773236568359e-01 2.071268542813125835e-01 1.389528335196526243e-01 9.121407468724428147e-02 -7.198248740829293890e-01 6.881367184146218730e-01
3.195844304094025423e-01 1.806098079316149352e-01 1.030340175513649315e-01 1.979474236768715978e-01 -6.921329313084249035e-01 6.940956871052408328e-01
3.210533969202772342e-01 1.642417122462474233e-01 7.784660950663144230e-02 1.979474236768715978e-01 -6.921329313084249035e-01 6.940956871052408328e-01
2.819413677169252952e-01 1.391337788147997689e-01 8.143503843862892611e-02 3.695368483116542313e-01 -5.146822022073574976e-01 7.736567381409369393e-01
2.686265023551715481e-01 1.461782058398920503e-01 8.766557693104211346e-02 3.695368483116542313e-01 -5.146822022073574976e-01 7.736567381409369393e-01
2.965322074091529814e-01 1.217684148959049112e-01 7.278356122087527302e-02 3.929589276472373327e-01 -4.742048562437248815e-01 7.878534352893319381e-01
2.663090285557566661e-01 1.238364619775876307e-01 9.106223353866869930e-02 5.912302116817869102e-01 -3.927891337226548929e-01 7.043887656856231416e-01
3.000562173430836310e-01 9.229474602725011578e-02 4.972051042370224244e-02 2.816348722414158678e-01 -4.560447530992084997e-01 8.442185628782651330e-01
3.234519018222000719e-01 6.627993833544147673e-02 3.396939247672017131e-02 2.730514787653434694e-01 -2.592000029749776391e-01 9.264222840593974162e-01
3.126506029221836624e-01 2.701534984461042427e-02 3.466632947556586020e-02 2.521962052796143383e-01 -4.793549120859825347e-02 9.664881079067414449e-01
3.195228806077147765e-01 2.607670691980730135e-02 3.292562053489253571e-02 2.521962052796143383e-01 -4.793549120859825347e-02 9.664881079067414449e-01
2.985906540580074986e-01 3.140970349326515504e-02 4.106123029696696208e-02 4.121883646096877740e-01 -1.433511510866061212e-01 8.997506318767084510e-01
2.822619661071897323e-01 6.060818243327765337e-02 5.242665354440070868e-02 4.770119018168377245e-01 -3.259018006156556013e-01 8.162399536169233638e-01
2.809249148080117386e-01 5.966014053414719215e-02 5.064426380741338801e-02 4.770119018168377245e-01 -3.259018006156556013e-01 8.162399536169233638e-01
2.798464404778594483e-01 6.723984916487192598e-02 5.886619394511437287e-02 4.809972227479843987e-01 -3.273788734368601183e-01 8.133048290376359013e-01
2.724609446367354249e-01 8.837497707524587243e-02 6.316017753003826118e-02 4.994922315787708733e-01 -3.926033301786470697e-01 7.722500474102254042e-01
2.647583177962467560e-01 7.074553433149849413e-02 6.391799666394169799e-02 5.881721335896540337e-01 -4.308605511962150802e-01 6.844068429607407245e-01
2.534546680853887457e-01 7.716507396713186140e-02 6.379642127033773036e-02 5.881721335896540337e-01 -4.308605511962150802e-01 6.844068429607407245e-01
3.682941527936521853e-01 1.252643815765205337e-01 1.693282747088480783e-02 5.149650915202607093e-01 -5.577221783579789927e-01 6.509661483388827774e-01
3.799854937017910772e-01 1.383401283151063088e-01 5.112713088503159642e-02 4.883479275218584603e-01 -5.681867568692247072e-01 6.623293070697823248e-01
3.819562007257596981e-01 1.560184715640997311e-01 6.804801563361204120e-02 4.454474923315899226e-01 -7.278239324220295847e-01 5.213912685970403249e-01
3.819289458017362526e-01 1.127635632973182922e-01 1.823174850351898246e-02 5.329167637901011112e-01 -3.848905748993275422e-01 7.535641765803033909e-01
4.910717942743336173e-01 1.566226476354591890e-01 -6.834935492262594718e-03 8.840812962374891559e-02 -6.313308747198798088e-01 7.704578698682114091e-01
5.049923838924456065e-01 1.643417350981149772e-01 -1.091536737773260435e-02 8.840812962374891559e-02 -6.313308747198798088e-01 7.704578698682114091e-01
5.096461098696956071e-01 1.496779511436454047e-01 -1.383989003240522139e-02 8.840812962374891559e-02 -6.313308747198798088e-01 7.704578698682114091e-01
4.492199180733922326e-01 1.024525473911019752e-01 -2.610209132468593873e-02 3.153552915326285344e-01 -3.518966362374730816e-01 8.813170811388613135e-01
4.585569609436896954e-01 1.170199463279761459e-01 -3.133697848046533563e-02 2.687650876473000605e-01 -4.268974183382094334e-01 8.634372715363350936e-01
4.562018258582678509e-01 1.371562633423967781e-01 -2.775817540230027594e-02 3.108218995940462692e-01 -5.330651461207195352e-01 7.869125089386014293e-01
4.409719586234192579e-01 1.526192100075725588e-01 5.711605782113259380e-03 2.695573984585474259e-01 -5.896314223334955251e-01 7.613629848720246951e-01
4.693356249923026358e-01 1.472846789555951885e-01 -1.202874533638792140e-02 2.695573984585474259e-01 -5.896314223334955251e-01 7.613629848720246951e-01
4.153084804156096932e-01 4.265968098950057713e-02 -2.629633177220306456e-02 4.910415347096089289e-01 0.000000000000000000e+00 8.711361611080279399e-01
4.360887657541294704e-01 5.801619718363731915e-02 -5.146855221708365735e-02 4.910415347096089289e-01 0.000000000000000000e+00 8.711361611080279399e-01
4.428597783744387395e-01 8.014403821601064071e-02 -4.516705155589983978e-02 4.534945943239467869e-01 -1.455471976679200141e-01 8.792944138171095991e-01
4.202209378254030403e-01 7.934040392378993722e-02 -3.273128423449669228e-02 4.938345302511045753e-01 -2.081986853770236567e-01 8.442634447487051830e-01
4.337933990905342152e-01 1.027144207710840029e-01 -1.672197937096954815e-02 4.954776978653411823e-01 -4.045505338652061189e-01 7.686616397788029742e-01
4.501082182728257108e-01 1.296820817573269002e-01 -1.479265723391517441e-02 4.509044493010871957e-01 -5.005945044656051612e-01 7.389792417242302403e-01
4.272306124134448990e-01 1.518578733860690144e-01 -3.069283815528529163e-03 4.509044493010871957e-01 -5.005945044656051612e-01 7.389792417242302403e-01
4.584173518436083783e-01 1.776047785890406405e-01 1.974441458311335107e-02 2.614375952654006130e-01 -7.786907365095826483e-01 5.703429851028313236e-01
4.468401640206005609e-01 1.797936098674777217e-01 2.228234011969261116e-02 2.511744111696743720e-01 -7.515424748168811897e-01 6.099961669713055423e-01
4.811208148949789876e-01 1.792964799182960867e-01 1.133417905070545351e-02 2.511744111696743720e-01 -7.515424748168811897e-01 6.099961669713055423e-01
4.546668048326680811e-01 1.687501306987857497e-01 1.439993271086585126e-03 2.511744111696743720e-01 -7.515424748168811897e-01 6.099961669713055423e-01
5.277546113331722522e-01 1.773191296924700733e-01 7.746091593802624346e-03 -1.297727633702810413e-01 -7.117769976332287696e-01 6.903133603860405199e-01
5.434846971294832185e-01 1.643984556830818677e-01 5.349801999800134558e-04 -1.531464437730779560e-01 -6.292448811973984091e-01 7.619691898276015340e-01
5.253461960976562040e-01 1.499892370236394767e-01 -8.553602183731651848e-03 -1.531464437730779560e-01 -6.292448811973984091e-01 7.619691898276015340e-01
5.708414680342647207e-01 1.454440117371763597e-01 -3.795145342525760128e-03 -3.245811538293543741e-01 -6.392592577132445442e-01 6.971331838370029566e-01
5.389503997682507652e-01 1.376904494646571386e-01 -1.296957746268974192e-02 -1.511540138565074798e-01 -6.265303074909177594e-01 7.645993969984562488e-01
5.115379089550732283e-01 1.530749034262763320e-01 -1.424264212975066834e-02 -1.552938173071603811e-01 -5.826506883449087404e-01 7.977480840950823548e-01
5.541062079882667080e-01 1.413624684830641909e-01 -1.702610722481018302e-02 -1.552938173071603811e-01 -5.826506883449087404e-01 7.977480840950823548e-01
5.083045587433457912e-01 1.324618357157033854e-01 -3.831393767983029552e-02 -4.268296358395587409e-02 -4.459178407389918219e-01 8.940556156807952792e-01
5.205990670557880673e-01 1.003311176878422251e-01 -4.022374671522150474e-02 -4.268296358395587409e-02 -4.459178407389918219e-01 8.940556156807952792e-01
4.887617642916454730e-01 1.114483924543252513e-01 -4.085774949473251760e-02 6.641242282686393716e-02 -4.317752474252176120e-01 8.995329487045807815e-01
5.077643279440486879e-01 1.083870021979358444e-01 -4.274947581566368449e-02 6.641242282686393716e-02 -4.317752474252176120e-01 8.995329487045807815e-01
5.016351229823722280e-01 1.415224290426142228e-01 -4.092865142526740108e-02 6.641242282686393716e-02 -4.317752474252176120e-01 8.995329487045807815e-01
4.762524791464161633e-01 1.007279798631399020e-01 -3.974800643447067017e-02 8.234340709277379600e-02 -3.040144675944377317e-01 9.491020844996729267e-01
4.705341902598818016e-01 9.236555521828894444e-02 -3.285524952902203061e-02 2.527328372112868649e-01 -2.051236091667507089e-01 9.455423935274077651e-01
4.379633699586493734e-01 8.453791838289002880e-02 -4.719359344322519856e-02 2.549749788664714689e-01 -1.963683860953266136e-01 9.467984036184046159e-01
4.631624451993484604e-01 7.306706342570037926e-02 -3.370202190207638449e-02 2.549749788664714689e-01 -1.963683860953266136e-01 9.467984036184046159e-01
4.643019227773319546e-01 6.565801374581471672e-02 -4.500444338226891605e-02 3.103151894775252884e-01 -1.552433925803699821e-01 9.378720447052809606e-01
4.496249959983715794e-01 3.820598943092250871e-02 -3.203026834242787835e-02 4.750950882311898438e-01 2.375088386571312660e-02 8.796138656559453484e-01
4.202154962190217669e-01 3.329366769286581235e-02 -3.214357047643402049e-02 5.747079808592950867e-01 1.915149185073636851e-01 7.956335668671540295e-01
3.995319412521075586e-01 2.628313228017234936e-04 5.338941264038110646e-05 5.870925898787685560e-01 2.529869770197790690e-01 7.689732637535807713e-01
4.014475438753831171e-01 9.166947321613865690e-03 -1.749826242068841867e-02 5.870925898787685560e-01 2.529869770197790690e-01 7.689732637535807713e-01
4.056839273197775375e-01 2.579554025877276238e-02 -1.687843286300411139e-02 6.384200766923215919e-01 4.616190070208494450e-02 7.683025996309925665e-01
3.966235616745791837e-01 5.369463094625930022e-02 -8.101276660766978596e-03 6.384200766923215919e-01 4.616190070208494450e-02 7.683025996309925665e-01
4.051862458540587686e-01 5.445091123890821033e-02 -1.441972657854914339e-02 6.046915764875000487e-01 0.000000000000000000e+00 7.964597273717372028e-01
3.811298380031762356e-01 5.882591259337145717e-02 -6.869140087641304945e-03 6.360062290176566879e-01 -1.678391681618595088e-01 7.532105218871248953e-01
3.886759360902262705e-01 7.815285525971400749e-02 -1.688784532637821814e-02 6.360062290176566879e-01 -1.678391681618595088e-01 7.532105218871248953e-01
4.127457958353076273e-01 9.866595221003504612e-02 -2.640739354037519374e-02 6.205602122820256250e-01 -1.877519684437593539e-01 7.613502618886925921e-01
3.940903956726271584e-01 1.065664986527781188e-01 -7.383292948810806465e-03 6.201511717973758886e-01 -3.653640300424385035e-01 6.942057689687471944e-01
4.151053684198204863e-01 1.161909719074603192e-01 -1.014405666942317513e-02 6.201511717973758886e-01 -3.653640300424385035e-01 6.942057689687471944e-01
4.027736242393782917e-01 1.453633756262872057e-01 1.800215822882645506e-02 5.810477215977394305e-01 -5.530964895484379307e-01 5.970492596723243617e-01
4.272826316184425988e-01 1.570775429899987086e-01 8.801736027334444712e-03 5.083228391354002174e-01 -5.982584919574057691e-01 6.194309227138865559e-01
4.160512265248526576e-01 1.202559512540652409e-01 7.667535829835607844e-03 5.083228391354002174e-01 -5.982584919574057691e-01 6.194309227138865559e-01
4.282245761905300596e-01 1.773376318775085614e-01 1.270716402669239825e-02 4.860353801109209559e-01 -6.338170416905619664e-01 6.017022244790665164e-01
4.333095158988004014e-01 1.526451018871248788e-01 7.352803704386273037e-03 4.860353801109209559e-01 -6.338170416905619664e-01 6.017022244790665164e-01
4.071584112530599597e-01 1.544402419411829430e-01 2.327586402043013009e-02 4.956228878494968182e-01 -7.166429186883485070e-01 4.906942837791877787e-01
4.272501724099714293e-01 1.739733466277521012e-01 4.898761014669563568e-02 4.956228878494968182e-01 -7.166429186883485070e-01 4.906942837791877787e-01
4.764014180705638535e-01 1.346992352248689018e-01 -2.266234384311640454e-02 8.017483165198881212e-02 -4.417780466719543608e-01 8.935346405418693738e-01
4.939897956528098710e-01 -1.853215581127169026e-03 -1.096337388436201959e-01 6.487488748750191991e-01 -2.147452055284490291e-01 7.300749235872581178e-01
5.056105773415278115e-01 -2.152063358436506237e-03 -1.168654246710956607e-01 6.487488748750191991e-01 -2.147452055284490291e-01 7.300749235872581178e-01
5.040867103553881012e-01 1.405669869336541138e-02 -1.312217853455533156e-01 6.189991194263787522e-01 -3.657971769260629502e-01 6.950054068151487741e-01
5.041175477080713785e-01 1.706418015606432984e-02 -1.131665164818151936e-01 6.536600291478340541e-01 -4.087214919842757088e-01 6.369264543764847630e-01
4.964586454987884312e-01 8.079368526864558891e-03 -1.076865740116068754e-01 6.536600291478340541e-01 -4.087214919842757088e-01 6.369264543764847630e-01
5.248301927299382497e-01 4.557627966762373833e-02 -1.000946911503670517e-01 6.142387696360932514e-01 -5.242643656933380081e-01 5.897945479063879670e-01
6.102202741435673872e-01 1.084883423820885984e-01 -5.535508780199380890e-02 -1.073319599924657704e-02 -9.400030123719831376e-01 3.409972657298577792e-01
6.011697074013251374e-01 9.562014619441749907e-02 -7.069929732229118802e-02 1.543773896769817799e-01 -8.770357386611796757e-01 4.549460788572203818e-01
5.735257990885850310e-01 8.834007590227435647e-02 -6.936262249558011739e-02 1.537834718404301748e-01 -8.800758303294635709e-01 4.492406667462429670e-01
5.804466633235985107e-01 8.903299271818769511e-02 -8.708485745496369335e-02 2.664245558687927673e-01 -8.128529003282404242e-01 5.179653641490752358e-01
5.701080032242903384e-01 7.564727244182707644e-02 -9.521351660729029942e-02 2.564143518971042646e-01 -7.713635851750575423e-01 5.824516285555992878e-01
5.618417479903987655e-01 4.979322255197133479e-02 -1.101683734946499044e-01 3.727953480297406252e-01 -6.399497500007745865e-01 6.719285274203876668e-01
