5.586423453902742420e-01 3.122028558125882203e-01 4.605576097816168613e-01 1.000000000000000000e+00 0.000000000000000000e+00 0.000000000000000000e+00
5.674061875710907366e-01 2.986739276621968031e-01 5.178120304847769750e-01 1.000000000000000000e+00 0.000000000000000000e+00 0.000000000000000000e+00
5.592310116307048773e-01 4.225185450943326759e-01 4.722633613109105677e-01 1.000000000000000000e+00 0.000000000000000000e+00 0.000000000000000000e+00
5.593847182993497702e-01 3.514034683629508327e-01 4.577570276233068336e-01 1.000000000000000000e+00 0.000000000000000000e+00 0.000000000000000000e+00
-5.503757497247991903e-01 -3.244400709140580763e-01 2.793476707558367189e-01 -1.000000000000000000e+00 0.000000000000000000e+00 0.000000000000000000e+00
-5.465420095223813002e-01 -4.861386651572033868e-01 3.418448748591519926e-01 -1.000000000000000000e+00 0.000000000000000000e+00 0.000000000000000000e+00
-5.594031365968898939e-01 -3.323855701713461230e-01 4.308924977108197218e-01 -1.000000000000000000e+00 0.000000000000000000e+00 0.000000000000000000e+00
-5.542551027022426524e-01 -3.004302276664497784e-01 4.636068563330888459e-01 -1.000000000000000000e+00 0.000000000000000000e+00 0.000000000000000000e+00
-5.659293989648748191e-01 -3.039834052226881855e-01 5.249076498437820204e-01 -1.000000000000000000e+00 0.000000000000000000e+00 0.000000000000000000e+00
-5.659775720636854857e-01 -4.211660846953171333e-01 4.710837628800147447e-01 -1.000000000000000000e+00 0.000000000000000000e+00 0.000000000000000000e+00
-5.517520010315803969e-01 -3.596809255154316265e-01 4.354127596248327792e-01 -1.000000000000000000e+00 0.000000000000000000e+00 0.000000000000000000e+00
2.646349274248497307e-01 4.500436132182076276e-01 -5.660653758642620881e-01 0.000000000000000000e+00 0.000000000000000000e+00 -1.000000000000000000e+00
1.128552730638175267e-01 5.560600599554709200e-01 -4.388377089920530438e-01 0.000000000000000000e+00 1.000000000000000000e+00 0.000000000000000000e+00
7.096700087431993820e-02 5.573661581184850000e-01 -3.674960036570094069e-01 0.000000000000000000e+00 1.000000000000000000e+00 0.000000000000000000e+00
3.108266570695623621e-01 1.043846632510009725e-01 -5.750082867605352810e-01 0.000000000000000000e+00 0.000000000000000000e+00 -1.000000000000000000e+00
3.249761591261720040e-01 -2.098534300165427399e-02 -5.621204105119989025e-01 0.000000000000000000e+00 0.000000000000000000e+00 -1.000000000000000000e+00
3.979738957263330157e-01 1.103105652632900696e-01 -5.677640553413265678e-01 0.000000000000000000e+00 0.000000000000000000e+00 -1.000000000000000000e+00
-2.928827744158257751e-01 5.570478931056407346e-01 -1.282559824687750094e-01 0.000000000000000000e+00 1.000000000000000000e+00 0.000000000000000000e+00
-3.855614986572342695e-01 5.623121751949444747e-01 4.267406568900773689e-02 0.000000000000000000e+00 1.000000000000000000e+00 0.000000000000000000e+00
-3.886210663498873563e-01 5.525470343866286660e-01 -1.288025769836596557e-01 0.000000000000000000e+00 1.000000000000000000e+00 0.000000000000000000e+00
-3.429179173459398489e-01 5.505390401818421875e-01 -1.995828033861329343e-01 0.000000000000000000e+00 1.000000000000000000e+00 0.000000000000000000e+00
-4.343814004466839407e-01 5.672377437123446997e-01 1.020777181435667813e-01 0.000000000000000000e+00 1.000000000000000000e+00 0.000000000000000000e+00
-4.841759648341056321e-01 5.683267227716725101e-01 1.563085493477946175e-01 0.000000000000000000e+00 1.000000000000000000e+00 0.000000000000000000e+00
-4.574178729564564727e-01 5.554055896156578909e-01 1.492860983927068175e-01 0.000000000000000000e+00 1.000000000000000000e+00 0.000000000000000000e+00
5.600166669521189355e-01 -2.294479963022037217e-01 -5.656117628199107683e-01 0.000000000000000000e+00 0.000000000000000000e+00 -1.000000000000000000e+00
5.662284992147738061e-01 -1.826475782653349811e-01 -5.129342594092159979e-01 1.000000000000000000e+00 0.000000000000000000e+00 0.000000000000000000e+00
4.512933958424760195e-01 -4.223114539110408433e-02 -5.582501738878651310e-01 0.000000000000000000e+00 0.000000000000000000e+00 -1.000000000000000000e+00
5.645860268541579297e-01 -4.296302201822740224e-02 -3.613710216261375452e-01 1.000000000000000000e+00 0.000000000000000000e+00 0.000000000000000000e+00
5.562693702565418841e-01 -8.214400146724785967e-02 -3.599537338336427639e-01 1.000000000000000000e+00 0.000000000000000000e+00 0.000000000000000000e+00
3.270762193410930441e-01 2.518413880504841162e-01 -5.676541924973369513e-01 0.000000000000000000e+00 0.000000000000000000e+00 -1.000000000000000000e+00
3.217781570410918612e-01 2.232832644738439731e-01 -5.681238258347917069e-01 0.000000000000000000e+00 0.000000000000000000e+00 -1.000000000000000000e+00
3.357942754912908168e-01 2.048087536408605969e-01 -5.666678922593930690e-01 0.000000000000000000e+00 0.000000000000000000e+00 -1.000000000000000000e+00
5.492677113899486763e-01 1.746637090651714519e-01 -5.701394230787140138e-01 0.000000000000000000e+00 0.000000000000000000e+00 -1.000000000000000000e+00
4.500943149512855457e-01 2.777664575986673462e-02 -5.638576653589101317e-01 0.000000000000000000e+00 0.000000000000000000e+00 -1.000000000000000000e+00
5.501851299512815485e-01 3.101628386369211232e-01 -1.050447688700113097e-01 1.000000000000000000e+00 0.000000000000000000e+00 0.000000000000000000e+00
5.705129362587765263e-01 3.930815940296804589e-01 -1.189451812816444687e-01 1.000000000000000000e+00 0.000000000000000000e+00 0.000000000000000000e+00
5.600475659911463566e-01 3.359867937968900042e-01 -2.142856367462920297e-01 1.000000000000000000e+00 0.000000000000000000e+00 0.000000000000000000e+00
5.622952704763739540e-01 4.372123923177626548e-01 1.098128041613780637e-01 1.000000000000000000e+00 0.000000000000000000e+00 0.000000000000000000e+00
5.628354241503356059e-01 5.037211451554723940e-01 1.778350530684930653e-01 1.000000000000000000e+00 0.000000000000000000e+00 0.000000000000000000e+00
-1.552446362174930983e-01 2.660965595173757636e-01 -5.618306882181075546e-01 0.000000000000000000e+00 0.000000000000000000e+00 -1.000000000000000000e+00
-2.178891894074213575e-01 1.535508472258030332e-01 -5.631499947124217753e-01 0.000000000000000000e+00 0.000000000000000000e+00 -1.000000000000000000e+00
-2.331970039662124294e-01 1.698623958076755092e-01 -5.644590448385723436e-01 0.000000000000000000e+00 0.000000000000000000e+00 -1.000000000000000000e+00
-2.655413250618973361e-02 2.261555231711924741e-01 -5.765914198882573505e-01 0.000000000000000000e+00 0.000000000000000000e+00 -1.000000000000000000e+00
-2.369619829315631476e-01 1.052103552117949203e-01 -5.666243673328926755e-01 0.000000000000000000e+00 0.000000000000000000e+00 -1.000000000000000000e+00
-2.384081541342838451e-01 5.276664525483919232e-02 -5.616755134856704634e-01 0.000000000000000000e+00 0.000000000000000000e+00 -1.000000000000000000e+00
1.064578872699716433e-01 5.280282543453559269e-02 -5.591177418589039494e-01 0.000000000000000000e+00 0.000000000000000000e+00 -1.000000000000000000e+00
1.487750605230224732e-01 2.843511217091802476e-02 -5.692221271130599725e-01 0.000000000000000000e+00 0.000000000000000000e+00 -1.000000000000000000e+00
1.639827795958773426e-01 7.519025069539558501e-03 -5.729007747788062987e-01 0.000000000000000000e+00 0.000000000000000000e+00 -1.000000000000000000e+00
-7.909386135341726909e-02 1.380556259932790297e-01 -5.625272402208840727e-01 0.000000000000000000e+00 0.000000000000000000e+00 -1.000000000000000000e+00
-9.319331435238792372e-02 1.126066873071937674e-01 -5.650875294891879452e-01 0.000000000000000000e+00 0.000000000000000000e+00 -1.000000000000000000e+00
-3.675879591615656417e-02 -4.073237202949623326e-01 -5.647976225261172045e-01 0.000000000000000000e+00 0.000000000000000000e+00 -1.000000000000000000e+00
-3.644144853671629075e-02 -3.423818264053754001e-01 -5.677532655416582807e-01 0.000000000000000000e+00 0.000000000000000000e+00 -1.000000000000000000e+00
-2.399105449094249554e-01 -4.478921014637890496e-01 -5.634997764220173178e-01 0.000000000000000000e+00 0.000000000000000000e+00 -1.000000000000000000e+00
-2.334980377093682224e-01 -4.678143118863018479e-01 -5.714446018787031623e-01 0.000000000000000000e+00 0.000000000000000000e+00 -1.000000000000000000e+00
-2.279971909049592904e-01 -5.720963478183788142e-01 -5.627734836864199952e-01 0.000000000000000000e+00 0.000000000000000000e+00 -1.000000000000000000e+00
-1.044429709837612075e-01 -5.019815950109611791e-01 -5.735292959941635793e-01 0.000000000000000000e+00 0.000000000000000000e+00 -1.000000000000000000e+00
-2.066307548300977404e-01 -4.335804191762081539e-01 -5.689357825093712684e-01 0.000000000000000000e+00 0.000000000000000000e+00 -1.000000000000000000e+00
-1.022884455465005171e-01 -5.621282322190552794e-01 -4.470788227222439182e-01 0.000000000000000000e+00 -1.000000000000000000e+00 0.000000000000000000e+00
-5.396497468430260652e-02 -5.725072662627399556e-01 -3.748858996499925822e-01 0.000000000000000000e+00 -1.000000000000000000e+00 0.000000000000000000e+00
1.049658227296844659e-01 -4.167682831627945728e-01 -5.643612580158341441e-01 0.000000000000000000e+00 0.000000000000000000e+00 -1.000000000000000000e+00
4.152167719984835650e-03 -3.383137678365116807e-01 -5.770221064232629038e-01 0.000000000000000000e+00 0.000000000000000000e+00 -1.000000000000000000e+00
-2.562587031051367231e-02 -3.173330367883822611e-01 -5.616698246708828890e-01 0.000000000000000000e+00 0.000000000000000000e+00 -1.000000000000000000e+00
1.095135934030345565e-01 -5.312112667251434051e-01 -5.621559462698906273e-01 0.000000000000000000e+00 0.000000000000000000e+00 -1.000000000000000000e+00
1.170287476246267555e-01 -4.949430720936750516e-01 -5.638587094579257109e-01 0.000000000000000000e+00 0.000000000000000000e+00 -1.000000000000000000e+00
1.990155786076817646e-01 -5.353112980131864429e-01 -5.716243041073864051e-01 0.000000000000000000e+00 0.000000000000000000e+00 -1.000000000000000000e+00
-1.080192200884668163e-01 -3.965291437128430907e-01 -5.714539256328711181e-01 0.000000000000000000e+00 0.000000000000000000e+00 -1.000000000000000000e+00
-1.036383583425155713e-01 -4.315067717205298137e-01 -5.698473815993604363e-01 0.000000000000000000e+00 0.000000000000000000e+00 -1.000000000000000000e+00
2.876271251065098400e-01 -5.581552099214248663e-01 -1.126305235036981767e-01 0.000000000000000000e+00 -1.000000000000000000e+00 0.000000000000000000e+00
4.178607302233944831e-01 -5.719527981048823095e-01 -1.171100139135911045e-01 0.000000000000000000e+00 -1.000000000000000000e+00 0.000000000000000000e+00
3.855910745250177296e-01 -5.728049296820915126e-01 -1.403649252054171848e-01 0.000000000000000000e+00 -1.000000000000000000e+00 0.000000000000000000e+00
3.435681665691233677e-01 -5.644281817956996461e-01 -1.953255064641385708e-01 0.000000000000000000e+00 -1.000000000000000000e+00 0.000000000000000000e+00
3.502366626959962370e-01 -5.723194113644468617e-01 -2.220316032559842279e-01 0.000000000000000000e+00 -1.000000000000000000e+00 0.000000000000000000e+00
4.355641592453347033e-01 -5.685579924131199947e-01 9.689842398747827712e-02 0.000000000000000000e+00 -1.000000000000000000e+00 0.000000000000000000e+00
4.780355603772653006e-01 -5.634235317921320041e-01 1.420702268487206432e-01 0.000000000000000000e+00 -1.000000000000000000e+00 0.000000000000000000e+00
-4.402852134745574575e-01 1.407757960700341260e-01 -5.720458839340976098e-01 0.000000000000000000e+00 0.000000000000000000e+00 -1.000000000000000000e+00
-4.370391493564971253e-01 4.063548384699589011e-02 -5.613707148052872187e-01 0.000000000000000000e+00 0.000000000000000000e+00 -1.000000000000000000e+00
-3.518056473697587783e-01 1.192225111541161953e-02 -5.678184238002900175e-01 0.000000000000000000e+00 0.000000000000000000e+00 -1.000000000000000000e+00
-5.643887501776772009e-01 1.031812780386461570e-01 -4.412588600445226938e-01 -1.000000000000000000e+00 0.000000000000000000e+00 0.000000000000000000e+00
-5.622600513777805675e-01 5.670404700134742265e-02 -3.702998943820638988e-01 -1.000000000000000000e+00 0.000000000000000000e+00 0.000000000000000000e+00
-3.159379356264657712e-01 -8.670793300620857624e-03 -5.640194877378590377e-01 0.000000000000000000e+00 0.000000000000000000e+00 -1.000000000000000000e+00
-2.871910930521067162e-01 -3.995811197455804986e-02 -5.763733463719026284e-01 0.000000000000000000e+00 0.000000000000000000e+00 -1.000000000000000000e+00
-3.865218805797269175e-01 -1.503339248881079837e-01 -5.680253972696883702e-01 0.000000000000000000e+00 0.000000000000000000e+00 -1.000000000000000000e+00
-5.313292951747653481e-01 1.032667110274256145e-01 -5.660951465379091552e-01 0.000000000000000000e+00 0.000000000000000000e+00 -1.000000000000000000e+00
-5.526588325317302042e-01 -2.810806128882589183e-01 -1.349402101496359196e-01 -1.000000000000000000e+00 0.000000000000000000e+00 0.000000000000000000e+00
-5.430026882448037995e-01 -4.106212184391613285e-01 -1.228719121884513377e-01 -1.000000000000000000e+00 0.000000000000000000e+00 0.000000000000000000e+00
-5.576537247379217410e-01 -3.307189298012444545e-01 -2.112543539813394045e-01 -1.000000000000000000e+00 0.000000000000000000e+00 0.000000000000000000e+00
-5.690251597056980026e-01 -3.576440552603944445e-01 -1.947992100771694934e-01 -1.000000000000000000e+00 0.000000000000000000e+00 0.000000000000000000e+00
-5.583735272784922099e-01 -4.458164450194836426e-01 1.019285168354111676e-01 -1.000000000000000000e+00 0.000000000000000000e+00 0.000000000000000000e+00
2.630032123622217388e-01 5.633075089904598931e-01 4.395189826350108242e-01 0.000000000000000000e+00 1.000000000000000000e+00 0.000000000000000000e+00
1.729236645824076546e-01 5.544509175916758625e-01 4.182490545327827158e-01 0.000000000000000000e+00 1.000000000000000000e+00 0.000000000000000000e+00
3.475288859693858035e-01 5.556114158836230610e-01 -2.348360923255801008e-02 0.000000000000000000e+00 1.000000000000000000e+00 0.000000000000000000e+00
3.564780328682632393e-01 5.568670705747269523e-01 1.840504050252220192e-01 0.000000000000000000e+00 1.000000000000000000e+00 0.000000000000000000e+00
4.682957050738370541e-01 5.512360510148522907e-01 -1.543157417093314610e-01 0.000000000000000000e+00 1.000000000000000000e+00 0.000000000000000000e+00
5.493294233380637825e-01 5.511141303297030225e-01 -2.356006339334976718e-01 0.000000000000000000e+00 1.000000000000000000e+00 0.000000000000000000e+00
4.833732401061903716e-01 5.591018016308624272e-01 -5.444173154949008553e-02 0.000000000000000000e+00 1.000000000000000000e+00 0.000000000000000000e+00
4.464977417506298396e-01 5.532094694146874048e-01 -8.068231281394148968e-02 0.000000000000000000e+00 1.000000000000000000e+00 0.000000000000000000e+00
5.590345271991826737e-01 4.372554775906000724e-01 -2.258889256770392207e-01 1.000000000000000000e+00 0.000000000000000000e+00 0.000000000000000000e+00
5.561290274241099674e-01 4.130890610378072925e-01 -2.429743405766230102e-01 1.000000000000000000e+00 0.000000000000000000e+00 0.000000000000000000e+00
3.277026384846778440e-01 5.631750134541373409e-01 2.476006148018733977e-01 0.000000000000000000e+00 1.000000000000000000e+00 0.000000000000000000e+00
5.159417561206347536e-01 5.525562677951996182e-01 1.570657291786583254e-01 0.000000000000000000e+00 1.000000000000000000e+00 0.000000000000000000e+00
5.244273264933111411e-01 5.612439815678479382e-01 1.736629021997602718e-01 0.000000000000000000e+00 1.000000000000000000e+00 0.000000000000000000e+00
4.055975014598818262e-01 5.546016836394872529e-01 5.442702750486102387e-02 0.000000000000000000e+00 1.000000000000000000e+00 0.000000000000000000e+00
4.516749780562937522e-01 5.519715111409403407e-01 7.785088394264578354e-03 0.000000000000000000e+00 1.000000000000000000e+00 0.000000000000000000e+00
5.576472728945995883e-01 5.208263381925990476e-01 -1.213476958421118301e-01 1.000000000000000000e+00 0.000000000000000000e+00 0.000000000000000000e+00
5.571241841703654663e-01 5.011996684522789236e-01 -1.482722204465569127e-01 1.000000000000000000e+00 0.000000000000000000e+00 0.000000000000000000e+00
5.622214830887480863e-01 4.501741167742613348e-01 -8.658029611748472437e-03 1.000000000000000000e+00 0.000000000000000000e+00 0.000000000000000000e+00
-2.420387874634664094e-01 5.637532523717252442e-01 2.127814904417817676e-01 0.000000000000000000e+00 1.000000000000000000e+00 0.000000000000000000e+00
-4.330921846995188645e-02 5.520472182411513273e-01 1.522801942586414214e-01 0.000000000000000000e+00 1.000000000000000000e+00 0.000000000000000000e+00
-2.618229735377827216e-01 5.531226064407288590e-01 4.719094502453299173e-02 0.000000000000000000e+00 1.000000000000000000e+00 0.000000000000000000e+00
-1.786887427102037615e-02 5.475799680630596411e-01 2.167961125787168930e-01 0.000000000000000000e+00 1.000000000000000000e+00 0.000000000000000000e+00
1.176664645532443099e-01 5.581442906492657396e-01 4.988758187680136791e-02 0.000000000000000000e+00 1.000000000000000000e+00 0.000000000000000000e+00
-8.425055420422190855e-02 5.687006172277475624e-01 1.354520404721556437e-01 0.000000000000000000e+00 1.000000000000000000e+00 0.000000000000000000e+00
-9.591360991174134598e-02 5.516125360039835224e-01 1.599617770577803078e-01 0.000000000000000000e+00 1.000000000000000000e+00 0.000000000000000000e+00
-9.558602581971806234e-02 5.579424244389457055e-01 1.162936774403665885e-01 0.000000000000000000e+00 1.000000000000000000e+00 0.000000000000000000e+00
-1.799736455327151721e-02 5.610101228381025873e-01 -2.409263459566708954e-01 0.000000000000000000e+00 1.000000000000000000e+00 0.000000000000000000e+00
5.205971891482009083e-03 5.666725156008511899e-01 -2.386686740572757093e-01 0.000000000000000000e+00 1.000000000000000000e+00 0.000000000000000000e+00
2.707663399816989669e-02 5.601038018065461754e-01 -2.382413153470588074e-01 0.000000000000000000e+00 1.000000000000000000e+00 0.000000000000000000e+00
-1.345657300334592854e-01 5.632926580583107468e-01 -4.074892428850562798e-02 0.000000000000000000e+00 1.000000000000000000e+00 0.000000000000000000e+00
-1.099008855413373814e-01 5.542285851265591479e-01 -5.805432135933305537e-02 0.000000000000000000e+00 1.000000000000000000e+00 0.000000000000000000e+00
2.006044033875733767e-01 5.492434076355267036e-01 -2.639706709163093801e-01 0.000000000000000000e+00 1.000000000000000000e+00 0.000000000000000000e+00
-4.798041805216088918e-01 5.573110078294488678e-01 3.387701695971438720e-02 0.000000000000000000e+00 1.000000000000000000e+00 0.000000000000000000e+00
-4.476229363433282260e-01 5.628837609359267358e-01 9.683557028320603777e-02 0.000000000000000000e+00 1.000000000000000000e+00 0.000000000000000000e+00
-5.418542428567144631e-01 4.383064542011346210e-01 2.070076837547933091e-01 -1.000000000000000000e+00 0.000000000000000000e+00 0.000000000000000000e+00
-5.634065477936432975e-01 3.685766276861662805e-01 2.442586839920933006e-01 -1.000000000000000000e+00 0.000000000000000000e+00 0.000000000000000000e+00
-4.083753880929377189e-01 5.623944759279099204e-01 -2.820031485921324910e-01 0.000000000000000000e+00 1.000000000000000000e+00 0.000000000000000000e+00
-3.300557048292638851e-01 5.594985438132873412e-01 -2.191319122958034493e-01 0.000000000000000000e+00 1.000000000000000000e+00 0.000000000000000000e+00
-5.583203153091992332e-01 5.446018537305976626e-01 -2.183664608906361049e-01 0.000000000000000000e+00 1.000000000000000000e+00 0.000000000000000000e+00
-5.409108111426562671e-01 5.573027544129665056e-01 -2.288694524834251620e-01 0.000000000000000000e+00 1.000000000000000000e+00 0.000000000000000000e+00
-3.939281014778696077e-01 5.586579361375202391e-01 -7.310537728361014842e-02 0.000000000000000000e+00 1.000000000000000000e+00 0.000000000000000000e+00
-4.491126413983575483e-01 5.479910335411343203e-01 -2.130505635295897385e-02 0.000000000000000000e+00 1.000000000000000000e+00 0.000000000000000000e+00
-5.586638625971256378e-01 9.644062499198730043e-02 4.115766858396772976e-02 -1.000000000000000000e+00 0.000000000000000000e+00 0.000000000000000000e+00
-5.575538833716756626e-01 1.880201838759740784e-01 2.946367176042810967e-02 -1.000000000000000000e+00 0.000000000000000000e+00 0.000000000000000000e+00
-5.569906305526242107e-01 -1.091702089816411481e-01 2.228876760791075606e-01 -1.000000000000000000e+00 0.000000000000000000e+00 0.000000000000000000e+00
-5.611520708357097265e-01 -1.933384071865807130e-01 2.444636657376291211e-01 -1.000000000000000000e+00 0.000000000000000000e+00 0.000000000000000000e+00
5.597475621585638050e-01 -4.990765121214059685e-01 2.230071462395785964e-01 1.000000000000000000e+00 0.000000000000000000e+00 0.000000000000000000e+00
4.910966452670466609e-01 -5.571204487351393286e-01 3.078725915517300377e-02 0.000000000000000000e+00 -1.000000000000000000e+00 0.000000000000000000e+00
4.374171531967659399e-01 -5.630689747731472128e-01 6.473735833532678896e-02 0.000000000000000000e+00 -1.000000000000000000e+00 0.000000000000000000e+00
4.164711332222183482e-01 -5.545332002577820774e-01 -2.706401987749117444e-01 0.000000000000000000e+00 -1.000000000000000000e+00 0.000000000000000000e+00
5.145165786987722090e-01 -5.611395246018890948e-01 -1.505131797655876180e-01 0.000000000000000000e+00 -1.000000000000000000e+00 0.000000000000000000e+00
5.382622424999371491e-01 -5.605344407792480776e-01 -2.563970648119365814e-01 0.000000000000000000e+00 -1.000000000000000000e+00 0.000000000000000000e+00
4.122353408483053760e-01 -5.648414128965912884e-01 -5.580959830095224422e-02 0.000000000000000000e+00 -1.000000000000000000e+00 0.000000000000000000e+00
4.444655717236226100e-01 -5.664103474397677029e-01 -2.718701492875970349e-02 0.000000000000000000e+00 -1.000000000000000000e+00 0.000000000000000000e+00
5.653926016865171711e-01 7.114547344090336664e-03 2.237681400870381865e-01 1.000000000000000000e+00 0.000000000000000000e+00 0.000000000000000000e+00
5.540793734475294441e-01 1.826205585861669367e-01 2.357830698024482863e-01 1.000000000000000000e+00 0.000000000000000000e+00 0.000000000000000000e+00
-1.351638056671981003e-01 -5.634841047374430367e-01 -2.568674373700570723e-01 0.000000000000000000e+00 -1.000000000000000000e+00 0.000000000000000000e+00
-1.603961904864311117e-01 -5.601962715444565033e-01 -2.857984713630892237e-01 0.000000000000000000e+00 -1.000000000000000000e+00 0.000000000000000000e+00
-3.372127484603123365e-02 -5.653204016973231161e-01 -1.819595076071015838e-01 0.000000000000000000e+00 -1.000000000000000000e+00 0.000000000000000000e+00
-4.297371464838441874e-02 -5.601932180468862654e-01 -1.569981228629448722e-01 0.000000000000000000e+00 -1.000000000000000000e+00 0.000000000000000000e+00
-2.620188282782571210e-01 -5.659065794105999636e-01 -7.240238080100348805e-02 0.000000000000000000e+00 -1.000000000000000000e+00 0.000000000000000000e+00
1.705951777797988381e-03 -5.603282705252070617e-01 -2.458123931943250184e-01 0.000000000000000000e+00 -1.000000000000000000e+00 0.000000000000000000e+00
-2.183537456966564566e-05 -5.641232710774467529e-01 -2.182853781242901636e-01 0.000000000000000000e+00 -1.000000000000000000e+00 0.000000000000000000e+00
1.617303577420826921e-01 -5.603770157214531533e-01 -3.222185023251669667e-02 0.000000000000000000e+00 -1.000000000000000000e+00 0.000000000000000000e+00
-1.037647241505448570e-01 -5.604406539081133731e-01 -1.837029086620845242e-01 0.000000000000000000e+00 -1.000000000000000000e+00 0.000000000000000000e+00
-7.596410198835043537e-02 -5.618217618717240569e-01 -1.124114889141222678e-01 0.000000000000000000e+00 -1.000000000000000000e+00 0.000000000000000000e+00
-2.297927271285224449e-01 -5.577913768085153157e-01 3.243297397812325844e-01 0.000000000000000000e+00 -1.000000000000000000e+00 0.000000000000000000e+00
-4.185588803179456086e-02 -5.513076053004196675e-01 3.913641128326715846e-01 0.000000000000000000e+00 -1.000000000000000000e+00 0.000000000000000000e+00
-2.026355863571956475e-02 -5.662330669437116715e-01 3.380778755041539130e-01 0.000000000000000000e+00 -1.000000000000000000e+00 0.000000000000000000e+00
-2.412839665228911912e-01 -5.685764933951371614e-01 4.321694984784880122e-01 0.000000000000000000e+00 -1.000000000000000000e+00 0.000000000000000000e+00
-2.298558342832863755e-01 -5.582400523764623479e-01 4.685113399970904369e-01 0.000000000000000000e+00 -1.000000000000000000e+00 0.000000000000000000e+00
-2.197101383411932951e-01 -5.638516662139209101e-01 5.507937527977880832e-01 0.000000000000000000e+00 -1.000000000000000000e+00 0.000000000000000000e+00
-1.299594016461989299e-01 -5.696216664318636269e-01 4.622723431224298740e-01 0.000000000000000000e+00 -1.000000000000000000e+00 0.000000000000000000e+00
-1.974285598674527797e-01 -5.659563767859909778e-01 4.483181508044253305e-01 0.000000000000000000e+00 -1.000000000000000000e+00 0.000000000000000000e+00
-1.832102228419195400e-02 -5.597562191476550542e-01 3.125808263516147156e-01 0.000000000000000000e+00 -1.000000000000000000e+00 0.000000000000000000e+00
1.162578354238175959e-01 -5.507416751918176034e-01 4.974475181789151934e-01 0.000000000000000000e+00 -1.000000000000000000e+00 0.000000000000000000e+00
2.017267228450182470e-01 -5.533162093448495966e-01 5.367969497825046954e-01 0.000000000000000000e+00 -1.000000000000000000e+00 0.000000000000000000e+00
-1.008544254795445544e-01 -5.554147389506193244e-01 3.947814437084780081e-01 0.000000000000000000e+00 -1.000000000000000000e+00 0.000000000000000000e+00
-1.005198603409945685e-01 -5.663333830988145356e-01 4.400982111627114723e-01 0.000000000000000000e+00 -1.000000000000000000e+00 0.000000000000000000e+00
-4.407604136774139203e-01 -5.611580456454421384e-01 -1.688777839217879273e-01 0.000000000000000000e+00 -1.000000000000000000e+00 0.000000000000000000e+00
-5.589154429543161662e-01 -5.572879309595983877e-01 -2.263161069135352088e-01 -1.000000000000000000e+00 0.000000000000000000e+00 0.000000000000000000e+00
-4.516176858522137905e-01 -5.499489541148830929e-01 -5.899824318715957139e-02 0.000000000000000000e+00 -1.000000000000000000e+00 0.000000000000000000e+00
-4.277424481789471322e-01 -5.650457778966696543e-01 -4.444933933024537709e-02 0.000000000000000000e+00 -1.000000000000000000e+00 0.000000000000000000e+00
-5.600678142528537906e-01 -4.146376055456638676e-01 -2.440944470780313513e-01 -1.000000000000000000e+00 0.000000000000000000e+00 0.000000000000000000e+00
-3.172043112697628398e-01 -5.605708037931239618e-01 1.881986401900093142e-02 0.000000000000000000e+00 -1.000000000000000000e+00 0.000000000000000000e+00
-3.528487222502023624e-01 -5.624755079777984390e-01 -9.152968587975452222e-03 0.000000000000000000e+00 -1.000000000000000000e+00 0.000000000000000000e+00
-3.342274815454385206e-01 -5.603232738908496824e-01 -7.013057633375309290e-03 0.000000000000000000e+00 -1.000000000000000000e+00 0.000000000000000000e+00
-3.836445613880793415e-01 -5.658182186810664094e-01 1.075059016791230365e-01 0.000000000000000000e+00 -1.000000000000000000e+00 0.000000000000000000e+00
-4.993686200053170099e-01 -5.676407702174220971e-01 -1.066756287202952347e-01 0.000000000000000000e+00 -1.000000000000000000e+00 0.000000000000000000e+00
-5.316669082310693240e-01 -5.576914994139043902e-01 -8.533565430489437054e-02 0.000000000000000000e+00 -1.000000000000000000e+00 0.000000000000000000e+00
-5.596210732880442240e-01 -3.386375948139787040e-01 -2.464611503939523884e-01 -1.000000000000000000e+00 0.000000000000000000e+00 0.000000000000000000e+00
-5.594624651596906695e-01 -5.178911130162873189e-01 -1.472388055607166402e-01 -1.000000000000000000e+00 0.000000000000000000e+00 0.000000000000000000e+00
-5.701481090450775113e-01 -4.889400964845893593e-01 -1.852756170604442643e-01 -1.000000000000000000e+00 0.000000000000000000e+00 0.000000000000000000e+00
-5.595035119402502755e-01 -4.484405760210934955e-01 -2.111105888854380719e-01 -1.000000000000000000e+00 0.000000000000000000e+00 0.000000000000000000e+00
-5.666857274372667508e-01 -4.170354128354621381e-01 -8.564843540200996197e-02 -1.000000000000000000e+00 0.000000000000000000e+00 0.000000000000000000e+00
-5.618264050940126042e-01 -4.488181474747796051e-01 -1.957040854185733772e-02 -1.000000000000000000e+00 0.000000000000000000e+00 0.000000000000000000e+00
-5.553315073512463673e-01 -4.309512186917731080e-01 -4.062775535518030334e-02 -1.000000000000000000e+00 0.000000000000000000e+00 0.000000000000000000e+00
5.592988342162978910e-01 -1.577768585581378891e-01 -2.821763426624551152e-01 1.000000000000000000e+00 0.000000000000000000e+00 0.000000000000000000e+00
5.687912872297956612e-01 -2.282595065300927761e-01 -2.161160552767334431e-01 1.000000000000000000e+00 0.000000000000000000e+00 0.000000000000000000e+00
5.643535499623346663e-01 -4.396673077450911904e-02 -1.613176659987183847e-01 1.000000000000000000e+00 0.000000000000000000e+00 0.000000000000000000e+00
5.644029832011472347e-01 -2.280920028388173648e-01 -1.169208854120847713e-01 1.000000000000000000e+00 0.000000000000000000e+00 0.000000000000000000e+00
5.604455380386900165e-01 -2.440109842044385358e-01 -1.009528238529832367e-01 1.000000000000000000e+00 0.000000000000000000e+00 0.000000000000000000e+00
5.645023443351562253e-01 -2.600043953284239887e-02 -2.542794709780020201e-01 1.000000000000000000e+00 0.000000000000000000e+00 0.000000000000000000e+00
5.698047257437512947e-01 1.029280806441246338e-01 -5.466132263118741313e-02 1.000000000000000000e+00 0.000000000000000000e+00 0.000000000000000000e+00
5.664838851817437515e-01 1.738292042553011008e-01 -2.443997724600662294e-02 1.000000000000000000e+00 0.000000000000000000e+00 0.000000000000000000e+00
5.612062640597363927e-01 1.595126730284342764e-01 -3.367282871756482193e-02 1.000000000000000000e+00 0.000000000000000000e+00 0.000000000000000000e+00
5.677789329796196771e-01 -8.876549574558226241e-02 -1.626303822974496660e-01 1.000000000000000000e+00 0.000000000000000000e+00 0.000000000000000000e+00
5.549759907709003182e-01 -1.023843294699504497e-01 -1.222564497768125896e-01 1.000000000000000000e+00 0.000000000000000000e+00 0.000000000000000000e+00
5.635931222743129076e-01 -2.377865384600382215e-01 -1.999219128522780262e-02 1.000000000000000000e+00 0.000000000000000000e+00 0.000000000000000000e+00
5.688865173897503791e-01 -2.039611154189786557e-01 2.813511498455621360e-02 1.000000000000000000e+00 0.000000000000000000e+00 0.000000000000000000e+00
5.526214699500286986e-01 -2.235124347490830832e-01 -4.472711057905017461e-04 1.000000000000000000e+00 0.000000000000000000e+00 0.000000000000000000e+00
5.477310690272905180e-01 -1.845041302653565030e-01 -1.218030497285524233e-01 1.000000000000000000e+00 0.000000000000000000e+00 0.000000000000000000e+00
5.615601521176165623e-01 -2.170630672124959637e-01 -1.441039988285502949e-01 1.000000000000000000e+00 0.000000000000000000e+00 0.000000000000000000e+00
5.585770388507981243e-01 -2.826342271186949584e-01 4.337499543993316165e-01 1.000000000000000000e+00 0.000000000000000000e+00 0.000000000000000000e+00
5.678304073668588581e-01 -2.233572988731350462e-01 2.993874492394207887e-01 1.000000000000000000e+00 0.000000000000000000e+00 0.000000000000000000e+00
5.484583790455231922e-01 -2.489041441418453904e-01 3.055363703277402254e-01 1.000000000000000000e+00 0.000000000000000000e+00 0.000000000000000000e+00
5.623444080945215751e-01 -2.209381432108455112e-01 3.350455141922250579e-01 1.000000000000000000e+00 0.000000000000000000e+00 0.000000000000000000e+00
5.687760437098231536e-01 -1.495730271695445701e-01 4.997228943905818732e-01 1.000000000000000000e+00 0.000000000000000000e+00 0.000000000000000000e+00
5.627728449457207738e-01 -1.238444388561851933e-01 5.325455022797493942e-01 1.000000000000000000e+00 0.000000000000000000e+00 0.000000000000000000e+00
-5.529284256389247476e-01 2.264496696236024398e-01 -2.206144021270417255e-01 -1.000000000000000000e+00 0.000000000000000000e+00 0.000000000000000000e+00
-5.596877222354899040e-01 4.675794946999945086e-03 -2.207154984561436328e-01 -1.000000000000000000e+00 0.000000000000000000e+00 0.000000000000000000e+00
-5.596989806312783200e-01 2.223470926015182203e-01 -1.168375864551615267e-01 -1.000000000000000000e+00 0.000000000000000000e+00 0.000000000000000000e+00
-5.565085194638459409e-01 2.320958955159944659e-01 -8.799862711619453604e-02 -1.000000000000000000e+00 0.000000000000000000e+00 0.000000000000000000e+00
-5.660563148591837290e-01 -1.360996706151887392e-02 -2.427356783390667294e-01 -1.000000000000000000e+00 0.000000000000000000e+00 0.000000000000000000e+00
-5.623203235310407777e-01 -3.245401326661107033e-02 -2.507080717667834469e-01 -1.000000000000000000e+00 0.000000000000000000e+00 0.000000000000000000e+00
-5.540027570215811936e-01 2.699019675471552721e-02 -2.434240710714574429e-01 -1.000000000000000000e+00 0.000000000000000000e+00 0.000000000000000000e+00
-5.584630044533293036e-01 -1.613160773768207157e-01 -3.112550357896600242e-02 -1.000000000000000000e+00 0.000000000000000000e+00 0.000000000000000000e+00
-5.544421500347949117e-01 9.117697273194490248e-02 -1.628961840106160630e-01 -1.000000000000000000e+00 0.000000000000000000e+00 0.000000000000000000e+00
-5.673033826388831358e-01 8.015929183264745850e-02 -1.130445185095837607e-01 -1.000000000000000000e+00 0.000000000000000000e+00 0.000000000000000000e+00
-5.553041818829459464e-01 2.118830985388476806e-01 -9.875474962643810556e-03 -1.000000000000000000e+00 0.000000000000000000e+00 0.000000000000000000e+00
-5.554962904592590789e-01 2.013477285318389376e-01 8.819145137243878177e-03 -1.000000000000000000e+00 0.000000000000000000e+00 0.000000000000000000e+00
-5.616853545911151269e-01 2.408660279424316430e-01 -1.081516972378143357e-02 -1.000000000000000000e+00 0.000000000000000000e+00 0.000000000000000000e+00
-5.568034168837076026e-01 1.445888400225152637e-01 -1.087629787627868438e-01 -1.000000000000000000e+00 0.000000000000000000e+00 0.000000000000000000e+00
-5.668700908814943151e-01 1.157096226385442295e-01 -8.662408128539673957e-02 -1.000000000000000000e+00 0.000000000000000000e+00 0.000000000000000000e+00
-5.548749359456701669e-01 1.786522345707312887e-01 -1.164352821307210184e-01 -1.000000000000000000e+00 0.000000000000000000e+00 0.000000000000000000e+00
-5.662302016338945920e-01 1.894464668059992196e-01 -1.239858875508890595e-01 -1.000000000000000000e+00 0.000000000000000000e+00 0.000000000000000000e+00
-5.680236518187713468e-01 4.881450087127552073e-02 8.742481697726424417e-02 -1.000000000000000000e+00 0.000000000000000000e+00 0.000000000000000000e+00
-5.645669837556701598e-01 3.562314550508392103e-02 9.777955817090874802e-02 -1.000000000000000000e+00 0.000000000000000000e+00 0.000000000000000000e+00
-5.592001455840835966e-01 2.440435963006982734e-01 4.486024426839291812e-01 -1.000000000000000000e+00 0.000000000000000000e+00 0.000000000000000000e+00
-5.544249046165441452e-01 2.810724159323982896e-01 4.185913961118379323e-01 -1.000000000000000000e+00 0.000000000000000000e+00 0.000000000000000000e+00
-5.642505365340455548e-01 1.771837206078215043e-01 4.226044306340253076e-01 -1.000000000000000000e+00 0.000000000000000000e+00 0.000000000000000000e+00
-5.552624911664102436e-01 1.599081304629790257e-01 4.481849728336665950e-01 -1.000000000000000000e+00 0.000000000000000000e+00 0.000000000000000000e+00
-5.652304698196216615e-01 2.122976775061890253e-01 3.370279278005887669e-01 -1.000000000000000000e+00 0.000000000000000000e+00 0.000000000000000000e+00
-5.648784672051667677e-01 2.092855622132472893e-01 3.749571263480042105e-01 -1.000000000000000000e+00 0.000000000000000000e+00 0.000000000000000000e+00
-5.571263247767072047e-01 2.394843142399643576e-01 2.911051140035078588e-01 -1.000000000000000000e+00 0.000000000000000000e+00 0.000000000000000000e+00
-5.590333026397107385e-01 2.371795881557583752e-01 3.204275438742097415e-01 -1.000000000000000000e+00 0.000000000000000000e+00 0.000000000000000000e+00
-5.645909859202655756e-01 4.082217469978430269e-02 3.890637025110665892e-01 -1.000000000000000000e+00 0.000000000000000000e+00 0.000000000000000000e+00
-5.661348828967202040e-01 1.958321135083700842e-02 3.827873062501419565e-01 -1.000000000000000000e+00 0.000000000000000000e+00 0.000000000000000000e+00
-5.522867217893087100e-01 1.042412935840800331e-01 5.371901142305314236e-01 -1.000000000000000000e+00 0.000000000000000000e+00 0.000000000000000000e+00
-8.345317636956936513e-03 4.560682099307868942e-01 -5.605286665732608364e-01 0.000000000000000000e+00 0.000000000000000000e+00 -1.000000000000000000e+00
-1.065642731650140729e-01 5.620423254683523107e-01 -5.071169842612028855e-01 0.000000000000000000e+00 1.000000000000000000e+00 0.000000000000000000e+00
-1.245203367459745691e-01 4.505345761970226959e-01 -5.755534192797978621e-01 0.000000000000000000e+00 0.000000000000000000e+00 -1.000000000000000000e+00
-6.374837497041466183e-02 3.715954370779278038e-01 -5.721027417914938962e-01 0.000000000000000000e+00 0.000000000000000000e+00 -1.000000000000000000e+00
-1.765295707805230874e-01 5.548904363581486088e-01 -4.603485050133876988e-01 0.000000000000000000e+00 1.000000000000000000e+00 0.000000000000000000e+00
-1.800035015052767196e-01 5.605846484655904183e-01 -4.039615952991646997e-01 0.000000000000000000e+00 1.000000000000000000e+00 0.000000000000000000e+00
-2.758080379365167589e-01 3.060117096380342572e-01 -5.647081178099134791e-01 0.000000000000000000e+00 0.000000000000000000e+00 -1.000000000000000000e+00
-2.305727012808431453e-01 2.674097845875844648e-01 -5.684932883617711541e-01 0.000000000000000000e+00 0.000000000000000000e+00 -1.000000000000000000e+00
-1.619498400640050073e-01 3.775870322514763844e-01 -5.604432753077970286e-01 0.000000000000000000e+00 0.000000000000000000e+00 -1.000000000000000000e+00
-1.926725895176038816e-01 4.174482174648854182e-01 -5.693109501277031637e-01 0.000000000000000000e+00 0.000000000000000000e+00 -1.000000000000000000e+00
-7.214075962677721221e-02 1.710613849526566588e-01 -5.614475508964771322e-01 0.000000000000000000e+00 0.000000000000000000e+00 -1.000000000000000000e+00
-3.090380107941241294e-01 5.520171899820919270e-01 -3.156817767028148314e-01 0.000000000000000000e+00 1.000000000000000000e+00 0.000000000000000000e+00
-4.081536531898699027e-01 5.530655359038746388e-01 -3.896334120480551833e-01 0.000000000000000000e+00 1.000000000000000000e+00 0.000000000000000000e+00
-3.621062537886549637e-01 5.575346945586918679e-01 -4.322835981954804563e-01 0.000000000000000000e+00 1.000000000000000000e+00 0.000000000000000000e+00
-3.839324232845500173e-01 5.569483479671274440e-01 -1.896273506038161361e-01 0.000000000000000000e+00 1.000000000000000000e+00 0.000000000000000000e+00
-4.765177018942793885e-01 5.559253203891673101e-01 -1.740683995183885668e-01 0.000000000000000000e+00 1.000000000000000000e+00 0.000000000000000000e+00
5.684337684177355188e-01 1.060348107651146177e-01 -5.059549160011165281e-01 1.000000000000000000e+00 0.000000000000000000e+00 0.000000000000000000e+00
4.564470643783813952e-01 1.446343456344775513e-01 -5.635465008815438992e-01 0.000000000000000000e+00 0.000000000000000000e+00 -1.000000000000000000e+00
4.619428462588700546e-01 1.218207848162457668e-01 -5.628852753247913787e-01 0.000000000000000000e+00 0.000000000000000000e+00 -1.000000000000000000e+00
5.520089047790209813e-01 1.633013689264755097e-01 -4.323584365162522758e-01 1.000000000000000000e+00 0.000000000000000000e+00 0.000000000000000000e+00
2.913938749484831781e-01 5.233229459466555156e-01 -5.756508756142953986e-01 0.000000000000000000e+00 0.000000000000000000e+00 -1.000000000000000000e+00
2.335499038045985853e-01 5.334337229350437637e-01 -5.716957447909033485e-01 0.000000000000000000e+00 0.000000000000000000e+00 -1.000000000000000000e+00
3.973690269882188542e-01 3.313685203616162367e-01 -5.685008294494857672e-01 0.000000000000000000e+00 0.000000000000000000e+00 -1.000000000000000000e+00
4.259860170380075917e-01 3.384136880475402398e-01 -5.702927641690465066e-01 0.000000000000000000e+00 0.000000000000000000e+00 -1.000000000000000000e+00
1.879895246289194910e-01 5.237508101051392417e-01 -5.649247193561974800e-01 0.000000000000000000e+00 0.000000000000000000e+00 -1.000000000000000000e+00
1.718627402925447245e-01 4.721111464508807032e-01 -5.753748790358029774e-01 0.000000000000000000e+00 0.000000000000000000e+00 -1.000000000000000000e+00
5.633681501626830457e-01 3.033892757595433309e-01 -3.216035435020598299e-01 1.000000000000000000e+00 0.000000000000000000e+00 0.000000000000000000e+00
5.601153887007511711e-01 3.436900038623449394e-01 -2.420537677475390614e-01 1.000000000000000000e+00 0.000000000000000000e+00 0.000000000000000000e+00
5.591234117843226770e-01 3.926696591929432767e-01 -4.090439313386839415e-01 1.000000000000000000e+00 0.000000000000000000e+00 0.000000000000000000e+00
5.488238079434718530e-01 3.742556705497007696e-01 -4.324763765158440854e-01 1.000000000000000000e+00 0.000000000000000000e+00 0.000000000000000000e+00
5.575244909553085382e-01 3.507488588126814744e-01 -4.248718376213886927e-01 1.000000000000000000e+00 0.000000000000000000e+00 0.000000000000000000e+00
5.547330071172582588e-01 4.905020690155386665e-01 -1.911202784723444459e-01 1.000000000000000000e+00 0.000000000000000000e+00 0.000000000000000000e+00
5.463765410781757925e-01 5.395643232500150210e-01 -2.266933658883393266e-01 1.000000000000000000e+00 0.000000000000000000e+00 0.000000000000000000e+00
1.244215650722797911e-01 -2.561734738200830905e-02 -5.697218663663790039e-01 0.000000000000000000e+00 0.000000000000000000e+00 -1.000000000000000000e+00
2.356460304955121376e-02 -1.909201018089255186e-01 -5.643854688432577982e-01 0.000000000000000000e+00 0.000000000000000000e+00 -1.000000000000000000e+00
5.044805831090732884e-01 -2.588922081975614797e-01 -5.627748968477501723e-01 0.000000000000000000e+00 0.000000000000000000e+00 -1.000000000000000000e+00
5.417649367909088687e-01 -2.124583366146956809e-01 -5.727665755130334491e-01 0.000000000000000000e+00 0.000000000000000000e+00 -1.000000000000000000e+00
3.288587092787617072e-01 -1.721556844224140792e-01 -5.628324002578355412e-01 0.000000000000000000e+00 0.000000000000000000e+00 -1.000000000000000000e+00
3.248096529766879570e-01 -2.055870696628481764e-01 -5.736196909503276098e-01 0.000000000000000000e+00 0.000000000000000000e+00 -1.000000000000000000e+00
4.274522170648634156e-01 -6.163454989238056209e-02 -5.662879236418196793e-01 0.000000000000000000e+00 0.000000000000000000e+00 -1.000000000000000000e+00
4.472301972301195305e-01 -6.992521671036368291e-02 -5.637849560126447779e-01 0.000000000000000000e+00 0.000000000000000000e+00 -1.000000000000000000e+00
3.670366824171221176e-01 -4.325181486928850183e-02 -5.720451158877760678e-01 0.000000000000000000e+00 0.000000000000000000e+00 -1.000000000000000000e+00
4.191705865454357222e-02 -3.163303700777714278e-01 -5.642388768842705460e-01 0.000000000000000000e+00 0.000000000000000000e+00 -1.000000000000000000e+00
2.418954936179876780e-01 -3.993602790558533622e-01 -5.673368897046062731e-01 0.000000000000000000e+00 0.000000000000000000e+00 -1.000000000000000000e+00
1.912325576832438548e-02 -4.017125712131903170e-01 -5.781054404303496153e-01 0.000000000000000000e+00 0.000000000000000000e+00 -1.000000000000000000e+00
8.638519011241158063e-02 -4.942713793222898166e-01 -5.657739313541757520e-01 0.000000000000000000e+00 0.000000000000000000e+00 -1.000000000000000000e+00
2.674580185836661697e-02 -5.370951413399802643e-01 -5.703710893753858313e-01 0.000000000000000000e+00 0.000000000000000000e+00 -1.000000000000000000e+00
1.272572057772027865e-01 -5.626171381553677353e-01 -5.023065504768632339e-01 0.000000000000000000e+00 -1.000000000000000000e+00 0.000000000000000000e+00
6.913654705218919005e-02 -4.753989756156777879e-01 -5.782901806419570301e-01 0.000000000000000000e+00 0.000000000000000000e+00 -1.000000000000000000e+00
2.068947959263958691e-02 -4.688066208728136619e-01 -5.635526995936411820e-01 0.000000000000000000e+00 0.000000000000000000e+00 -1.000000000000000000e+00
3.153742775244753466e-02 -4.712518930977431797e-01 -5.675669710528472578e-01 0.000000000000000000e+00 0.000000000000000000e+00 -1.000000000000000000e+00
1.689045128707652998e-01 -5.511624459904655993e-01 -4.397286512202954745e-01 0.000000000000000000e+00 -1.000000000000000000e+00 0.000000000000000000e+00
2.287099958738520455e-01 -3.037590139590213290e-01 -5.633376416262987352e-01 0.000000000000000000e+00 0.000000000000000000e+00 -1.000000000000000000e+00
3.811872174148551728e-01 -4.363276837610524650e-01 -5.736315450236783020e-01 0.000000000000000000e+00 0.000000000000000000e+00 -1.000000000000000000e+00
3.582757689321393602e-01 -4.091934374459693657e-01 -5.693879363099596524e-01 0.000000000000000000e+00 0.000000000000000000e+00 -1.000000000000000000e+00
1.951687609854994288e-01 -4.278425659970156447e-01 -5.613225371491243898e-01 0.000000000000000000e+00 0.000000000000000000e+00 -1.000000000000000000e+00
1.825358987649689790e-01 -4.549374772676618162e-01 -5.638983023883246126e-01 0.000000000000000000e+00 0.000000000000000000e+00 -1.000000000000000000e+00
3.883500952423888930e-01 -5.557288930679887828e-01 -3.957321950031198465e-01 0.000000000000000000e+00 -1.000000000000000000e+00 0.000000000000000000e+00
3.792621846373831485e-01 -5.602397438835592380e-01 -4.281413563891794949e-01 0.000000000000000000e+00 -1.000000000000000000e+00 0.000000000000000000e+00
3.602827055139288248e-01 -5.658303948924537918e-01 -4.465541993442836421e-01 0.000000000000000000e+00 -1.000000000000000000e+00 0.000000000000000000e+00
4.878822233873832404e-01 -5.539369298485076198e-01 -1.770715781502617825e-01 0.000000000000000000e+00 -1.000000000000000000e+00 0.000000000000000000e+00
-5.595094257057511289e-01 -1.169401504756204940e-01 -5.146062424965838211e-01 -1.000000000000000000e+00 0.000000000000000000e+00 0.000000000000000000e+00
-5.566917745954929053e-01 -1.698513471770403405e-01 -4.465218447417991787e-01 -1.000000000000000000e+00 0.000000000000000000e+00 0.000000000000000000e+00
-5.603081901694173528e-01 -2.035795337200840827e-01 -3.934793491949191147e-01 -1.000000000000000000e+00 0.000000000000000000e+00 0.000000000000000000e+00
-5.629718509940059290e-01 -1.943040787542341663e-01 -4.166490726196799277e-01 -1.000000000000000000e+00 0.000000000000000000e+00 0.000000000000000000e+00
-4.027099900332041238e-01 -3.335281290147941169e-01 -5.728808763303329110e-01 0.000000000000000000e+00 0.000000000000000000e+00 -1.000000000000000000e+00
-1.854377887708220651e-01 -4.432353952014150833e-01 -5.659398790060039541e-01 0.000000000000000000e+00 0.000000000000000000e+00 -1.000000000000000000e+00
-2.326707943353618635e-01 -3.431036646009657520e-01 -5.722065551668990002e-01 0.000000000000000000e+00 0.000000000000000000e+00 -1.000000000000000000e+00
-2.125336521706150672e-01 -3.612163732343097178e-01 -5.652280726784644216e-01 0.000000000000000000e+00 0.000000000000000000e+00 -1.000000000000000000e+00
-5.562172737531896338e-01 -3.108090896445914741e-01 -3.159518460107857973e-01 -1.000000000000000000e+00 0.000000000000000000e+00 0.000000000000000000e+00
-5.623373846548626043e-01 -4.027058211878370986e-01 -4.179502855666768490e-01 -1.000000000000000000e+00 0.000000000000000000e+00 0.000000000000000000e+00
-5.636564183756820334e-01 -3.907718271159538181e-01 -4.215031975485942217e-01 -1.000000000000000000e+00 0.000000000000000000e+00 0.000000000000000000e+00
-5.645159068893803589e-01 -3.695581167224606944e-01 -4.307091516835774292e-01 -1.000000000000000000e+00 0.000000000000000000e+00 0.000000000000000000e+00
-3.647052529349868039e-02 5.590968811679042361e-01 4.405652785732922516e-01 0.000000000000000000e+00 1.000000000000000000e+00 0.000000000000000000e+00
7.071924459306124650e-04 5.585744319500943744e-01 4.408190262872147547e-01 0.000000000000000000e+00 1.000000000000000000e+00 0.000000000000000000e+00
-5.187883993298780111e-02 5.500658986804427553e-01 3.385364491989818481e-01 0.000000000000000000e+00 1.000000000000000000e+00 0.000000000000000000e+00
-1.515361190116926160e-01 5.540149344124987163e-01 3.748436224968497155e-01 0.000000000000000000e+00 1.000000000000000000e+00 0.000000000000000000e+00
