-6.635161272786677111e-01 8.353047769231873587e-02 3.185508699849065040e-01 -5.329433596431326636e-01 1.809487404414537592e-01 8.265766321067526956e-01
-1.915085616699333804e-01 7.469226077801197627e-01 -2.366436479586590258e-01 -4.921402713026962195e-01 5.285969252926678852e-01 -6.916525456710517217e-01
-7.825033403439867197e-01 1.351625711008258013e-01 2.287750811070066448e-01 -5.418476651737517136e-01 4.725337272709145831e-01 6.950632952021065236e-01
-7.704362895387000254e-01 1.730505171393550423e-01 2.066824843348529783e-01 -5.464575680291641202e-01 5.221880153480872311e-01 6.547547655194861926e-01
-7.594178325848360833e-01 1.745109309574670586e-01 2.408640888628280075e-01 -5.464575680291641202e-01 5.221880153480872311e-01 6.547547655194861926e-01
-7.528080557235279358e-01 1.729339279445346877e-01 2.234684480097653414e-01 -5.464575680291641202e-01 5.221880153480872311e-01 6.547547655194861926e-01
-6.614989271349376310e-01 1.829836112964489392e-01 2.731601491798741344e-01 -5.402594343609889993e-01 4.749277189333735993e-01 6.946678381591353535e-01
7.901644054893928182e-01 1.594866734103556338e-01 1.990459954547572352e-01 5.800611234211543454e-01 4.577384744020775442e-01 6.737986213606013131e-01
7.864474140823446424e-01 1.786323237662298113e-01 1.766429686650246300e-01 5.781595479652990033e-01 5.450852540313959604e-01 6.071355721205021760e-01
-1.795769303776270365e-01 7.519657551991949518e-01 -2.022225172552324646e-01 -4.904737389761442690e-01 5.719821484582847670e-01 -6.574739030712974941e-01
-1.711459784963488828e-01 7.852859585029833278e-01 -2.036269534818054561e-01 -4.904737389761442690e-01 5.719821484582847670e-01 -6.574739030712974941e-01
-5.138969908383853591e-01 4.193373024806517080e-01 9.643670179518300245e-02 -6.286563309642902997e-01 7.582290684265846625e-01 1.728580265173429165e-01
-5.423699606005094598e-01 4.055752479949782385e-01 1.124866604298157824e-01 -6.286563309642902997e-01 7.582290684265846625e-01 1.728580265173429165e-01
-6.671822723496769747e-01 2.823252156260034895e-01 -2.018687584431295978e-01 -5.389852311886450531e-01 7.153568785100639094e-01 -4.447015369085882130e-01
6.301218553865770566e-01 2.240978691012665280e-01 2.823641389364022758e-01 5.578768027397649210e-01 4.710359906985201461e-01 6.832997646944721781e-01
6.422338864635568356e-01 2.023353360027400627e-01 2.999191489026226676e-01 5.578768027397649210e-01 4.710359906985201461e-01 6.832997646944721781e-01
-9.905314446756100510e-01 6.454738964505621346e-02 2.268581273224384506e-03 -8.874008062535299057e-01 4.609232517589290645e-01 8.340566441196822778e-03
-9.694598963090441668e-01 7.316014089886964389e-02 -2.090096603617341495e-02 -8.874008062535299057e-01 4.609232517589290645e-01 8.340566441196822778e-03
4.890229556751477524e-01 2.786241327959974590e-01 3.606475885074006404e-01 5.689348500918188778e-01 4.836879049195707547e-01 6.651008547472452292e-01
5.170701029036206542e-01 2.537911848728866548e-01 3.428920953061370125e-01 5.689348500918188778e-01 4.836879049195707547e-01 6.651008547472452292e-01
4.630210401301899092e-01 3.079971111449061882e-01 3.640147757170810183e-01 5.753621010673852787e-01 5.422958423165259445e-01 6.122692806776552921e-01
-5.912223811607500989e-01 3.802980252834952113e-01 -1.169267900958309847e-01 -5.764694265858271160e-01 7.721932818013677036e-01 -2.672087868178015801e-01
-5.545404775833715494e-01 3.909839743575690418e-01 -1.398781262994633345e-01 -5.764694265858271160e-01 7.721932818013677036e-01 -2.672087868178015801e-01
-5.681860432989476184e-01 3.733095920723220607e-01 -1.286762058438203071e-01 -5.764694265858271160e-01 7.721932818013677036e-01 -2.672087868178015801e-01
-8.480264468371336850e-01 1.815282241831185361e-01 -8.526731571122578290e-02 -6.391841113397696006e-01 6.891613254834311197e-01 -3.413214603108181144e-01
9.411322815218841065e-01 -1.300970121337547691e-01 3.599810752141318140e-03 7.759466112224512324e-01 -6.244582681966921456e-01 8.921170222107736858e-02
2.406291020439369488e-01 3.046952945044110739e-01 -5.936716391956652350e-01 4.896048704816189368e-01 6.823624318511657405e-01 -5.428338441906880307e-01
2.176525191689962502e-01 3.067858224408542833e-01 -5.999552508218110036e-01 4.896048704816189368e-01 6.823624318511657405e-01 -5.428338441906880307e-01
-7.007294093587729256e-01 6.373862025883293703e-02 -3.107813926214390010e-01 -5.452522470285228184e-01 1.336310436649457145e-01 -8.275522528996970273e-01
9.678011310498517705e-01 -9.192425326245690087e-02 -3.843228123057607776e-02 8.818560092627207858e-01 -4.525177105200030581e-01 -1.325054738226415507e-01
9.845238022064869421e-01 -8.422404220034881983e-02 -1.263056048767689614e-02 8.818560092627207858e-01 -4.525177105200030581e-01 -1.325054738226415507e-01
-4.974733356406292883e-01 5.414000747513596223e-02 -4.442500382578620233e-01 -6.707142117699077533e-01 7.486229495287771707e-02 -7.379282369744767367e-01
-4.532331172895217586e-01 1.622673323347144092e-01 -4.662100010919744131e-01 -6.497862006940848811e-01 2.597218379988690540e-01 -7.143685745146097776e-01
1.991130390747354595e-01 5.888585986785407345e-01 -3.112670926019786011e-01 4.388322934405750608e-01 5.503386848687608079e-01 -7.103193297177036181e-01
2.255190507232638919e-01 5.903317358265077752e-01 -3.119145161388491849e-01 4.388322934405750608e-01 5.503386848687608079e-01 -7.103193297177036181e-01
2.604245826501276895e-01 6.209868189083820322e-01 -2.673985638939504472e-01 5.840933187692575190e-01 5.359629896525716086e-01 -6.095725294760189206e-01
2.630871630446377507e-01 5.998726350880799751e-01 -3.024717258542524712e-01 5.840933187692575190e-01 5.359629896525716086e-01 -6.095725294760189206e-01
1.380349110451374872e-01 6.529243718554892384e-01 -3.392166900174256594e-01 3.309949029208100191e-01 5.448824909935027216e-01 -7.704190062875908573e-01
1.337029132109232299e-01 6.077183584334361344e-01 -3.622412514821496399e-01 3.309949029208100191e-01 5.448824909935027216e-01 -7.704190062875908573e-01
8.776044057254510644e-01 -1.844089803243540437e-01 2.578489079550679020e-02 6.384796496346049066e-01 -7.665107342262555967e-01 6.931833320557170830e-02
9.015853638982478380e-01 -1.806089417717614276e-01 2.813329414527803579e-02 7.003483541410698843e-01 -7.094989539436816761e-01 7.825226645098511125e-02
9.146722169596988028e-01 -1.482046495575685408e-01 6.997325466670771890e-03 7.003483541410698843e-01 -7.094989539436816761e-01 7.825226645098511125e-02
9.122133447494712444e-01 -1.515213007162692083e-01 6.404873869258004282e-02 7.138959129737973974e-01 -6.370950632752417908e-01 2.906243379168783059e-01
9.126916395702674434e-01 -1.519062998642508044e-01 5.523141693022325105e-02 7.138959129737973974e-01 -6.370950632752417908e-01 2.906243379168783059e-01
-5.922719226955783789e-01 2.134879106094152990e-01 -3.255213594804662880e-01 -5.525758755071769057e-01 4.715666757705348489e-01 -6.872297811578046423e-01
-6.268056055931556791e-01 1.209147762226439188e-01 -3.416538919159356480e-01 -5.427755599055926750e-01 2.639924897388712943e-01 -7.973096367978016463e-01
-5.957611379462395274e-01 1.375908936216997669e-01 -3.468048143725412924e-01 -5.427755599055926750e-01 2.639924897388712943e-01 -7.973096367978016463e-01
8.899443029309153097e-01 -1.286662576419559945e-01 1.061915019888161615e-01 6.988202261642789681e-01 -5.363722393074606964e-01 4.732389590936127988e-01
-5.554253554436230367e-01 1.944618777181746638e-01 -3.492990978028171489e-01 -5.655619237357001339e-01 4.074023307042082820e-01 -7.170516378596125673e-01
-5.965854814965507735e-01 2.346494120684192441e-01 -3.402667961752536829e-01 -5.655619237357001339e-01 4.074023307042082820e-01 -7.170516378596125673e-01
-9.377927840156750072e-01 1.320048519991008640e-01 1.834657170049023428e-03 -7.542820556566044443e-01 6.558781661397864449e-01 2.970541525644591549e-02
8.443058740891044023e-01 -2.067422986934464302e-01 -3.045342729758523589e-02 6.158425704272009193e-01 -7.816582698916735295e-01 -9.873336598928228458e-02
8.602487763774022689e-01 -2.069716959334527151e-01 -2.924907003604568928e-02 6.158425704272009193e-01 -7.816582698916735295e-01 -9.873336598928228458e-02
9.487859618528925176e-02 6.716684826226138050e-01 -3.031258049106835828e-01 2.612805911911976198e-01 5.343266424010767457e-01 -8.038827600385332062e-01
5.181093571132828757e-01 2.625214475200616238e-01 -3.374915537096751517e-01 5.750184297880868156e-01 5.399242053048941559e-01 -6.146833802291401527e-01
4.802479597751090901e-01 2.861056199468851591e-01 -3.480380241874750369e-01 5.750184297880868156e-01 5.399242053048941559e-01 -6.146833802291401527e-01
-9.620118192233598764e-01 1.152468039629801766e-01 -5.717479654559079819e-03 -8.193548135170352076e-01 5.728716674711639145e-01 -2.181151474044347796e-02
8.217525710989505017e-01 -2.290209834905730935e-01 1.453630387487743481e-02 5.815238275422108805e-01 -8.103906411899191031e-01 7.139360386231165256e-02
-1.234832058040599284e-01 -4.515880227597646734e-01 -4.605978871291145360e-01 -2.001981107962811368e-01 -7.093993600503565311e-01 -6.757760460342944198e-01
4.449397500834622043e-01 5.039467826564265618e-01 -1.419963594418457986e-01 7.094420783550947629e-01 6.428987548554534470e-01 -2.887440535569712474e-01
4.208294682023526745e-01 5.044732183634246248e-01 -1.629519746893122734e-01 7.094420783550947629e-01 6.428987548554534470e-01 -2.887440535569712474e-01
-8.442616804586468016e-01 -1.514187563812495474e-01 -1.801954186247207712e-01 -5.908780774702347971e-01 -5.171044728182592198e-01 -6.192463659614235727e-01
5.877897984772655349e-01 -3.810666581262776020e-01 -6.365156194952331647e-02 5.935433020126575920e-01 -7.966356771224051281e-01 -1.143588499926365826e-01
1.566359356207064069e-01 5.294210457984367402e-01 -4.049503550240660665e-01 2.686196746345925201e-01 6.157721915412409652e-01 -7.407213231193651160e-01
1.095390042989810020e-01 6.731921326037106912e-01 -3.031790462574077138e-01 3.270960578587622236e-01 5.468589568451279748e-01 -7.706837550198626374e-01
-7.261927592558579114e-01 2.371001712769054692e-01 1.909928723805232043e-01 -5.353857796755476794e-01 6.844103768086556849e-01 4.949186832580073081e-01
1.016795680982374162e-01 4.917315060172868790e-01 -4.482459086383874802e-01 1.927575414326812842e-01 6.606075044765897797e-01 -7.255634053961379504e-01
9.764574993232474909e-02 4.774358943490079610e-01 -4.667996796483400712e-01 1.927575414326812842e-01 6.606075044765897797e-01 -7.255634053961379504e-01
1.340964660820766763e-01 4.790343013667575645e-01 -4.731972260988239753e-01 1.927575414326812842e-01 6.606075044765897797e-01 -7.255634053961379504e-01
5.501056435754266838e-01 -4.137975563990123895e-01 -2.150935725007310437e-02 6.150953728907574414e-01 -7.875681626806252389e-01 -3.733726530216358031e-02
-8.616308637476204346e-01 1.586858519360724307e-01 -1.167181018241687102e-01 -6.165459379631467174e-01 6.564366478472719590e-01 -4.346976348499960174e-01
-8.583974208723905708e-01 1.901812851149350114e-01 -1.231735232775687944e-01 -6.165459379631467174e-01 6.564366478472719590e-01 -4.346976348499960174e-01
-9.171143746250950413e-01 1.468588913681399821e-01 -4.328146445555869359e-02 -7.142033472697816299e-01 6.312453891772553671e-01 -3.023951676053954762e-01
6.084733548205475406e-01 -3.322013225856823015e-01 -1.946630438309087385e-01 5.747229631398625971e-01 -7.247756267516539674e-01 -3.799918505790397250e-01
-8.898944831765236430e-01 1.663099221591126109e-01 -7.951858411935158744e-02 -6.346073505390809055e-01 6.919078719891660345e-01 -3.442920378417021476e-01
-5.358420830726122741e-01 -1.635890876291542229e-01 -3.963587946174823018e-01 -6.097380703062299512e-01 -3.203581007831123317e-01 -7.249759808999691746e-01
-6.561713582193968719e-01 -1.307662283954632576e-01 -3.120756304848326113e-01 -5.456407450049310937e-01 -2.886538068419699510e-01 -7.867370317876885011e-01
-6.237567524788005802e-01 -1.501004624317524849e-01 -3.391444956550105916e-01 -5.456407450049310937e-01 -2.886538068419699510e-01 -7.867370317876885011e-01
-8.284304985415839040e-01 2.070621525062564250e-01 -7.240381241024537728e-02 -5.992248119031934328e-01 7.704516228977019709e-01 -2.175636035137303026e-01
-8.139937493607282137e-01 2.144999677048812503e-01 -6.921547770021026225e-02 -5.992248119031934328e-01 7.704516228977019709e-01 -2.175636035137303026e-01
-8.619128800893773867e-01 1.741164228090675004e-01 -7.613737969739600708e-02 -6.047014367755249031e-01 7.637430509691869318e-01 -2.259042373615277877e-01
6.963932302186891521e-01 -2.985358809879414266e-01 -1.377638070638778078e-01 5.223922225145395393e-01 -7.861594256436340578e-01 -3.302419163703953497e-01
1.724096996007276061e-01 6.614087943777204881e-01 -3.063386248605061146e-01 4.017457491513461432e-01 5.399679089401822063e-01 -7.396181517199201805e-01
1.762840774495023355e-01 6.323407789531548806e-01 -2.993535388156121080e-01 4.017457491513461432e-01 5.399679089401822063e-01 -7.396181517199201805e-01
1.580670900282498959e-01 6.903915649669751797e-01 -3.016958820998629220e-01 4.017457491513461432e-01 5.399679089401822063e-01 -7.396181517199201805e-01
-9.148936866149214309e-01 1.713470420218752843e-01 -7.609712470782764582e-02 -6.824395547959862807e-01 6.955842142707860942e-01 -2.245859632905612968e-01
6.419934402042769273e-02 6.774969187230968082e-01 -3.215839600813306665e-01 1.902789473941635390e-01 5.408747270540025243e-01 -8.192975355832748940e-01
8.582410043034935376e-02 6.642947991868838331e-01 -3.501213034518281253e-01 1.902789473941635390e-01 5.408747270540025243e-01 -8.192975355832748940e-01
-5.296061459625083234e-01 -4.261631924142758043e-01 -5.478583647046797456e-02 -6.394140927850329170e-01 -7.605906655312504316e-01 -1.124786977815047245e-01
-9.451819093875007960e-01 1.568061910014763027e-01 -4.832535170316268336e-02 -7.474361556319369937e-01 6.477410071461451313e-01 -1.475492491185523003e-01
-9.612103638183852050e-01 1.323415032283260795e-01 -2.608855872875132445e-02 -7.474361556319369937e-01 6.477410071461451313e-01 -1.475492491185523003e-01
-9.560533602479407422e-01 1.055607151117932963e-01 -1.671374085685369687e-02 -8.061523898583135006e-01 5.839645808927321768e-01 -9.541327260138007804e-02
7.315377091016819211e-01 -3.012048797102533371e-01 7.984250908323083096e-02 5.341778008851766346e-01 -8.120102790780296953e-01 2.351454522483832632e-01
7.533157198634246043e-01 -2.542411641136714806e-01 7.058642204504773920e-02 5.341778008851766346e-01 -8.120102790780296953e-01 2.351454522483832632e-01
7.984563933286881188e-02 -5.575921596388653256e-01 -4.006837496271420385e-01 1.342525825899038294e-01 -5.868577770610614586e-01 -7.984824315981474685e-01
6.127192283523631017e-02 -5.737089060599003254e-01 -3.911974501640162472e-01 1.342525825899038294e-01 -5.868577770610614586e-01 -7.984824315981474685e-01
6.915801591742825050e-01 -3.138945140706853043e-01 4.040597497985623510e-02 5.354975610415526610e-01 -8.412085748966796617e-01 7.490324184470252555e-02
6.851099154461626206e-01 -3.280070463215095655e-01 4.884831892156989847e-02 5.354975610415526610e-01 -8.412085748966796617e-01 7.490324184470252555e-02
6.634144498234664233e-01 -3.403089400696155953e-01 3.789208117999761510e-02 5.354975610415526610e-01 -8.412085748966796617e-01 7.490324184470252555e-02
-6.383418630864837739e-01 -3.387157478217683315e-01 -9.460173428527603179e-02 -5.678087044191756361e-01 -7.985882354315306797e-01 -1.996249118125570376e-01
-6.169627177050023281e-01 -3.568706802948626300e-01 -1.069943901327276847e-01 -5.678087044191756361e-01 -7.985882354315306797e-01 -1.996249118125570376e-01
-4.476194505102226162e-01 -3.538442334711240922e-01 -3.272237949177557170e-01 -5.754624305726390165e-01 -6.060027461635979495e-01 -5.491845433382194219e-01
-6.245909550265857924e-01 -3.085394710487779912e-01 -1.882437183908647893e-01 -5.353819393156665774e-01 -6.980319430942321102e-01 -4.755182283306147450e-01
-5.886183232409392119e-01 -3.208217323762402873e-01 -2.290126958965223447e-01 -5.353819393156665774e-01 -6.980319430942321102e-01 -4.755182283306147450e-01
6.605477985465743052e-01 -3.033050274058513573e-01 1.667240591653649517e-01 5.510647935543789844e-01 -7.573445484557560503e-01 3.503667053662732345e-01
-5.729789039247223936e-01 -3.168498884887222533e-01 -2.657525461901434904e-01 -5.578209307739908640e-01 -6.679007809612537150e-01 -4.926909335291099756e-01
-5.769516858611412058e-01 -3.192830855077314900e-01 -2.321905990524518459e-01 -5.578209307739908640e-01 -6.679007809612537150e-01 -4.926909335291099756e-01
4.434235425737918512e-01 4.768927229591296002e-01 -1.532412519581231314e-01 7.058218835238424527e-01 6.527919996845532591e-01 -2.750964810510988512e-01
2.035806600008615852e-01 2.768612053506479542e-01 -6.667042606490127810e-01 4.835590251456579614e-01 6.919858105049497832e-01 -5.360282709521845268e-01
2.328922936756553652e-01 2.921427590749808290e-01 -6.231220645660632274e-01 4.835590251456579614e-01 6.919858105049497832e-01 -5.360282709521845268e-01
-8.022059988524117280e-01 -2.167824916512763600e-01 1.645281502442939581e-01 -5.599964118057068063e-01 -6.772236026697993072e-01 4.772548698040397497e-01
-7.674508696466008084e-01 -2.252864292886299635e-01 1.661428150759149680e-01 -5.599964118057068063e-01 -6.772236026697993072e-01 4.772548698040397497e-01
-6.732540355032980983e-01 -2.444236266456465412e-01 2.317832617992493516e-01 -5.287582739139253807e-01 -6.526724130476859731e-01 5.426171845915654934e-01
-4.750648164843088717e-01 -4.241842964362115276e-01 1.902230300180849376e-01 -6.378601948499106333e-01 -6.943828830944841490e-01 3.331167715553000064e-01
1.373871909374919376e-01 -1.479465009933415287e-01 -8.517360154366649949e-01 5.042563368851833427e-01 -5.886024505363184334e-01 -6.318802908255465312e-01
1.279480674479243907e-01 -1.389078296485145025e-01 -8.763426834759677764e-01 5.042563368851833427e-01 -5.886024505363184334e-01 -6.318802908255465312e-01
-6.609918271539170220e-01 2.605795654164296329e-02 -3.431603086426793237e-01 -5.355457366448005407e-01 6.508475834236704394e-02 -8.419945000967011817e-01
9.110896379749630070e-01 2.974047765473807406e-02 -1.489593915684270797e-01 7.146288790378547695e-01 1.559933581207828268e-01 -6.818882881141897778e-01
-6.448291454759752517e-01 -3.581652456001710449e-01 9.836764626923241717e-02 -5.488574069522169641e-01 -8.149158681573854812e-01 1.861925741241665100e-01
-6.460431344454300451e-01 -3.544923721119913052e-01 8.464823503694036966e-02 -5.488574069522169641e-01 -8.149158681573854812e-01 1.861925741241665100e-01
-5.542766521950832637e-01 -4.130423956682865438e-01 5.917395838730048208e-02 -5.792619939955715447e-01 -8.003304705474777458e-01 1.546825142849934664e-01
-5.914709489349933014e-01 -3.827365753907051582e-01 6.251509367177426890e-02 -5.792619939955715447e-01 -8.003304705474777458e-01 1.546825142849934664e-01
-5.959044609081646238e-01 -4.007111681176614981e-01 8.071513955419171160e-02 -5.792619939955715447e-01 -8.003304705474777458e-01 1.546825142849934664e-01
-4.874634774260415693e-01 -3.252515995273728110e-03 -4.385705833360806216e-01 -6.911069668655510645e-01 -4.832173905969369340e-03 -7.227363353569824511e-01
-5.924076424323068135e-01 -3.543135387930166358e-01 1.057822327760351844e-01 -5.792488963448431116e-01 -7.911699023385218021e-01 1.962674239830318745e-01
8.812679323082288629e-01 1.236412924490239568e-01 -1.348660713803889744e-01 6.466694820623067885e-01 5.033519793825962374e-01 -5.731102562517006449e-01
-1.093477788852043886e-01 7.860994977263865424e-01 2.122053554801351383e-01 -3.713671487889896872e-01 5.567466397635608688e-01 7.430475219744161475e-01
-1.217869925453940461e-01 7.720181827958330079e-01 2.485206092697080926e-01 -3.713671487889896872e-01 5.567466397635608688e-01 7.430475219744161475e-01
-7.338031971488508942e-01 2.164100665234394705e-01 2.194513547420566535e-01 -5.280725722512285003e-01 5.900158018770333967e-01 6.107542156803931199e-01
-2.074425468096356348e-02 6.564276618883262415e-01 3.305231863241846479e-01 1.870520147918551535e-02 5.334918815772695666e-01 8.455983252873479072e-01
-5.106760951078398447e-01 8.287376557204867433e-02 -4.426769889975487593e-01 -6.385949881492183344e-01 1.523010025019108649e-01 -7.543214472276476013e-01
-4.960955004345218855e-01 8.128445232054301584e-02 -4.464173298828708059e-01 -6.385949881492183344e-01 1.523010025019108649e-01 -7.543214472276476013e-01
-4.853138772402482148e-01 6.500039622099161585e-02 -4.646764591165541969e-01 -6.385949881492183344e-01 1.523010025019108649e-01 -7.543214472276476013e-01
9.328610664360951210e-01 6.815074131295974225e-02 -8.528302939054462073e-02 8.174795514995480961e-01 2.949284235836389656e-01 -4.947164923899015077e-01
-8.358386468900916300e-02 5.331339517277637885e-01 4.088796553715650095e-01 -1.570800601021734300e-01 6.309120220013997304e-01 7.597867300844380889e-01
-1.193932272069529316e-01 5.454600367854818277e-01 3.946416917946654057e-01 -1.924976720062574476e-01 6.122348024614806539e-01 7.668853844787518748e-01
-1.088068796670455946e-01 5.323698636337395040e-01 4.357536030124373183e-01 -1.924976720062574476e-01 6.122348024614806539e-01 7.668853844787518748e-01
-1.340906717242758839e-01 5.368328727410695000e-01 3.856346029890032612e-01 -2.550438178552231760e-01 6.009001569340123305e-01 7.575431686514710883e-01
-7.248767070172396076e-01 2.182056864538646779e-01 1.916932978549010791e-01 -5.572406802175844387e-01 6.293556156826494163e-01 5.416588717258833396e-01
-7.005760073417650613e-01 2.253056620410982536e-01 2.067732870587982996e-01 -5.572406802175844387e-01 6.293556156826494163e-01 5.416588717258833396e-01
-7.483560087455575216e-01 2.100573788861851143e-01 1.879842539342862495e-01 -5.572406802175844387e-01 6.293556156826494163e-01 5.416588717258833396e-01
1.623443138093243476e-01 7.760536745424383431e-01 2.099248273433779455e-01 4.792691793422102498e-01 5.817176055819112124e-01 6.571953142625807098e-01
8.959349106005431995e-01 -4.487330690282908402e-02 -1.579025898668402483e-01 7.004646324066207130e-01 -2.067871169148741972e-01 -6.830727538304335322e-01
1.923090927124308236e-01 6.067913021881653490e-01 3.352554081186710500e-01 4.004599251567590446e-01 5.533963079195967083e-01 7.303316881557322393e-01
1.799292410724010471e-01 6.217945876660209148e-01 3.203225728905146341e-01 4.004599251567590446e-01 5.533963079195967083e-01 7.303316881557322393e-01
-5.367140794388289837e-01 1.331302450354369393e-01 -4.300337450040864762e-01 -6.264251658069159845e-01 2.234663361059770204e-01 -7.467625514654228081e-01
-5.217967577686082326e-01 1.178606542736236051e-01 -4.043363931793029220e-01 -6.264251658069159845e-01 2.234663361059770204e-01 -7.467625514654228081e-01
-5.174510154913664062e-01 1.533636962385084013e-01 -4.151344763612986322e-01 -6.078715224544445350e-01 2.844342691006151447e-01 -7.413429427398057214e-01
3.963578447963502227e-01 5.383870131886815402e-01 -1.734574497086654454e-01 7.320290417317956155e-01 6.015724618191330419e-01 -3.197562434763342454e-01
3.775995243085382147e-01 5.595253345612093421e-01 -1.625194342501593836e-01 7.320290417317956155e-01 6.015724618191330419e-01 -3.197562434763342454e-01
2.174595874876229240e-01 7.848489586428700759e-01 1.259030726368348674e-01 7.435182352606786171e-01 5.497095797837089348e-01 3.807886706939483390e-01
-5.165858862472287871e-01 1.232259164558895115e-01 -4.478356025683976060e-01 -6.142048325762614613e-01 1.762084740508151615e-01 -7.692223328223444234e-01
-5.331850888981551906e-01 1.083688419849699464e-01 -4.246139572447991672e-01 -6.142048325762614613e-01 1.762084740508151615e-01 -7.692223328223444234e-01
6.352013323883675122e-01 1.617092140922765653e-01 -3.267818341465056342e-01 5.408405706107678457e-01 3.520398418331506241e-01 -7.639106144985219338e-01
3.739287902230958860e-01 4.541443784340660761e-01 -3.112009109502698045e-01 6.246074334484991164e-01 5.870537658879879661e-01 -5.150081844374998497e-01
3.826727754623042710e-01 4.546794103730526504e-01 -2.905030844734756146e-01 6.246074334484991164e-01 5.870537658879879661e-01 -5.150081844374998497e-01
5.166885590395560168e-01 1.779082928875772851e-01 -3.910202687184194392e-01 5.767166591680528143e-01 3.377635292897232522e-01 -7.438505853461367945e-01
-6.293737161867435370e-01 1.678647040372502341e-02 -3.742497962237555931e-01 -5.660716328355862581e-01 9.791561721756332493e-02 -8.185202736669121570e-01
-6.268201270745434872e-01 5.428430866369112623e-02 -3.564233456031845604e-01 -5.660716328355862581e-01 9.791561721756332493e-02 -8.185202736669121570e-01
5.225659864994975923e-01 2.665700554070080108e-01 -3.752029765858527210e-01 5.667462316690061730e-01 4.908459540454331305e-01 -6.617166752366224758e-01
5.593125290797483773e-01 2.263014841101409769e-01 -3.536784623718933207e-01 5.667462316690061730e-01 4.908459540454331305e-01 -6.617166752366224758e-01
-6.145055910552004175e-01 1.069216323895478132e-01 -3.676142560116703040e-01 -5.377748936706904237e-01 1.579483228330719469e-01 -8.281609089130549384e-01
-6.181023533334480957e-01 8.190017890331172112e-02 -3.531479406795887122e-01 -5.377748936706904237e-01 1.579483228330719469e-01 -8.281609089130549384e-01
4.067374102079395759e-01 3.534285096132057657e-01 -3.684322197372028596e-01 5.711639481976505950e-01 5.444188821842270709e-01 -6.143124815601164190e-01
4.622587278265993249e-01 3.059869167310332871e-01 -3.743040239031888983e-01 5.711639481976505950e-01 5.444188821842270709e-01 -6.143124815601164190e-01
4.605614816040688453e-01 3.148394717019881717e-01 -3.538188143126589913e-01 5.711639481976505950e-01 5.444188821842270709e-01 -6.143124815601164190e-01
7.398456222573738250e-01 1.450664460447699811e-01 -2.721158843032440711e-01 5.292059910813348145e-01 3.788363796423253049e-01 -7.592259324226998674e-01
7.170606620738880776e-01 1.413262094651429879e-01 -2.899740693707411610e-01 5.292059910813348145e-01 3.788363796423253049e-01 -7.592259324226998674e-01
-5.755908054952094677e-01 6.460199658446691418e-02 -3.856316727756495810e-01 -5.801933766632612066e-01 1.258886190531122162e-01 -8.046910595184858517e-01
-6.082815728824332302e-01 7.104163445035276137e-02 -3.687402976646142472e-01 -5.801933766632612066e-01 1.258886190531122162e-01 -8.046910595184858517e-01
-4.013147752137514179e-01 3.230306530090564787e-01 -3.894690797750400835e-01 -5.844410703090463510e-01 5.523973644829431873e-01 -5.943784880430268425e-01
-4.045600555614310978e-01 3.345199929528023253e-01 -3.757840746813474464e-01 -5.844410703090463510e-01 5.523973644829431873e-01 -5.943784880430268425e-01
-4.404038722079586798e-01 3.028110454882872449e-01 -4.030057839936218023e-01 -5.883254024184164654e-01 5.461912469677319137e-01 -5.962787457263947211e-01
7.353452974154928157e-01 1.567152741631794299e-01 -2.234755282318851843e-01 5.502550555810875599e-01 4.470072778039347883e-01 -7.052686490960520249e-01
7.255922275792737741e-01 1.581061731500119083e-01 -2.557740300159468960e-01 5.502550555810875599e-01 4.470072778039347883e-01 -7.052686490960520249e-01
3.593790512436053630e-01 4.390817694444171804e-01 -3.219288640395490120e-01 6.064924713254857824e-01 5.763471075925568066e-01 -5.477142446524452257e-01
-4.929085880400869701e-01 2.848855028615917551e-01 -3.697838702175620940e-01 -5.620664332820693998e-01 5.517683758674297723e-01 -6.161436390730588020e-01
-5.096896639308577948e-01 2.980140281832876492e-01 -3.306807410171759276e-01 -5.620664332820693998e-01 5.517683758674297723e-01 -6.161436390730588020e-01
-5.016361057271963020e-01 3.296372483518365537e-01 -3.337450156420572744e-01 -5.695126381308944774e-01 5.405942821751645866e-01 -6.192036636589833831e-01
-5.193780643698348021e-01 3.096174042285734229e-01 -3.121520990705936027e-01 -5.695126381308944774e-01 5.405942821751645866e-01 -6.192036636589833831e-01
-4.920174680843480974e-01 3.059875645858649018e-01 -3.386215276233046634e-01 -5.695126381308944774e-01 5.405942821751645866e-01 -6.192036636589833831e-01
1.187093930932847791e-01 8.807455938313526467e-01 1.227026013900187479e-01 4.931036218873031673e-01 6.687842375061462397e-01 5.563959577000411327e-01
-6.366481335659349705e-01 2.168522588415782160e-01 -2.749512220812016516e-01 -5.543376722696569114e-01 5.185054291404701532e-01 -6.510467456753896709e-01
2.866013275199264521e-01 7.053654273084160042e-01 -1.094389135067338481e-01 7.990430793500431506e-01 5.220940228632267033e-01 -2.982414938154872019e-01
7.115667573293683879e-02 -7.984328772011178854e-01 2.348606000634210489e-01 1.959943691766898866e-01 -5.499145365588770096e-01 8.118991376595167120e-01
4.201079489442844928e-01 5.416312551396026409e-01 6.019903265770271822e-02 7.668457962487854607e-01 6.330419187898241873e-01 1.058558162335157815e-01
6.942009236905420655e-02 -9.568151313917249157e-01 -1.112007893100974421e-01 3.036742201665778018e-01 -8.220953314019235902e-01 -4.816027762517386401e-01
-6.097458876018033713e-01 2.062713616757438917e-01 -3.309642020661323625e-01 -5.487418974405484651e-01 4.480437379497461126e-01 -7.057897270982100846e-01
3.829181826753442763e-01 4.146121740120020660e-01 3.602097672847139331e-01 5.468170183376670490e-01 5.758466559706032495e-01 6.077760913887426675e-01
3.326809163022997895e-01 4.139329757805871313e-01 3.697491445242447328e-01 5.468170183376670490e-01 5.758466559706032495e-01 6.077760913887426675e-01
3.397257009383666815e-01 4.343059217456469168e-01 3.358146015191002531e-01 5.468170183376670490e-01 5.758466559706032495e-01 6.077760913887426675e-01
3.341053520050488168e-01 4.575259673683800821e-01 3.371148472031337828e-01 5.468170183376670490e-01 5.758466559706032495e-01 6.077760913887426675e-01
-6.149913320637779846e-01 2.137910222253085746e-01 -2.957930063191773207e-01 -5.353837275433824816e-01 4.939214885963136292e-01 -6.851319780776218282e-01
7.367114919226865899e-01 5.318902220931621960e-02 -2.819809374337212127e-01 5.339639126294083438e-01 1.293722070354521581e-01 -8.355509392348677844e-01
3.822403467731200766e-01 4.011140311794325619e-01 3.636707319120381365e-01 6.037453465570128408e-01 5.782463949631566624e-01 5.487464471163941981e-01
3.798586712819291833e-01 4.057398163493484144e-01 3.524235022542513973e-01 6.037453465570128408e-01 5.782463949631566624e-01 5.487464471163941981e-01
3.769036547475551058e-01 4.117239312386346550e-01 3.201007698324307427e-01 6.037453465570128408e-01 5.782463949631566624e-01 5.487464471163941981e-01
3.583954483190091578e-01 4.312086997348720807e-01 3.477019954685235392e-01 6.037453465570128408e-01 5.782463949631566624e-01 5.487464471163941981e-01
3.873899582558258392e-01 4.382427517687365048e-01 3.349588324841946130e-01 6.062772042121439275e-01 5.835133052862837566e-01 5.403148843096796661e-01
3.625447879185198508e-01 4.782548758011109791e-01 3.094974251945439292e-01 6.062772042121439275e-01 5.835133052862837566e-01 5.403148843096796661e-01
3.708172908994478156e-01 4.922734785976816130e-01 2.788208786820127738e-01 6.145428309669761502e-01 5.678150875183340940e-01 5.476523854541687220e-01
3.434795007265419309e-01 4.818485941320771460e-01 3.013866340101655217e-01 6.145428309669761502e-01 5.678150875183340940e-01 5.476523854541687220e-01
5.049586956222210654e-01 -1.347566455898849824e-01 -4.385057867065983994e-01 6.170776226909058249e-01 -2.731617461367887301e-01 -7.379687446102584092e-01
5.052286674885284601e-01 -1.304109853070748171e-01 -4.337438216990769368e-01 6.170776226909058249e-01 -2.731617461367887301e-01 -7.379687446102584092e-01
1.661220601327360880e-01 4.068030830171097678e-01 -5.024404444623075117e-01 3.363105699005763949e-01 7.222681656835578945e-01 -6.043375690897084818e-01
4.943492376206428118e-01 -1.052144970032053428e-01 -4.432649980580252169e-01 6.351416646305673153e-01 -1.824384241510099980e-01 -7.505406632845473824e-01
3.319029889323595328e-01 6.205818193004206673e-01 1.361677617544102270e-01 7.745824016200205664e-01 5.537899265165745488e-01 3.055140265017762813e-01
4.798494646542904030e-01 -4.302459469337480136e-02 -4.793056959496159730e-01 7.269704040894712227e-01 -6.488909303320326838e-02 -6.835959604790824429e-01
2.843538555817269331e-01 7.252157633668078196e-01 -4.946610548814975306e-02 8.394131112847958986e-01 5.258880039390416705e-01 -1.372131040250509082e-01
-7.813114554846602999e-01 -3.527173469539509471e-03 -2.789594217635527063e-01 -5.412305084584063675e-01 -4.133559802282673473e-02 -8.398576695190383967e-01
-7.509591918005926736e-01 -1.604725386237414869e-02 -2.834780051859660532e-01 -5.412305084584063675e-01 -4.133559802282673473e-02 -8.398576695190383967e-01
3.189854472192898416e-01 6.567441572048221543e-01 -8.185304481995182846e-02 8.205516641736744221e-01 5.477099352887799810e-01 -1.634282509475452616e-01
-6.754892068555475027e-02 -7.747661962200487196e-01 -2.566487639206913030e-01 -1.655724449151069755e-01 -5.544237077577263140e-01 -8.155980123571960894e-01
6.624745914221262799e-01 -6.347900697846985130e-02 -3.339540880280135182e-01 5.412915593481912868e-01 -1.066171310787476373e-01 -8.340481012141569561e-01
6.485520331901751812e-01 -4.261930785586975912e-02 -3.434482395963572854e-01 5.412915593481912868e-01 -1.066171310787476373e-01 -8.340481012141569561e-01
6.860754945650202608e-01 -3.847791485185159815e-02 -3.189295328962114540e-01 5.367727058424988096e-01 -9.810525076579058867e-02 -8.380038317541893544e-01
7.557449306947743306e-01 -6.109207841414119461e-02 -2.874140849499965400e-01 5.339485088990945094e-01 -1.365469917726596094e-01 -8.344183056970112533e-01
7.595225475014552030e-01 -4.475724057009280998e-02 -2.884090548744420168e-01 5.252302374768242910e-01 -1.042894985115662421e-01 -8.445453795624274784e-01
7.184396114824331825e-01 -4.702690083905764623e-02 -3.052466748252142814e-01 5.252302374768242910e-01 -1.042894985115662421e-01 -8.445453795624274784e-01
-7.791468922735157454e-01 -5.449300518358082823e-02 -2.576918606742303886e-01 -5.542953345580236002e-01 -1.992187924329363591e-01 -8.081265710448898298e-01
-8.035549424514668582e-01 -4.747224513113405125e-02 -2.297619071162225746e-01 -5.542953345580236002e-01 -1.992187924329363591e-01 -8.081265710448898298e-01
6.739074901808931317e-01 -1.871919629300487498e-01 -2.688661885699981657e-01 5.380195486031944530e-01 -3.997116693550512023e-01 -7.421358007145412161e-01
6.915156410087632821e-01 -1.587658233586270451e-01 -2.821750719280466946e-01 5.380195486031944530e-01 -3.997116693550512023e-01 -7.421358007145412161e-01
2.920696387767767188e-01 6.772339093408294985e-01 -1.400944717637403747e-01 7.813715153574692929e-01 5.295850962579286003e-01 -3.301487252882444046e-01
2.688914636950308079e-01 7.301752340683201892e-01 -1.488643306537200950e-01 7.813715153574692929e-01 5.295850962579286003e-01 -3.301487252882444046e-01
-7.474351324765693416e-01 -8.337517857905445140e-02 -2.633277030359267856e-01 -5.329290928095601343e-01 -2.060896498026510981e-01 -8.206787668030652849e-01
-7.219554922151668608e-01 -1.073877717024092349e-01 -2.738210166889706865e-01 -5.329290928095601343e-01 -2.060896498026510981e-01 -8.206787668030652849e-01
2.650874310221550956e-01 7.568869286845657518e-01 1.174349934265292855e-01 7.699514066035748616e-01 5.396243171886241363e-01 3.405589930803293308e-01
2.500767551580173054e-01 7.535465749443498451e-01 1.322712513209460261e-01 7.699514066035748616e-01 5.396243171886241363e-01 3.405589930803293308e-01
4.126894021363622933e-01 4.265993629161047296e-01 -3.074783183323100966e-01 6.222387851799283665e-01 6.041785809104740501e-01 -4.977822180299460442e-01
3.996535911468522273e-01 4.165150367916014007e-01 -3.042534880714130030e-01 6.222387851799283665e-01 6.041785809104740501e-01 -4.977822180299460442e-01
-7.269854307441193653e-01 -6.810985602138816541e-02 -2.911785472497407934e-01 -5.307957782969636717e-01 -1.377864686218364942e-01 -8.362240912619322009e-01
-7.667274197113664869e-01 -3.767850211523012666e-02 -2.788003505032694562e-01 -5.307957782969636717e-01 -1.377864686218364942e-01 -8.362240912619322009e-01
7.874711466659894965e-01 -1.527417595035575060e-01 -1.866517377019704105e-01 5.595493946950661490e-01 -4.596602781304942043e-01 -6.896498413001932448e-01
7.782013296809336955e-01 -1.421569133764982729e-01 -2.146709085174888232e-01 5.595493946950661490e-01 -4.596602781304942043e-01 -6.896498413001932448e-01
2.159751758636869745e-01 8.334943182099505687e-01 9.855777455199947468e-02 7.579620013169211523e-01 5.816388349560955850e-01 2.952793088425998969e-01
2.448399747282140049e-01 7.990271220778829564e-01 9.546963281803451384e-02 7.579620013169211523e-01 5.816388349560955850e-01 2.952793088425998969e-01
3.593329061174928563e-01 5.032021429736615037e-01 -2.514840690769167830e-01 6.526211786756173083e-01 5.984569162532337172e-01 -4.646879776072520563e-01
3.726428072483881082e-01 4.846399092664290809e-01 -2.273648734814902594e-01 6.526211786756173083e-01 5.984569162532337172e-01 -4.646879776072520563e-01
4.155169878690778140e-01 4.486869776781710062e-01 -2.510590430375524984e-01 6.526211786756173083e-01 5.984569162532337172e-01 -4.646879776072520563e-01
3.449190161577848635e-01 6.682514579030911506e-01 -9.410868759929605365e-02 8.125107274379390621e-01 5.367957673345840064e-01 -2.273249259758949870e-01
3.353120953776146385e-01 6.554230764607763549e-01 -1.022675577698373139e-01 8.125107274379390621e-01 5.367957673345840064e-01 -2.273249259758949870e-01
3.350882150034993900e-01 6.257334056168886161e-01 -1.078478261166853358e-01 8.125107274379390621e-01 5.367957673345840064e-01 -2.273249259758949870e-01
1.551732465394471960e-01 8.975881113779322629e-01 9.364122365195937103e-02 6.502803486902419827e-01 6.699027338918340790e-01 3.582817260642022772e-01
-3.539029893380496450e-02 -1.020597717977721475e-01 -9.751422081293712463e-01 -1.760403796974996382e-01 -5.319948096893846179e-01 -8.282459219214517443e-01
1.472833551430522692e-01 8.883222021664588519e-01 -1.427176579965217518e-01 5.631137552679760239e-01 6.591876361016874020e-01 -4.983719083562669905e-01
1.654000513432162672e-02 6.389594458273679667e-01 -3.362500807709057904e-01 4.908602356543795286e-02 5.369399155036648219e-01 -8.421912427883886387e-01
-1.612283613418172279e-02 3.203761223539298986e-02 -1.003506963294164889e+00 -1.172541334865139645e-01 1.098649978878195044e-01 -9.870061552084851142e-01
7.007511462032432747e-02 -1.710419330527467863e-01 -8.871716916072207582e-01 2.661646392148306894e-01 -6.889724585548753222e-01 -6.741463759336614459e-01
1.776066149483849360e-02 6.939446106644362455e-01 -3.157980443951925453e-01 4.467384616533567887e-02 5.342742590802689318e-01 -8.441298854755856507e-01
4.853614437146455685e-02 -2.144124983357882930e-01 -8.454163821224301989e-01 1.638703408464846079e-01 -7.467135983160799739e-01 -6.446435553704924493e-01
5.296990051119568332e-02 -1.911625305006922071e-01 -8.574174255785691479e-01 1.638703408464846079e-01 -7.467135983160799739e-01 -6.446435553704924493e-01
1.235346290733563626e-02 -1.792293950699266614e-01 -8.986017751242620921e-01 1.056371293797829375e-01 -7.195247796635944049e-01 -6.863853788845264425e-01
-7.861777659039552724e-01 -1.881483903966159055e-01 -2.216924229189560780e-01 -5.588937691164284072e-01 -5.565851639865451173e-01 -6.146956239252914234e-01
-7.893749624357090378e-01 -1.913124731446045890e-01 -1.870779441078958827e-01 -5.588937691164284072e-01 -5.565851639865451173e-01 -6.146956239252914234e-01
-8.071231188129990297e-01 8.670827725347114712e-04 2.334769293678405910e-01 -5.758854296652274884e-01 -1.025005402646923976e-02 8.174661511596371666e-01
-8.199857858368195807e-01 8.991139640631775481e-03 2.139558580350689465e-01 -5.758854296652274884e-01 -1.025005402646923976e-02 8.174661511596371666e-01
3.318353704127540715e-01 5.294174393261625866e-01 2.554683020758750089e-01 6.801897807417198738e-01 5.578401985421408416e-01 4.755588029518492132e-01
1.171719284091725793e-01 5.426900090391574283e-01 -3.952592544058634583e-01 1.878187968775673344e-01 6.183737313896489063e-01 -7.631107572736118838e-01
1.115492373918589575e-01 5.200653852717830317e-01 -4.370330122701121534e-01 1.878187968775673344e-01 6.183737313896489063e-01 -7.631107572736118838e-01
6.900859426520770945e-02 6.360087413090890207e-01 -3.543464808755105722e-01 1.887227283803739886e-01 5.584228195446220289e-01 -8.078042376742661235e-01
8.872144331735393186e-02 6.024527780475118499e-01 -3.627020559519870679e-01 1.887227283803739886e-01 5.584228195446220289e-01 -8.078042376742661235e-01
-6.884999974055222571e-01 -2.078364520158832163e-01 -2.584776587626175237e-01 -5.468774401197330493e-01 -5.220697056837785288e-01 -6.544985010642428991e-01
3.567897314923567098e-01 4.280566440565892194e-01 -3.599807152343287853e-01 5.626087484869838340e-01 5.859748804675507516e-01 -5.831850783301553154e-01
3.305997608079217498e-01 4.486593305974084234e-01 -3.511166932411955988e-01 5.626087484869838340e-01 5.859748804675507516e-01 -5.831850783301553154e-01
3.749290050259442841e-01 3.960611898329357006e-01 -3.752357824562728705e-01 5.626087484869838340e-01 5.859748804675507516e-01 -5.831850783301553154e-01
3.290317344245858311e-01 4.516715531751859247e-01 -3.303025230044432936e-01 5.626337830292701403e-01 5.596294925123209696e-01 -6.084883378542058630e-01
3.112095585714798607e-01 4.796244423989323158e-01 -3.397996715897967368e-01 5.626337830292701403e-01 5.596294925123209696e-01 -6.084883378542058630e-01
5.578313516739502598e-02 -2.176167423734457762e-01 -8.356110640449379012e-01 1.511985566274536286e-01 -8.012119356694009653e-01 -5.789632377056994628e-01
-6.395734895275219101e-01 -1.722966139640514094e-01 -2.980651999223574711e-01 -5.378620429600700081e-01 -4.357464972522912539e-01 -7.216851203088358035e-01
1.088701676246027136e-02 -2.939023601341609893e-01 -7.609464746020238035e-01 2.457220154396007675e-02 -8.407882165963361798e-01 -5.408062330854144228e-01
1.711666311090952186e-02 -2.690665651591717111e-01 -7.741239320069129848e-01 2.457220154396007675e-02 -8.407882165963361798e-01 -5.408062330854144228e-01
2.907521085373270253e-01 4.888220344549131235e-01 -3.316801929008830196e-01 5.511331315668351882e-01 5.681964739603260206e-01 -6.110687672172305795e-01
2.871574980108276831e-01 5.291972709102764627e-01 -3.448760378350960165e-01 5.511331315668351882e-01 5.681964739603260206e-01 -6.110687672172305795e-01
3.085259652393071983e-01 5.107538938292404129e-01 -3.252860599874166647e-01 5.511331315668351882e-01 5.681964739603260206e-01 -6.110687672172305795e-01
-8.495567363130218652e-02 -3.927982340528858307e-01 -5.752972517295115162e-01 -1.537032569170563856e-01 -8.035065946351406252e-01 -5.751108251380158132e-01
-7.768973647753403544e-02 -3.823963246299716401e-01 -5.858291506248631819e-01 -1.537032569170563856e-01 -8.035065946351406252e-01 -5.751108251380158132e-01
-6.863231920586645440e-01 -1.959648838965149242e-01 -2.440770383724756298e-01 -5.458513634066745057e-01 -4.968581884770466028e-01 -6.746689778034722362e-01
-7.239614791556376883e-01 -1.253528720857281786e-01 -2.735631805080023238e-01 -5.426431307787259462e-01 -3.034414933859159724e-01 -7.832379540793382722e-01
-1.616233684765379930e-01 -8.240965491898757933e-02 8.766637127057892442e-01 -6.430313157092014675e-01 -3.290303009767199249e-01 6.915560628441212998e-01
-3.012968287261997835e-01 -3.316275908281092200e-01 -5.166399590870557335e-01 -5.447169670443700040e-01 -6.263441372921855210e-01 -5.576526226009258513e-01
-2.700015201990209612e-01 -3.371576303851142598e-01 -5.151105452576159038e-01 -5.447169670443700040e-01 -6.263441372921855210e-01 -5.576526226009258513e-01
-2.977504955150771515e-01 -3.268762622981787880e-01 -4.900173154559899769e-01 -5.447169670443700040e-01 -6.263441372921855210e-01 -5.576526226009258513e-01
-2.898151239146743996e-01 -3.082410195434397426e-01 -5.445014477168544920e-01 -5.447169670443700040e-01 -6.263441372921855210e-01 -5.576526226009258513e-01
-7.089681938923703131e-01 -1.325673012506042581e-01 -3.055254171730075186e-01 -5.284939010657897507e-01 -2.616913148741475958e-01 -8.075963423986657341e-01
-7.073543853579108420e-01 -1.380905721639277273e-01 -2.947084123733625383e-01 -5.188845476240336874e-01 -3.559418790107043984e-01 -7.772156747025441570e-01
-2.020405909910016340e-01 -3.180887173436477422e-01 -5.943329470085637611e-01 -4.133437323398382879e-01 -7.252533222808540403e-01 -5.505947488452425098e-01
-1.965511362177383703e-01 -3.577179891456992999e-01 -5.427809530508470592e-01 -4.007550938026204768e-01 -7.195981552536144799e-01 -5.670748184735835418e-01
-2.235323213716108592e-01 -3.472379781468440951e-01 -5.361158703503970946e-01 -4.007550938026204768e-01 -7.195981552536144799e-01 -5.670748184735835418e-01
-1.636571558904043322e-01 -3.311998977299255853e-01 -6.324450038644434668e-01 -3.267080186055467683e-01 -7.679132557220554878e-01 -5.509728689011743619e-01
-1.311020933302126934e-01 -3.228632052613152337e-01 -6.416454649246944308e-01 -2.725400549824928409e-01 -7.932481555824424380e-01 -5.444991111977988130e-01
-1.507328970123462675e-01 -3.380851278217560374e-01 -6.213427782334937088e-01 -2.725400549824928409e-01 -7.932481555824424380e-01 -5.444991111977988130e-01
-1.771693384064708943e-01 -4.046211191157346176e-01 -5.223304549964843391e-01 -3.456285211884980169e-01 -7.221648885181596311e-01 -5.991817746999702488e-01
-1.238207138555783432e-01 7.817945975522909707e-01 -2.330402762219747070e-01 -3.089171879626160799e-01 5.438397489723028055e-01 -7.802618140207890907e-01
-4.238180532810925660e-01 -3.346635252366161883e-01 -3.829512594763735955e-01 -5.806541699875681362e-01 -5.566262536651361836e-01 -5.941447202548917339e-01
-1.194273134240396161e-01 7.462999331013198123e-01 -2.633119893695282099e-01 -3.103215161296692948e-01 5.432615595360086314e-01 -7.801073224611386747e-01
-1.190060962656842580e-01 7.200938143675982284e-01 -2.716157225151438204e-01 -3.103215161296692948e-01 5.432615595360086314e-01 -7.801073224611386747e-01
-2.670164134864534966e-01 -4.407652835520458612e-01 -4.216643643597837166e-01 -4.808747751078707444e-01 -6.387920560759581257e-01 -6.005865131346229679e-01
-2.710415577878254045e-01 -4.275175120328317258e-01 -4.539206173785962917e-01 -4.808747751078707444e-01 -6.387920560759581257e-01 -6.005865131346229679e-01
-4.462899769905441794e-01 -2.772639285409855825e-01 -4.058437792217509665e-01 -5.940175284052354732e-01 -4.910456911275591918e-01 -6.371948722113142116e-01
-4.392410087733709112e-01 -2.994338079434790134e-01 -3.851679728642883882e-01 -5.940175284052354732e-01 -4.910456911275591918e-01 -6.371948722113142116e-01
-4.453996888787262187e-01 -2.693533239273983027e-01 -4.079140514688806007e-01 -5.940175284052354732e-01 -4.910456911275591918e-01 -6.371948722113142116e-01
-1.417228244019080874e-01 -2.787351201954384461e-01 -7.157980468698981191e-01 -3.847107273296296315e-01 -7.500757209104682577e-01 -5.379442993267505857e-01
-2.246185661420987134e-01 -2.345151619577705016e-01 -6.832713554220884999e-01 -5.374560323842649812e-01 -6.587124448058050419e-01 -5.265348310527264708e-01
-4.601900432582229361e-01 -1.935698805630534647e-01 -4.404230195945937343e-01 -6.320798111804931674e-01 -3.654467532696102916e-01 -6.833182149063001809e-01
-4.952972526956092025e-01 -2.105705676632487477e-01 -4.022434150690533672e-01 -6.320528841198822523e-01 -3.850085725588396346e-01 -6.725158367889513267e-01
-4.697471239032992574e-01 -2.127331263130254890e-01 -4.302734560550311449e-01 -6.320528841198822523e-01 -3.850085725588396346e-01 -6.725158367889513267e-01
-2.571236811134514633e-01 4.727411012811776891e-01 -3.832407724211516764e-01 -4.975364942301515603e-01 5.852620943466612102e-01 -6.402544164862356002e-01
3.906739640156648985e-01 5.539412423279795883e-01 1.522283710389989442e-01 7.559936583454859305e-01 6.063445906560879228e-01 2.466167592105408812e-01
-5.485509390592714363e-01 -2.134243881729393499e-01 -3.711588229002908412e-01 -5.752585719257321539e-01 -4.302862779803345306e-01 -6.956517048119680302e-01
-5.105950019357783365e-01 -2.336936283888989829e-01 -3.863804164916291861e-01 -5.752585719257321539e-01 -4.302862779803345306e-01 -6.956517048119680302e-01
-5.295587167836048881e-01 -2.136956791850956050e-01 -3.592930767833476535e-01 -5.752585719257321539e-01 -4.302862779803345306e-01 -6.956517048119680302e-01
-6.279434552963999439e-01 -1.901912200433932831e-01 -3.198851086221801698e-01 -5.512431862587349185e-01 -3.519389418783789303e-01 -7.564852482321415827e-01
