3.941591304856802980e-01 3.536208321763799067e-01 -3.627016951115884513e-01 -8.015915348479803193e-02 9.732448145424982267e-01 -2.153347187026258269e-01
3.900396546984433721e-01 3.525535696482100523e-01 -3.643456638414518944e-01 -1.006386408932798127e-01 9.667420491977922747e-01 -2.351205526363161769e-01
3.634405078967479774e-01 3.542180450881463605e-01 -3.519563285672607234e-01 -1.006386408932798127e-01 9.667420491977922747e-01 -2.351205526363161769e-01
3.846375753433496913e-01 3.546105796094297657e-01 -3.767189890122553675e-01 -1.006386408932798127e-01 9.667420491977922747e-01 -2.351205526363161769e-01
3.697901314734850509e-01 3.574103583962651709e-01 -3.752619159167953078e-01 -1.006386408932798127e-01 9.667420491977922747e-01 -2.351205526363161769e-01
3.930966318258309333e-01 3.447445341732008339e-01 -3.985874267966499351e-01 4.246764193060539316e-01 -8.728254923244428420e-01 -2.404695382662482561e-01
4.121362094925024588e-01 3.463369887016577997e-01 -3.713866173521220282e-01 4.833693058954207089e-01 -8.312557432771724431e-01 -2.745323357764885008e-01
3.947262151522397122e-01 3.359444085582681816e-01 -3.816603236883607253e-01 5.250321771396726511e-01 -7.807814510146426912e-01 -3.387056815576681701e-01
3.977428128026158638e-01 3.320677955988427521e-01 -3.597070399311488864e-01 5.250321771396726511e-01 -7.807814510146426912e-01 -3.387056815576681701e-01
4.243106836713740893e-01 3.419400378976048538e-01 -3.514450737922031331e-01 5.476789609300198869e-01 -7.780417329691324824e-01 -3.077317297793694673e-01
4.222945258134241375e-01 3.228432435018902535e-01 -3.446107898817397097e-01 4.685890750744347577e-01 -8.111422429998821348e-01 -3.499607697185585509e-01
4.128976940898991255e-01 3.486493201571502221e-01 -4.037812479807523225e-01 3.765447836782448432e-01 -9.002883781891601878e-01 -2.183915336780148098e-01
4.282781322653847478e-01 3.530973234648340231e-01 -4.030103785629716717e-01 3.765447836782448432e-01 -9.002883781891601878e-01 -2.183915336780148098e-01
4.209735655098372775e-01 3.495376977519734640e-01 -3.824173143210174985e-01 3.900013687595800804e-01 -9.026385414336861590e-01 -1.820510804255811299e-01
4.539405380775907717e-01 3.604743310892725705e-01 -3.855310459354094332e-01 4.024798843207249011e-01 -8.965411617911234199e-01 -1.849969943847690756e-01
4.345203135645946402e-01 3.542565163037894038e-01 -3.612466601391000065e-01 4.393769868550091995e-01 -8.696601037971131154e-01 -2.250314806550575419e-01
4.442682905410736405e-01 3.439404425976137492e-01 -3.782217030996848917e-01 3.987530143407028160e-01 -8.973951443248788795e-01 -1.888861786800005160e-01
4.404834320613289500e-01 3.571490522386226996e-01 -3.435289815545985448e-01 4.510517473131905875e-01 -8.584464434750570527e-01 -2.441762169637807511e-01
4.373210689125503481e-01 3.529535387117780920e-01 -3.425260284544545120e-01 4.510517473131905875e-01 -8.584464434750570527e-01 -2.441762169637807511e-01
4.638665878690513278e-01 3.587967093200774005e-01 -3.498536881453073732e-01 3.981059545803312671e-01 -9.055620964068871181e-01 -1.465228257946425416e-01
4.732575239714688076e-01 3.649303044340965196e-01 -3.606149602258618692e-01 3.981059545803312671e-01 -9.055620964068871181e-01 -1.465228257946425416e-01
4.641312708819394506e-01 3.490099180450491612e-01 -2.929489382494249172e-01 6.537425662747380350e-01 -6.560943116147404108e-01 -3.770423203133830836e-01
4.526382906962316266e-01 3.352144857696812696e-01 -3.073014019541340236e-01 6.033061307504715698e-01 -6.879193385673142425e-01 -4.034708121091335475e-01
4.622970189829291865e-01 3.452814244751682415e-01 -3.056694497689974588e-01 5.237048283480826294e-01 -8.092050465028634010e-01 -2.663089286509258691e-01
4.642562218071067948e-01 3.482506392823087604e-01 -3.230148593806604906e-01 4.828093688038711528e-01 -8.338000918607957335e-01 -2.677172392808059298e-01
4.831891876707140598e-01 3.555133168826120071e-01 -3.232386417947032409e-01 4.440858414246716679e-01 -8.739927625063869110e-01 -1.972927178904370915e-01
4.929995742321414687e-01 3.711578674894694951e-01 -3.222705271490095003e-01 4.230149602983337420e-01 -8.945799832197678381e-01 -1.441700280443858062e-01
4.686190266014935157e-01 3.517954520555173770e-01 -3.344889911731624421e-01 4.834877824659698509e-01 -8.565914219785993877e-01 -1.802517683653065417e-01
4.870565820128730516e-01 3.545437177992379896e-01 -2.937738839663526225e-01 5.925284714238141515e-01 -7.587537645370704409e-01 -2.705600401999199711e-01
4.751531456144853505e-01 3.678748174330848109e-01 -2.999142184980525538e-01 4.620932145981392902e-01 -8.611626792563069621e-01 -2.118223332853661212e-01
3.549709763593383860e-01 3.607866329935455196e-01 -3.037235232744052715e-01 -7.823191654594507938e-02 9.643227046623299437e-01 -2.529060863369582690e-01
3.729486293717070300e-01 3.699848815383567358e-01 -3.248480932941110177e-01 -7.823191654594507938e-02 9.643227046623299437e-01 -2.529060863369582690e-01
3.619867357193033430e-01 3.719938987671233543e-01 -3.325173342869011117e-01 -7.823191654594507938e-02 9.643227046623299437e-01 -2.529060863369582690e-01
4.046740407156059205e-01 3.756043193335418806e-01 -3.429676265124609325e-01 -9.367964797550158706e-02 9.645177859121168984e-01 -2.468391464382699296e-01
3.955164968550301530e-01 3.628268733282810077e-01 -3.460022440533862542e-01 -9.367964797550158706e-02 9.645177859121168984e-01 -2.468391464382699296e-01
3.852544019694329469e-01 3.661068945745523662e-01 -3.063431435473216724e-01 -9.367964797550158706e-02 9.645177859121168984e-01 -2.468391464382699296e-01
3.753908438942312742e-01 3.714855058043042280e-01 -3.505278824526868453e-01 -9.367964797550158706e-02 9.645177859121168984e-01 -2.468391464382699296e-01
4.204735204345187993e-01 3.629347776490624011e-01 -3.430978575313539114e-01 -9.367964797550158706e-02 9.645177859121168984e-01 -2.468391464382699296e-01
4.241520835888231145e-01 3.603599968671268305e-01 -3.661866702926068196e-01 -9.367964797550158706e-02 9.645177859121168984e-01 -2.468391464382699296e-01
3.941069117386146736e-01 3.557773938780212641e-01 -3.268468608271697384e-01 -9.367964797550158706e-02 9.645177859121168984e-01 -2.468391464382699296e-01
4.211610800048605219e-01 3.657009785497801202e-01 -3.266171775949330836e-01 -6.137525761748792441e-02 9.742562177371162369e-01 -2.169283290696630839e-01
4.447208253094138697e-01 3.703240897672257503e-01 -3.380814948781440399e-01 -6.137525761748792441e-02 9.742562177371162369e-01 -2.169283290696630839e-01
4.170669418314409960e-01 3.674348031328462660e-01 -3.268104405507962218e-01 -6.137525761748792441e-02 9.742562177371162369e-01 -2.169283290696630839e-01
3.950244454544946104e-01 3.662528407042991985e-01 -3.079490487499030871e-01 -6.137525761748792441e-02 9.742562177371162369e-01 -2.169283290696630839e-01
4.469091180258846774e-01 3.581450044315792614e-01 -3.538159686968945783e-01 -6.137525761748792441e-02 9.742562177371162369e-01 -2.169283290696630839e-01
4.551384726867289121e-01 3.629688530286777626e-01 -3.691425502183915408e-01 -7.341578381116523055e-02 9.736618760872520761e-01 -2.158533616639887742e-01
4.723966314654240439e-01 3.744184576947081067e-01 -3.422876024915705306e-01 -6.181825950918866386e-02 9.766244776095894808e-01 -2.058716408956105248e-01
4.895738485788649896e-01 3.752865699718747616e-01 -3.426956042792577706e-01 3.831127502216397640e-01 -9.143754194044255712e-01 -1.309282742824946777e-01
1.086309946500769313e-01 -9.557786213256307117e-02 -2.502867684192696118e-01 4.090167777444471131e-01 -6.590092914974051697e-01 -6.311988824797123421e-01
8.770748912078719928e-02 -8.549118176905610988e-02 -2.715604854181930539e-01 3.648456749733927085e-01 -7.599202313439942236e-01 -5.379673553732604585e-01
1.104553327625231451e-01 -8.140804553460821713e-02 -2.453728695559342365e-01 3.952241159557177141e-01 -6.904133352849017857e-01 -6.059103272166593834e-01
1.182024096592702994e-01 -7.616449495789476276e-02 -2.658333168661545232e-01 4.036147308601860106e-01 -7.663552688361189302e-01 -4.997947088153091300e-01
-2.654592564371365260e-01 1.123261191313339180e-01 -2.954339123725787108e-01 -7.465010854234358506e-01 -2.928864356264532232e-01 -5.974559944361288455e-01
-2.378129262570404800e-01 1.218095013996984555e-01 -3.111958644616809044e-01 -7.106119430151459637e-01 -2.276446445064858604e-01 -6.657391247866949469e-01
-2.505418419430670007e-01 1.028300143149773888e-01 -3.046153265386470355e-01 -7.917946895721196254e-01 1.343941336991112123e-01 -5.958182494625823278e-01
-2.652089880694298296e-01 1.153701316610783456e-01 -3.044147786281044543e-01 -7.129495865976972491e-01 -1.778074608818618896e-01 -6.782974228352320889e-01
-2.556776600352743123e-01 9.395392137800785692e-02 -3.051646662584227565e-01 -7.752495687372685795e-01 2.635073706333833643e-01 -5.740661737069688852e-01
-2.455619370881840513e-01 9.695178040877198977e-02 -3.039110227009937382e-01 1.481075470401931327e-01 -9.576674138069080078e-01 -2.468547731807623768e-01
-1.898282003653049277e-01 1.146205600611440306e-01 -3.262544161759247108e-01 1.907196846277837976e-01 -9.470460574534927956e-01 -2.583210540340728500e-01
-1.707404064181569370e-01 1.065018220491632528e-01 -3.238924714377021119e-01 1.907196846277837976e-01 -9.470460574534927956e-01 -2.583210540340728500e-01
-1.766342501013216104e-01 1.011563228731186120e-01 -2.896582074454476796e-01 1.907196846277837976e-01 -9.470460574534927956e-01 -2.583210540340728500e-01
-1.706152482861888753e-01 1.039599974931794818e-01 -2.907773123628861756e-01 1.907196846277837976e-01 -9.470460574534927956e-01 -2.583210540340728500e-01
-2.046432573238191610e-01 1.010906676934022197e-01 -3.075862706973718219e-01 1.752013451452740789e-01 -9.543216515075999551e-01 -2.420220529685126465e-01
-1.742393380345324261e-01 1.064614992828970541e-01 -2.698685093613246155e-01 1.752013451452740789e-01 -9.543216515075999551e-01 -2.420220529685126465e-01
-2.206486937542943005e-01 1.028439764084982944e-01 -3.022172327864105501e-01 1.752013451452740789e-01 -9.543216515075999551e-01 -2.420220529685126465e-01
-2.308401263232155443e-01 1.105378401804030936e-01 -2.902407336578719521e-01 1.752013451452740789e-01 -9.543216515075999551e-01 -2.420220529685126465e-01
-1.818238763904450883e-01 1.053080544574068328e-01 -2.879490368775091680e-01 1.752013451452740789e-01 -9.543216515075999551e-01 -2.420220529685126465e-01
-1.940750888099003479e-01 1.092437132949622691e-01 -2.860044303854138992e-01 1.752013451452740789e-01 -9.543216515075999551e-01 -2.420220529685126465e-01
-2.115105400290529514e-01 1.100786082294421819e-01 -3.105771481497100472e-01 1.752013451452740789e-01 -9.543216515075999551e-01 -2.420220529685126465e-01
-1.070780402856060659e-01 1.271767782752121212e-01 -2.868342782086714671e-01 2.684175158715240705e-01 -9.235157382475321919e-01 -2.739903618423025211e-01
-1.248820457021577734e-01 1.256825094844656598e-01 -3.077465130074830690e-01 2.291472326155949979e-01 -9.372838565493363250e-01 -2.626604615023312994e-01
-1.288137601510492003e-01 1.248866733055001982e-01 -2.927696158676098559e-01 2.291472326155949979e-01 -9.372838565493363250e-01 -2.626604615023312994e-01
-1.437540022274857165e-01 1.225963008640273411e-01 -3.070632460612502945e-01 2.257870082111492482e-01 -9.389892064748632805e-01 -2.594600104963478149e-01
-1.617584863683424190e-01 1.161485720186029996e-01 -3.080962616135807242e-01 2.257870082111492482e-01 -9.389892064748632805e-01 -2.594600104963478149e-01
-1.178745332407079988e-01 1.242062906177348047e-01 -2.637786881504375902e-01 2.257870082111492482e-01 -9.389892064748632805e-01 -2.594600104963478149e-01
-1.477291724433351106e-01 1.126783783110944376e-01 -2.946998328409885515e-01 2.257870082111492482e-01 -9.389892064748632805e-01 -2.594600104963478149e-01
-1.293263663420017029e-01 1.193472574224459237e-01 -2.645304786477047365e-01 2.257870082111492482e-01 -9.389892064748632805e-01 -2.594600104963478149e-01
-1.669607185087558787e-01 1.068141911676051825e-01 -2.767135039335940072e-01 2.257870082111492482e-01 -9.389892064748632805e-01 -2.594600104963478149e-01
-8.901968826903657039e-02 1.276162248945488797e-01 -2.619689623307823179e-01 2.662154542573768046e-01 -9.235776190898274951e-01 -2.759233832622814409e-01
-9.767246715062730122e-02 1.193096686928932226e-01 -2.716852260201364500e-01 2.662154542573768046e-01 -9.235776190898274951e-01 -2.759233832622814409e-01
-2.701088521476544546e-01 1.363262582501851838e-01 -2.831750845524579896e-01 -6.222323710797407204e-01 -5.280227988839578668e-01 -5.779435960707888231e-01
-2.805278908499943546e-01 1.351435207008692407e-01 -2.939875872729729167e-01 -4.021715196469102804e-01 -7.227480766789506905e-01 -5.620438474369880977e-01
-2.889952734462986617e-01 1.610831765423896000e-01 -3.195031678187543744e-01 -2.588160756227279036e-01 -8.382120300773159283e-01 -4.800154493689917645e-01
-3.170268710909964205e-01 1.546788583041238951e-01 -2.919424811986129353e-01 -2.802686274977185255e-01 -8.599572590141590922e-01 -4.265243358935098539e-01
-3.092660894132099880e-01 1.534535909496649586e-01 -2.979386249136398157e-01 -2.720217923218920530e-01 -8.591925409348771803e-01 -4.333501149230892802e-01
-9.731030079379913988e-02 1.327869560712811869e-01 -3.061507131878160592e-01 2.380652688052478094e-01 -9.417972931253769664e-01 -2.373663549250360494e-01
-1.128685734340271196e-01 1.276947220408783945e-01 -2.981994557934917189e-01 2.380652688052478094e-01 -9.417972931253769664e-01 -2.373663549250360494e-01
-7.134706043445995793e-02 1.220329269020406782e-01 -2.648210683057254933e-01 2.919085775288829399e-01 -9.104659844085246645e-01 -2.929864734080402378e-01
-9.389282709140586713e-02 1.259390906334581783e-01 -2.760301382173298013e-01 2.827802181988998131e-01 -9.260193204933421240e-01 -2.500471280947486052e-01
-8.247182950811889068e-02 1.244269834134035108e-01 -3.132461531735159510e-01 2.827802181988998131e-01 -9.260193204933421240e-01 -2.500471280947486052e-01
-8.442266512552037971e-02 1.472878282733645350e-01 -3.151375292436962572e-01 2.610184472836262204e-01 -9.373870858195528788e-01 -2.305966641484017976e-01
-9.500606568636714433e-02 1.340257782027655664e-01 -3.144528477892609697e-01 2.610184472836262204e-01 -9.373870858195528788e-01 -2.305966641484017976e-01
-5.948999222321375152e-02 1.334027525942069192e-01 -2.815960669509383063e-01 2.610184472836262204e-01 -9.373870858195528788e-01 -2.305966641484017976e-01
-2.389933017541204588e-02 1.518100798225537895e-01 -3.123653935745824839e-01 2.927985950724062425e-01 -9.335249245618928438e-01 -2.068820870576696114e-01
-3.823339218059222666e-02 1.527309417560027138e-01 -2.917783461937621947e-01 2.927985950724062425e-01 -9.335249245618928438e-01 -2.068820870576696114e-01
-3.529762260441964700e-02 1.534807616548004017e-01 -3.050534656923052368e-01 2.927985950724062425e-01 -9.335249245618928438e-01 -2.068820870576696114e-01
-3.981491310502593972e-02 1.463106769827685061e-01 -3.074481077758881020e-01 2.927985950724062425e-01 -9.335249245618928438e-01 -2.068820870576696114e-01
-5.522916552611943641e-02 1.435149403038976090e-01 -2.822613748646733978e-01 3.238074739763682208e-01 -9.165741916759364560e-01 -2.346070564809323578e-01
-7.358805130644055503e-02 1.436313163661686598e-01 -3.019901900075769863e-01 3.238074739763682208e-01 -9.165741916759364560e-01 -2.346070564809323578e-01
-6.062350589544884122e-02 1.345571740399860439e-01 -2.756535000144842984e-01 3.238074739763682208e-01 -9.165741916759364560e-01 -2.346070564809323578e-01
1.177493657909558372e-02 1.604206728813922234e-01 -2.796539140458082495e-01 3.680763679612737982e-01 -9.121768565584272848e-01 -1.801476330891506328e-01
-1.559779403779104623e-02 1.595831258014705489e-01 -2.927948858068324389e-01 3.270958278836058608e-01 -9.264952544718667582e-01 -1.860506996016121906e-01
1.391960069301423700e-02 1.616851605212143994e-01 -2.955820894981757152e-01 3.270958278836058608e-01 -9.264952544718667582e-01 -1.860506996016121906e-01
-1.417201930599579912e-02 1.433283398899181382e-01 -2.835522982435380590e-01 3.549675466318032435e-01 -9.117546030444082517e-01 -2.066436175291465616e-01
-3.468435887822617688e-03 1.571030740814785831e-01 -2.766719399831072401e-01 3.549675466318032435e-01 -9.117546030444082517e-01 -2.066436175291465616e-01
2.636085075345325976e-02 1.644763780748880466e-01 -2.599845556962445681e-01 3.699145095802506278e-01 -9.124452179577213773e-01 -1.749485062185128503e-01
-3.134239948524581987e-01 1.560189565298003567e-01 -3.032995929817691727e-01 -2.327267618924570014e-01 -8.703176054241099635e-01 -4.340340078702298876e-01
-2.994627121470186948e-01 1.602865655747882923e-01 -3.054680616938383886e-01 -2.723481199290552768e-01 9.545860740563121283e-01 1.207970562094369121e-01
-2.883822985139264938e-01 1.763265544702480037e-01 -3.194264066368017185e-01 -2.708745540575193678e-01 9.551398196198571666e-01 1.197284466644693568e-01
-2.438671490393112540e-01 1.769275104820352273e-01 -3.145987105954253238e-01 -2.784297748959476126e-01 9.559481317038847070e-01 9.295176137784656734e-02
-2.605361152799900992e-01 1.793495139042388109e-01 -3.315350657637528009e-01 -2.784297748959476126e-01 9.559481317038847070e-01 9.295176137784656734e-02
-2.592034605132566560e-01 1.808622376690963707e-01 -3.216904204189534600e-01 -2.897277778591474395e-01 9.519624212605338753e-01 9.912297031759224886e-02
-2.732741686706134376e-01 1.747423864998805809e-01 -3.387028739115803266e-01 -2.897277778591474395e-01 9.519624212605338753e-01 9.912297031759224886e-02
-2.847733028395878496e-01 1.792249628180252186e-01 -3.318779138228952763e-01 -2.897277778591474395e-01 9.519624212605338753e-01 9.912297031759224886e-02
-2.697088610771956607e-01 1.797131244723020049e-01 -2.987154984141495162e-01 -3.054769723713149920e-01 9.446677989193497105e-01 1.195264365557931613e-01
-2.176832742770650198e-01 1.947549574731104738e-01 -3.243558464447331424e-01 -2.943173565277820147e-01 9.535934926723246274e-01 6.353537895925155665e-02
-2.263536943607011576e-01 1.939116958619736819e-01 -3.611757414872960870e-01 -2.943173565277820147e-01 9.535934926723246274e-01 6.353537895925155665e-02
-2.509203989941398150e-01 1.887184633717010618e-01 -3.519579809390762648e-01 -2.943173565277820147e-01 9.535934926723246274e-01 6.353537895925155665e-02
-2.361241989669366215e-01 1.859976732931896415e-01 -3.443642756866640564e-01 -2.943173565277820147e-01 9.535934926723246274e-01 6.353537895925155665e-02
-2.497986398888130122e-01 1.845151895813523513e-01 -3.365353220315336347e-01 -3.349910503589947353e-01 9.366591513203981201e-01 1.022283249746808870e-01
-2.439288377457727031e-01 1.847410442900934424e-01 -3.251947096330276565e-01 -3.349910503589947353e-01 9.366591513203981201e-01 1.022283249746808870e-01
-2.230739148906962233e-01 1.810036708202807099e-01 -3.089919789505319314e-01 -3.349910503589947353e-01 9.366591513203981201e-01 1.022283249746808870e-01
-2.221608710015581523e-01 1.972008765168198063e-01 -3.155098046357184272e-01 -3.532300897822092112e-01 9.324640275819823243e-01 7.575843806494739208e-02
-1.912387201272522375e-01 2.010245656246125445e-01 -3.053304762090749414e-01 -3.532300897822092112e-01 9.324640275819823243e-01 7.575843806494739208e-02
-2.235510910675991836e-01 1.943127824197853903e-01 -3.408438051628968068e-01 -3.532300897822092112e-01 9.324640275819823243e-01 7.575843806494739208e-02
-2.065055378894868066e-01 1.996232846296562002e-01 -3.226400627578266955e-01 -3.532300897822092112e-01 9.324640275819823243e-01 7.575843806494739208e-02
-1.782848049710775706e-01 2.075751906147922377e-01 -2.653784918237817592e-01 -3.734394839813940936e-01 9.272495037581626187e-01 2.741002706951085541e-02
-2.041502378027169606e-01 2.065697070846711225e-01 -2.911200285835576773e-01 -3.734394839813940936e-01 9.272495037581626187e-01 2.741002706951085541e-02
-1.890378809867733489e-01 2.113840232201557034e-01 -2.838870597986054012e-01 -3.734394839813940936e-01 9.272495037581626187e-01 2.741002706951085541e-02
2.358231853807350384e-02 1.669114679799747203e-01 -3.112443860118510597e-01 3.395084766266909249e-01 -9.276933818820012334e-01 -1.553028766989170140e-01
3.651776978218534975e-02 1.658008522385457373e-01 -2.701081723867813644e-01 3.886563832268393748e-01 -9.034286563467984754e-01 -1.810051896174543484e-01
3.280322784033031652e-02 1.765700908243240108e-01 -2.890230559801363341e-01 3.805061654321466591e-01 -9.123990822118063226e-01 -1.508077347060735596e-01
5.587171573414353304e-02 1.845331675491247714e-01 -2.866817494441288861e-01 3.414558530834677086e-01 -9.321825794933598086e-01 -1.201812750978589334e-01
4.553070965325059505e-02 1.627827283931377045e-01 -3.038569483793622239e-01 3.414558530834677086e-01 -9.321825794933598086e-01 -1.201812750978589334e-01
5.802792542818440563e-02 1.735664593463652483e-01 -2.654947690670014238e-01 3.414558530834677086e-01 -9.321825794933598086e-01 -1.201812750978589334e-01
7.366920526332694508e-02 1.987237275398398284e-01 -3.059688098675054091e-01 3.395155825500851821e-01 -9.378032035358679908e-01 -7.248669287213678480e-02
7.139387016757552107e-02 1.920588619342181724e-01 -3.146112192823858345e-01 3.395155825500851821e-01 -9.378032035358679908e-01 -7.248669287213678480e-02
6.416970149222189779e-02 1.907663622901727696e-01 -2.980391710021697560e-01 3.850116947086499319e-01 -9.151273752900711544e-01 -1.196155589055149793e-01
6.488098189981143793e-02 1.862722343108605683e-01 -2.777058192661833180e-01 3.850116947086499319e-01 -9.151273752900711544e-01 -1.196155589055149793e-01
5.548374969945587404e-02 1.765641784297312944e-01 -3.118421454491444034e-01 3.850116947086499319e-01 -9.151273752900711544e-01 -1.196155589055149793e-01
9.564378527034152200e-02 2.046199561594131966e-01 -2.968340408252604923e-01 3.667482751293991705e-01 -9.274719536831719235e-01 -7.274254477766556315e-02
1.023613865198890749e-01 1.913586021837144491e-01 -2.922884464527734094e-01 3.667482751293991705e-01 -9.274719536831719235e-01 -7.274254477766556315e-02
1.151858505633713975e-01 2.024538245138713388e-01 -2.588627116406909123e-01 3.774956602078154977e-01 -9.249487581094519850e-01 -4.434886014372928231e-02
1.036164490857753306e-01 2.003786363441067142e-01 -2.674767852873956020e-01 3.774956602078154977e-01 -9.249487581094519850e-01 -4.434886014372928231e-02
-1.681646612217455594e-01 2.108295584970244219e-01 -2.611891621973298494e-01 -4.238193538899814872e-01 9.047396161170081497e-01 4.270108074425610356e-02
-1.717656636028644379e-01 2.164201716081899651e-01 -2.797763928151959512e-01 -4.238193538899814872e-01 9.047396161170081497e-01 4.270108074425610356e-02
-1.752782062943631924e-01 2.148995654508218944e-01 -2.994105251943361412e-01 -3.789087356867111289e-01 9.253999122101825847e-01 -7.948113089556660404e-03
-1.546290904723354731e-01 2.215536830715667815e-01 -2.751523384232021363e-01 -3.789087356867111289e-01 9.253999122101825847e-01 -7.948113089556660404e-03
-1.590955240423543027e-01 2.204202862526928874e-01 -2.988149658670290476e-01 -3.789087356867111289e-01 9.253999122101825847e-01 -7.948113089556660404e-03
-1.233987978756074244e-01 2.346587019721786127e-01 -2.932852422681705984e-01 -3.809845232926790115e-01 9.230827030277304335e-01 -5.262239430574056770e-02
-1.339521127630839692e-01 2.332850061459696978e-01 -3.204775077370923264e-01 -3.809845232926790115e-01 9.230827030277304335e-01 -5.262239430574056770e-02
-1.446394626074747614e-01 2.175331729125038471e-01 -3.142017747089430602e-01 -3.809845232926790115e-01 9.230827030277304335e-01 -5.262239430574056770e-02
-1.361096292056524215e-01 2.296568414780255640e-01 -3.123445741807546749e-01 -3.809845232926790115e-01 9.230827030277304335e-01 -5.262239430574056770e-02
-1.406428336750511765e-01 2.328830203430764800e-01 -2.923618964621003680e-01 -4.426346570611931486e-01 8.966978656447298635e-01 2.738268888527175746e-03
-1.341596113356191000e-01 2.240177985241522396e-01 -2.771357148557602734e-01 -4.426346570611931486e-01 8.966978656447298635e-01 2.738268888527175746e-03
-1.491241253867973682e-01 2.165091005773784327e-01 -3.188440486446795230e-01 -4.426346570611931486e-01 8.966978656447298635e-01 2.738268888527175746e-03
-9.807962468671520273e-02 2.318000755390982603e-01 -2.963432418852666173e-01 -4.371630115669812855e-01 8.977462088382981431e-01 -5.422403373182671515e-02
-1.006297875940654618e-01 2.376104875398265259e-01 -3.104505921328855611e-01 -4.371630115669812855e-01 8.977462088382981431e-01 -5.422403373182671515e-02
-8.647651133025360815e-02 2.508752508784820590e-01 -2.916829803077239935e-01 -4.665536283713997978e-01 8.744303992349651278e-01 -1.330382980470712628e-01
-9.439306050394662140e-02 2.506678378570668109e-01 -2.729188051556203920e-01 -4.665536283713997978e-01 8.744303992349651278e-01 -1.330382980470712628e-01
1.340403485564451991e-01 2.109581205210984134e-01 -2.723261180119448399e-01 3.896070117071771532e-01 -9.199246218750161130e-01 -4.410290803010736421e-02
1.179808787932466463e-01 2.110059284834726046e-01 -2.803417017697543701e-01 3.896070117071771532e-01 -9.199246218750161130e-01 -4.410290803010736421e-02
1.390832501697768231e-01 2.209651661862124528e-01 -3.079743273521289848e-01 3.566134623849304686e-01 -9.342414547569893868e-01 -4.443271247164586914e-03
1.509368365953794866e-01 2.191137893454764007e-01 -2.922824469959459659e-01 3.566134623849304686e-01 -9.342414547569893868e-01 -4.443271247164586914e-03
1.724048168945296333e-01 2.235819128699342018e-01 -3.070540994701730919e-01 3.301117625965274138e-01 -9.436585592210053886e-01 2.312461468544417184e-02
1.667889575536590230e-01 2.173819424752133356e-01 -2.902442345112334898e-01 3.301117625965274138e-01 -9.436585592210053886e-01 2.312461468544417184e-02
1.567758298899318281e-01 2.177562224478029052e-01 -2.702833109873188921e-01 3.568614494048283348e-01 -9.341467456977693429e-01 -4.445608052005943153e-03
1.988417856961779695e-01 2.314884376293997736e-01 -3.075780061453001202e-01 3.052498933338053111e-01 -9.509208354327459700e-01 5.071555342879357359e-02
2.095064779074094496e-01 2.456206785000449311e-01 -3.186545807880029058e-01 3.052498933338053111e-01 -9.509208354327459700e-01 5.071555342879357359e-02
1.784977091594931176e-01 2.223772078032852373e-01 -2.775456452415148156e-01 3.413491198715645214e-01 -9.396044113267226772e-01 2.498656795702893993e-02
1.819158952780219052e-01 2.195857196431016956e-01 -2.943914770964699001e-01 3.413491198715645214e-01 -9.396044113267226772e-01 2.498656795702893993e-02
1.817454046193269779e-01 2.303105182609354595e-01 -3.007601359112248574e-01 3.413491198715645214e-01 -9.396044113267226772e-01 2.498656795702893993e-02
2.078763030368609155e-01 2.397400893759240592e-01 -3.029795714915574090e-01 3.038066810033747123e-01 -9.513947549215051591e-01 5.049278052912958142e-02
2.296153688802146930e-01 2.385064603672094052e-01 -3.043519977495757756e-01 3.038066810033747123e-01 -9.513947549215051591e-01 5.049278052912958142e-02
2.381138868734761216e-01 2.524216264884288630e-01 -2.902268510186901129e-01 3.176714443793935971e-01 -9.446113760155968597e-01 8.242694782551775179e-02
2.326975159461337483e-01 2.508306245642266119e-01 -2.816556555418323615e-01 3.176714443793935971e-01 -9.446113760155968597e-01 8.242694782551775179e-02
2.190600123109394948e-01 2.401695509259618999e-01 -2.869034864926484629e-01 3.176714443793935971e-01 -9.446113760155968597e-01 8.242694782551775179e-02
-6.326213511722658667e-02 2.580646148842184462e-01 -2.677094039526962121e-01 -4.873290736003676460e-01 8.628498651113948315e-01 -1.341658835213150880e-01
-8.822856207424317754e-02 2.580188133451800092e-01 -2.827620317076651180e-01 -4.873290736003676460e-01 8.628498651113948315e-01 -1.341658835213150880e-01
-6.413754450950268082e-02 2.638779869399339728e-01 -2.838308244317236939e-01 -4.536782142988873279e-01 8.732533757695272181e-01 -1.777768814489041060e-01
-7.476364604549465276e-02 2.602789956619542822e-01 -3.052329974060163931e-01 -4.536782142988873279e-01 8.732533757695272181e-01 -1.777768814489041060e-01
-5.461421941841634875e-02 2.817896011208158025e-01 -2.597220524440046474e-01 -4.830472004226074589e-01 8.190023997512874132e-01 -3.096780124024207659e-01
-3.811660921894226978e-02 2.834380568429819558e-01 -2.431034089760149564e-01 -4.830472004226074589e-01 8.190023997512874132e-01 -3.096780124024207659e-01
-2.307847588946258799e-02 2.703121531065840188e-01 -3.052804782109132531e-01 -4.656179325572925021e-01 8.558723504081487965e-01 -2.251276542051281471e-01
-5.017802274206713264e-02 2.872016945135965060e-01 -2.818623284364981663e-01 -4.656179325572925021e-01 8.558723504081487965e-01 -2.251276542051281471e-01
-2.392442977410731697e-02 2.761127046386859241e-01 -2.991451379820184164e-01 -4.656179325572925021e-01 8.558723504081487965e-01 -2.251276542051281471e-01
-3.233102507260614267e-02 2.774395448082062066e-01 -2.940767443075095189e-01 -4.045743072118483386e-01 8.953720963212736805e-01 -1.860871813782476181e-01
-6.455521683033393909e-02 2.686874301507246598e-01 -2.730203998697181000e-01 -4.045743072118483386e-01 8.953720963212736805e-01 -1.860871813782476181e-01
-5.639544654589848799e-02 2.560699760110800582e-01 -3.089535438987922045e-01 -4.045743072118483386e-01 8.953720963212736805e-01 -1.860871813782476181e-01
-2.135128090057779315e-02 2.827577920000915457e-01 -2.965018722638286808e-01 -4.004421346870278842e-01 8.855532912361629982e-01 -2.354601137095105601e-01
2.642386559356418307e-01 2.545080075625323346e-01 -2.737574614401622197e-01 3.088652865583163543e-01 -9.476692793512376811e-01 8.077853510156549066e-02
2.423032076952998104e-01 2.505967699472657073e-01 -2.682602585142989660e-01 3.088652865583163543e-01 -9.476692793512376811e-01 8.077853510156549066e-02
2.547147296888960799e-01 2.543615860638641646e-01 -2.862241907307598310e-01 2.828369308011670635e-01 -9.539756156126408815e-01 9.966842725486740884e-02
2.557085996854939758e-01 2.568673332639197504e-01 -3.076906676399937535e-01 2.828369308011670635e-01 -9.539756156126408815e-01 9.966842725486740884e-02
3.106696109697399955e-01 2.625853057731046269e-01 -2.894263282457882891e-01 2.520235406352043239e-01 -9.616258951649562237e-01 1.084424857419460791e-01
3.109244565151417783e-01 2.595973417319892285e-01 -3.129351629872308416e-01 2.520235406352043239e-01 -9.616258951649562237e-01 1.084424857419460791e-01
2.946440194247569311e-01 2.658286843290271206e-01 -2.717872780385954812e-01 2.520235406352043239e-01 -9.616258951649562237e-01 1.084424857419460791e-01
3.106857238291255152e-01 2.688775294119271630e-01 -3.325293920640025602e-01 2.520235406352043239e-01 -9.616258951649562237e-01 1.084424857419460791e-01
3.025228152339934362e-01 2.639686912332760982e-01 -3.066917504984185139e-01 2.520235406352043239e-01 -9.616258951649562237e-01 1.084424857419460791e-01
2.791351161586743124e-01 2.592131790585530671e-01 -2.995023966153048667e-01 2.670721827748365751e-01 -9.588747361842618888e-01 9.608168137291414612e-02
2.673558667795339350e-01 2.571562130683482383e-01 -2.813646802069187380e-01 2.670721827748365751e-01 -9.588747361842618888e-01 9.608168137291414612e-02
3.396921827369532854e-01 2.805896680441026803e-01 -3.372851994943986687e-01 2.230790892981862894e-01 -9.688414571790101570e-01 1.076194720724076570e-01
3.226261423395575534e-01 2.715119293860387972e-01 -3.347840459527848811e-01 2.230790892981862894e-01 -9.688414571790101570e-01 1.076194720724076570e-01
3.476239389308284911e-01 2.647703957266681063e-01 -3.572826139332247464e-01 2.230790892981862894e-01 -9.688414571790101570e-01 1.076194720724076570e-01
3.311312026185950774e-01 2.822225989164011684e-01 -3.079842409232312339e-01 2.268164218178547464e-01 -9.685592763828763108e-01 1.022117357568289725e-01
3.411223101430162497e-01 2.755206500911811518e-01 -3.168256265640652658e-01 2.268164218178547464e-01 -9.685592763828763108e-01 1.022117357568289725e-01
3.307876992549742545e-01 2.742292124583987079e-01 -3.299450177160081488e-01 2.268164218178547464e-01 -9.685592763828763108e-01 1.022117357568289725e-01
3.920070942274095360e-01 2.938544843939284168e-01 -3.072110369004652508e-01 2.029021611165980343e-01 -9.702843778636018879e-01 1.318292042305389822e-01
3.872028283871413179e-01 2.848724341262549031e-01 -2.924500257902007960e-01 2.029021611165980343e-01 -9.702843778636018879e-01 1.318292042305389822e-01
3.794039059303085937e-01 2.760829080621388099e-01 -3.081055139956146993e-01 2.029021611165980343e-01 -9.702843778636018879e-01 1.318292042305389822e-01
3.747521602279372255e-01 2.874285482254070878e-01 -3.059840320148731752e-01 2.029021611165980343e-01 -9.702843778636018879e-01 1.318292042305389822e-01
4.024015443204150277e-01 2.830899947466746225e-01 -3.296685429913823739e-01 2.029021611165980343e-01 -9.702843778636018879e-01 1.318292042305389822e-01
3.782548604050211538e-01 2.794733165063499891e-01 -3.355370988681244393e-01 1.933309897809944444e-01 -9.754616054808910031e-01 1.053460232896503562e-01
4.114862953238418997e-01 2.835705045917374933e-01 -3.414405114703205069e-01 1.933309897809944444e-01 -9.754616054808910031e-01 1.053460232896503562e-01
3.987627240948992124e-01 2.895968378160559409e-01 -3.530651292306773992e-01 1.933309897809944444e-01 -9.754616054808910031e-01 1.053460232896503562e-01
3.822574334180789402e-01 2.858957121705121840e-01 -3.468215783576283906e-01 1.934865780313722861e-01 -9.754178400351897205e-01 1.054655463305189389e-01
3.638385677965159104e-01 2.646788758067264991e-01 -3.505287439184122666e-01 1.934865780313722861e-01 -9.754178400351897205e-01 1.054655463305189389e-01
3.532890822961151644e-01 2.819903487406728027e-01 -3.169073976633892675e-01 1.934865780313722861e-01 -9.754178400351897205e-01 1.054655463305189389e-01
-2.338954128113906322e-02 2.989263726500620000e-01 -2.676516713055327457e-01 -4.424087689182048533e-01 8.422641458392512437e-01 -3.080025808624901051e-01
4.318357472658327506e-04 2.884908116479045215e-01 -2.972157492262992862e-01 -3.875000349858923610e-01 8.705115056906639337e-01 -3.034031004226978023e-01
8.711350501008820885e-04 2.902707789988347997e-01 -2.824485084015038727e-01 -3.875000349858923610e-01 8.705115056906639337e-01 -3.034031004226978023e-01
1.671049119832532931e-02 3.037820611447643038e-01 -2.882957456947917718e-01 -4.185543080189775833e-01 8.359352774324958490e-01 -3.549993002565091094e-01
3.948848973558758552e-02 3.425138411615399892e-01 -2.407649809842823396e-01 -3.672449847730955286e-01 7.882406084465927165e-01 -4.937690394858249010e-01
2.898774963820656067e-02 3.239564831459356697e-01 -2.632787916676315176e-01 -3.672449847730955286e-01 7.882406084465927165e-01 -4.937690394858249010e-01
4.375373553413404448e-02 3.135849741451792183e-01 -2.599038954336697071e-01 -3.769434536767547472e-01 8.327318731367322480e-01 -4.055505642856752080e-01
4.089967715793699221e-02 3.145501086934519019e-01 -2.849980649954036438e-01 -3.514817203974835436e-01 8.544961193529490018e-01 -3.824878850854963597e-01
2.922380743401425951e-02 3.057771044149512618e-01 -2.940601596777213111e-01 -3.514817203974835436e-01 8.544961193529490018e-01 -3.824878850854963597e-01
1.891613896085150154e-02 3.239808190899998719e-01 -2.725625778049751702e-01 -3.514817203974835436e-01 8.544961193529490018e-01 -3.824878850854963597e-01
7.997497787255593293e-02 3.100754478611916221e-01 -2.974868812950558494e-01 -3.284094957184459651e-01 8.653307766755270469e-01 -3.786157023422103141e-01
7.810487480197418619e-02 3.284474046783530943e-01 -2.877885520960616894e-01 -3.284094957184459651e-01 8.653307766755270469e-01 -3.786157023422103141e-01
9.845770513204221697e-02 3.277411045591069327e-01 -3.166207801690757440e-01 -2.644770840812193380e-01 8.945526662013997266e-01 -3.603156940626687788e-01
1.025118280385848291e-01 3.361549826305775257e-01 -2.989077037277996229e-01 -2.644770840812193380e-01 8.945526662013997266e-01 -3.603156940626687788e-01
8.925341686519600026e-02 3.213751887548343400e-01 -2.983390668158502068e-01 -2.644770840812193380e-01 8.945526662013997266e-01 -3.603156940626687788e-01
3.853451490134249258e-01 2.984306917529105374e-01 -2.764998451254291334e-01 1.797900687178926871e-01 -9.764499506401262963e-01 1.192519395452761449e-01
3.992757264108545701e-01 2.915340294466411963e-01 -3.022350611622619532e-01 1.797900687178926871e-01 -9.764499506401262963e-01 1.192519395452761449e-01
4.166490705766662250e-01 2.853379536963909224e-01 -3.097490818365501997e-01 1.797900687178926871e-01 -9.764499506401262963e-01 1.192519395452761449e-01
4.203422640936332333e-01 2.863016038580472600e-01 -3.037809275555194422e-01 1.797900687178926871e-01 -9.764499506401262963e-01 1.192519395452761449e-01
4.398348718405147295e-01 3.125185916942802011e-01 -3.034605659702255265e-01 6.263042943267120855e-01 2.326784603737077350e-01 -7.440454723913318968e-01
4.336705188107082831e-01 2.925154437708324950e-01 -3.059963913055883666e-01 5.553298425645492031e-01 4.404871965680593471e-01 -7.053933623283145105e-01
4.706828358808677892e-01 2.935744540624260490e-01 -2.709470297048214293e-01 6.009655392129185092e-01 4.760815484793505803e-01 -6.420177410913422422e-01
4.557276333998745987e-01 3.179732106339758779e-01 -2.934444120279475210e-01 6.802971716933512436e-01 1.962512834329121214e-01 -7.061736273303909073e-01
4.498863705324285811e-01 3.224952937291188926e-01 -2.898752913809171106e-01 7.309037501087888300e-01 1.419997442131137877e-01 -6.675445908104712389e-01
4.676629974805042722e-01 3.279460808835187313e-01 -2.764892204071162651e-01 8.038393446456610913e-01 -2.137567143037560624e-01 -5.551129390400628694e-01
6.182575138052634478e-02 3.430952578835542166e-01 -2.480649289706945426e-01 -3.388387328168545598e-01 8.022440333893541276e-01 -4.915209293959404424e-01
7.809753816154110795e-02 3.372647124377287642e-01 -2.613310604890143884e-01 -2.702883408551960964e-01 8.417607939060471889e-01 -4.673146462934863465e-01
7.575233249198908003e-02 3.327876331072360250e-01 -2.587416257719741264e-01 -2.702883408551960964e-01 8.417607939060471889e-01 -4.673146462934863465e-01
9.163055985187329444e-02 3.348843492864658211e-01 -2.675617377830675769e-01 -2.954881933839200725e-01 8.460868644901448077e-01 -4.436482224780603500e-01
1.265681297064137067e-01 3.375195783083074219e-01 -2.960957950620036749e-01 -2.295687900782049373e-01 8.703385912057683971e-01 -4.356706408285823118e-01
1.157739468594156801e-01 3.337070521106789145e-01 -2.877897338297188412e-01 -2.295687900782049373e-01 8.703385912057683971e-01 -4.356706408285823118e-01
1.514638575386004771e-01 3.500450488315101083e-01 -2.933721805010003902e-01 -2.295687900782049373e-01 8.703385912057683971e-01 -4.356706408285823118e-01
1.147528344401703287e-01 3.435967426396451807e-01 -2.663159457509876593e-01 -2.295687900782049373e-01 8.703385912057683971e-01 -4.356706408285823118e-01
1.193359418871015598e-01 3.500522862616103348e-01 -2.625422920586978903e-01 -2.214827617091482959e-01 8.768897959701382749e-01 -4.266259157495450594e-01
1.178735242946236800e-01 3.508727359620971709e-01 -2.736842261501911122e-01 -2.214827617091482959e-01 8.768897959701382749e-01 -4.266259157495450594e-01
1.512569246327446215e-01 3.568297763499837516e-01 -2.694145372275013606e-01 -2.214827617091482959e-01 8.768897959701382749e-01 -4.266259157495450594e-01
1.427416601230928617e-01 3.540697317187556648e-01 -2.700783421346324986e-01 -2.214827617091482959e-01 8.768897959701382749e-01 -4.266259157495450594e-01
1.825464596282713459e-01 3.496397259294930504e-01 -3.027797468411330684e-01 -2.027920788602814994e-01 9.004007886531631977e-01 -3.849075116755804049e-01
1.596112768484948541e-01 3.569649580385530485e-01 -2.906593036675368391e-01 -2.027920788602814994e-01 9.004007886531631977e-01 -3.849075116755804049e-01
1.656189010837044173e-01 3.597148122441409246e-01 -2.836127035825545262e-01 -1.678865699616841900e-01 8.893773863366731813e-01 -4.252316595685796674e-01
2.068896644805005847e-01 3.732350267887142303e-01 -2.671974730426162070e-01 -1.420674596405104850e-01 8.881489646749820555e-01 -4.370449101157103944e-01
1.994589548485891095e-01 3.765462851475833150e-01 -2.699435696324825051e-01 -1.420674596405104850e-01 8.881489646749820555e-01 -4.370449101157103944e-01
1.932461395032745444e-01 3.516794878958957038e-01 -2.863623864300506305e-01 -1.536713953245539555e-01 9.147303924490046700e-01 -3.737023031626835468e-01
2.076226596616125852e-01 3.575060384253806456e-01 -2.648705323607433160e-01 -1.536713953245539555e-01 9.147303924490046700e-01 -3.737023031626835468e-01
1.860661149641262835e-01 3.552407041390063802e-01 -2.968749106141027605e-01 -1.611936087790144800e-01 9.099084568238068327e-01 -3.822083472261123549e-01
2.086764631559408778e-01 3.522662009912981285e-01 -2.940821685822219700e-01 -1.611936087790144800e-01 9.099084568238068327e-01 -3.822083472261123549e-01
1.836180939370210818e-01 3.600188778574786030e-01 -2.682322468150711292e-01 -1.611936087790144800e-01 9.099084568238068327e-01 -3.822083472261123549e-01
2.241855582504527766e-01 3.612001084695077302e-01 -3.063265171734631531e-01 -1.474451816195875009e-01 9.287867307850453669e-01 -3.400222450587527256e-01
2.555792664287357963e-01 3.620911218185624003e-01 -3.065435423942975968e-01 -1.474451816195875009e-01 9.287867307850453669e-01 -3.400222450587527256e-01
2.446036098766357081e-01 3.645659745535543839e-01 -2.838329090218801309e-01 -1.474451816195875009e-01 9.287867307850453669e-01 -3.400222450587527256e-01
2.038174381155766490e-01 3.688773320938044664e-01 -2.881691373306797810e-01 -1.175189853585023869e-01 9.201191934981988174e-01 -3.735906286786812580e-01
2.955957341862698873e-01 3.627831986995012636e-01 -3.157378258773660962e-01 -1.284870927192642287e-01 9.452128752537599654e-01 -3.001061269935543785e-01
3.030704241105759977e-01 3.648971933156618941e-01 -2.999960573316721169e-01 -1.284870927192642287e-01 9.452128752537599654e-01 -3.001061269935543785e-01
2.997144411780128248e-01 3.601804751755302569e-01 -3.207950217664993775e-01 -1.284870927192642287e-01 9.452128752537599654e-01 -3.001061269935543785e-01
2.746024027257500943e-01 3.633866382842989018e-01 -3.083874541996958762e-01 -1.024060885352666150e-01 9.394491343122456373e-01 -3.270295354717668301e-01
2.563971476720773301e-01 3.760435551213691108e-01 -2.878270179704811027e-01 -1.024060885352666150e-01 9.394491343122456373e-01 -3.270295354717668301e-01
3.213166082146368119e-01 3.641124936325758066e-01 -3.056581089026115805e-01 -8.944785410949127047e-02 9.541384827108088107e-01 -2.856901069437348673e-01
3.073767887366755658e-01 3.665678719200838320e-01 -3.081981966694416486e-01 -8.944785410949127047e-02 9.541384827108088107e-01 -2.856901069437348673e-01
2.999430455112327976e-01 3.550645130417166562e-01 -3.281431137807694909e-01 -8.944785410949127047e-02 9.541384827108088107e-01 -2.856901069437348673e-01
3.249046169904482029e-01 3.547261249897575852e-01 -3.174166858366467836e-01 -8.944785410949127047e-02 9.541384827108088107e-01 -2.856901069437348673e-01
4.746666133118951358e-01 3.404684294646403431e-01 -2.734466032652445588e-01 6.534608803182180292e-01 -6.695363335688772066e-01 -3.531429964262134402e-01
5.068580414718051319e-01 3.585486007592559865e-01 -2.694355247498695372e-01 5.821061242986727002e-01 -7.726328719336141848e-01 -2.533592415160604849e-01
2.348794497010455173e-01 3.696139889634799669e-01 -2.526433666850987914e-01 -1.239083617222500877e-01 9.075405781984821063e-01 -4.012690080463142128e-01
2.445118004873468587e-01 3.706033777566747900e-01 -2.733677672975946549e-01 -1.239083617222500877e-01 9.075405781984821063e-01 -4.012690080463142128e-01
2.322663128329528481e-01 3.756038301941836410e-01 -2.654487898721703543e-01 -1.239083617222500877e-01 9.075405781984821063e-01 -4.012690080463142128e-01
2.622375396782449797e-01 3.798228296387817782e-01 -2.579321240078230049e-01 -7.433412345980955349e-02 9.189101359163465155e-01 -3.873997937527373647e-01
2.729823933059691843e-01 3.775399131582425905e-01 -2.611521321850280297e-01 -7.433412345980955349e-02 9.189101359163465155e-01 -3.873997937527373647e-01
2.699734675718985510e-01 3.867597571658971667e-01 -2.499039225383133667e-01 -7.433412345980955349e-02 9.189101359163465155e-01 -3.873997937527373647e-01
2.971157883546913792e-01 3.704444661306275366e-01 -2.686975778187019603e-01 -1.088792659498159510e-01 9.304591473980180494e-01 -3.498443660680883305e-01
2.747577927671204789e-01 3.751208575916230581e-01 -2.847666964912987653e-01 -1.088792659498159510e-01 9.304591473980180494e-01 -3.498443660680883305e-01
3.030094143312587751e-01 3.816688340479556518e-01 -2.568254481459598115e-01 -6.519256197632966598e-02 9.386433300079628506e-01 -3.386718602047192883e-01
2.909457375843144677e-01 3.791288867977971044e-01 -2.757819835765487060e-01 -6.519256197632966598e-02 9.386433300079628506e-01 -3.386718602047192883e-01
3.054412097885278454e-01 3.736881432143503989e-01 -2.779975502757522365e-01 -6.519256197632966598e-02 9.386433300079628506e-01 -3.386718602047192883e-01
3.270704678594367198e-01 3.704299510992483113e-01 -2.802551032688507804e-01 -9.512600944184608498e-02 9.488292239845275144e-01 -3.011214805366581038e-01
3.217591114236000860e-01 3.725675907609251603e-01 -2.623728238152435721e-01 -9.512600944184608498e-02 9.488292239845275144e-01 -3.011214805366581038e-01
3.087496584042747627e-01 3.834805700832875086e-01 -2.884239841637792345e-01 -9.512600944184608498e-02 9.488292239845275144e-01 -3.011214805366581038e-01
3.678701278035747535e-01 3.668917011241084047e-01 -3.099509173802586504e-01 -7.619264532760637587e-02 9.507319394086324316e-01 -3.005053413606522672e-01
3.650498170833700318e-01 3.675769028843576813e-01 -2.992410892635385955e-01 -7.619264532760637587e-02 9.507319394086324316e-01 -3.005053413606522672e-01
3.470436119114300721e-01 3.748443511352291813e-01 -2.763694851191439428e-01 -5.986864796122171040e-02 9.575326379923827513e-01 -2.820407633138227177e-01
3.599685672317912144e-01 3.797238190565356830e-01 -2.802798956676822995e-01 -5.986864796122171040e-02 9.575326379923827513e-01 -2.820407633138227177e-01
3.627655786513028779e-01 3.823619893998179142e-01 -2.662059926417141842e-01 -5.986864796122171040e-02 9.575326379923827513e-01 -2.820407633138227177e-01
4.403624966944866270e-01 3.754191371045080272e-01 -3.021519140805040693e-01 -7.294433174506327611e-02 9.668855844092492102e-01 -2.445636749966164925e-01
4.340009623863719246e-01 3.698825331458663324e-01 -3.339435379293644868e-01 -7.294433174506327611e-02 9.668855844092492102e-01 -2.445636749966164925e-01
4.335973108303456391e-01 3.693887745492854258e-01 -2.937445260825098381e-01 -7.294433174506327611e-02 9.668855844092492102e-01 -2.445636749966164925e-01
4.000175113960516837e-01 3.825394436736902493e-01 -2.976717208644623636e-01 -7.294433174506327611e-02 9.668855844092492102e-01 -2.445636749966164925e-01
4.175487390417787492e-01 3.758755212337904217e-01 -3.017462139496547291e-01 -7.294433174506327611e-02 9.668855844092492102e-01 -2.445636749966164925e-01
3.828893902402808469e-01 3.779309971915092436e-01 -2.674727015085999748e-01 -4.889750556999260950e-02 9.583181728656360310e-01 -2.814876791344544382e-01
4.173444234953832543e-01 3.818856158267637801e-01 -2.963972125432215998e-01 -4.889750556999260950e-02 9.583181728656360310e-01 -2.814876791344544382e-01
4.043081422802319858e-01 3.778299717745438602e-01 -2.714350570167703425e-01 -4.889750556999260950e-02 9.583181728656360310e-01 -2.814876791344544382e-01
3.931711495484845886e-01 3.778332719041795906e-01 -2.819973068505963743e-01 -4.889750556999260950e-02 9.583181728656360310e-01 -2.814876791344544382e-01
4.600898740992941383e-01 3.638314998354532093e-01 -3.293408691983540360e-01 -6.081254081797426297e-02 9.731498954897849218e-01 -2.219935039308196523e-01
4.755266907900893014e-01 3.867301346287937980e-01 -3.305131135433842515e-01 -6.081254081797426297e-02 9.731498954897849218e-01 -2.219935039308196523e-01
4.825340396870362869e-01 3.819403670177094479e-01 -3.078428447353893094e-01 -6.081254081797426297e-02 9.731498954897849218e-01 -2.219935039308196523e-01
4.564076488686021893e-01 3.857804848587678137e-01 -2.933188438354742411e-01 -4.523124246592661463e-02 9.719294014938565374e-01 -2.308838955336259546e-01
4.630527833203340049e-01 3.687513988580485846e-01 -3.148699801981941215e-01 -4.523124246592661463e-02 9.719294014938565374e-01 -2.308838955336259546e-01
