7.200338190918915693e-01 -6.926707385936928807e-01 4.193503618709312070e-02
6.830101772583773156e-01 -7.240630634752852623e-01 9.607173295129502189e-02
-5.157677344348829962e-01 1.602384295954800975e-01 8.416099392216577213e-01
-6.249569822704926780e-01 1.515906820385501952e-01 7.657996052691894429e-01
3.451772439419012461e-01 -9.157781666760271833e-01 2.054337355552098565e-01
4.663223391700506704e-01 -8.267564300557019852e-01 3.146701151245908656e-01
-7.504915161887466546e-01 -3.320101502301995439e-02 6.600455868575725304e-01
7.663514457854190276e-01 1.227415127208420359e-01 6.305870142950912305e-01
-7.285244202794145529e-01 -4.400108057114776247e-03 6.850056993234644453e-01
-7.204443871769315999e-01 1.409524233464684306e-01 6.790377746031611705e-01
-6.007297777744757816e-01 3.501636796772160665e-01 7.186856973183347597e-01
7.634340079165983228e-01 2.079006983229538807e-01 6.115110916354891124e-01
-5.449638238404967971e-01 4.429290917142968964e-01 7.119187105409520155e-01
7.845762283922280700e-01 1.868803001293975752e-01 5.911986935585807901e-01
-4.013234276064567285e-01 7.179767031628391249e-01 5.687257336973818855e-01
7.927184608679542777e-01 -6.088035762176784438e-01 -3.091354692861065026e-02
-3.545148949086440737e-01 8.223995355209242630e-01 4.449474050524182545e-01
-3.692923874683728402e-01 8.082561190090375991e-01 4.586340356344669189e-01
8.278987610222410254e-01 1.562575257094458436e-01 5.386717248538299696e-01
-3.716265879067846001e-01 8.196927741753925467e-01 4.358869522312062150e-01
-3.250717183835863944e-01 8.597599763835558351e-01 3.938796274448447265e-01
8.085885856061270083e-01 -5.771623395639512433e-01 -1.143159350945847363e-01
7.942377597008511980e-01 -5.816092985433500839e-01 -1.758323204456032351e-01
-3.078331049603535985e-01 8.954835099375243468e-01 3.214779353555070052e-01
8.423546185564442235e-01 3.192405219748231104e-01 4.341937191230083037e-01
7.667459813882249176e-01 5.265791612852873671e-01 3.671716041922238327e-01
6.219901954325965932e-01 7.413447397613781575e-01 2.520638284519510774e-01
5.865590137391119008e-01 7.799703576331596944e-01 2.181622437888858235e-01
5.764146200574902235e-01 7.906927489993854641e-01 2.062793311598960511e-01
5.531802967084409328e-01 8.055204703365309582e-01 2.124342985545770723e-01
5.076009712899667292e-01 8.273399190269227210e-01 2.405200871653081496e-01
4.588349055098454032e-01 8.544309656583545243e-01 2.437585986378797698e-01
4.170054114310776106e-01 8.731480832594499253e-01 2.524260516221462636e-01
3.778596003510564794e-01 8.781666105820798984e-01 2.933351777085749235e-01
4.010463359503561032e-01 8.430707949436428983e-01 3.583203470832884707e-01
4.125888155271670299e-01 8.326478705415543136e-01 3.694157454474625846e-01
4.387881009571712454e-01 8.037805865772668090e-01 4.017483927782463660e-01
4.610470259487313149e-01 7.859793135842449985e-01 4.119128044640866237e-01
6.893461509193662407e-01 5.868001929530286542e-01 4.248145686801981791e-01
8.923808135923434470e-01 2.605536758062987901e-01 3.684674552197156894e-01
8.346020567799053991e-01 -5.422985959602707462e-01 9.670387602506198832e-02
8.743487188040222069e-01 -4.827822464037607175e-01 4.935200586706947612e-02
9.306097558674193415e-01 -3.650860356638785942e-01 2.603207344056887931e-02
9.385295285413403077e-01 -3.444080533953939871e-01 2.335416049368321117e-02
9.557037088276409964e-01 -2.942842770664328977e-01 -5.213943284919187598e-03
9.535983694397770494e-01 -3.006773501909318358e-01 -1.559746402329711089e-02
-4.391272777906134184e-02 7.456503019111008213e-01 6.648889377925353283e-01
2.807263434422690995e-01 7.655863025044074011e-01 5.788526008537605572e-01
9.619060612349901174e-01 -1.984918412574117053e-01 -1.879832926449315489e-01
9.581467883511497474e-01 -2.330751091500217753e-01 -1.662249243256939679e-01
4.279115199738141029e-01 1.552221480461324632e-01 8.903919450610752184e-01
3.262766713209810376e-01 2.735614196159807943e-01 9.048246700048522273e-01
-2.120591326301498047e-01 2.217381785057273014e-01 9.517684090476583592e-01
-4.769674055743911567e-01 1.074113760081057134e-01 8.723330157248891936e-01
-7.873843586236614067e-01 1.583325747298117711e-03 6.164603514212274593e-01
8.567619051246149198e-01 1.160574943622056932e-01 5.024835280181896291e-01
-4.564165713569810073e-02 -8.932141259194642524e-01 4.473090256096279305e-01
6.246590138496325162e-01 -6.185987273430552102e-01 -4.765886391280819701e-01
6.435813561551024797e-01 -6.282967901229700169e-01 -4.370882994667460997e-01
5.977484992989235968e-01 -6.995907673684848005e-01 -3.914964748227744984e-01
6.436790987655974794e-01 -7.101499440982751432e-01 -2.852442369435794212e-01
6.754947948693471593e-01 -6.654226847155455538e-01 -3.176781905803014450e-01
7.014331501165381733e-01 -6.064119033288534188e-01 -3.745078629597348163e-01
7.318398766432056002e-01 -5.430117428079305197e-01 -4.117628469490069998e-01
8.406256336739417190e-01 -4.500984364632604207e-01 -3.012639067389457082e-01
8.297343873164230166e-01 -4.141270040166767918e-01 -3.742187475913137384e-01
7.977117926139766224e-01 -1.850368108354106741e-02 -6.027549333775332752e-01
7.977916503616799826e-01 5.942497480799485698e-02 -5.999976291471958989e-01
8.004956094201329808e-01 8.745547264106681706e-02 -5.929235360518398945e-01
9.137903382675437447e-01 -7.891702962943869526e-02 -3.984461320220770153e-01
-2.125969154848154907e-01 2.901740753145852780e-01 9.330603182761914027e-01
-3.347422297823225701e-02 9.213033002536514804e-01 -3.874012201035686442e-01
3.012082123860395089e-01 8.949897698565605353e-01 -3.290393967951363297e-01
-1.741420290582230412e-01 -8.305550042110853015e-01 5.290112840908111069e-01
7.553687864467358848e-01 -5.539676245914076924e-01 -3.500540920579829351e-01
-3.422229266997050406e-02 -9.030154634867266772e-01 4.282428135862446084e-01
9.342663956835920436e-01 -2.955833487988286656e-02 -3.553485707520416259e-01
2.260841010493137848e-01 -5.367076814695778131e-01 8.129150287110419315e-01
-6.292354491738974542e-02 8.814079438163580082e-01 4.681459858553196907e-01
2.186037400218651394e-01 -5.626873949378948803e-01 7.972423097317767882e-01
-1.131622748963139191e-01 8.861465766086566997e-01 4.493757273207458214e-01
8.733581870523670077e-01 3.212512656741098316e-01 -3.661189716627439861e-01
9.138504368548051593e-01 2.332490310880425965e-01 -3.323736881234300444e-01
5.245747807708027732e-01 8.384043935319059893e-01 1.479843650040811309e-01
5.141000879470593032e-01 8.482851919999155887e-01 1.269383023617864648e-01
5.191905589689512768e-01 8.458956501612784340e-01 1.220725706935669869e-01
5.793503296673170322e-01 8.053070775412065618e-01 1.258320562353338057e-01
8.274507478638659652e-01 5.235605260868866351e-01 2.030015649770990915e-01
9.128089668719625571e-01 3.350455029641536409e-01 2.335043916966824673e-01
-8.891519143195705244e-01 1.319169348158843180e-01 4.381858002841088617e-01
3.154826064580689704e-01 7.229465930299189269e-01 -6.146697883000724616e-01
9.405724165183421137e-01 2.510046042597477434e-01 2.287361316566622060e-01
-7.256863245463800460e-01 -3.243872788772184101e-01 6.067555122691509206e-01
-6.955938732236603972e-01 -1.105777804456333294e-02 7.183501159451591844e-01
-6.783902720561639788e-01 1.121716266057599942e-01 7.260882625164669646e-01
9.876771161408099964e-01 -7.256096219450169048e-03 1.563370183911252376e-01
9.898946560417404283e-01 -2.426933603484979565e-02 1.397124520879649834e-01
-8.969644946455468393e-01 1.728723111768411258e-01 4.069027640280122871e-01
-8.771052393183937923e-01 7.886239030921415871e-02 4.737796139081335567e-01
-8.794035559503511346e-01 -8.678361041525119168e-02 4.681004066919527973e-01
9.962354115082383554e-01 2.917440613986452269e-02 8.163246219119654756e-02
-7.615508488973607992e-01 -3.337749436113547630e-02 6.472451215836866334e-01
9.918942117060712826e-01 8.783524144788144861e-02 9.181962286888135927e-02
9.862692627885495389e-01 1.179688642404173177e-01 1.155694092238824661e-01
-8.074619731902324959e-01 -2.851872491704698365e-01 5.164042939038332447e-01
9.927898565780371998e-01 8.876049302223137927e-02 8.055976386640578690e-02
-7.187612934517163543e-01 -4.856683285667999228e-01 4.975022388519941274e-01
9.957595442136012442e-01 5.686116300353683678e-02 7.231692920337792763e-02
-7.236929497430760749e-01 -4.737984074067659868e-01 5.017804137578286694e-01
9.983831309433226497e-01 2.544689031307113478e-02 5.082892504472849571e-02
9.993496237014418693e-01 -4.962471855219228317e-03 3.571699148686498237e-02
-4.199902652492480959e-01 -6.886568774622628397e-02 9.049119814363745240e-01
-8.232627950072409773e-01 -2.183133980647925243e-01 5.240015558968018627e-01
9.943901511838101337e-01 -1.057697195981899541e-01 -9.968173148965843878e-04
-8.584897575747223453e-01 -2.877781206187402518e-01 4.244750751604151606e-01
9.880432793507811784e-01 -1.531746416284242018e-01 -1.755013651678737074e-02
-8.634145627992663163e-01 -3.093557507245111027e-01 3.985151342669761565e-01
-8.942988310921462514e-01 -8.345980860225045428e-02 4.396180854506518410e-01
9.829307362581319873e-01 -1.816374713073861391e-01 -2.924032722294897871e-02
-4.926783799994285395e-01 7.154767092663785188e-01 4.953393709150251123e-01
-7.395279269513498344e-01 2.042068392551919520e-01 6.414031587546504820e-01
-7.694779381099584592e-01 -7.754798400607601505e-02 6.339479575948172574e-01
-7.778175615372665552e-01 -1.558181032485949913e-01 6.088682613375661079e-01
9.990626062216497738e-01 -3.963388273834611564e-02 1.740873885976652879e-02
9.575742535925568788e-01 -2.717187544570123792e-01 -9.602326454035695069e-02
-5.343532598957604351e-01 -2.664200324206896786e-01 8.021763895576411452e-01
9.506643351732650959e-01 -2.894675586733784778e-01 -1.115609891729547470e-01
-5.170859343192362179e-01 -3.653756334564745023e-01 7.740302209897765850e-01
-9.084337519325600407e-01 -1.853109568797461082e-01 3.747105117421247189e-01
8.851557977110934283e-01 -4.428510942540657691e-01 -1.427659696720965377e-01
-8.935113128091991541e-01 -2.107665643308187231e-01 3.965034542625883729e-01
8.629339325791830495e-01 -4.866112399117581977e-01 -1.362150109017627730e-01
-8.329390189619100271e-01 -2.185903882612407201e-01 5.083609277379320668e-01
8.275527132460958057e-01 -5.548383977970005043e-01 -8.550356208417607407e-02
7.885873065289753514e-01 -5.436248112018948753e-01 -2.874058535017685601e-01
8.002953780577198861e-01 -5.995400082444299894e-01 -8.893051991303272882e-03
-8.545935505390536147e-01 -6.402007290697492303e-02 5.153360977479063409e-01
7.678113949398508442e-01 -6.357948640990874756e-01 7.893384942939980775e-02
-8.713664825782291290e-01 -8.785901532834626548e-02 4.827020265803513843e-01
-8.955948520629138931e-01 -1.169560634673615512e-01 4.292215513888204548e-01
5.919795479795321169e-01 -7.687814778413600836e-01 2.419406003588552012e-01
-9.030561902774456584e-01 -1.051410258029338435e-01 4.164551379136686715e-01
8.627876112381164253e-01 -4.690156316140629833e-02 5.033863141435622746e-01
8.732466109428015377e-01 1.757716631196599433e-01 4.544718681294367402e-01
8.929522322111327348e-01 1.800402336712412510e-01 4.125794774934401499e-01
7.751510817496594097e-01 -5.416623153278971037e-01 -3.251810828076481807e-01
9.201780489390966045e-01 9.896569843454822157e-02 3.787850957785951489e-01
9.225863891991489263e-01 1.065716297831771353e-01 3.707786970550410177e-01
9.169400048406946002e-01 1.554803928227541099e-01 3.674872446363666167e-01
6.800260688072855553e-01 6.785233632448527397e-01 2.777959525864308055e-01
5.517561428645118005e-01 7.884633836980740051e-01 2.718283491077782554e-01
4.304332963244609234e-01 8.395183047456735714e-01 3.315662730318169049e-01
3.487135304243277334e-01 8.824212697153270835e-01 3.158030659334891688e-01
3.518116636760308391e-01 8.832633748181962785e-01 3.099586488650925564e-01
4.008179280422553004e-01 8.670386254183019004e-01 2.959544062734240644e-01
4.176676362651943752e-01 8.599618643743509594e-01 2.932905341780325803e-01
4.766174914743018243e-01 8.237745341501656604e-01 3.069711447455955589e-01
5.015464658158063083e-01 8.037512872266781017e-01 3.200546998704008050e-01
5.925259486857993307e-01 7.246899362123786492e-01 3.517634098175818069e-01
7.098448174696383450e-01 5.826408365587417704e-01 3.957903367764621372e-01
8.592536131927031029e-01 -5.096135526140965766e-01 4.446633791222383975e-02
8.063043459246723721e-01 -5.911858941758924013e-01 -1.930130229898512073e-02
8.431110615209199688e-01 -5.344561643556593467e-01 -5.933250646402583178e-02
8.488215961676857102e-01 -5.245338430587892509e-01 -6.607681412810267885e-02
9.351724249761730334e-01 -3.189044386575410339e-01 -1.541184433113143570e-01
9.307607094948141535e-01 -3.261335279431571976e-01 -1.652919345039566557e-01
9.970141689635497739e-01 -7.692329679954831856e-02 6.749318144131048920e-03
8.786715982862737251e-01 -4.136508910437613484e-01 -2.383886798984959920e-01
9.549152710296632263e-01 -2.665822339330735091e-01 -1.306550332195317854e-01
9.575146814634101222e-01 -2.582930253277816446e-01 -1.282589094334039836e-01
9.564851762062094309e-01 -2.612718417654639746e-01 -1.298966219663114374e-01
2.019221996676650310e-01 2.205320948149078752e-01 9.542499779606601340e-01
-1.375550494709577576e-01 3.018814308399127011e-01 9.433696041738303117e-01
-4.279633069580595639e-01 4.904512554627288995e-02 9.024643946204593536e-01
3.430425625243192500e-01 1.074784640508218148e-01 9.331506738260573197e-01
-2.069285788070189258e-01 3.051868903308808667e-01 9.295383398456861235e-01
-2.308797463937171668e-01 2.978610671647475838e-01 9.262684963727583209e-01
-1.009848473114363793e-01 2.936911778654136551e-01 9.505511836074436172e-01
-7.568937055270603675e-01 -1.182521329665031096e-01 6.427506138327585550e-01
8.193775148059410096e-01 1.808052666248112506e-01 5.439944336031122818e-01
8.165209307307375042e-01 1.796719716598838834e-01 5.486451970795516164e-01
-6.251798637489814903e-01 -1.726280176514054798e-01 7.611502515827942572e-01
8.003639886587585739e-01 2.044116180162645346e-01 5.635897231836430876e-01
-5.263805361734262833e-01 -1.399328720087454625e-01 8.386550676345789768e-01
-4.701081543275170693e-01 1.198574965567728717e-01 8.744326753695328414e-01
1.624172041312631487e-01 -8.205169001663142891e-01 5.480626500169906157e-01
8.545407138517512324e-01 -4.185949333870289113e-01 -3.074710557311833847e-01
8.742344497545520010e-01 -4.725252928446515011e-01 -1.115077328458976419e-01
7.803863935563735144e-01 -5.220380949519577429e-01 -3.441995121597469232e-01
7.963281060577067638e-01 -5.104997539701051634e-01 -3.244249507960316747e-01
8.297405970532957253e-01 -4.885824784560836020e-01 -2.698475557557466487e-01
-1.119712177792695634e-01 5.518623744993945701e-01 8.263839095728555684e-01
8.553577687617111014e-01 -5.144259813277864968e-01 -6.106551525968668265e-02
3.703375013297027230e-01 7.064226339032209090e-01 6.031726099700720489e-01
4.187023508079768530e-01 7.410695298037652812e-01 5.248850287675388415e-01
8.812578827139118109e-01 -4.638467952516276971e-01 -9.072317614252682627e-02
1.368400552268390635e-01 8.537751808316984548e-01 5.023372770174598934e-01
-5.280283681474780971e-02 7.578713703207951013e-01 6.502636745754720726e-01
9.286937892019514473e-01 -3.609860741084294222e-01 -8.495234074176476191e-02
-3.246941115569917241e-02 7.521146828144852359e-01 6.582319053601612957e-01
6.519236671866678323e-01 7.282480959931247888e-01 -2.113060407188472323e-01
8.126416860443094192e-01 5.156607630401442988e-01 -2.714911924242081609e-01
8.979949598512341202e-01 4.072170135220948284e-01 -1.666714012058645167e-01
8.360395018520918597e-01 5.484951540805126369e-01 -1.382090058934690342e-02
5.968669354414902761e-01 7.675794660767730759e-01 2.336057033421485851e-01
4.852642328988854281e-01 7.929810082925616843e-01 3.683744626821579549e-01
5.455602917668335161e-01 7.599536865670692976e-01 3.533190658886218305e-01
6.839829884853314557e-01 6.943299763754113840e-01 2.237703183382357131e-01
6.701434387835339956e-01 7.334344627651181447e-01 1.139370891493295262e-01
6.963370921636952149e-01 7.129574421525660677e-01 8.250054397565952102e-02
7.081592903782157888e-01 6.998232128076690151e-01 9.358360041467657375e-02
7.105873883353319709e-01 6.924144905975296860e-01 1.250109465180373192e-01
9.852120002257823694e-01 1.225235161586705618e-01 1.197718773303190903e-01
9.909307979516330800e-01 8.100484388950321413e-02 1.072117947680056999e-01
9.950294343976637812e-01 -1.783972953832914377e-02 9.797024411659235876e-02
9.939975064935466786e-01 -4.124299283951593509e-02 1.013310052562950286e-01
9.928245651213167822e-01 -5.707354397519873862e-02 1.050808901265090634e-01
-7.736874370653403776e-01 -1.212445364601657388e-01 6.218581125191053882e-01
9.906748586111957522e-01 -6.626904097902683310e-02 1.190451121357250647e-01
-8.019275251711650565e-01 -4.161737654308744760e-02 5.959699978543562260e-01
9.937996376892123118e-01 -4.447888769433577805e-02 1.019014655354131549e-01
-8.271072836305294329e-01 1.150947366020932949e-01 5.501333865271419432e-01
-8.008167913046159159e-01 8.295700383520074328e-02 5.931362425946217209e-01
-7.696821784794064536e-01 6.258729080784776206e-04 6.384269358464584876e-01
9.931997651619778322e-01 1.012947470043521481e-01 5.738990077980897497e-02
9.928791015042273127e-01 1.126842749525912152e-01 3.864380900696821192e-02
-7.059324406985215683e-01 -2.125340883050576002e-01 6.756394382196516668e-01
9.937285115562611848e-01 1.088364376468767131e-01 2.565687355301020031e-02
9.964231846115582103e-01 8.294927793426971896e-02 1.613240399766766031e-02
9.967850976362213622e-01 7.846396817907795584e-02 1.621341506102435756e-02
9.988351734932774395e-01 4.824668132022488787e-02 7.442675857336314730e-04
-7.486908929989329886e-01 -2.283484372794919726e-01 6.223495303545057977e-01
-6.841572074174353535e-01 3.193823411208556728e-01 6.556857751384712607e-01
-8.909045822941522585e-01 3.967929106657197558e-01 2.210077177220478584e-01
-7.880446631215084485e-01 1.374489983685879026e-02 6.154646103994794171e-01
7.389314666370985218e-01 -3.424998055613009962e-01 -5.802363060030090169e-01
-5.527392304144794766e-01 -7.168618163317805325e-02 8.302652796086706921e-01
9.773772279071967217e-01 -1.968956677819309053e-01 -7.723891750375069809e-02
-4.578217645180815976e-01 -5.577345531301329817e-01 6.923376345239952157e-01
9.550991616000317208e-01 -2.677027491226954825e-01 -1.269678290870085158e-01
4.060187075101607257e-01 -6.032726353269565189e-01 6.864480582079371951e-01
8.988439380362189812e-01 -3.515460680223967960e-01 -2.617153742399058736e-01
8.840392162698488265e-01 -3.671563633489656753e-01 -2.892591726278591624e-01
8.688235672997312031e-01 -3.949949305811404909e-01 -2.985374578168867310e-01
-5.942445174314643364e-01 -1.606469072862347636e-01 7.880774230251834656e-01
8.628171979617934584e-01 -4.333550252859468821e-01 -2.602881191310422726e-01
8.620372604800411453e-01 -4.410553869836742469e-01 -2.497236615876581300e-01
8.683283330351552198e-01 -4.479242953415436546e-01 -2.130017175779817806e-01
8.800224980054893731e-01 -4.626024477852831440e-01 -1.075145492816799581e-01
8.742056958452447679e-01 -4.855140562772677360e-01 6.364158147425792895e-03
8.772154477041470555e-01 -4.792112427856778378e-01 2.914863799594836352e-02
9.688180430766737405e-01 -9.333853139161742141e-02 -2.295201907605088909e-01
8.197852454705135683e-01 -5.023500728321665942e-01 2.749482781076593163e-01
8.777476984973263674e-01 -1.086150051897878666e-01 4.666495027644078641e-01
9.302457117954222587e-01 8.254085832779646525e-02 3.575331067086497949e-01
9.318749460123860739e-01 8.896173028212724099e-02 3.517028511963223858e-01
9.437033707851052444e-01 8.380435696336571705e-02 3.200012151895472723e-01
7.079367839340240387e-01 6.230996481895677563e-01 3.325241921713181781e-01
6.168414240028032847e-01 7.199625392405870627e-01 3.180575415305224030e-01
5.017697673589357477e-01 8.183733951384241090e-01 2.801643922666982589e-01
3.902908091148631353e-01 8.803720813062315687e-01 2.694774253569294786e-01
3.738109532951571223e-01 8.933071244969488234e-01 2.495350727243736966e-01
4.096802049746565144e-01 8.777054449396399782e-01 2.485865675679842235e-01
4.282636999364711206e-01 8.660016705158483097e-01 2.581304127383760028e-01
4.411923908685082552e-01 8.581341731517223570e-01 2.625928694937071928e-01
5.991124957254368999e-01 7.306665935530270994e-01 3.273996739938114797e-01
6.848389743531420049e-01 6.463108006407934925e-01 3.365678656407840030e-01
8.283214412059415332e-01 4.901012213556030228e-01 2.714486744566238507e-01
7.877654340250864751e-01 -5.940636587833455495e-01 -1.628311710582838467e-01
8.029568470000939540e-01 -5.716029000733237053e-01 -1.689095215890257518e-01
8.136666321856539374e-01 -5.550160505877319572e-01 -1.729271385805361549e-01
8.304075442410636665e-01 -5.279852270441265372e-01 -1.779182691313285214e-01
8.638910143880980108e-01 -4.626935239070180672e-01 -1.990151205160266834e-01
8.737661123710114275e-01 -4.260008834294605196e-01 -2.346402100863536067e-01
8.783256356935172926e-01 -4.096359430893789511e-01 -2.464598787081860309e-01
8.893793126931260895e-01 -3.691694056582152106e-01 -2.696634719042655393e-01
8.950892878449225876e-01 -3.177129284586743263e-01 -3.128476656065737327e-01
9.185733105812742272e-01 -1.068675244188041079e-01 -3.805291123059497127e-01
7.836143247540906520e-01 2.880009905653797553e-01 5.504580088195198950e-01
-4.315481156100088311e-01 2.459608219512487703e-01 8.679109965765592349e-01
9.963999216909489309e-01 -4.268446115741369312e-02 -7.324774965807617777e-02
9.963999216909489309e-01 -4.268446115741369312e-02 -7.324774965807617777e-02
8.987391828438440200e-01 -4.070250178267814101e-01 -1.630905150040546925e-01
-9.984103591642770059e-01 1.009268513926161624e-03 -5.635366971658592461e-02
9.574762470553271898e-01 -2.559792262614900560e-01 -1.330934710923677711e-01
9.607117542047152181e-01 -2.417481013163887416e-01 -1.363480137105781420e-01
9.645623722223523044e-01 -2.184246516413172190e-01 -1.480206122408544156e-01
9.719997164683449320e-01 -1.714226965492663679e-01 -1.607196636794491762e-01
9.597861968689632706e-01 -1.896952765632479998e-01 -2.069448195761479925e-01
8.033521202565485630e-01 -5.538816753109034874e-01 -2.187246228345012533e-01
8.049669208349379268e-01 -5.606949759261770083e-01 -1.940345338661719488e-01
8.021543062078215769e-01 -5.945085534055051246e-01 -5.574987856436940115e-02
8.585922869288062920e-01 -5.072826186020605865e-01 7.405153401921418799e-02
8.817676200639273931e-01 -4.711061589553695028e-01 2.334204792033872308e-02
9.764898970853179705e-01 -2.064000831936645963e-01 -6.218107869724952969e-02
9.905352283016906068e-01 3.194661900788108716e-02 -1.334892318776413345e-01
9.940233424489393066e-01 1.165084639162647893e-02 -1.085442418785880769e-01
9.924651741457463094e-01 -8.619058841936687310e-02 -8.708651201981125467e-02
9.765208526211995865e-01 -1.822123872027502089e-01 -1.149159272940024762e-01
9.659784988806088268e-01 -2.073807159302509806e-01 -1.545275974077842673e-01
9.183159447284940935e-01 1.965396695635735630e-02 -3.953600223091501831e-01
8.556607917895012738e-01 7.655931556864672971e-02 -5.118430233907892424e-01
8.490296913484285390e-01 6.360034227617725189e-02 -5.245031741287610183e-01
8.737446697609970725e-01 8.837713008119268965e-02 -4.782883387067450309e-01
9.011107385028825911e-01 2.692152766541142661e-01 -3.398861158841863239e-01
8.694462227727262071e-01 3.668949715100746634e-01 -3.308343174262012298e-01
8.638199562319689440e-01 -4.394207297008403262e-02 -5.018806406293144784e-01
-6.911391642925179477e-03 7.468471179989273345e-01 6.649598596924888305e-01
1.050249685993499479e-02 7.532783621143380737e-01 6.576179793238984272e-01
1.904888734397161207e-02 7.420988897844595922e-01 6.700196845404089441e-01
4.573931844454190987e-01 8.785863034835140750e-01 -1.373957137397427974e-01
7.409261311473988032e-01 6.584649775619477730e-01 -1.321073105747427034e-01
2.179843221967759925e-01 9.188701329211089730e-01 3.288776582590486885e-01
1.462706872153822779e-01 8.953726375997848042e-01 4.206099450787444405e-01
2.309381659782545060e-01 8.512692063451550162e-01 4.711775693123456676e-01
3.967209203473204826e-01 7.617113814803507799e-01 5.122580235409400773e-01
6.522738184113606730e-01 4.968009727422867394e-01 5.724750294094763658e-01
6.984151560357165778e-01 4.164896294758798079e-01 5.820246200622872790e-01
3.572593269344536693e-01 7.304453163668053195e-01 5.820785283070825100e-01
5.065058513010984864e-01 6.864420940610753696e-01 5.217749266674236441e-01
5.928008613710193941e-01 6.365728409402783283e-01 4.933175011440408264e-01
9.575712732706740393e-01 9.078657927200235733e-02 2.735234060018789104e-01
9.927535442605558424e-01 -4.374470029491538819e-02 1.119231948892302347e-01
9.874528700848758112e-01 9.931727824902704393e-02 1.227717703804368649e-01
9.299268742804384091e-01 1.165810630401650089e-01 3.487762380544848773e-01
8.869614020267569954e-01 7.208192328375169489e-02 4.561838090621421204e-01
8.367549059883226947e-01 9.082242173104880523e-02 5.399930694142108800e-01
7.739559786647027817e-01 1.002768959321611170e-01 6.252493000646804910e-01
6.989001923363582502e-01 1.345908095538665139e-01 7.024413392845244575e-01
5.567661872255643685e-01 -3.097102446643849039e-01 7.707729737816672033e-01
5.766281712016899652e-01 1.269733895670132062e-01 8.070797423541604676e-01
5.169144017263295199e-01 -2.464013592403796471e-02 8.556823972652212174e-01
5.167810125729761506e-01 -9.270961599743272885e-02 8.510830230627667303e-01
5.197490102376154386e-01 -2.144666857719942366e-01 8.269613092829651846e-01
6.391101892654954542e-01 1.506490895892984294e-01 7.542168241181962385e-01
6.619606142415230821e-01 -2.427590458324138112e-01 7.091376388681688292e-01
8.807645029957470451e-01 -1.809820263368790150e-01 4.376064400870396942e-01
9.907835212554524373e-01 -9.901169165858042520e-02 9.243754066153260507e-02
9.637820631479597777e-01 -1.878974209815752749e-01 -1.892582731156943199e-01
9.555838678517958318e-01 -1.927030045397652991e-01 -2.229910839983262061e-01
9.445422072131698377e-01 -2.085608453169467968e-01 -2.536580229236872763e-01
9.368990884278330933e-01 -2.244909497805469833e-01 -2.679998350180900490e-01
8.983145730562779319e-01 -3.308356758235955764e-01 -2.890997811086370439e-01
8.214943661224421989e-01 -4.631822123760057086e-01 -3.325796815314425170e-01
8.420864248334082314e-01 -4.109313677709726109e-01 -3.493220063110343276e-01
8.632302419979129837e-01 -3.447576737654715617e-01 -3.687488246490358001e-01
9.426596831488085471e-01 -2.858915719784979048e-01 -1.722171037889414780e-01
9.413117865123400430e-01 -3.108175855234125429e-01 -1.316227529811739572e-01
9.429812843203831951e-01 -3.327862764268617601e-01 -6.292189080528060897e-03
9.597135810077243034e-01 -2.616340738187709625e-01 1.024570829485401124e-01
9.979472912357131298e-01 4.027237937158525960e-02 4.979296511610577236e-02
9.939773443151154186e-01 9.977585272968320096e-02 4.531907104448679169e-02
9.884619352288409599e-01 1.401064652652755649e-01 5.756023796445489810e-02
9.803174484170342762e-01 1.823009396844521290e-01 7.578962804553844579e-02
4.828781853215430853e-01 8.571228903593109960e-01 1.793572105120786186e-01
4.617949658511052990e-01 8.654219767790412021e-01 1.943970463315563002e-01
4.485895822527920518e-01 8.691376419134515530e-01 2.082477997564212702e-01
4.260756292723594796e-01 8.777044417776498353e-01 2.193045166519533018e-01
4.140125923205222880e-01 8.833842405665952580e-01 2.196038636240738584e-01
4.077893375638963480e-01 8.867692586006101774e-01 2.175962733369362634e-01
4.031657244880484936e-01 8.903646228895972792e-01 2.114432238325267555e-01
4.114614921192014663e-01 8.859635966369652227e-01 2.139344430827655741e-01
4.323685967354040094e-01 8.660647977859580182e-01 2.509764184002663545e-01
4.259656023049884777e-01 8.672571335997210085e-01 2.577176165366738547e-01
4.422540734631049131e-01 8.519426034841202089e-01 2.803660729724439804e-01
9.429245182616132759e-01 3.200196775814343475e-01 9.209103551258035480e-02
8.140263737356513429e-01 -5.436412069271201464e-01 -2.044878993818699253e-01
7.482787283889569263e-01 -6.169663412956190029e-01 -2.437857222006718783e-01
7.493620542797090334e-01 -6.114140527708873396e-01 -2.542230667739908689e-01
7.532002005944612444e-01 -6.001652988476372519e-01 -2.692416607503188009e-01
7.545268647814590279e-01 -5.977262944625537644e-01 -2.709473883083691748e-01
7.812772271513309663e-01 -5.577832758736813723e-01 -2.801494449224415928e-01
8.229220075422141178e-01 -4.550643694810875273e-01 -3.401702355166781877e-01
8.282493209731351946e-01 -4.287958816314335064e-01 -3.607452760653452328e-01
8.327354125925702233e-01 -4.187960509609617854e-01 -3.621623949470529347e-01
8.310259173577208003e-01 -3.519686429097769742e-01 -4.307133607029255407e-01
8.257219467566949689e-01 -3.291771662958651867e-01 -4.580673092829896098e-01
7.322300996543760210e-01 3.889138093230434245e-01 5.590931318465485189e-01
6.958116200499875337e-01 4.423962508611716249e-01 5.658018616330199313e-01
-4.844592113787313248e-01 3.487015797940924422e-01 8.023132061479493204e-01
-5.014939208400321924e-01 3.828982038914995334e-01 7.758175125744167788e-01
6.496128880068325895e-01 5.035964070303098339e-01 5.695557519344219832e-01
9.183989335063470483e-01 -3.574307766748089366e-01 -1.696662571640199235e-01
9.291864907396396589e-01 -3.225391566393470133e-01 -1.805019608240652496e-01
9.275218246555712032e-01 -3.297077193435058451e-01 -1.760570492564945133e-01
9.241378006674431100e-01 -3.510880263228720599e-01 -1.506868380126519247e-01
9.194098457678688829e-01 -3.679237143708238289e-01 -1.389880423226403927e-01
9.107930096047628377e-01 -3.986213725920357276e-01 -1.075039300116046037e-01
6.999491847272645284e-01 -6.927786197392541423e-01 -1.735768499305472556e-01
7.241795590855434339e-01 5.373533377637693675e-01 -4.322214207981883716e-01
7.063946252489102795e-01 5.375641517298187511e-01 -4.604686918721532241e-01
-4.432673725927127606e-01 1.385387571511724654e-02 8.962823810175133410e-01
3.250269657576834170e-01 1.216285608262529933e-01 9.378507155841424581e-01
5.911811498983606805e-01 5.689368760042293749e-01 5.716779505345646051e-01
-4.831702154299056806e-01 5.061218764778496748e-01 7.144138779950727214e-01
4.920046547778222368e-01 6.716106731253304041e-01 5.539589546357169825e-01
-4.599640492987467355e-01 5.725254502477783447e-01 6.787103079895567825e-01
-4.581847749581318685e-01 6.141133186499612151e-01 6.425974975467125816e-01
-4.469823489609052181e-01 6.416018705757916551e-01 6.233408532986078887e-01
3.618087594087578962e-01 7.764658026653030731e-01 5.159411583760518116e-01
-4.432323845337262092e-01 6.491776658773559250e-01 6.181532264953205624e-01
3.453277079384552972e-01 7.867950115602961869e-01 5.115685525067058537e-01
2.451596990437035217e-01 7.264836443652020748e-01 6.419643576045757083e-01
2.386909443749508086e-01 7.257812982414255654e-01 6.451884532416749529e-01
-4.158867375860881288e-01 5.811463836934002147e-01 6.995048979242985965e-01
6.350771843513950410e-01 -2.921431556174004518e-01 -7.150729658868467675e-01
8.172154692320338087e-01 4.513022815557084233e-02 -5.745625634815524352e-01
5.746471657709009140e-01 8.017892083385496083e-01 -1.640570030913421351e-01
6.698493121231674507e-01 7.286337018501189977e-01 -1.428104603182536181e-01
6.948276385047830184e-01 7.031224776410380795e-01 -1.511070289754728180e-01
7.013594273418078950e-01 6.982516921272825527e-01 -1.433161823387635037e-01
6.682255112834959432e-01 8.750029965748810923e-02 7.387952108871310708e-01
1.117733287974538303e-01 9.764056145531556652e-01 1.847668770061633714e-01
2.970371237248887741e-01 9.156045915463684182e-01 2.709929502191024131e-01
4.456908330864889911e-01 8.472103300413463822e-01 2.891268544668657015e-01
7.500134027312980178e-01 5.769396575084614343e-01 3.234509658625849826e-01
8.182209297112009727e-01 4.720331993587095765e-01 3.281755153659680069e-01
7.624740948473895941e-01 5.631698192686515059e-01 3.185482841761488326e-01
7.212045527462085381e-01 6.369241727465020375e-01 2.723813342894943479e-01
9.963568205558966939e-01 5.103074237564256960e-02 6.832971143167096417e-02
9.853301871182742477e-01 3.374904385855077155e-02 1.672884466784846369e-01
8.728471781191072809e-01 2.946004157532509660e-01 3.890352152280348585e-01
8.494336540026243831e-01 1.936807586430199790e-01 4.908668161316405709e-01
9.775627945734741697e-01 1.203101366790839261e-01 -1.729059098988803278e-01
9.322300656904808358e-01 -2.237599635050573632e-01 -2.843916021174626163e-01
9.474186679233261854e-01 -3.015326179297321829e-01 -1.071258511977021682e-01
9.332126150145459986e-01 -3.580643382646062078e-01 3.006900132765654224e-02
9.317739796778576888e-01 -3.470082967134731078e-01 1.066887660782588898e-01
9.628628573146925662e-01 -1.941572557054586090e-01 1.876115083376048154e-01
9.652969604260679404e-01 -2.072081554839651230e-01 1.589545799690185446e-01
9.547395226211110586e-01 -2.837142461754873501e-01 8.932340377688302580e-02
9.278253743879142368e-01 -3.562914870978535209e-01 -1.104375428173172552e-01
9.027638821731299723e-01 -2.746196883746758188e-01 -3.310610212645019867e-01
9.046503048292021676e-01 -2.663702327349193877e-01 -3.326480498743025205e-01
8.962858186397307803e-01 -2.866309465003345491e-01 -3.383998105992818695e-01
7.929024096235087748e-01 1.055723155925448881e-01 6.001335309692851228e-01
6.777645643981486945e-01 -2.572667456893500959e-01 6.888025964008840374e-01
4.249231289700812764e-01 -7.538549021081857315e-01 5.011418172870164556e-01
8.500030949525744228e-01 -4.543190263533117279e-01 -2.666251317194677228e-01
9.212041030531672448e-01 -2.666810538576361855e-01 -2.833093998288619964e-01
9.595753751574226387e-01 -2.519120981199156062e-01 -1.255204931965829551e-01
9.582465192614915139e-01 -2.646269682496260045e-01 -1.083336328120092090e-01
9.732791996952986358e-01 -1.751661710127025151e-01 -1.484736069920423174e-01
9.848762406347681964e-01 -9.327497179978619379e-02 -1.460088020253410557e-01
9.908356472779957791e-01 1.167246375992691577e-02 -1.345677289433405976e-01
9.898381377767380140e-01 7.412057330410290468e-02 -1.213532101584076234e-01
9.849672840653291850e-01 1.374103888847437449e-01 -1.046796749494024181e-01
9.775701942706560565e-01 1.972961340214146597e-01 -7.369362776954235805e-02
5.342388685487138300e-01 8.343425468238553355e-01 1.358725354561132193e-01
4.815557176614763124e-01 8.662096522578457414e-01 1.333601481810904876e-01
4.279489158339656041e-01 8.878323800673486588e-01 1.691549299916514093e-01
3.987544207778822569e-01 8.982613340709139083e-01 1.847200249654531723e-01
3.997952313705361860e-01 8.963716270170112299e-01 1.915246178752373352e-01
3.923621021237660988e-01 8.955446857695902318e-01 2.098849604113292577e-01
3.655685332246706443e-01 8.873439326374716885e-01 2.810345045139991949e-01
5.689547779342843947e-01 7.540988667415920998e-01 3.280630424854276694e-01
7.045446997289249724e-01 -6.390089198354532707e-01 -3.086816587596455941e-01
7.164654548131800249e-01 -6.283155718066660844e-01 -3.031448404387004358e-01
7.211205879756870107e-01 -6.188339538413556440e-01 -3.114958028138973267e-01
7.256502018838637547e-01 -6.013104936597130079e-01 -3.344510049627900661e-01
7.328703975969276252e-01 -5.887859027951827251e-01 -3.409283517042590583e-01
7.428021785491298878e-01 -5.731032022393182102e-01 -3.461179612873415135e-01
7.507798894757727881e-01 -5.640348852330782092e-01 -3.437938420025219433e-01
7.622031396532464864e-01 -5.227100272199413089e-01 -3.818646374652435727e-01
7.702800561157980841e-01 -4.933748158239831261e-01 -4.040419857649616420e-01
7.785498275028700510e-01 -4.481142636858069239e-01 -4.393788488042844054e-01
7.796053283495355535e-01 -4.168479229929826779e-01 -4.673899240521228737e-01
7.755169391107643584e-01 -4.018321865496509160e-01 -4.869336412746583798e-01
7.655114295003094815e-01 2.300736772665996077e-01 6.008813146815411566e-01
-7.572954978182621089e-01 2.808517056758836894e-01 5.895980396873260476e-01
7.952054683020068904e-01 2.729552123194576296e-01 5.414274792160311822e-01
-8.656154560175755019e-01 -3.206206180701204334e-02 4.996818052482682737e-01
1.747871649370310587e-01 7.849810597100548293e-01 5.943519015446609988e-01
2.287243920894131421e-01 7.294563202745396602e-01 6.446538833163548698e-01
-3.791950451863997928e-01 -7.027770167894572539e-01 6.019265589576481279e-01
4.347774316320307531e-01 -5.572324418139337210e-01 7.074323930479405886e-01
-4.179236548925446826e-01 -6.364313426232074411e-01 6.483016001893552316e-01
7.276669703862047589e-01 -6.055226841903780244e-01 -3.222468915906589459e-01
7.306919017888897638e-01 -6.055742940489258208e-01 -3.152286773871953995e-01
7.857715422217605994e-01 -5.544652331317680982e-01 -2.741010556028015133e-01
8.309042250715318323e-01 -4.890261836625720560e-01 -2.654271283247014446e-01
8.269087482308904447e-01 -4.862994037878319298e-01 -2.823735327094606951e-01
6.955099306320530195e-01 5.729207897799681176e-02 7.162287023560113264e-01
2.184059050048972883e-01 2.173369275057716044e-01 9.513482646230784212e-01
6.849424747130024305e-02 1.791137177845293638e-01 9.814411924128435549e-01
-4.478786271280326692e-01 -5.335402166144070923e-01 7.174535334200816683e-01
6.305297189808598546e-01 7.739079660141587880e-01 -5.915009401299023417e-02
8.093279380998260608e-01 5.792852887403753259e-01 9.704041869274725174e-02
8.156264440443035113e-01 5.697416952323985928e-01 1.007368080165217256e-01
8.259526982471054879e-01 5.463540843374611322e-01 1.389221176994510920e-01
8.580282080573607972e-01 4.743751428155362770e-01 1.968649741742130588e-01
8.576854563185264402e-01 2.968636713898832324e-01 4.198185544120227597e-01
8.476146510063174988e-01 6.436146970443379356e-02 5.266944129349805381e-01
8.286979062880208691e-01 6.600456553294448137e-02 5.557905877600464173e-01
8.793877147432336283e-01 1.141137929029625714e-01 4.622286116500933795e-01
9.106897680401687678e-01 8.036077935787189208e-02 4.051990764154567715e-01
9.774997472476478766e-01 -1.210694578117402914e-01 1.727322509433485143e-01
9.656006513291126581e-01 -2.343685727658277596e-01 1.126354928630507735e-01
9.921284057402353085e-01 -4.667536022190101747e-02 1.162008488415411100e-01
9.775887890663679247e-01 -4.113156693900835159e-02 2.064663500256021800e-01
9.885421467793593653e-01 -1.458566847348642948e-01 3.886195516195854044e-02
8.859393818442993229e-01 -4.598837415932701678e-01 -6.015277146994154472e-02
9.135760967641536334e-01 -3.846021340704356417e-01 -1.321359674337018730e-01
9.557837521139238568e-01 -2.908339408299918105e-01 4.350905717578955334e-02
8.054807297234504171e-01 -5.924605609168902554e-01 -1.383032184085198485e-02
8.227284237793859312e-01 -4.813978014093565072e-01 -3.022814871998035779e-01
8.523561928330920523e-01 5.184406178743317106e-01 6.861666180424344508e-02
9.996894717583089118e-01 -2.059661237390733243e-02 1.402638992444116446e-02
-7.014254158030679143e-02 -9.469668442730221347e-01 -3.135822375522069883e-01
8.865552824241427210e-01 -3.725763680889976337e-01 -2.742381832412477682e-01
9.350912422269775925e-01 -1.851803925780188265e-01 -3.021797327999660721e-01
9.256833834708104725e-01 -1.895162781589267431e-01 -3.274047248877461902e-01
8.846862153898070735e-01 -2.535491472947335456e-01 -3.912072726897768415e-01
8.726898239860603201e-01 -2.746962250030624553e-01 -4.036761760127120513e-01
8.554530475847887949e-01 -2.706308640192948145e-01 -4.415416388270386183e-01
8.426742093664332245e-01 -2.845991572609567477e-01 -4.570596203505730148e-01
8.648471011064935432e-01 -4.248125414541124856e-02 -5.002347796324517759e-01
8.839570770428817337e-01 2.540725746707490629e-01 -3.925137102649809973e-01
8.734784547708581703e-01 4.646052702368386744e-01 -1.455243344573959319e-01
8.122068511402636970e-01 5.779148640428213302e-01 -7.958920076985791237e-02
6.594610128024629425e-01 7.508419377428683372e-01 -3.670908770433302382e-02
6.441994491897532482e-01 7.645112706399891378e-01 -2.301275142281197436e-02
5.246698587130100844e-01 8.511634901625345639e-01 1.556445862864515133e-02
4.807331279367129118e-01 8.765681118380895809e-01 2.289115577664674675e-02
3.804081535834927807e-01 9.243868348013234426e-01 2.825980065726979226e-02
3.749242846865166734e-01 9.242399100341176510e-01 7.219674128677687486e-02
3.804984312940736801e-01 9.201326320938789660e-01 9.261146332252509494e-02
3.647826875969113480e-01 9.208017858668231526e-01 1.380494910314522816e-01
3.348111792857745295e-01 9.221921002381923138e-01 1.935541383787513781e-01
2.883945983997405205e-01 9.295914296873770688e-01 2.295393854344620344e-01
2.011111763554707943e-01 9.219895303900689232e-01 3.308921283379504530e-01
2.450803719581368112e-01 8.977291461132334005e-01 3.660846780454846683e-01
6.647617600789436088e-01 7.223495162460509267e-01 1.905334057740034892e-01
6.848413604095114904e-01 -5.977330982376908297e-01 -4.167822625107992507e-01
6.803422687762415988e-01 -5.963075515340304777e-01 -4.260888420269721144e-01
7.120648107392058002e-01 -5.501644454469341028e-01 -4.362141541410667900e-01
7.137156705916883892e-01 -5.404538220051530173e-01 -4.455553925516770875e-01
7.176692195369418492e-01 -5.263129289670245292e-01 -4.560105175666331334e-01
-1.182565810750371565e-01 8.066427941127297663e-01 5.790878894765900675e-01
-8.132652642303408452e-01 3.616125902916244444e-02 5.807684334928850944e-01
2.052415039918476791e-01 7.668891781380322570e-01 6.080764043226295490e-01
1.299910001559028694e-01 6.681871751740177112e-01 7.325491374723164251e-01
-4.441872087918474765e-01 4.024248088930896250e-01 8.004698599779183077e-01
4.750164773065118640e-01 8.799458491781366742e-01 7.392482768345096447e-03
-1.833185857019827003e-01 6.432906164756421186e-01 7.433515177159546461e-01
4.803128349052646628e-01 8.745559020865373290e-01 6.671997265340305627e-02
1.029681273041557349e-01 9.298129521943147013e-01 3.533347402834431938e-01
-5.751364500827441106e-02 8.024247100820408596e-01 5.939753911464809022e-01
8.650918034997522321e-01 -4.636562475910016579e-01 -1.914133108939345129e-01
9.326488853273622315e-01 -3.564720655419611473e-01 -5.562124761165129772e-02
9.262309456990205359e-01 -3.715909046978048691e-01 -6.337534832539304386e-02
8.501629934931744792e-01 -4.937252027848947900e-01 -1.829161245755524523e-01
6.106354100598366808e-01 4.372942164636603457e-01 -6.602258433509616831e-01
6.407726483521748451e-01 3.668906651613969006e-01 -6.743898375132648670e-01
6.436549978952146311e-01 2.101471884731623552e-01 -7.358983644915487732e-01
6.657709642229590052e-01 9.467443713570541930e-02 -7.401255124306070909e-01
6.943148164936124855e-01 6.030257399735147045e-02 -7.171405267914616743e-01
8.552181389340373086e-01 2.487502076386937655e-01 -4.546705060127699261e-01
9.442845046692289745e-01 2.281277501654919160e-01 -2.372435538555680012e-01
9.918570203227511373e-01 -2.132229288388937799e-02 -1.255587952420993136e-01
9.479128537598842108e-01 -3.185152404550866123e-01 -3.043562818571682316e-03
9.953740401139931082e-01 -4.995552404913131822e-02 8.206683790742448636e-02
9.941100295634319739e-01 5.888185531165995856e-02 9.098448349278590030e-02
9.937241761007167273e-01 9.112414448507896725e-02 6.487412523351766824e-02
9.072326176441019019e-01 1.937422948949625856e-01 3.733535866326505026e-01
7.722507478447847573e-01 -3.416676811542218584e-01 5.356229813104249615e-01
7.080774232617296216e-01 1.208998702591955639e-02 7.060312987968326848e-01
7.460144906060737213e-01 -5.614180819198582445e-02 6.635589477798446989e-01
9.352792096805983002e-01 -2.810967865187110060e-01 2.150288272490218922e-01
-1.309012514547129580e-01 -8.112121159032212869e-01 -5.699120681117472165e-01
4.804950803478880150e-01 -8.033430879081765452e-01 -3.518015930487413678e-01
8.362174964745507921e-01 -5.398447440222243765e-01 -9.647772251361301510e-02
7.662253887839101107e-01 -5.832333312484517807e-01 -2.696989708986293199e-01
9.188500027312921370e-01 -3.313135456966217474e-01 -2.143501969176535293e-01
8.561031624785102601e-01 -3.713653860819550179e-01 -3.594094116943709061e-01
7.546682596525217113e-01 -3.395453550282554467e-01 -5.614131898626625317e-01
7.100654426173161893e-01 -3.593432764968392257e-01 -6.055406483772918236e-01
6.717607609865369200e-01 -3.460656388645761972e-01 -6.549626352671131801e-01
6.245043918256144577e-01 -3.006902828065936006e-01 -7.208187139747486150e-01
6.542576396169156316e-01 -2.683921836243767234e-01 -7.070449609269844338e-01
6.490275098532641840e-01 -2.303422690571574061e-01 -7.250556740963215452e-01
4.826057019648843927e-01 7.571539966779801123e-01 4.402380739390248654e-01
7.021229090037631737e-01 -8.968816649069026592e-02 -7.063847771884893545e-01
7.364337566058932749e-01 1.437626258030722248e-01 -6.610579623251943149e-01
-9.711632805213764319e-02 4.740213764586827527e-01 8.751412191674469154e-01
-1.599910457439508715e-01 4.739519552517837409e-01 8.658939943173000753e-01
2.281394801557068940e-03 5.297753544094053746e-01 8.481349356665768280e-01
1.268315463596253190e-01 6.318476762332848606e-01 7.646451941172613953e-01
1.799070922602043210e-01 7.277976859395096643e-01 6.617733497924899178e-01
-1.361429369513719734e-01 7.904779653440918707e-01 5.971680559304219926e-01
-1.485767983298643125e-01 7.865133589749246923e-01 5.994344594299095830e-01
-1.612638641278099985e-02 7.486768215921196790e-01 6.627389806492350877e-01
-7.438447255175031914e-02 7.547612218205798085e-01 6.517687076556401005e-01
-5.635464384381688729e-02 7.418380184948999423e-01 6.682069353372481757e-01
-9.207525725118846302e-03 7.576037573921166057e-01 6.526498052212749146e-01
-6.781968610218450100e-02 7.945069287645122325e-01 6.034560715762030680e-01
-1.056440795063035148e-01 8.026230784821835051e-01 5.870566602578054516e-01
7.756610714804436368e-02 7.382364111207593282e-01 6.700675341467002832e-01
2.712627343975466260e-02 7.424831864194288977e-01 6.693152345298314376e-01
-6.970406285248992306e-02 7.455790968352224990e-01 6.627617626147649377e-01
4.637393593454871253e-03 7.332444867666666477e-01 6.799492754661534688e-01
4.774544400191903515e-01 8.778356229192318949e-01 3.797205340728247031e-02
7.103909019069758468e-01 -4.989460018213921488e-01 -4.963845825106180665e-01
6.798418172507112445e-01 -5.795670835595371218e-01 -4.493518656593550320e-01
8.175726858704281952e-01 -5.372394345966140516e-01 -2.072406650079193779e-01
8.002164545669153695e-01 -5.473474971293765812e-01 -2.450802791465743757e-01
7.802358055386482416e-01 -5.176507825997959111e-01 -3.510979279763346561e-01
7.213906337182033335e-01 -5.242261062421568196e-01 -4.525290522362467871e-01
5.316917968595379351e-01 -2.032662786060124294e-01 8.221840749697958417e-01
-4.252393540457587440e-01 -4.708656714049564429e-01 7.729534340845543028e-01
6.672027049338918880e-01 -5.451516018884505765e-01 -5.075926334053267874e-01
7.738581470756548120e-01 -3.331432726971497171e-01 -5.386642071469633919e-01
8.506257788257448604e-01 -1.250395937688267567e-01 -5.106866792733305571e-01
9.037368882108637314e-01 1.223605999201808348e-01 -4.102286197647821986e-01
8.696429044074232007e-01 1.856326274891504924e-01 -4.574513596277701155e-01
8.664066912028216549e-01 2.172184260237081110e-01 -4.496171714189319824e-01
8.900546582684861763e-01 2.593470952666414031e-01 -3.748890362111488850e-01
1.403334869859745315e-01 1.157258985740868273e-01 9.833178676448310895e-01
-8.759235963339764841e-02 1.181592301083653901e-01 9.891238420309420576e-01
1.642291990163324000e-01 9.128800168300731099e-02 9.821890199646793329e-01
-1.704057719756207900e-01 4.574344075536901366e-02 9.843116429796269218e-01
-3.997836864954688596e-01 -1.022985898894199774e-01 9.108830893801515005e-01
7.850026003934624796e-01 4.141897822711828603e-01 -4.606709689546888975e-01
8.022435204023043998e-01 3.913854634343547634e-01 -4.508023435883988239e-01
8.302300942948162010e-01 3.652185783544066866e-01 -4.211097013273461531e-01
8.425317881725089553e-01 3.868398279190290445e-01 -3.748268046103566675e-01
8.215705977475937782e-01 4.641004884528674435e-01 -3.311079726229369524e-01
8.269277357823722197e-01 4.478178217073437439e-01 -3.400731073682966010e-01
9.319971176389105771e-01 2.153556405356499004e-01 -2.915532898155029917e-01
9.590070735199621721e-01 2.053670759346332975e-01 -1.952685255250739271e-01
9.727308833421435263e-01 2.190079551143711278e-01 -7.635538087806754970e-02
