9.617741902979594082e-01 8.489381872479805080e-02 2.603525425630129342e-01
9.643912452782744671e-01 7.893915097327965091e-02 2.524245163890319610e-01
-1.293873394102376118e-01 -2.037559540937631530e-01 9.704341438612309467e-01
-1.934863539724716308e-01 -1.880922707959374052e-01 9.629041117854191256e-01
-3.521777466323564032e-01 -1.761455148353134326e-01 9.192081333301823642e-01
9.728432435504306142e-01 1.923996451948688929e-02 2.306639270531182229e-01
9.823236079759015693e-01 1.229316196336141392e-01 1.411670857794541933e-01
-1.389776831490142639e-01 -3.523446627977259715e-01 9.254936208232280581e-01
9.749946075107577270e-01 -7.763721922078918591e-02 2.082257849465491695e-01
-3.438134089268714555e-01 -4.193008325625921517e-01 8.402256551988880329e-01
-5.006131271840996710e-01 -1.031011868093759665e-01 8.595095358222936133e-01
8.507132972727732279e-01 -2.166994967578677322e-01 4.788822547852163991e-01
8.719253697662201485e-01 -1.926691872843779574e-01 4.501385718078571574e-01
8.831297835441850319e-01 -1.251876020208829710e-01 4.521170752332429599e-01
9.230440904405552427e-01 2.551482089448001145e-01 2.879044955797473437e-01
-5.610399252674316273e-01 4.398989074068568872e-01 7.012297437489144469e-01
-5.615315854134591556e-01 -2.025447644875250641e-01 8.022829282502152992e-01
9.195057321633909320e-01 3.329798756798739712e-01 2.088865982079319839e-01
-4.852412255803655872e-01 -1.799790607319881053e-01 8.556567598606908964e-01
-4.526734670162895213e-01 -2.515349486113016564e-01 8.554629751699146523e-01
-7.104584572473994220e-01 -2.447476819995093866e-01 6.598085727553955060e-01
9.911752699618354701e-01 8.933918594296727522e-02 9.792902568253407380e-02
-7.541693812125012109e-01 -2.311451170632979613e-01 6.146547643184322451e-01
9.955660449693825020e-01 3.550383467787386615e-02 8.710756469554030434e-02
-7.988161967831478583e-01 -2.665564342123036279e-01 5.392961627315078221e-01
-8.147798090933154880e-01 -2.752886516087224011e-01 5.102450597402307109e-01
9.973478501327823764e-01 -4.380949111379513899e-02 5.812051551618575840e-02
9.959153246636540668e-01 -8.450878391006387547e-02 3.179514966359650585e-02
9.938222770256390781e-01 -1.106212511894106021e-01 8.956588237905651478e-03
-5.516467172728596324e-01 2.617430258964574818e-01 7.919447504192724807e-01
8.231848934614217628e-01 4.654381464339007457e-01 -3.251675922060535684e-01
8.168756610383270944e-01 4.144689123733291125e-01 -4.011604106579633178e-01
9.860635576098505384e-01 -1.609800256936059493e-01 -4.200109143213972412e-02
8.208194603246625753e-01 4.016544065335566072e-01 -4.061147021033664761e-01
-1.713368678308681003e-01 -9.445894043805745932e-01 2.799902406403820265e-01
9.618362787143355241e-01 -2.609832229460563036e-01 -8.221149730815191514e-02
-8.732118705968086037e-01 -2.158022505609636099e-01 4.369558532639714055e-01
9.540421835356905911e-01 -2.901733783954594248e-01 -7.485267199651046699e-02
9.299916106608390187e-01 -3.610366154076374290e-01 -6.905191116439896026e-02
-8.680565678375871119e-01 -1.468043609756657930e-01 4.742639292973427345e-01
-8.431269402665083623e-01 -1.743426053968198941e-01 5.086665101422387369e-01
8.852848525180041506e-01 -4.601121711407456516e-01 -6.758342896246730125e-02
-8.068448014936826507e-01 -2.493814119714758415e-01 5.355468024979075370e-01
-7.207986570202152832e-01 -2.827193188883707076e-01 6.328657699426867289e-01
7.918724940677372981e-01 -6.099560259497206482e-01 -2.985966420716880398e-02
7.448559782854099476e-01 -6.670837651938782420e-01 -1.374124547643776860e-02
-6.422554367013052490e-01 2.386581141700671801e-02 7.661190358377889531e-01
-6.670576987590424167e-01 5.725892734744265217e-02 7.428024244476526539e-01
-7.504301330675633430e-01 -2.931638498238534410e-02 6.602992995269371113e-01
-7.677109403366839668e-01 -4.707802971251284080e-02 6.390646064411268368e-01
2.502913500878565789e-01 -9.588349294656752786e-01 1.341261276103637989e-01
-7.785436193918755521e-01 -4.946197646010050408e-02 6.256383504780208549e-01
4.354272269414565799e-01 -8.687288769657641740e-01 2.360365826813197732e-01
-7.317290497168884578e-01 1.244402461845786900e-01 6.701397040393447524e-01
8.299052240486249898e-01 1.150970222460484527e-01 5.459029167964706275e-01
-4.914682922331097825e-01 7.040619432487154050e-01 5.125970130602726105e-01
-4.226677727804423190e-01 7.695747180946252985e-01 4.786509240797498510e-01
-4.000196215274277600e-01 8.095723532114815768e-01 4.296241465614772381e-01
8.343789395885536919e-01 1.510587645826437786e-01 5.300877614262057280e-01
-3.733651843599951614e-01 8.521343695932643847e-01 3.666953166672801134e-01
8.334359055442398523e-01 1.508890573573903604e-01 5.316174223249749975e-01
8.376127045456043252e-01 1.522025650695826848e-01 5.246325727307041831e-01
8.386097646427305152e-01 1.509816406695230762e-01 5.233910649090246503e-01
8.030759295913099116e-01 4.592974171182833132e-01 3.796247277766913175e-01
7.385877495680993610e-01 6.006922544000066200e-01 3.060342328756185948e-01
6.514238880570835111e-01 7.170218603811504554e-01 2.480454994635987453e-01
6.243654634741941933e-01 7.635151765407240942e-01 1.649616416402361063e-01
6.190014498987922442e-01 7.692303237531191717e-01 1.584989401916130636e-01
5.351087829757957826e-01 8.263072367285175801e-01 1.757126657706958306e-01
4.888703234770884754e-01 8.467655004741980740e-01 2.097474529764013218e-01
5.340829991515281261e-01 8.134507045444450135e-01 2.303330225856786428e-01
5.423128127553729083e-01 8.041832980311016676e-01 2.432818042706363093e-01
5.885668720402766896e-01 7.622043946843403139e-01 2.695060256480421579e-01
6.376771219878624164e-01 7.160182343475279820e-01 2.840524180061232973e-01
6.283053556273138218e-01 7.381995711012349082e-01 2.455479043200890776e-01
8.698940685763780767e-01 -4.098293806555200480e-01 2.744525245049651563e-01
8.278395476581926760e-01 -4.983870003614075395e-01 2.574724863045315670e-01
8.312894477908504554e-01 -4.940527080091689505e-01 2.546954567721805285e-01
8.671339392554826553e-01 -4.410928518760937611e-01 2.313348815355852073e-01
8.952364259517692213e-01 -3.875306788116921752e-01 2.199357056706609248e-01
9.296037621992602196e-01 -3.397974505652034960e-01 1.427394055416006113e-01
9.471671835024377817e-01 -3.050914417011484914e-01 9.896230947574881365e-02
9.482529192959793241e-01 -3.091259128892520636e-01 7.250910995895040734e-02
9.555311040969599601e-01 -2.901789026449208553e-01 5.250251006413271526e-02
9.003686173745025778e-01 -4.327656821663990461e-01 4.527932404727306320e-02
1.744011871701175442e-01 -8.295875099154700338e-01 5.304420696983823680e-01
2.255477601181862801e-01 -8.549796506403998242e-01 4.670524648221963671e-01
-2.477733071883052030e-01 -7.554392374355446416e-01 6.065640500291560322e-01
7.931943820927410682e-01 -3.053626478583129078e-01 -5.268741078374175046e-01
8.243608194954221702e-01 -2.842266165371070685e-01 -4.895349525138161240e-01
8.372940632212455547e-01 -2.997332121916661540e-01 -4.572730619703313515e-01
9.187668747235233635e-01 -2.243256120379902574e-01 -3.248775918627667680e-01
9.388348663609379363e-01 -1.923193251980588325e-01 -2.856612869473266203e-01
9.669569701328800670e-01 -1.424906726443030680e-01 -2.114015754927441038e-01
9.795975444094692230e-01 -1.555768297224543184e-01 -1.272183203805516971e-01
8.501204592552814576e-01 3.566595583547855219e-01 -3.874134279936085612e-01
9.984485775732104829e-01 -5.461197787339546611e-02 1.086139101534153162e-02
6.103247053175884229e-01 7.828481266251516857e-01 1.210477786598716105e-01
5.492897919587610422e-01 8.228118423368653289e-01 1.458128820101795287e-01
5.557234363845798830e-01 8.204443912536558692e-01 1.343222361090372907e-01
6.079078205496888376e-01 7.809517842548758804e-01 1.433959287555020556e-01
7.024151104797391465e-01 6.944317960468847639e-01 1.561329344143437547e-01
7.812422007336524699e-01 6.032801164668282201e-01 1.603549963942809131e-01
8.184625656383704984e-01 5.506552739276333597e-01 1.640054814460153720e-01
8.795238502191889962e-01 4.441982797958514695e-01 1.706624889131172496e-01
8.062209296078960419e-01 -5.912830911845279314e-01 -1.980198832059535188e-02
9.084229451246988996e-01 3.828169630485733221e-01 1.679848968605084647e-01
9.217662208649172184e-01 3.469842785155889953e-01 1.730576335658869924e-01
8.611562225350812838e-01 -4.993859863341328365e-01 -9.499261572456413338e-02
8.727528139008460251e-01 -4.398392663793564972e-01 -2.117638911123061185e-01
9.620224322333008615e-01 2.239377875682516117e-01 1.560919830707550027e-01
9.883621379684992547e-01 9.612400650788266443e-02 1.179002103611763580e-01
9.948215755688574191e-01 3.582033255557862811e-02 9.511538549732130587e-02
9.985516609236694263e-01 -2.361302645115362017e-02 4.834258421307625203e-02
9.992645388011260899e-01 -3.750405523079868020e-02 -7.989201200238131226e-03
6.044935857609000651e-01 -6.464281667037946599e-01 -4.655299454019048433e-01
9.994583588404216679e-01 -3.238110144366879856e-02 5.869685963148120640e-03
9.993689262262385187e-01 -3.107332484862275479e-02 1.721039733031127714e-02
-2.976264965855309752e-01 6.034493960269954327e-01 7.397751651447063148e-01
9.975101319147954282e-01 -1.065584499503795420e-02 6.971362632060759679e-02
9.962360049643089743e-01 2.898495126612996714e-02 8.169268640982049745e-02
6.024908930378010119e-01 -7.408524751578612899e-02 7.946798725946427888e-01
-7.927191267350655046e-01 -2.879295484779952896e-01 5.373015552012230245e-01
9.829132486431195748e-01 4.550230293536467602e-02 1.783566260877548215e-01
-3.286042465447430727e-01 6.642040406686697818e-01 6.714553160949533472e-01
9.830524684075487851e-01 4.224686273872464704e-02 1.783901537264902804e-01
9.808877090024237244e-01 8.646049781421720482e-02 1.743097376674471732e-01
6.021855240106736007e-01 3.597554744348490097e-01 7.127051236564438952e-01
9.982524749301012745e-01 -4.959558208678806202e-02 -3.212902945001946953e-02
9.869870410298396957e-01 -1.291550794255637569e-01 -9.578907191187271963e-02
9.664019694061359855e-01 -2.029701472706681442e-01 -1.577033697955279312e-01
9.558290931541800761e-01 -2.333115997959425703e-01 -1.787636486557483972e-01
9.478807998752230013e-01 -2.560605604240933642e-01 -1.896179807486801372e-01
9.133896093420168505e-01 -3.368258331652914661e-01 -2.286214768094743943e-01
8.841138443868253871e-01 -4.077310827187188846e-01 -2.282500259552435740e-01
1.075910386072204267e-01 3.185051622986365127e-01 9.417954289550033442e-01
7.887185166125511016e-01 -5.834499933084407175e-01 -1.936729378640119625e-01
7.698938987220631525e-01 -6.203065995826226864e-01 -1.499436801762089877e-01
7.324447507138952540e-01 -6.728837720096767505e-01 -1.036924130189337268e-01
7.063680708290595023e-01 -7.076511725233751715e-01 -1.655193461578698469e-02
-3.041299382467385626e-01 -1.032886163103720611e-01 9.470144890141458660e-01
5.612725601055587044e-01 -8.217005359869986592e-01 9.890066951861949118e-02
-3.440271191518199378e-01 -1.125322161510504265e-01 9.321919553483781762e-01
5.274414821492231509e-01 -9.045649447105227198e-03 8.495432061609997643e-01
4.740056668730757150e-01 -8.588557264626562882e-01 1.941274552826409150e-01
4.287373076390869620e-01 -3.384955546793849690e-02 9.027948430474167507e-01
6.740536165697553761e-01 -6.706355656619956696e-01 3.096767024792925205e-01
8.687255435655619751e-01 -2.233837424356835410e-01 4.420584051594850239e-01
9.419987666129262527e-01 9.330506705668203948e-02 3.223856202768259349e-01
9.418355037870268509e-01 1.444281745150460539e-01 3.034573878034418359e-01
9.484060050507538975e-01 1.423870942977965570e-01 2.832877776415704263e-01
9.579715522168674724e-01 1.067599029039891234e-01 2.662570717842738799e-01
9.617166022853983476e-01 7.941618206981983230e-02 2.622865740255918565e-01
9.615143355153360494e-01 1.483112069555859169e-01 2.312876315108075009e-01
6.983544709151472407e-01 7.029894347610845529e-01 1.345618354776557113e-01
5.949423447716621904e-01 7.880970297556508797e-01 1.579451743103199579e-01
5.494066563783699397e-01 8.111946769928101153e-01 2.002885966441177168e-01
5.410656648625237208e-01 8.148057847852905322e-01 2.081813617673345940e-01
4.767301751839695401e-01 8.485046446313163626e-01 2.297133172198453366e-01
4.556973790076718211e-01 8.566381386179845459e-01 2.418904674241071084e-01
4.328032073454278206e-01 8.675086588873144322e-01 2.451736333031013515e-01
4.353798181735697437e-01 8.648652620323267204e-01 2.499049668512099143e-01
4.486765197481299983e-01 8.497988009779785523e-01 2.766430524757413356e-01
4.724407146019264925e-01 8.305529377453203521e-01 2.949264124981669233e-01
4.864638438768938977e-01 8.183540509233517835e-01 3.060221821009990739e-01
5.319008396077942180e-01 7.803224662644351328e-01 3.289047665624700856e-01
5.552785321664678309e-01 7.596807335684363505e-01 3.384537409454582146e-01
6.073795564059706331e-01 7.117041316757901637e-01 3.529409347407807540e-01
6.943428342253972207e-01 6.326263937285526717e-01 3.430333431575552372e-01
7.339606099550730622e-01 5.960017532530765827e-01 3.257049787056319201e-01
7.870936642398892458e-01 5.342494465647923407e-01 3.083197894372622927e-01
7.181253942000387358e-01 4.010253211083998903e-01 5.687482835446131535e-01
8.111130498896107488e-01 -5.776252982128736724e-01 9.189469605620599613e-02
8.230703054996209023e-01 -5.655103110821712020e-01 5.247247149226730994e-02
8.247580631477610114e-01 -5.654855159128617803e-01 -5.182330733559685400e-04
8.319554955632277871e-01 -5.515201223950448872e-01 -6.062679271987624768e-02
8.649281678334753698e-01 -4.955323836429745832e-01 -7.966756711070989427e-02
8.908195185804905769e-01 -4.432520795524609314e-01 -9.984076967072173792e-02
9.312811101854698848e-01 -3.344459738017679928e-01 -1.444347064230260269e-01
9.269998796263975160e-01 -3.391482200335952935e-01 -1.601552622322743036e-01
9.040080277671523890e-01 -4.040009065439307268e-01 -1.398311597757297686e-01
5.878522267943002699e-01 -8.067842010422452415e-01 -5.940549134220210470e-02
3.867622098017934329e-01 -8.782186572266955649e-01 2.813307362663619582e-01
-2.769857658424428881e-01 -7.307386427408829599e-01 6.239390367062215281e-01
4.616098865319919198e-01 -8.576772623265482842e-01 2.265083361467271350e-01
-3.586128713575040261e-01 -6.855767494023211617e-01 6.335466274676815335e-01
9.312354755373938864e-02 -1.719049242637535613e-01 9.807021473948549506e-01
9.221498340607907629e-01 -2.294133743915889034e-01 3.114629788464766125e-01
3.890353712510692397e-01 -1.494427587521544309e-01 9.090205397965923639e-01
2.438473999562624783e-01 7.320931285276693901e-01 -6.360645381540618315e-01
3.641409995862049942e-01 6.715433291293264606e-01 -6.453145663335523308e-01
6.302842890804054576e-01 4.962484693036767758e-01 -5.970587673354823544e-01
8.814521963705079788e-01 1.699668782221795127e-01 -4.406282853165627289e-01
8.891460537605554437e-01 4.571178359793523494e-01 2.150765239595819889e-02
-2.343839628118070950e-01 2.148624045265921934e-01 9.481024760529235262e-01
5.922422340452664358e-01 8.034924534615948133e-01 6.040706451516095199e-02
6.192984899344360361e-01 7.832685070140861239e-01 5.440428553755682906e-02
6.701622845154943109e-01 7.401892131293208443e-01 5.479453604119982613e-02
7.139065405877303983e-01 6.977083754707338326e-01 5.950188319749837723e-02
7.880569805264779903e-01 6.096459780755620894e-01 8.542819710014637469e-02
9.153581728759826452e-01 3.849615423905400902e-01 1.180001111416390663e-01
9.743278457170130302e-01 2.000033268792945351e-01 1.033630412558495110e-01
9.865660860695140144e-01 1.376704663563421693e-01 8.794430345797001058e-02
-3.700567270302001499e-01 5.109227273121779156e-01 7.758968910206960334e-01
9.977890999430932828e-01 -6.363410540920334812e-02 -1.917322778047296158e-02
3.968126408130936977e-01 6.479986876781137495e-01 6.501057059112625991e-01
9.987291266083900831e-01 -3.845169258936625284e-02 -3.258218840187471210e-02
9.989051607087859885e-01 -3.249467976375129685e-02 -3.365376199484253206e-02
3.014907513330144367e-02 2.320268706683990545e-01 9.722420298240744829e-01
9.996770551296976226e-01 -1.186215498887745363e-02 -2.247386762965355653e-02
9.998072349434643513e-01 1.898940862978440794e-02 -4.989520477487094895e-03
9.987276396127590106e-01 4.476669121217924374e-02 2.321734764007995361e-02
9.967843320681005759e-01 6.743918942125537441e-02 4.327760475990798106e-02
-3.003077681659969689e-01 4.227639364425580526e-01 8.550356123710582956e-01
9.960981723940008914e-01 6.733455646087685431e-02 5.704812406686275011e-02
-4.659264092841234328e-01 2.731258355720214137e-01 8.416144361135261542e-01
4.570042121439380489e-01 2.850829742037538361e-01 8.425407099374132569e-01
9.984582973729154709e-01 4.996327144721235403e-02 2.418056892363840832e-02
4.677062854133754999e-01 2.673534339267450433e-01 8.424802501853676517e-01
9.987240746592827012e-01 5.024893651675826217e-02 5.026636538923986292e-03
-4.818506973892728307e-01 2.345415683252967121e-01 8.442808526509301137e-01
9.966237792120895556e-01 -4.317326623386234796e-02 -6.983632143599899367e-02
9.901270839962673653e-01 -9.353177304019598404e-02 -1.044038551443653151e-01
9.854065800211717630e-01 -1.194954841053788158e-01 -1.212217032110970566e-01
9.752666242807999097e-01 -1.656221725837441205e-01 -1.463704461719429750e-01
9.481738347900989794e-01 -2.537933957608795033e-01 -1.911943808996474925e-01
4.885684371541228477e-01 2.009673905511868142e-01 8.490659515914089628e-01
-6.760117653125633508e-01 -1.955820860307493358e-01 7.104616392057016006e-01
9.046306582891419090e-01 -3.499875787236870206e-01 -2.432119791919889473e-01
4.678581751098635499e-01 -1.263629733108558584e-01 8.747234574189194367e-01
8.798077416337988232e-01 -4.045246802763148852e-01 -2.495959150478624933e-01
8.187113055349620749e-01 -5.122252613323911019e-01 -2.594938917242595733e-01
8.028804361662479350e-01 -5.531877423196928101e-01 -2.221853437307165779e-01
7.660743091763275725e-01 -6.323287932523646848e-01 -1.152842142013411758e-01
7.412083431260632072e-01 -6.704668900682623223e-01 -3.292933953951655141e-02
7.203507192421805261e-01 -6.925046504713653350e-01 3.914269232954300376e-02
9.393778025050688596e-01 1.806709557331393282e-02 3.424075411235745769e-01
9.401319656994223672e-01 1.111872671277338853e-01 3.221634347637952200e-01
9.492302748215590835e-01 1.106864080750964568e-01 2.944663044044605882e-01
9.547716553958824903e-01 1.017673398012179792e-01 2.793823448294284750e-01
9.444917667091969893e-01 2.406120007717620912e-01 2.236988325922812937e-01
7.482728542805461291e-01 6.315011031634216732e-01 2.032094787410913816e-01
5.203218524624013686e-01 8.292698801634619254e-01 2.039034960557873644e-01
5.443386520256658923e-01 8.040769872434504473e-01 2.390724377597240879e-01
5.134086503424633019e-01 8.178897368763091702e-01 2.597459067356636120e-01
4.909513489399496278e-01 8.317746182125427268e-01 2.590709506514045080e-01
4.433010439062188279e-01 8.556686472899573959e-01 2.670493409777136007e-01
4.683041914662392502e-01 8.406052156256986763e-01 2.721654932536903271e-01
5.048084537275465689e-01 8.186548861577712666e-01 2.738112532662053122e-01
5.272817548821822076e-01 8.024745318860159182e-01 2.793001551068062249e-01
5.738576393634569062e-01 7.626520085574775010e-01 2.984113328736795467e-01
6.370864461958822833e-01 7.073112020008588408e-01 3.063196428530192139e-01
6.753270864641311988e-01 6.669378325003135766e-01 3.148448091800963855e-01
7.890807982780825292e-01 -6.136190029637440535e-01 -2.869168852829894270e-02
7.887594435031519691e-01 -6.134344931808226598e-01 -3.945456704343804077e-02
7.925988211433148134e-01 -6.065449484077045650e-01 -6.237254430695202828e-02
8.027407530418668724e-01 -5.905446481396433578e-01 -8.285108303094891602e-02
8.146515073175387700e-01 -5.709602203915380425e-01 -1.017219167913603339e-01
8.499276433573547118e-01 -5.111706071120125650e-01 -1.277795425009405628e-01
8.660366883222907486e-01 -4.793514063772170153e-01 -1.421361448891307333e-01
8.755891233328353396e-01 -4.567344249648848109e-01 -1.572811245929820745e-01
8.905504925046554554e-01 -4.245197668738885932e-01 -1.634098767916272454e-01
8.940295511291516117e-01 -4.151920015505743411e-01 -1.683055660286839894e-01
9.060072744723687288e-01 -3.856328942435490736e-01 -1.744651526250832196e-01
9.101017183200845739e-01 -3.526337150600584724e-01 -2.176334655189099132e-01
9.055979535481352150e-01 -3.420175164992437788e-01 -2.508313475965849859e-01
-4.402808313717492816e-01 -6.337512759072820856e-01 6.360126648208298539e-01
-4.840208832391103000e-01 -5.954753211553598380e-01 6.411964804046826893e-01
8.771693876916495380e-01 -3.298196219222219172e-01 3.489883698516887955e-01
-5.369912225132876804e-01 -5.708393552881497746e-01 6.211142064048239542e-01
4.603744961114932255e-01 -6.938082429250740368e-01 5.537918791200446833e-01
2.773133346151921419e-01 -7.261348172237725995e-01 6.291466773813565450e-01
-5.679451244857571801e-01 3.686960756480405638e-02 8.222402128398217380e-01
9.625148758956615369e-01 -1.977504182882720840e-03 2.712216863688561852e-01
5.995021389775707643e-01 7.609311902181987719e-01 -2.481550102545442560e-01
6.541261216759214348e-01 7.053540297313130036e-01 -2.731203208899249946e-01
6.658536650276710711e-01 6.925057247497675705e-01 -2.776233382805146643e-01
7.389423636048328969e-01 5.979013977861518114e-01 -3.106092429330921112e-01
8.558388971978240223e-01 4.798508820243607143e-01 -1.930878376896263127e-01
8.329215273662294861e-01 5.509733976979687142e-01 -5.167247119176054948e-02
4.987413919285569874e-01 8.065611791278813891e-01 3.173579813097617830e-01
2.851017678606018041e-02 3.656584754210067123e-01 9.303123395787098460e-01
7.216857077745729709e-01 6.627843608910334305e-01 1.997163742715607204e-01
6.884811433404901537e-01 7.239260949605772488e-01 4.387167992795345389e-02
7.174746994665625044e-01 6.963232297301567009e-01 -1.907918665795479626e-02
7.378532310175291986e-01 6.747973414055270514e-01 -1.487136540554177475e-02
8.209242434291162960e-01 5.659826079930426745e-01 7.580945851097137256e-02
8.768077723888230146e-01 4.605064223526821876e-01 1.383544912551917527e-01
9.978422078882472901e-01 6.541944500381720318e-02 -5.587877244575613876e-03
9.996598684593734907e-01 -1.219228422343522937e-03 -2.605112039514755756e-02
9.951773417258961141e-01 -8.623952180811168822e-02 -4.674188051081133027e-02
9.924939489591333430e-01 -1.115090303524910037e-01 -5.021451413040203815e-02
4.726775887666729847e-01 1.406479393052516812e-02 8.811231915285262506e-01
-6.782215565552370817e-01 -1.448114338092858500e-01 7.204478946196525291e-01
9.926863426824921177e-01 -1.085870731807867529e-01 -5.275104349383299279e-02
6.932460561678622790e-01 -5.819633513159333527e-01 -4.251218217556381740e-01
7.236910214240188655e-01 -5.836032763115338584e-01 -3.683456547710364237e-01
9.958138619767589184e-01 -6.397214916431744058e-02 -6.528641839028144489e-02
7.638751082223346200e-01 -5.738063231615144755e-01 -2.953660822406324882e-01
9.923498701265281996e-01 6.694175642834858386e-02 -1.037330058667452481e-01
9.922012768327137522e-01 3.508223352417533247e-02 -1.196071199489726622e-01
9.929948417012900430e-01 1.368323173776641276e-02 -1.173627433380819984e-01
-5.678662283490090168e-01 -1.221282067613600336e-01 8.140102258656986001e-01
9.888325983281054388e-01 -5.382555103653250544e-02 -1.389708693910388093e-01
9.718964289532739942e-01 -1.644961332598882386e-01 -1.683993869656861819e-01
9.646312789982961489e-01 -1.948519217772495260e-01 -1.775365431617503542e-01
9.493040994146537681e-01 -2.456337295772271223e-01 -1.961779746263963842e-01
9.234551684686109763e-01 -3.010812394362952227e-01 -2.378668515958316243e-01
9.077406531581985183e-01 -3.277436424653835667e-01 -2.618988572473159304e-01
8.972354907747190911e-01 -3.444029370617905927e-01 -2.763242498179651063e-01
8.758427907650666588e-01 -3.639326497934636251e-01 -3.169423169587299305e-01
8.579272326180770181e-01 -3.756700783771229069e-01 -3.504751856328979231e-01
8.188266379930614347e-01 -4.049985471464533915e-01 -4.068158228513757413e-01
8.961763150489547858e-01 -3.917867204864249331e-01 -2.082574800475808507e-01
8.049085060024978588e-01 -4.319897248947123791e-01 -4.068257299510656955e-01
7.905074790034960497e-01 -4.642908897327126527e-01 -3.994144405886490001e-01
7.922003934408008430e-01 -4.861349865538876491e-01 -3.689055590262796946e-01
8.073428044738727438e-01 -4.760224230927002087e-01 -3.487122721918694546e-01
8.296079055821816706e-01 -4.787229330561195151e-01 -2.873587937782519086e-01
8.741488807775418257e-01 -4.729967351335823689e-01 -1.101717876243404060e-01
8.625157975795114673e-01 -5.004745400325281146e-01 -7.477789583164788645e-02
8.632649996543089177e-01 -5.037175512318828874e-01 3.228264166392443013e-02
8.614206667220042357e-01 -4.965298923143093845e-01 1.068293076948369225e-01
9.930285847279106681e-01 2.395145538765888760e-02 1.154147204566895735e-01
9.928237370553637531e-01 4.740676489307902447e-02 1.097890057418967752e-01
9.908499572911195763e-01 -6.087912098110043885e-02 1.204578547241946518e-01
9.611295089073826903e-01 2.094738219812569968e-01 1.798632397462528176e-01
8.853016570066332136e-01 4.178476848721540127e-01 2.040693224085641799e-01
5.735630048399289471e-01 7.975552825346302610e-01 1.868985039536099069e-01
5.151223302723310082e-01 8.314914707353012746e-01 2.080166314246275072e-01
4.999011668224368488e-01 8.408493354214420235e-01 2.075360656148361460e-01
4.713305562367885448e-01 8.571021206885059973e-01 2.079025287695783486e-01
4.590223063423476968e-01 8.645382133874908170e-01 2.046269773830357575e-01
4.535372467180165401e-01 8.695111065348924972e-01 1.955873243641002290e-01
4.679777554220416191e-01 8.626027345730824525e-01 1.921284537417292104e-01
4.899625608481004146e-01 8.498787648165641029e-01 1.940174581862234848e-01
5.065880421011378365e-01 8.389532104746119101e-01 1.988116350581057568e-01
5.691295943780712019e-01 7.928074068185682055e-01 2.180548566225236906e-01
5.962234922384858082e-01 7.692513364589533831e-01 2.297170621853287242e-01
6.994010443812765931e-01 6.706970832172416408e-01 2.469890719895594389e-01
7.962578178744285085e-01 5.660835316435104403e-01 2.133610148922813754e-01
7.618510228585777533e-01 -6.078418311198618973e-01 -2.238555947708079363e-01
7.979938069549217250e-01 -5.478933197131028443e-01 -2.510354442610578940e-01
8.133786884325588940e-01 -5.191164667950896039e-01 -2.625513342299232167e-01
8.238543298488056887e-01 -4.948052666317676040e-01 -2.764630016889070285e-01
8.314872162363299291e-01 -4.722692110257323272e-01 -2.925590565213990191e-01
8.329898888940703294e-01 -4.465113418392080979e-01 -3.267345506817332379e-01
8.368457067964475415e-01 -4.128133397448504605e-01 -3.595475066594910896e-01
8.365676604068975619e-01 -4.059137064162980923e-01 -3.679519160226143448e-01
8.364097112515445076e-01 -3.893119594066379863e-01 -3.858173054530761314e-01
8.387615193312403239e-01 -3.716011681827914304e-01 -3.979845292148103120e-01
8.398718687923508730e-01 -3.575897829025911356e-01 -4.083439618445728336e-01
6.147073590839027268e-01 -6.810776491515327935e-01 3.978292328553993396e-01
7.725566149716901476e-01 -5.043734484440115518e-01 3.856989774010035066e-01
7.609415002042172471e-01 4.052521576761341504e-01 5.066939134880081852e-01
6.637097036309898002e-01 6.231907294297948097e-01 4.136698491053269477e-01
6.074802834705498311e-01 6.808260160258698956e-01 4.091987794420730018e-01
5.906867860649608337e-01 6.950172441150981317e-01 4.099270071011437144e-01
6.869682089015241022e-01 6.841099114114290725e-01 -2.450883699143608929e-01
7.089973659590542709e-01 6.603889566785989818e-01 -2.474048523373668929e-01
4.621167079201935479e-01 8.105764992439519201e-01 3.597414170406602052e-01
7.306532379963126544e-01 5.753395457788762490e-01 3.676006703863039515e-01
8.184754321163093538e-01 3.768747936381821595e-01 4.336627225646658701e-01
8.143824605294258667e-01 3.572871111015208379e-01 4.573041965943101528e-01
7.550966378197973006e-01 4.097411703071000555e-01 5.118019547721617268e-01
6.091639656839464845e-01 6.216067599669531374e-01 4.924675612419504023e-01
7.793853638297244535e-01 5.307920831411234719e-01 3.328937054417139274e-01
9.988739672672181102e-01 2.077399738575085378e-02 4.265253273212888524e-02
9.889410733825964028e-01 1.461140547473928908e-01 2.542117979468851846e-02
9.768080151310769565e-01 1.557356477031854591e-01 1.469438995336491416e-01
9.762416940126716902e-01 4.035392961402255868e-02 2.128936711975611407e-01
9.678623599817564038e-01 3.566409881325401099e-02 2.489387960651846532e-01
9.363464392075007137e-01 7.135802366129459506e-02 3.437490047150513761e-01
8.913403571220891441e-01 1.072754606140330497e-01 4.404592413782615901e-01
8.446810920650571486e-01 6.495194215685541617e-02 5.313145000071378687e-01
9.366507796067532476e-01 -3.083115328963460522e-01 -1.662206838668598974e-01
7.725095929849843390e-01 5.921724652872557143e-02 6.322359104477772718e-01
7.000504005113307171e-01 9.904184804899376915e-02 7.071917343118239163e-01
6.634502504084865970e-01 -1.223541355090658651e-02 7.481203512057098548e-01
6.425603615188076878e-01 -3.934826654326964435e-02 7.652240820340530103e-01
6.330901422793966393e-01 -1.224914808903221908e-01 7.643250021149048390e-01
7.173393953691248326e-01 -2.476867659688477830e-01 6.512107629756679339e-01
9.732307471848934410e-01 -1.689840806581245913e-01 1.557764206099963578e-01
9.737449483634069702e-01 -2.249522800905206510e-01 3.488907019142403754e-02
9.778316798905407614e-01 -1.629507337783165088e-01 -1.315000538537962615e-01
9.621785635105299939e-01 -1.669476971623836681e-01 -2.152693158185579048e-01
8.925426279797465945e-01 -2.534561549659755664e-01 -3.729981699001630457e-01
8.695785465786231017e-01 -2.661458047513421410e-01 -4.159321602659140638e-01
8.425626482258444794e-01 -3.188366993330261079e-01 -4.340867919818264253e-01
8.321213746445446091e-01 -3.845533359100815063e-01 -3.996157525675153588e-01
8.653157962748740939e-01 -3.726321308661816323e-01 -3.352221170557064256e-01
8.105232302362133101e-01 -5.751548031991156051e-01 -1.106754065022614447e-01
8.201358239345839518e-01 -3.363527169690239682e-01 -4.628650776270517020e-01
8.605783158197998217e-01 -3.005075191706974014e-01 -4.112179388871912700e-01
9.139407705557521799e-01 -3.154706709117839902e-01 -2.553243500146958334e-01
9.165182668035920521e-01 -3.237374275572575399e-01 -2.349219968711937223e-01
9.271452613239963281e-01 -3.171810807262456788e-01 -1.994939258067504328e-01
9.406404172555421495e-01 -2.968353953723535388e-01 -1.645732465483327189e-01
9.530691886383928502e-01 -2.394595960660048373e-01 -1.852517841211289429e-01
9.735705406974455300e-01 5.133286349156622463e-02 -2.225428934202120790e-01
9.722280324012834152e-01 1.737331804511436650e-01 -1.568101878815891248e-01
9.314022487821257412e-01 3.591868824803614024e-01 -5.894602970207901693e-02
7.607371670922365992e-01 6.482978642405705649e-01 3.144585545971583657e-02
6.369083082591430189e-01 7.677987228787673812e-01 6.951926363397695208e-02
5.031301513222522503e-01 8.560496292919959060e-01 1.184866364594934218e-01
4.948743245668145163e-01 8.584139058033640746e-01 1.349998859553315500e-01
4.609747479839659823e-01 8.756202937309808254e-01 1.441921736003377308e-01
4.629662226435783956e-01 8.746579728039580726e-01 1.436513393658657434e-01
4.801269926740480143e-01 8.634297154537349250e-01 1.548134276387456154e-01
5.078294025810969892e-01 8.430727494020516799e-01 1.770243968773557997e-01
5.225977072406799984e-01 8.280163506287384623e-01 2.031761784222020084e-01
6.765128124927378694e-01 7.046857800995750543e-01 2.138886763216299725e-01
6.948789127700895074e-01 -6.435321805200512335e-01 -3.209511321409638240e-01
6.937491459078191092e-01 -6.424564748399528291e-01 -3.255177422021612865e-01
6.905641710732545180e-01 -6.347152666048161418e-01 -3.467818564583300955e-01
6.954850695765534274e-01 -6.237343702884903252e-01 -3.567295240331491701e-01
7.037489370516335496e-01 -6.132533258414721855e-01 -3.586889905517995358e-01
7.091323713420031316e-01 -6.057681732964933508e-01 -3.607993904317149947e-01
7.353556067497533100e-01 -5.696395070138259298e-01 -3.671007541135643537e-01
7.355993998870036243e-01 -5.631945525752246606e-01 -3.764378020808651915e-01
7.388712306393153684e-01 -5.475219717464879787e-01 -3.927963785326713531e-01
5.569407749435221211e-01 7.241183438260351268e-01 4.067795439054785467e-01
5.230035716983760796e-01 7.480349423986953905e-01 4.085474133332899771e-01
4.987889667146782058e-01 4.319400558411479740e-01 7.514235522284682389e-01
-4.638058977675114103e-01 4.158327352522219189e-01 7.822833409249669856e-01
5.032281051728118015e-01 7.404899163961937703e-01 4.454617355954824109e-01
4.720088853001053186e-01 7.651101777020327122e-01 4.379657842509112053e-01
5.186223825796276027e-02 5.768260483785440096e-01 8.152190001189053570e-01
-1.807152983349794365e-02 5.076309205247301337e-01 8.613850871339090443e-01
4.695045074566196464e-01 7.599133474641578401e-01 4.495522459333676779e-01
4.887849319882993093e-01 7.562474646653670751e-01 4.349471950115298413e-01
-5.924083130077264503e-01 -2.015364238045693202e-01 7.800227307966124402e-01
7.716021267303166953e-01 -6.360541862843182015e-01 8.076517532081200351e-03
9.975967781750216812e-01 8.228197455586825238e-04 -6.928196837910280403e-02
9.985162120260423491e-01 3.332634974330132838e-02 -4.306656166854708895e-02
9.972071363672482258e-01 -6.230622983724666553e-02 -4.118083172667529740e-02
9.986817100378918566e-01 -2.338650970055336856e-02 4.569368884012296045e-02
8.532422475814438467e-01 4.049504520591192813e-01 3.286225773121512206e-01
6.707197650894328733e-01 7.399672500257044039e-01 5.082780349152182797e-02
8.160337446230617742e-01 5.656505522080148562e-01 1.188628639366876294e-01
8.582995803388888678e-01 4.745958526422701662e-01 1.951425300769773219e-01
9.737933570924593996e-01 1.496286493055431210e-01 1.712827048758768511e-01
9.478136530100544910e-01 1.968594992054038539e-01 2.507899853270338930e-01
9.261160718226656430e-01 2.861415392078572317e-01 2.458292925009420982e-01
9.424671368163400897e-01 2.374252343313799085e-01 2.353400818473123379e-01
9.699938014029214628e-01 1.556472152768089978e-01 1.867778616873107811e-01
9.956239094486060148e-01 6.217213786922823858e-03 9.324364421772439460e-02
8.760342593683535517e-01 -8.515744292890883860e-02 -4.746706082398088333e-01
8.623772822446714725e-01 -6.922768515356381158e-02 -5.015106685570840384e-01
9.331733168646072496e-01 -1.887904443570888602e-01 -3.058524624902669298e-01
9.574948207043351145e-01 -2.058404504598347340e-01 -2.020727029533314623e-01
9.278581003738266553e-01 -3.726752662610218203e-01 -1.387413016914053158e-02
9.537488049277970115e-01 -2.995759470391770041e-01 2.484892461212836676e-02
9.623430102971505251e-01 -2.703161639572386754e-01 2.872458939065681768e-02
9.250091743667205879e-01 -3.719472430701404875e-01 -7.754531391334856805e-02
8.019918317307082045e-01 -5.639045843349604903e-01 -1.970297480159759473e-01
7.628256429617374934e-01 -5.505511013458229685e-01 -3.391025261582593653e-01
8.052280753509823974e-01 -4.337238280828157322e-01 -4.043406826176918489e-01
8.399614666118178086e-01 -3.115871100334715593e-01 -4.442726724302469288e-01
9.475447176270688221e-01 2.496609108402984278e-01 1.995706333492749118e-01
8.123257351183200692e-01 4.977841166705782028e-01 3.038714748951815703e-01
9.060546452212048241e-01 2.951381893375070731e-01 3.032464823664978160e-01
-9.674321263046517516e-02 -9.952741949334947824e-01 -8.368256056102767529e-03
-3.199004076214147924e-02 -9.966209641201793090e-01 7.565243663095463922e-02
9.243562167179467659e-01 -1.982116430561460252e-01 -3.260026520933027583e-01
9.189576177331539864e-01 -2.267914313088707778e-01 -3.226182628046345702e-01
9.119106546103724620e-01 -2.495125668482708337e-01 -3.258257770540402554e-01
9.014633347363660842e-01 -2.724119956403300291e-01 -3.363860293728669904e-01
8.989648927607359896e-01 -2.947614334501312272e-01 -3.240028069849121839e-01
8.851849653241617988e-01 -3.239660552221977907e-01 -3.339065321730472213e-01
8.804298383414685958e-01 -3.090289651933408877e-01 -3.596448226091240041e-01
8.751049355513824679e-01 -3.117718684312282273e-01 -3.701211339933342948e-01
8.520807139205441860e-01 -3.202184872115947933e-01 -4.140272665085881765e-01
8.616364751659300047e-01 -2.992955047851155737e-01 -4.098838682835106439e-01
8.434991966938524266e-01 -2.849007460120389634e-01 -4.553467580850986129e-01
8.726392684019944612e-01 -1.706398001491722105e-01 -4.575836162362922344e-01
8.765622576733776983e-01 -6.640066838346342371e-02 -4.766860178993930774e-01
9.082305939941056616e-01 1.357529231218709276e-01 -3.958387702044625645e-01
9.161997913240100821e-01 2.697262145572282832e-01 -2.963540307781700744e-01
7.857636211778092905e-01 6.115205942033911102e-01 -9.283369269111151068e-02
5.953823562823467030e-01 8.032247140165919008e-01 -1.870584455844901545e-02
-8.374809743316219413e-01 4.707074614983862704e-01 2.775970160543918541e-01
7.632058527564771211e-01 1.702265649563816097e-01 6.233295620307199858e-01
4.522855362579169536e-01 8.913392389329121146e-01 3.085700617988149444e-02
4.596578092289083095e-01 8.814402961019877081e-01 1.085251253052516573e-01
4.619087184617781672e-01 8.797245402220894572e-01 1.128054481841688217e-01
4.589816063729151852e-01 8.790068507827515365e-01 1.291620737226224502e-01
4.466021105952632797e-01 8.769540626741917366e-01 1.774771161899076632e-01
4.430421138811050930e-01 8.645794437092692020e-01 2.370992847798839842e-01
6.950878639270997583e-01 6.918044288305794653e-01 1.956003416961671626e-01
9.851195076870465916e-01 1.676223215891803064e-01 -3.797779455792922587e-02
6.383296354342892220e-01 -6.455118255485221557e-01 -4.193444402914406344e-01
6.408560174654058805e-01 -6.315085128540585124e-01 -4.364637018942523206e-01
6.562433208725066969e-01 -5.977292294247439353e-01 -4.605045842350821705e-01
5.257388922051872138e-01 7.378237369572433479e-01 4.233376316904879921e-01
5.561823529269713795e-01 7.256375358047426616e-01 4.051065994572772277e-01
5.456280222776944688e-01 7.314071451600847595e-01 4.090643584011032230e-01
5.246560467766347990e-01 7.393214125780109836e-01 4.220662050962715184e-01
4.806716040935458123e-01 7.567982556960216600e-01 4.429573446660485248e-01
4.190057654984845059e-01 7.770831898717673880e-01 4.696550697030191790e-01
3.878413697396193571e-01 7.805936800803041642e-01 4.901556676579224003e-01
-5.917463242534912182e-02 4.855748641647565922e-01 8.721900103582378438e-01
3.541691826072042026e-01 7.875494258106586765e-01 5.043115029390530246e-01
3.195850499854174243e-01 6.561032317910748812e-01 6.836621571062166947e-01
-3.462259575187892069e-01 5.363985677898296389e-01 7.696779604569804478e-01
4.319300472269033686e-01 6.650758751501633093e-01 6.091884064850623393e-01
6.150669967644981639e-01 6.620381004243692802e-01 4.282500940777403398e-01
7.168649812549414690e-01 4.842322395332579466e-01 5.016211088530444506e-01
5.394463418789535725e-01 7.897124636418000332e-01 -2.921504218758100291e-01
8.120185220008439009e-01 5.625105944410461190e-01 -1.555884027463032837e-01
8.481612683129106101e-01 5.201909164524042284e-01 -1.001192957138766770e-01
8.519016288232234002e-01 5.117882682125090010e-01 -1.110692726562108185e-01
8.941956023464763259e-01 4.386572865387833864e-01 8.940922609358510631e-02
9.364974532922774042e-01 2.732934183263580619e-01 2.197344476329845531e-01
9.099800838348131027e-01 6.696498462017867748e-02 4.092089171301204753e-01
9.061408917437044908e-01 2.432817518821109651e-02 4.222757679549420384e-01
8.999359596711293818e-01 3.956596103701445072e-02 4.342232181931557355e-01
9.457917216381657166e-01 8.350294496960751489e-02 3.138555041131457779e-01
9.693614857677238517e-01 -1.062051361449889778e-02 2.454088722942903700e-01
9.800236398391237724e-01 -1.988446148611984210e-01 3.805850388168964364e-03
9.708933897569602678e-01 -2.140406524700979307e-01 -1.074831373584434757e-01
9.845587265984642178e-01 -1.465584688209197739e-01 -9.573259160640174015e-02
9.818947687037867800e-01 -1.671159685518902316e-01 -8.919033718459115634e-02
9.561581323561374468e-01 -2.626045760382443306e-01 -1.296165983699501256e-01
8.265526374471841020e-01 -5.219089286992805166e-01 -2.107648160226776868e-01
8.329255525604120081e-01 -4.856149515311111720e-01 -2.653547488577673308e-01
8.229192246392416088e-01 -5.677454492936077068e-01 2.165766666908521682e-02
7.880146773834738605e-01 -6.156459769171388485e-01 3.591564277770517739e-03
7.538099401547394551e-01 -6.529082422595792190e-01 -7.403648636594606369e-02
7.888161630432635185e-01 -6.006854700348145393e-01 -1.301769065954374860e-01
9.543188602303434021e-01 2.976266469614763932e-01 -2.634183036782052761e-02
9.301018873927255903e-01 3.270877608947043713e-01 1.671049841907127076e-01
6.635353130350751805e-01 7.385115812009983571e-01 1.196726066710586261e-01
7.008579746259581134e-01 7.107144715107794886e-01 6.068804979856717158e-02
9.534749224615463037e-01 -2.697920117296040421e-01 -1.345282224807909932e-01
8.052457198441811403e-01 -5.929202888696961660e-01 4.986152755668025321e-03
-7.872727001424202342e-01 -3.019591137409736725e-01 5.376080256462215656e-01
-3.777189273803089886e-01 1.754603293014421750e-01 9.091435996255478047e-01
8.114514825276996079e-01 -2.752676037198769632e-01 -5.155329648489173078e-01
7.839515871168226679e-01 -2.850674302540970872e-01 -5.515038252499616656e-01
7.625152128552004083e-01 -2.946917069374401787e-01 -5.759577658359039676e-01
7.523574950295514041e-01 -3.032439180324310035e-01 -5.848087942645859849e-01
-4.862837967654359272e-01 1.703723102889175833e-01 8.570305390650960753e-01
4.667527950957663929e-01 1.901998926805652523e-01 8.636931336386732827e-01
4.485896534731534380e-01 2.162868004022283352e-01 8.671720375845860529e-01
-4.646814168016956681e-01 2.218389382691966505e-01 8.572389785507681381e-01
4.395734000226961813e-01 2.486183989244089010e-01 8.631130387780909796e-01
-6.243171244793724872e-01 7.111107795605449422e-02 7.779275947501383959e-01
5.078496602231762358e-01 -7.876129394306802256e-02 8.578376193590591114e-01
-6.063594359318308369e-01 6.584593340342384526e-02 7.924598081358219526e-01
4.264267510450552856e-01 2.914694438247220631e-01 8.562743656735648523e-01
5.029012066918371326e-01 1.128890079073315185e-02 8.642701759443229825e-01
5.083635292349253376e-01 4.194023182248422105e-02 8.601206538029926296e-01
-4.501275714152131457e-01 2.721791135450550292e-01 8.504726330703828996e-01
4.096915966787674224e-01 3.408211922249635428e-01 8.461641156071064707e-01
-4.300805632436503489e-01 3.393993214847713102e-01 8.365636913563134769e-01
3.978416501113346548e-01 4.068840492947630727e-01 8.222939814118714885e-01
-7.156686188646088631e-01 5.013600183261446297e-01 4.862679919513837601e-01
7.623037383705171255e-01 1.871589170183345918e-01 6.195680352042529648e-01
4.598013004909395907e-01 5.832299171038413110e-01 6.696458973680695648e-01
4.959911521313278282e-01 4.578333716660829555e-01 7.378220522567107142e-01
-8.168232771224473443e-02 9.018984753248846520e-01 4.241546151418816857e-01
-7.275216260304498417e-02 9.183491555074189128e-01 3.890269289077435966e-01
-7.408801968712680486e-02 9.433506326108327400e-01 3.234200817691775254e-01
-7.016417125584059611e-02 9.563296471396339760e-01 2.837438899320372521e-01
-3.347091041112467691e-01 -1.419980039565359176e-01 9.315612607324363914e-01
4.484179939882155241e-01 2.680559792935108265e-01 8.526824113540641958e-01
-1.177392024719920854e-01 8.684509667837900793e-01 4.815915266006656204e-01
3.518558025621107976e-01 2.812585374236671321e-01 8.927996019990559473e-01
-1.626297954077324803e-01 8.257532505444684645e-01 5.400769564246222787e-01
-1.539140318151106801e-01 8.406285420893818694e-01 5.192823172755813843e-01
6.056565124673175537e-01 3.619067312545645176e-01 -7.086633239970603348e-01
7.738239695263131601e-01 2.245996327284277838e-01 -5.922427451347924698e-01
7.887710678363702987e-01 2.528394051744587978e-01 -5.602788928161562820e-01
8.924943141671581870e-01 3.140458905438122117e-01 -3.237731888403328484e-01
9.639584527158578942e-01 -7.351725773922458684e-02 -2.556937900148409382e-01
9.778971740651972722e-01 -9.377516520790397936e-02 -1.868778621065951273e-01
9.906641452358581068e-01 -1.354259972827399627e-01 1.563171788645927041e-02
9.932233188350887421e-01 -7.096618950592700759e-02 9.203933327236048234e-02
9.761277426192929152e-01 -2.069317638331237465e-03 2.171873569374495050e-01
9.780083731734332542e-01 -1.285886035439720750e-02 2.081688538495627960e-01
9.568536525611703869e-01 -2.823283876974768680e-01 6.871512992413135457e-02
9.320568296060067759e-01 -1.237867263341170948e-01 -3.405097836601493344e-01
8.849002276199584571e-01 3.564893740113057596e-01 -2.997781068977070085e-01
9.665846087313627599e-01 -1.768879985101537988e-01 1.855392954247430115e-01
9.280631754743603468e-01 -3.383433801160863896e-01 -1.556357910638432596e-01
-7.978513959381083875e-01 -3.126341817616452579e-01 5.154541865130578548e-01
8.418167639787360601e-01 -5.396848900256506765e-01 -9.206267559119584581e-03
-8.300011802629053692e-01 -2.332730279554696140e-01 5.066376764421205436e-01
7.836456271832422660e-01 -5.492902984246567089e-01 -2.901373796206452860e-01
3.758683692910992913e-01 4.616671580699721611e-01 8.034839165322757992e-01
-3.918771781834125556e-01 4.290030493902948772e-01 8.138726318244360325e-01
3.528172476911636268e-01 4.811811463835202751e-01 8.024865694182510278e-01
-3.618371731197269625e-01 4.721791783717200763e-01 8.038163245797711465e-01
5.075807958566495026e-01 8.972167683796766768e-02 8.569199241369718223e-01
-5.591535883681694186e-01 8.527839177786007696e-02 8.246665147262750573e-01
3.416295993096558070e-01 2.377709217916913476e-01 9.092602518673371659e-01
2.406651151535297850e-01 2.656409400426094081e-01 9.335497808480366366e-01
1.639163821607130811e-01 3.166986017165173140e-01 9.342555407008007462e-01
4.274813063787878675e-02 3.610202692768776922e-01 9.315776738942477264e-01
9.399284562447190322e-03 4.054559540110569960e-01 9.140662573395310631e-01
-1.336445766048633410e-01 7.805305883491794328e-01 6.106644969174075399e-01
-1.412192886745594067e-01 7.905157532544065946e-01 5.959378796173889770e-01
-1.547135144875684820e-01 7.954047552833489743e-01 5.859991499204934007e-01
-1.621197132345817971e-01 8.022822668968164761e-01 5.745088013282673156e-01
7.431428521940149426e-03 3.563005216165930911e-01 9.343418604375312020e-01
2.227540612366619988e-02 5.329003411284268799e-01 8.458847632551564910e-01
2.617199383288379769e-02 5.703325115151907099e-01 8.209968654310356717e-01
5.573206348108246111e-01 7.825439509335574417e-01 2.775223862526367546e-01
6.765255579935435248e-01 5.662331140686684972e-01 4.708431054115828629e-01
8.766619617502811046e-01 3.061365208166311747e-01 3.711391052455090267e-01
7.788996068166365028e-01 3.638140523838134799e-01 -5.108372909145894036e-01
7.560717343467444618e-01 3.741595322334203555e-01 -5.369917848168387353e-01
7.986595979021732239e-01 3.931389065301463814e-01 -4.556145814732224797e-01
8.846527023370726051e-01 1.910934830184521926e-01 -4.252915200137329932e-01
9.705251357529232070e-01 1.935512032026729112e-01 -1.435928013883976118e-01
9.805287850665580507e-01 1.602982037324051923e-01 -1.134362708134560166e-01
9.978174615406659731e-01 1.474568510689790862e-02 -6.436519412904598281e-02
8.523028843701412338e-01 -5.159745233969368350e-01 -8.573263380791203148e-02
7.195479357485744520e-01 -6.515923397348765134e-01 -2.401628425855981686e-01
7.473665188075214738e-01 -5.645014885409579408e-01 -3.504017066176606798e-01
8.018685426107957648e-01 -4.538793700967225231e-01 -3.885876449037475866e-01
4.598350402760149058e-01 2.868821389136684830e-01 -8.403870382785983972e-01
2.884972495183920072e-01 2.342707091165192046e-01 -9.283784637045205956e-01
4.822437637634821583e-01 9.287064791469666625e-02 -8.711004506181451168e-01
-8.592744075172245033e-01 -1.825827189991108546e-01 4.778190487086239613e-01
-8.730144980532535959e-01 -1.731429031469165492e-01 4.559245784981141858e-01
7.610511056448586720e-01 -5.289529714868882460e-01 -3.755129405918380403e-01
7.498801138534171296e-01 -5.468993311111420841e-01 -3.722646054587673281e-01
7.382206049599959741e-01 -5.637604524085982893e-01 -3.704112453915919256e-01
6.746129463616418187e-01 -6.235636175750284282e-01 -3.950516262945999446e-01
