1.706791346337125093e-01 9.502165496347818596e-01 2.606859064101031964e-01
3.381081575136343220e-01 8.781988146071157963e-01 3.383041765118963151e-01
4.269250296118908272e-01 8.513852748062493703e-01 3.047591392132042443e-01
-9.574163960114010496e-01 -2.477398787251783863e-01 1.482524776783647191e-01
-9.635687695633617933e-01 -2.030914495366886729e-01 1.740376092895890014e-01
-9.623227906240224838e-01 -1.891889988628910335e-01 1.953007151928808915e-01
-9.649223464665646066e-01 -1.603381897943799150e-01 2.078858585448286056e-01
9.611918390315714600e-01 -2.254369546757661880e-01 1.590233569184800466e-01
9.611782757348349415e-01 -1.862762222961195091e-01 2.035620083966950822e-01
9.617584281071513974e-01 -1.692206107371677648e-01 2.153720289791619391e-01
9.619729810591344243e-01 -1.386478542906204314e-01 2.353396613680087679e-01
9.658317627554947604e-01 -1.358872753604751238e-01 2.206890446934782757e-01
-4.526724087552264630e-01 8.306077304852647059e-01 3.243123315722962752e-01
-3.204478370432470302e-01 9.194918444281456882e-01 2.277014092280315316e-01
-3.362901645320076627e-01 8.971542519640787194e-01 2.863968809568453455e-01
2.734789911835788789e-01 9.610709893165245710e-01 -3.939282771481385226e-02
1.343453307283491160e-01 9.907879212099824917e-01 1.704779445828496012e-02
-5.698002131411677995e-02 9.906109076191897955e-01 1.242711023405189130e-01
5.939355357681788128e-01 7.352001694376772978e-01 -3.266822465494213512e-01
4.613094706955996882e-01 8.644243127800339543e-01 -1.999104292459799037e-01
-9.640966199732540209e-01 -1.464377085087977329e-02 2.651476330865768505e-01
-9.501557230248219854e-01 -1.104952126217484121e-01 2.915388653179059597e-01
-9.643389397473256519e-01 -9.032133621959199943e-02 2.487819637966373898e-01
-9.681737726830905721e-01 -9.369251448563230278e-02 2.320802848540797769e-01
-9.681737726830905721e-01 -9.369251448563230278e-02 2.320802848540797769e-01
9.498883999549698753e-01 -8.501553674722293896e-02 3.008062269012543033e-01
9.516972002118736507e-01 -3.372810905133171583e-02 3.051800350099960757e-01
9.657879519148586667e-01 -2.836559813944216496e-02 2.577770835010247397e-01
9.660774964531584352e-01 -8.856972306537166939e-02 2.425895195652960079e-01
9.660508689236178004e-01 -8.863128434728868854e-02 2.426730600764595569e-01
-9.257688006683980619e-01 1.032877023684286993e-01 3.637083697805795768e-01
-9.397181004667310988e-01 6.117706409761584224e-02 3.364331411790383308e-01
-9.640905948548534887e-01 1.336393297921414647e-01 2.294991382230488763e-01
-9.416345599448717740e-01 1.653056519008652692e-01 2.932548328110854974e-01
9.601736703289193153e-01 2.800038410713127229e-02 2.779973044778402680e-01
9.356918842115575785e-01 2.273163337523568250e-01 2.698295429155458391e-01
9.611225273213361842e-01 6.453944079494706998e-02 2.684737381147791480e-01
9.099939713309683764e-01 3.703357891264889151e-02 4.129642674302622107e-01
-9.479643732630229636e-01 2.477071501198063741e-01 2.000117866616063778e-01
-9.185729043572637975e-01 3.663529530532655953e-01 1.483554285148096785e-01
-8.955125756605025744e-01 4.245063198698799112e-01 1.336099218786680753e-01
8.248367962605525072e-01 4.853684391783559260e-01 2.899340231573281912e-01
8.629715646690399034e-01 4.919791822146840077e-01 1.150502622336847525e-01
-8.260989651116256161e-01 5.623214272878714892e-01 3.681184937533443086e-02
-7.695272162587127873e-01 6.386120899669019968e-01 1.569071452133300425e-03
-6.659989174039295801e-01 7.390677245491281688e-01 -1.011154812408448234e-01
-5.270562145508935759e-01 8.354834933942583142e-01 -1.554962345814483171e-01
-5.218547903194812321e-01 8.347560564411649064e-01 -1.756414075763603755e-01
-1.630354554005636891e-01 9.395473517023585908e-01 -3.011149517898694672e-01
2.151205020697085635e-01 9.269670099259842422e-01 -3.073358620437201538e-01
5.976152396869837125e-01 7.897273192562402899e-01 -1.385163763394832437e-01
3.283889525739884796e-01 9.041374229117238315e-01 -2.733060854022566488e-01
5.164998921818045874e-01 8.286261527807734506e-01 -2.158855259250110070e-01
6.791502532309372508e-01 7.274803768842142970e-01 -9.760755495736643528e-02
6.998402406729644643e-01 7.141635350264819992e-01 -1.393135934810368730e-02
-2.849017506488833451e-01 9.380314090393078175e-01 -1.973019719438508235e-01
-1.040897292196332202e-01 9.678369303955753900e-01 -2.290349415121057941e-01
1.705764291900447038e-01 9.677377662626478472e-01 -1.854381232480376007e-01
5.876536425780920503e-02 9.674825783918424849e-01 -2.460164475638144665e-01
2.953379808876068768e-01 9.277383159820806746e-01 -2.282040624177510135e-01
-5.099345321480448501e-01 -8.601085092943253629e-01 1.342107158344803958e-02
-2.814133454419316949e-01 -9.543031941515802696e-01 -1.005581555084987949e-01
1.186115782819969211e-01 -9.886772549830915580e-01 -9.191615188068121001e-02
-8.351560542599800741e-02 -9.948851578272287499e-01 -5.682135501217207979e-02
4.854823371366059903e-01 -8.741232055588112893e-01 -1.468066183681602903e-02
-8.448032257515634136e-01 -5.091934600066094774e-01 1.644065997648832267e-01
-7.846360646689369833e-01 -6.168458953117790244e-01 6.202731219272312330e-02
-5.939692160047056468e-01 -8.044867831257845880e-01 -1.259450150816753683e-03
-4.593727225634305911e-01 -8.783123617854110554e-01 -1.324541313043677282e-01
-8.184750894597209170e-01 -5.526457453348708748e-01 1.571025400722947107e-01
-7.438919109922041972e-01 -6.666040403647331969e-01 4.758022834938566842e-02
6.738470337996100845e-01 -7.318900717748322293e-01 1.013266888677295391e-01
7.439665384035759610e-01 -6.660645217809563201e-01 5.358957511033800997e-02
6.387649699106171530e-01 -7.673409938760985538e-01 -5.627710309113039683e-02
6.845745472406505883e-01 -7.252129767063614230e-01 -7.364664070381306271e-02
8.353756264063642023e-01 -5.469056203536238892e-01 5.515256323864335675e-02
9.149964724401901117e-01 -3.323803752920431176e-01 2.287022989450017973e-01
8.517311099441019495e-01 -5.013633041277438807e-01 1.522791963056663589e-01
-8.997798571103111653e-01 -4.172889060394606164e-01 1.275389259596389213e-01
-9.255982815730569024e-01 -3.369907744952182482e-01 1.723514985548916245e-01
-9.468293105944672883e-01 -2.151260538678032852e-01 2.392384533190114460e-01
9.468409728831066463e-01 -2.477674917770975038e-01 2.051912329712400618e-01
9.526803017467064816e-01 -1.756865152327662938e-01 2.480614662320028974e-01
9.514007781966559163e-01 -1.773911799266952027e-01 2.517318583950243216e-01
-9.547415982461011641e-01 -1.874390933969844741e-01 2.309438608081984257e-01
-9.652763931632701855e-01 -1.022472482014402106e-01 2.403892365247267682e-01
-9.609389806067815121e-01 -5.680834880383550667e-02 2.708672867966553377e-01
-9.609389806067815121e-01 -5.680834880383550667e-02 2.708672867966553377e-01
-9.609389806067815121e-01 -5.680834880383550667e-02 2.708672867966553377e-01
9.581400953296028700e-01 -1.541071153220691381e-01 2.412852144846217572e-01
9.659670985287840406e-01 -7.799015169190305630e-02 2.466274534575511324e-01
9.619249075596969512e-01 -3.684472773538267215e-02 2.708190138346530662e-01
9.619249075596969512e-01 -3.684472773538267215e-02 2.708190138346530662e-01
-9.649177925338258133e-01 4.182029922656888693e-02 2.592001470374754035e-01
-9.445781678595129849e-01 7.326829408576907010e-02 3.200060028888941366e-01
-9.602890380418173111e-01 5.864294073261740181e-02 2.727745752795740497e-01
9.643323888302235414e-01 5.566789459684589464e-02 2.587742826560419096e-01
9.643323888302235414e-01 5.566789459684589464e-02 2.587742826560419096e-01
9.643323888302235414e-01 5.566789459684589464e-02 2.587742826560419096e-01
9.610183389910919027e-01 6.838242521269113916e-02 2.678947480725098473e-01
9.487290666897801872e-01 8.334820815354811174e-02 3.049036474290384713e-01
-6.040603509128679161e-01 -7.967729767028772780e-01 -1.624549325379766318e-02
-4.326042100942205093e-01 -8.898503859404648386e-01 -1.449823715158544968e-01
-3.983419315364246649e-01 -9.155118981076793006e-01 -5.622872933923182132e-02
-1.310863735234727712e-01 -9.887536026413838997e-01 7.199080455272476031e-02
-1.256112938324560613e-01 -9.882952726160977308e-01 8.656937672415786211e-02
1.362305048983085409e-01 -9.727865997857563229e-01 1.874232664650222757e-01
5.485429836429102368e-02 -9.904604082697655576e-01 1.264088034950524853e-01
2.775811456363937446e-01 -9.369790723091107054e-01 2.121766378325976865e-01
2.794074261799195935e-01 -9.343455428899719584e-01 2.212010322696444375e-01
-9.618783597133023777e-01 1.222069899000833293e-01 2.446537813621685042e-01
-9.371555645231993692e-01 1.386027601852140023e-01 3.202010661322720053e-01
-9.502043152666358461e-01 1.618186585219339169e-01 2.663202602184548407e-01
-9.114247692887955665e-01 1.811699053585047181e-01 3.694351841923778634e-01
-8.929688391855497009e-01 2.109551477793245033e-01 3.976236636180185413e-01
9.548263051888643549e-01 1.618201749245248566e-01 2.492407629317042739e-01
9.551444374805599935e-01 1.557418784890861330e-01 2.518800723253732943e-01
9.202703967401013596e-01 1.871214669911960282e-01 3.436392781317048062e-01
9.555427770524423936e-01 1.602562738878930138e-01 2.474993492970740394e-01
9.066718316208398631e-01 1.880972330777119228e-01 3.775786284389257563e-01
-2.991296829041321659e-01 -9.285232211779903544e-01 2.199228513341030811e-01
-1.634887679763625812e-01 -9.681438256946722776e-01 1.896548325639379196e-01
-1.230928802763418262e-01 -9.720349553227723982e-01 1.999904709128158820e-01
-1.290395971388386687e-01 -9.802024027753155622e-01 1.501733397236144907e-01
4.266359853189752860e-01 -8.964006661034910062e-01 -1.201980941617821208e-01
3.258761458967631697e-01 -9.449972025808520693e-01 -2.801829134396710552e-02
1.532304890268386399e-01 -9.874886630225629958e-01 3.723650942968274175e-02
6.048449562033063609e-01 -7.963387565905943877e-01 -2.676510258952634076e-03
5.730076496600361446e-01 -8.181355371364892326e-01 -4.812978605260397752e-02
-7.688540562478864970e-01 -6.258535948361283463e-01 -1.310370864368821109e-01
-9.423548637577124909e-01 -3.253831936353575038e-01 -7.805823500335129506e-02
-6.266691392033202357e-01 -7.554387836338848361e-01 -1.913061268018519945e-01
3.027218089839293635e-01 -9.066953807702985424e-01 2.937056227846185918e-01
3.027218089839293635e-01 -9.066953807702985424e-01 2.937056227846185918e-01
4.123843208938859917e-01 -8.746938913108087688e-01 2.546561768040260798e-01
4.512022510188513080e-01 -8.487884088364212598e-01 2.756352040296339290e-01
4.512022510188513080e-01 -8.487884088364212598e-01 2.756352040296339290e-01
4.512022510188513080e-01 -8.487884088364212598e-01 2.756352040296339290e-01
5.264598733820017307e-01 -8.071157695802299026e-01 2.672155239006893113e-01
5.150245547753509179e-01 -8.171831678189915849e-01 2.587689668638211704e-01
5.632356923653925040e-01 -7.860614530282102885e-01 2.547016821869373948e-01
-9.064959766096656324e-01 8.345714009684289392e-02 4.138839815181838411e-01
-1.409534936499919067e-01 7.332268520788012278e-01 6.652146240263164811e-01
-7.699835485144761182e-02 7.928639210908047241e-01 6.045147276805459269e-01
-3.059653828389916064e-02 8.289294533760230843e-01 5.585157232977148167e-01
4.418351326413853808e-02 7.765417275142380005e-01 6.285147274207983914e-01
-6.765469556276029750e-02 7.775772110475266397e-01 6.251372033624781333e-01
8.496452162351363357e-01 1.430512757064847928e-01 5.075818545293908635e-01
9.641723098926754387e-01 4.783366139050486410e-02 2.609285298203343206e-01
-5.611151026558396371e-01 -7.937255001051355396e-01 2.348396730843809455e-01
-5.442176183028369918e-01 -7.890850768819651639e-01 2.849068714000606573e-01
-5.002071555502533018e-01 -8.130661698700581974e-01 2.978526564413322975e-01
-5.002071555502533018e-01 -8.130661698700581974e-01 2.978526564413322975e-01
-4.870792516709062658e-01 -8.253093325096211297e-01 2.856891812166389433e-01
-3.897515565860745212e-01 -8.843120677345984726e-01 2.570717623499145787e-01
-3.897515565860745212e-01 -8.843120677345984726e-01 2.570717623499145787e-01
-3.894784709925189214e-01 -8.806918430448172908e-01 2.696078600999095021e-01
-4.131330588480246480e-01 -8.623577619447030385e-01 2.926775804543242931e-01
-2.959049997584962677e-01 -9.190274631101350566e-01 2.604395384101145794e-01
6.202075936435542669e-01 -7.599719969238883932e-01 -1.943839105440293702e-01
8.433871362820892781e-01 -4.992354596573957415e-01 -1.986506838009001186e-01
8.102401078276728619e-01 -5.858877333580249092e-01 -1.570132376574851288e-02
9.527787607514078827e-01 -3.012310023540575865e-01 -3.837337985871300955e-02
-9.427866261674826553e-01 -2.549840691639357892e-01 -2.147940920796860276e-01
-9.793437403009994657e-01 -1.684773378192599425e-01 -1.118088769936610438e-01
-9.908100517976007326e-01 -2.526372338995843802e-03 -1.352370463284389701e-01
-9.831094815861270986e-01 1.661531273606728365e-01 7.673907403483976042e-02
5.778287609600919472e-01 -7.678200893250272108e-01 2.767060415607725532e-01
6.076419472016164613e-01 -7.453817757554125345e-01 2.741847413200371175e-01
6.167964754677752737e-01 -7.527556516528246533e-01 2.300457275309887029e-01
5.201116753585975916e-01 -7.703489132281685636e-01 3.688446787522528525e-01
5.499277166552531959e-01 -7.943423174805457343e-01 2.580693494275818067e-01
1.067241395590908942e-01 9.597983223102581896e-01 2.596095886630256366e-01
5.252576925608694325e-02 9.543944383052290759e-01 2.938916461829131910e-01
2.225765271818157948e-02 9.005699373258608809e-01 4.341409735101856016e-01
-2.723769553978309943e-02 9.545684970911721967e-01 2.967441529378180287e-01
-1.243897843349536653e-01 9.352240437977075160e-01 3.314863035719079476e-01
2.170244581149248786e-01 9.162971727877927686e-01 3.366004689851473386e-01
-5.499740716816590158e-01 -7.060437172106912573e-01 4.461286696292974252e-01
-6.180289600732097322e-01 -7.496264149692878354e-01 2.368553197441845004e-01
-6.101521902547633047e-01 -7.592004443028438354e-01 2.265590212233443423e-01
-6.363821504076235813e-01 -6.174445177414663588e-01 4.623635216510669221e-01
9.815652485237025271e-01 -1.587176569485739819e-01 -1.064817743247956916e-01
9.938170491552111852e-01 1.073690792409079942e-01 -2.827637938966989783e-02
9.942824186945706799e-01 1.066441246008498489e-01 -5.431626183070165960e-03
-8.841029519215145571e-01 4.573568135419729397e-01 9.584735526031561148e-02
-9.414094135181927392e-01 3.280335713184365232e-01 7.837277733629698095e-02
-9.042231446208980339e-01 3.889779244166992611e-01 1.762857879931639116e-01
-7.935165579640639510e-01 5.529562484746447515e-01 2.541079682137322715e-01
7.120673429181593184e-01 5.233512529350456965e-01 4.680422686048667513e-01
9.701837078006063653e-01 2.408416656020355151e-01 -2.718207549663757133e-02
9.364033502635902284e-01 3.406826795517487461e-01 8.416696185894156912e-02
8.382472558818484520e-01 5.231698202350375526e-01 1.537363886716133221e-01
8.378375044633394886e-01 5.228014270700538368e-01 1.571845538472487758e-01
-7.331839563450520680e-01 6.339045499327232713e-01 2.461834838749514254e-01
-7.062236309504814624e-01 6.740356599181277497e-01 2.166197411268239170e-01
-7.736853980175177892e-01 6.058942685671375727e-01 1.852107993934706265e-01
-5.019043086534246134e-01 8.220853501778843109e-01 2.688266020654078714e-01
-5.909256541048582001e-01 7.727273884433443207e-01 2.317309959204295611e-01
-6.109774134136248813e-01 7.540982304244433498e-01 2.409200265007447050e-01
-6.004846131176194701e-01 7.556321059325241674e-01 2.616072435789221773e-01
-5.411557713612162868e-01 7.948753895028514149e-01 2.744513550433611559e-01
-4.694102554232684188e-01 8.206853176542782125e-01 3.257754157240203008e-01
-4.387415028988642662e-01 8.369166241873498002e-01 3.272253929524664984e-01
7.921831935764209742e-01 4.136836346287615096e-01 4.486776551773001276e-01
7.254899918395412151e-01 3.726918819250944481e-01 5.785888288653644462e-01
7.474691361244105714e-01 4.423524263147030622e-01 4.955948158273275062e-01
8.231907425827975633e-01 4.982726869956534688e-01 2.721788579594560109e-01
6.952705110036589975e-01 5.422715726917480827e-01 4.717419400256132045e-01
7.404504084281262610e-01 5.782178824689672147e-01 3.426328546005544817e-01
-7.107665409281939128e-01 5.404661972052595686e-01 4.502301788812644867e-01
4.695059640867197959e-01 8.316132801484589221e-01 2.966201307526519226e-01
5.396343895596376061e-01 7.987064413218113446e-01 2.662005751226794170e-01
5.310144354663162147e-01 7.930558393602863410e-01 2.984729551951749715e-01
5.538658993730627422e-01 7.749199343172322729e-01 3.045187365490746312e-01
5.538658993730627422e-01 7.749199343172322729e-01 3.045187365490746312e-01
7.318195094425077318e-01 6.455280333377642066e-01 2.184805798564384283e-01
6.583009811829001467e-01 6.977353056467370251e-01 2.824982503090693875e-01
-4.970152356641716063e-01 8.263413813268484232e-01 2.648316012573348477e-01
-4.970152356641716063e-01 8.263413813268484232e-01 2.648316012573348477e-01
-4.432636803053540686e-01 8.563613174039947928e-01 2.648822451132719635e-01
-4.337755465136775568e-01 8.630670914271501015e-01 2.587546539528122747e-01
-4.337755465136775568e-01 8.630670914271501015e-01 2.587546539528122747e-01
-4.229579474242333714e-01 8.722094200089791638e-01 2.456772320714308844e-01
-3.527195778905863333e-01 9.081651988442428491e-01 2.254437202072468727e-01
-3.109337852724832763e-01 8.945023528185269690e-01 3.212253445452967759e-01
-3.740975323579411316e-01 8.797390442765411489e-01 2.934454808973840922e-01
-2.928054161170530745e-01 8.487773177732478302e-01 4.402749744491165629e-01
8.063894668962953149e-01 3.458679782948358428e-01 4.796992487683836570e-01
8.180691383135694217e-01 3.736487397110099806e-01 4.372064778240001837e-01
8.379586776188251429e-01 4.638950785955141543e-01 2.874484486967562313e-01
-8.202164532814492093e-01 4.513078219037431338e-01 3.515198709246737940e-01
-8.566010199167481964e-01 3.743077601863353809e-01 3.551455945691507909e-01
-8.616964940560246644e-01 3.669128014777012226e-01 3.505055609306939601e-01
3.586909912708117210e-01 8.214635807562640224e-01 4.433264691762262011e-01
3.506623308223487667e-01 9.081490350518118815e-01 2.286946870320790415e-01
3.343454656841333139e-01 8.919355176652637995e-01 3.044078545367350785e-01
2.896107850741405643e-01 8.972788445987585071e-01 3.331910386013659520e-01
3.207804599580408311e-01 9.042828834399460058e-01 2.817310121847519944e-01
4.620132814591697001e-01 8.399826733703813497e-01 2.845572634688441904e-01
4.620132814591697001e-01 8.399826733703813497e-01 2.845572634688441904e-01
4.068742350787634132e-01 8.661080743848923458e-01 2.903621192827415820e-01
4.055933733179052925e-01 8.672351157388715759e-01 2.887858541376090438e-01
3.994928307569927117e-01 8.746616109720193322e-01 2.745406062235543065e-01
4.760200202890712551e-01 8.435616971320407664e-01 2.486133612976245411e-01
4.760200202890712551e-01 8.435616971320407664e-01 2.486133612976245411e-01
-3.271659578495536569e-01 9.158487214884051264e-01 2.327736139953106298e-01
-4.483613860995230849e-01 8.512900028080307990e-01 2.725388019604133016e-01
5.265243877206843282e-01 7.959488038377791064e-01 2.987265820186865706e-01
4.517815452965083800e-01 8.712430352559044078e-01 1.919088555736238322e-01
-3.791205938543131260e-01 -8.889548188968618980e-01 2.569570105593551035e-01
-4.416590260414337554e-01 -8.700985401047017787e-01 2.187826209363956664e-01
6.925374244506619092e-01 -6.979945740820380218e-01 1.821962960306217072e-01
4.402136169831888934e-01 -8.709029000416488309e-01 2.184951031982731995e-01
-4.812993711631827209e-01 -8.397434905989001885e-01 2.513598721250067114e-01
-4.812993711631827209e-01 -8.397434905989001885e-01 2.513598721250067114e-01
-4.691000423715078749e-01 -8.344509712360637099e-01 2.892001501559768317e-01
-4.085688870306100062e-01 -8.648304925484673333e-01 2.917870519898783099e-01
-4.109385211483395084e-01 -8.625378129227005974e-01 2.952254276225880769e-01
-4.046607710073041875e-01 -8.718576456465055857e-01 2.758874881822415137e-01
-4.046607710073041875e-01 -8.718576456465055857e-01 2.758874881822415137e-01
-3.182911706085004844e-01 -7.651611584397350896e-01 5.596598362647019487e-01
-3.329925541199296180e-01 -8.956187836663156432e-01 2.949287257029314380e-01
-2.944875273372117852e-01 -8.962111015209831555e-01 3.317872175858517236e-01
8.205827348122545217e-01 -4.084274953977520828e-01 3.997886395724123965e-01
8.705466973288499277e-01 -3.345413871892172764e-01 3.608746430927863291e-01
-8.347183864475797854e-01 -4.911445221440026154e-01 2.490427145978943435e-01
-7.811387392622207715e-01 -4.254361875523688385e-01 4.569751856991074446e-01
-8.685361468903211035e-01 -3.560022644567585326e-01 3.448294495059471831e-01
-8.541175514661965007e-01 -3.908418348911210094e-01 3.431120347296651163e-01
-8.072865649048729386e-01 -3.548117502818638469e-01 4.715898896138578378e-01
3.759558564233356770e-01 -7.848827609591310095e-01 4.925609054423298327e-01
2.635406642576407776e-01 -8.697564599378564409e-01 4.172169923181574536e-01
3.297443428960427636e-01 -8.909422217461244742e-01 3.122348888867747529e-01
3.205700425549920518e-01 -9.025002198714323631e-01 2.876251048644864472e-01
4.326506979821605481e-01 -8.419536005076468932e-01 3.223778964627682098e-01
4.425651635405880580e-01 -8.570646057239599269e-01 2.637732693726291822e-01
4.172467864223695089e-01 -8.744789858005433958e-01 2.473694051685832729e-01
4.982256158653552980e-01 -8.250098395706726429e-01 2.667020815576069404e-01
4.982256158653552980e-01 -8.250098395706726429e-01 2.667020815576069404e-01
-6.305978224927799580e-01 -7.129045587301450215e-01 3.067791981362842368e-01
-6.576758779749047878e-01 -7.133675259141932790e-01 2.420107693905392265e-01
-6.790840657912845524e-01 -7.039813776621542951e-01 2.079784880541106495e-01
-7.821521792575040211e-01 -5.968874400865153973e-01 1.787829755589274150e-01
-5.657508998531892708e-01 -7.826651526228406430e-01 2.595403209236901709e-01
-5.643163213072109885e-01 -7.840488870495303519e-01 2.584848781315642330e-01
-5.039556068479844608e-01 -8.064114922581596678e-01 3.094014406567098807e-01
-5.069848980272965155e-01 -8.026664443848191555e-01 3.141542491052500274e-01
-4.754926054403560975e-01 -8.266967835977084844e-01 3.007976232631263125e-01
7.275012456184939413e-01 -4.506376042880029242e-01 5.173661056013516557e-01
7.653488982985620082e-01 -4.832145334596364417e-01 4.251408925598234023e-01
7.177291709095988681e-01 -5.428871144595458498e-01 4.360486419875742592e-01
7.739404783795493792e-01 -5.574394289572152106e-01 3.004620091949864458e-01
-7.276666895092076537e-01 -4.900995822979850036e-01 4.798995607520920581e-01
-7.478707938466314653e-01 -5.437257463992373197e-01 3.808563881751252378e-01
-7.786543689701636017e-01 -5.730873079000389225e-01 2.554766353457048611e-01
-7.763168179342363473e-01 -5.794146931463183270e-01 2.482152524697457119e-01
-7.322248703716018881e-01 -4.231341402671900953e-01 5.336705337093631263e-01
4.712303967813588623e-01 -8.203818490413394837e-01 3.239066762399256394e-01
5.447603932366382740e-01 -7.929620865236378657e-01 2.728502213609912408e-01
5.447603932366382740e-01 -7.929620865236378657e-01 2.728502213609912408e-01
6.186199876762321637e-01 -7.480176103258554532e-01 2.403725556086947768e-01
6.186199876762321637e-01 -7.480176103258554532e-01 2.403725556086947768e-01
6.094006240199668634e-01 -7.509991754875464665e-01 2.542265089661193689e-01
6.171565500951110561e-01 -7.431991728519991014e-01 2.584042997838947864e-01
6.947677136552297128e-01 -6.802537221257090039e-01 2.335651891793880108e-01
7.738176534160294828e-01 -6.020554481897149035e-01 1.968133038358718112e-01
7.929289917352257966e-01 -5.916235640305590460e-01 1.457572384121527675e-01
-9.063446786231348362e-01 -4.157949029939428942e-01 7.519256729081695567e-02
-8.727915986964240869e-01 -4.717250011520293107e-01 1.253409292013522858e-01
-8.744641685567211553e-01 -4.677161006554898526e-01 1.286626095570346795e-01
-9.680832027878081281e-01 -2.496842989140716507e-01 -2.174082233698418354e-02
-7.958680252441518999e-01 1.352784809796612475e-01 5.901642305136846067e-01
9.659775178876338630e-01 -2.586244029008101242e-01 -9.236665227144357166e-04
8.703310046806008726e-01 -4.677877340404863471e-01 1.539434252344769882e-01
-9.662155150159108530e-01 2.197111736853419039e-01 -1.347389279323081279e-01
-9.919951941378606364e-01 1.262337971331480291e-01 3.250118264853142647e-03
6.136105429617380036e-01 7.526058294724065068e-01 2.388860963102540091e-01
6.080143115077287774e-01 7.284686285259727168e-01 3.156771360983732233e-01
6.080143115077287774e-01 7.284686285259727168e-01 3.156771360983732233e-01
6.300243238625525821e-01 6.880324630102040429e-01 3.601120397676890739e-01
5.307633242909185478e-01 6.819026752579194772e-01 5.032882226555133176e-01
5.152594222574145011e-01 7.576243497793103687e-01 4.006408271712115221e-01
1.234574666782712604e-01 -8.607260713522243423e-01 4.938713233383258405e-01
-4.290939088146285101e-03 -8.983935927526172094e-01 4.391702862703557586e-01
-1.188028449292990313e-01 -9.596311656848544036e-01 2.549390316978403792e-01
-7.468388008190640637e-02 -9.123059349961145648e-01 4.026415267043087498e-01
-5.411168728196474875e-01 7.572801884504256620e-01 3.656764227160033687e-01
-5.782165545063119305e-01 7.682790416400725464e-01 2.746141479812374553e-01
-6.066867912268161245e-01 7.469309886192685433e-01 2.720757901599326622e-01
-6.210640239423946829e-01 7.411984452300276471e-01 2.547633077055450057e-01
-6.257103501032501569e-01 6.824194366489479968e-01 3.778759985198859028e-01
-5.553816213499710441e-01 7.622146837022665267e-01 3.325357584010047995e-01
9.958038008638866456e-01 -2.816982384719009247e-02 -8.707038078161262462e-02
9.988718029942872390e-01 -4.536343706581396490e-02 -1.404563136772538252e-02
-8.606877534569549182e-01 4.840540287393161889e-01 -1.578235987121609785e-01
3.238803837286429177e-01 9.052525406967842914e-01 2.749896990758088355e-01
3.899776001553245108e-01 8.844645468495345719e-01 2.562029210281206448e-01
3.904265112106952706e-01 8.805732579577362218e-01 2.686221820951184558e-01
4.285770784635759556e-01 8.541839288429718957e-01 2.944342091571739983e-01
5.436703372390588873e-01 7.894658586274261314e-01 2.848968628609813702e-01
4.898680072359872240e-01 8.269083104013074115e-01 2.761376136564841488e-01
4.898680072359872240e-01 8.269083104013074115e-01 2.761376136564841488e-01
5.619318244473744395e-01 7.922553896414391561e-01 2.378319201817461759e-01
5.619318244473744395e-01 7.922553896414391561e-01 2.378319201817461759e-01
-9.632694048356830185e-01 -3.548237578042172380e-02 2.661823711602367415e-01
-9.636156357750531587e-01 -1.086612968048328992e-01 2.442081674853076867e-01
-1.440956134025246915e-01 -7.325684322426251338e-01 6.652668233721958924e-01
3.455653106718594575e-02 -8.259430454812420885e-01 5.626934616483237894e-01
-4.498013726221045810e-02 -7.774992639200762889e-01 6.272732114920996915e-01
-4.025178445702683877e-02 -8.525948565763699083e-01 5.210199654404276126e-01
-9.195319616295202780e-02 -8.399862258222341449e-01 5.347595255293131622e-01
3.465339770957220900e-01 -7.211995584466028841e-01 5.998211396863623035e-01
9.352784955618437257e-01 -2.106158618859963610e-02 3.532853596270223995e-01
9.537993223252571040e-01 -1.256706559381928490e-01 2.728987705504453132e-01
-5.610875258416838651e-01 7.881233775454796753e-01 2.530658612123788398e-01
-5.141131384527789505e-01 8.127084387871986726e-01 2.742128268230864530e-01
-5.141131384527789505e-01 8.127084387871986726e-01 2.742128268230864530e-01
-5.055631410869435571e-01 8.202237382761989881e-01 2.676544965856554326e-01
-5.055631410869435571e-01 8.202237382761989881e-01 2.676544965856554326e-01
-3.273737466353979220e-01 9.111489961940414384e-01 2.502677301381321384e-01
-4.321503061244692523e-01 8.595448144999292550e-01 2.728164672134172908e-01
-4.321503061244692523e-01 8.595448144999292550e-01 2.728164672134172908e-01
5.383993565757985156e-01 8.244057030794177399e-01 -1.745891450488747110e-01
5.200248069768249604e-01 8.483239319610407225e-01 -9.960274389230194814e-02
6.414624907049674141e-01 7.630906197808112745e-01 -7.885796739148732970e-02
7.395945002159701742e-01 6.420433128189914074e-01 -2.019414759644582447e-01
9.076823848585644505e-01 4.113105476352031942e-01 -8.328458213558043166e-02
-6.024960245152551908e-01 7.979864843749587822e-01 1.470072100975429799e-02
-4.393315871511013770e-01 8.983001620378139318e-01 -6.676482167374823279e-03
-4.980073961524488779e-01 8.606748005752811181e-01 -1.059599973204880391e-01
-4.435899297031561384e-01 8.887901046706718766e-01 -1.152394207962059852e-01
-1.860821799189817660e-01 9.815465532964861017e-01 4.404300203651170809e-02
2.520511723202295551e-01 9.422426052704331312e-01 2.205653629770206181e-01
2.581877839376345296e-01 9.440604586049983205e-01 2.051558400920959480e-01
1.852703514195871426e-01 9.588922954047838232e-01 2.149429289327923487e-01
2.182644266054263940e-02 9.941033843730999742e-01 1.062170776228318209e-01
-1.489024000630849096e-02 9.940808332672648184e-01 1.076177387014571191e-01
-9.542278746854671034e-01 -1.591616919634389338e-01 2.532127938801513323e-01
-9.313361097463066507e-01 -1.753424428139911118e-01 3.191677904028503709e-01
-9.347879938894058105e-01 -1.630385285963578401e-01 3.155785871591332836e-01
9.535834794640748457e-01 -1.421357580125892917e-01 2.654731134924493419e-01
9.513125791593938230e-01 -1.657362954235798713e-01 2.598766190182750790e-01
9.259139851318419767e-01 -1.819911618782145690e-01 3.310022796530086575e-01
9.300942475758015027e-01 -1.319350830845921752e-01 3.428087287072275613e-01
9.347384449299835918e-01 -1.476340882469494853e-01 3.232154321151268217e-01
-3.133435458745211788e-01 9.207425120151980780e-01 2.324845130900655699e-01
-1.865449280522559761e-01 9.570744712201612048e-01 2.218320228385149140e-01
-1.853044880518997517e-01 9.593095501221670096e-01 2.130432673243368435e-01
-1.517284932461898939e-01 9.757630968510291325e-01 1.576859003238086920e-01
4.063368849025165291e-02 9.966698895474351838e-01 7.069677948238209386e-02
2.424992580451797164e-01 9.696412018377296160e-01 -3.146505277638484560e-02
-1.034780657215673971e-02 9.873305255998418017e-01 1.583393700817504468e-01
4.651769944650958055e-01 8.843883286487268514e-01 -3.830989389611429152e-02
-9.632886304577333858e-01 -7.079992313674361715e-02 2.589640618207392775e-01
-9.607437354416942243e-01 -4.380769461432788142e-02 2.739568591988846835e-01
-9.607437354416942243e-01 -4.380769461432788142e-02 2.739568591988846835e-01
-9.607437354416942243e-01 -4.380769461432788142e-02 2.739568591988846835e-01
9.681766888083207512e-01 -3.560865500809202305e-02 2.477214624062086257e-01
9.499048767550020145e-01 -6.127427562082946727e-02 3.064737970270985379e-01
9.648106633166078083e-01 -6.886692913721710087e-03 2.628553925855036666e-01
9.595851872792772186e-01 1.643048295875356151e-03 2.814135191253114843e-01
9.598212236477224879e-01 1.455999213168940592e-04 2.806121833350285200e-01
-9.683932020635342974e-01 4.131124504979020312e-02 2.459837133421053090e-01
-9.624109906203253129e-01 9.418081402513951705e-02 2.547450871023154706e-01
-9.633468538133042047e-01 9.273060233631996718e-02 2.517218199488306385e-01
9.532540524469226284e-01 1.717875518700815174e-01 2.485875067576883979e-01
9.653406095719471169e-01 6.128562013517833973e-02 2.536958420548278692e-01
9.619149686973930136e-01 6.204474426505846019e-02 2.662142796789401800e-01
9.542766108744498155e-01 1.403175474232416231e-01 2.639453273371218933e-01
-9.535776517015760456e-01 2.126148740440263474e-01 2.132711361402443162e-01
-9.260603472465251951e-01 2.763298086837746581e-01 2.570098637998814994e-01
9.326393258355413218e-01 2.834300013269742680e-01 2.232740966901847479e-01
8.991209470014006611e-01 3.983893629044775730e-01 1.812937897112549823e-01
9.505494087541228598e-01 2.033837028563035276e-01 2.347144881119318238e-01
9.311228547696839275e-01 3.037372339981710412e-01 2.018760065205725540e-01
-8.865025679315704510e-01 4.236663304103175931e-01 1.860646057889221716e-01
-7.270837511810109843e-01 6.850725081728205046e-01 -4.499863680546825617e-02
-8.081208010423311938e-01 5.854909528006844166e-01 6.435149657349054086e-02
-6.878097278730674891e-01 7.203493726689437215e-01 8.952407239751968004e-02
8.182740176922636000e-01 5.542613519461334626e-01 1.523876166511096142e-01
5.918396647769540442e-01 8.060389666547146392e-01 -5.195712742508391477e-03
5.954803283728338226e-01 8.014797693499643438e-01 -5.507592798773253834e-02
8.963832003572451690e-01 4.132927783491906482e-01 1.602692655555321977e-01
-6.001163746815344480e-01 7.876901860965315194e-01 1.393000630520452032e-01
-3.891370871625175476e-01 9.154226522646364828e-01 -1.028284742444891403e-01
-5.414181882114447314e-02 9.913526097353374533e-01 -1.195352108195493340e-01
3.526335070439277075e-01 9.353541044241955316e-01 -2.760994470677696072e-02
-3.331169959159061555e-01 -9.094166392378741914e-01 2.489868336062217580e-01
-5.284860707061835861e-01 -8.362784277898951402e-01 1.460851268363753397e-01
1.443616114741984036e-01 -9.894178882876580872e-01 1.455910261533805913e-02
1.627465026951712967e-01 -9.752922011658263779e-01 1.493944383355945982e-01
-1.253318956431507536e-01 -9.833733263555533011e-01 1.314108707333945247e-01
-9.050246400405742575e-01 -3.544587485531056070e-01 2.351369738973332346e-01
-8.956029764173191188e-01 -3.226818431256095465e-01 3.062217117539156597e-01
-8.690919356771307225e-01 -3.863905355029292332e-01 3.088390542252352211e-01
-7.975607515468408071e-01 -5.039702343783734051e-01 3.315280537943143258e-01
-7.062130452054962149e-01 -6.886645550294180351e-01 1.643297460221776196e-01
7.569291701489319069e-01 -6.238682464214323486e-01 1.945421354994753271e-01
8.064383327673649848e-01 -5.689039835005265111e-01 1.612621251274615752e-01
8.179180287330140020e-01 -4.136158711046653003e-01 3.999150027741258939e-01
7.170152497505626332e-01 -5.724570538868481995e-01 3.977210744734663295e-01
9.191255165617676637e-01 -3.277968192417287652e-01 2.185349631067513010e-01
-9.299434157723464045e-01 -2.134437209199526730e-01 2.994111244785440662e-01
-9.388558736193175491e-01 -1.988751002245293387e-01 2.810664389093647242e-01
8.935452834825933222e-01 -3.125245999593607715e-01 3.223432964810242773e-01
9.356326845790045033e-01 -1.523091965020101357e-01 3.184232846517305870e-01
9.396110466127485239e-01 -1.456611042894787322e-01 3.096997316441600367e-01
-9.525976336742500994e-01 -6.690627438045422537e-02 2.967849368932773402e-01
-9.291356764306587523e-01 -2.295054046944839873e-02 3.690259712756033816e-01
9.497014927985831800e-01 -4.583775545973504256e-02 3.097837548202876934e-01
9.302956636968922055e-01 -7.075997777105724057e-03 3.667422914830214542e-01
9.235951779832071162e-01 3.713865727861296456e-02 3.815660720526780625e-01
-8.742673883862311923e-01 1.595442492576112092e-01 4.584780977681963687e-01
-8.172947496361514519e-01 1.353673216432016435e-01 5.600937247000062902e-01
-9.244820403869774550e-01 3.344218664974432653e-02 3.797559441983950901e-01
-9.307706578931209673e-01 6.252404433722515142e-02 3.602176096263526861e-01
-7.000649808520528206e-01 2.349154438478999463e-01 6.743320820088268830e-01
6.893740875099155785e-01 2.555862081473040393e-01 6.778193399975795952e-01
8.519211922908349610e-01 1.528113319108314327e-01 5.008782077166065161e-01
9.291809085678044422e-01 7.457654925349838093e-02 3.620237249885013275e-01
-4.623358788424627996e-01 -8.803397969998643102e-01 1.060536512959609212e-01
-5.147721012237984478e-02 -9.764909989865111495e-01 2.093213456299712616e-01
-1.159460106018732478e-01 -9.615676723102235535e-01 2.488857854386404556e-01
1.066266965356002100e-01 -9.654901762346123073e-01 2.376120097561620348e-01
-8.820523049146103967e-01 1.929288243615379372e-01 4.298397377224422722e-01
-7.397865054629079173e-01 3.143150847007986637e-01 5.949134003067240162e-01
-8.293321730053234697e-01 2.689195192214011154e-01 4.897861155647417752e-01
-5.215049965049501912e-01 4.375505028918050265e-01 7.325176421353279954e-01
-2.968203156453350089e-01 5.388698613605980015e-01 7.883634775517023296e-01
-4.308472877918364530e-01 5.198487383835108666e-01 7.376502584582279587e-01
-2.665158719805795634e-02 6.740198415833755785e-01 7.382323117093598785e-01
6.198013360473648981e-02 6.342123050017496322e-01 7.706706269365057871e-01
1.092175214649466070e-01 6.553533800947901611e-01 7.473844259839694804e-01
-1.593410882205823498e-01 5.704284155602431516e-01 8.057430361635842253e-01
-1.037159799124310194e-01 6.084824643786551635e-01 7.867605010767145801e-01
3.032420989658092814e-01 5.581025982067405744e-01 7.723766693069488154e-01
7.098473415786715757e-01 3.406303639214089407e-01 6.165125358242612430e-01
4.905939459476928999e-01 4.951157891928062993e-01 7.170620164891297055e-01
8.093695909949767398e-01 2.872798359940640922e-01 5.122413113014683272e-01
6.345545776998419429e-02 -9.885659143008913574e-01 1.367875650841279545e-01
-8.089125854611191324e-02 -9.619163875832443811e-01 2.611004932772587050e-01
7.293632039012692969e-02 -9.709270396999286623e-01 2.279933699638701516e-01
3.816628276525012020e-01 -9.212996628813212574e-01 7.443397855187473822e-02
-4.483520504261767625e-01 -7.650878536887872894e-01 4.621915349901248304e-01
-7.123870377731478243e-01 -6.996730142011119424e-01 5.442776507932552826e-02
-6.985775304439809652e-01 -7.065513536307979070e-01 1.130248585103112158e-01
-9.047356716736639770e-01 -4.236630697672427170e-01 4.430539150713679042e-02
-3.224825578375493662e-01 -9.091154962420611163e-01 2.636551049820629045e-01
-1.230920804918424066e-01 -8.659702466681657995e-01 4.847100902659917665e-01
1.614329196821473189e-01 -9.244014079685236585e-01 3.455740866857767157e-01
3.523444674481752692e-01 -8.623508690624769324e-01 3.635991678838836338e-01
2.733243094926545158e-01 -8.721033538773996785e-01 4.058688975471691496e-01
4.246239293226279909e-01 -8.249453490771128106e-01 3.730411367163846137e-01
4.128623399366678770e-01 -7.996673733087558134e-01 4.359779585340228247e-01
5.061430709627345870e-01 -7.849338294632941526e-01 3.573486743791003950e-01
5.239824652057430976e-01 -7.147778718646459195e-01 4.631791986365103586e-01
-5.954761157643775338e-01 3.414885603192333030e-01 7.271820671092397159e-01
-4.094966078027780232e-01 4.813109169779785090e-01 7.750176316677157562e-01
-2.195525419273222298e-03 7.171949750271531254e-01 6.968691035366214592e-01
-2.974552217540723815e-03 6.873005366504199021e-01 7.263670727388115145e-01
-4.302207315442071328e-02 6.646272219316564644e-01 7.459354912382869518e-01
2.131187609599577773e-02 6.944411682277951137e-01 7.192338060795558929e-01
1.526658189364706320e-01 5.950408037167040920e-01 7.890624751188179964e-01
4.268801735970985112e-01 4.706186853166590134e-01 7.721990484457555981e-01
-4.923371319752342101e-01 -7.595494983353889840e-01 4.250749440473522989e-01
-5.139427924217349064e-01 -7.736888096133159864e-01 3.704975465463699602e-01
-5.139427924217349064e-01 -7.736888096133159864e-01 3.704975465463699602e-01
-3.854389074283139927e-01 -8.494478947824495307e-01 3.603819122682659915e-01
-4.007750858973075925e-01 -8.143213867714851339e-01 4.198333116494817885e-01
-2.795051605552529850e-01 -9.040925988271023561e-01 3.232544477173334707e-01
-7.067473289664263914e-02 -9.363728410707395922e-01 3.438182436042330203e-01
1.233880081917613919e-01 -9.326460757201290308e-01 3.390378988819878758e-01
4.084972799606272353e-01 -8.781104796040191118e-01 2.491023040326369453e-01
5.536281857066105427e-01 -7.335636942252342640e-01 3.941828744451408295e-01
9.286292408678904486e-01 -2.889003353739011404e-01 2.327752762343392734e-01
9.610048514121914964e-01 -2.751704595923578078e-01 2.740244021912021516e-02
-9.921040662490209217e-01 -8.691717665552092797e-02 9.041529812145319978e-02
-9.537161428902236615e-01 -1.153578312944856382e-01 2.777014395886838738e-01
-8.993547291674390820e-01 2.492996049457087415e-01 3.591807039612176511e-01
-9.580370197227274787e-01 2.006014663871535653e-01 2.047538046633524955e-01
5.703461349194512975e-01 -6.664625048241931138e-01 4.801385383885628522e-01
5.845302906463132331e-01 -6.623586868181533527e-01 4.686206454195844806e-01
6.679048820471806813e-01 -2.657894310878193278e-01 6.951683586438287543e-01
6.390867306200003206e-01 -5.621717146671286747e-01 5.249105771211507454e-01
6.350216208581438426e-01 -6.062171213690179528e-01 4.787988542193445385e-01
6.164495003832538567e-01 -6.925423599855141665e-01 3.746666426343974732e-01
5.828024656101047363e-01 -4.033212635728437578e-01 7.054595980130876631e-01
-5.737385941872258366e-01 -4.258233878805862682e-01 6.996416710530938277e-01
-6.632903170045172381e-01 -3.171038478216688383e-01 6.778577321715369974e-01
-6.398845913555402110e-01 -4.950458896210133686e-01 5.877731508967493079e-01
-6.451653986897891713e-01 -4.655437117731376917e-01 6.058305544968289880e-01
-5.415540749485436844e-01 -7.519078728555582680e-01 3.759703906485943325e-01
-5.575179127268063972e-01 -6.909594248234605107e-01 4.601617652917045498e-01
9.697327737278386151e-01 -2.489778056850163249e-02 2.428959614338516149e-01
9.411858227812118782e-01 7.648787902258032123e-02 3.291182938675399905e-01
9.347345545832600466e-01 2.860469693453025486e-01 2.108279957605297406e-01
-6.714575477178217344e-01 6.562903328035446515e-01 3.441333472382207548e-01
-7.334756765837491255e-01 5.537732349957255051e-01 3.941429132464269181e-01
-5.416913151975657481e-01 7.019210638427475502e-01 4.624687439961721047e-01
5.670163079936100248e-01 2.396256651751759725e-01 7.880812439454767393e-01
6.022970003541386896e-01 1.019638071848841393e-01 7.917333549805581905e-01
6.109478656367037797e-01 -9.455771941013153825e-02 7.860035261841455956e-01
6.065069998179842825e-01 1.548493218169490759e-01 7.798531571421754016e-01
-6.001313757162836104e-01 3.380712162574652235e-01 7.249484013494194024e-01
-6.160602455264786448e-01 1.470088717124515554e-01 7.738592672570940856e-01
-6.099294477825515370e-01 1.486703652967060196e-01 7.783849890704571672e-01
-6.002906072347045097e-01 2.871258749657567000e-01 7.464649481328230474e-01
-5.861140284112748011e-01 2.776224302727972604e-01 7.611807485143939900e-01
7.361508003437863268e-01 5.824175204611621304e-01 3.447779444991730391e-01
7.311533881505787313e-01 6.118558289382155513e-01 3.017402319715727366e-01
8.266915486253224588e-01 4.935966172645383510e-01 2.700804747782986626e-01
-6.437166917389768317e-01 6.992707475919466287e-01 3.108846125796948523e-01
-5.230302764844266816e-01 7.331280741113793686e-01 4.346982365162800899e-01
-5.271650798076277233e-01 7.612979356596812908e-01 3.775214322283243495e-01
-5.339230235640718414e-01 7.771444100319172543e-01 3.331257583321090565e-01
-3.190300921616979757e-01 8.076512194732460292e-01 4.959025186250589634e-01
-3.580807747724110146e-01 8.104699501815938456e-01 4.635910035699944420e-01
1.003947790163641079e-01 6.956101638738534376e-01 7.113700782726571914e-01
-1.621628573875192880e-01 7.623870313666597509e-01 6.264736403775077456e-01
4.572094341592710665e-01 4.109102483423210939e-01 7.887409594556447079e-01
3.400186210087992600e-01 5.130601460211222653e-01 7.881349021151514700e-01
2.905005900033920119e-01 5.439535641792591081e-01 7.872254614939494521e-01
5.153730393353680439e-01 4.305285880499631901e-01 7.409694765629216695e-01
5.557562973552649943e-01 3.180276932982757376e-01 7.681102292284254229e-01
6.820828125787755658e-01 3.642405884117218551e-01 6.341071128272491864e-01
6.231049076335801740e-01 3.432145259296823792e-01 7.028115417904082785e-01
5.998120030854399154e-01 3.260275448495803530e-01 7.307062343746542066e-01
6.127905396537819405e-01 3.562917345748244369e-01 7.053679567321510246e-01
6.147929549165256358e-01 3.242994644956658234e-01 7.189293984202005383e-01
6.056801683338581821e-01 3.752016528718499222e-01 7.016945584578102579e-01
-6.382488869444129520e-01 4.540606738847177692e-01 6.216649119466001183e-01
-6.847046558792684312e-01 4.179558545971954198e-01 5.970698768361879516e-01
-6.641616577033094826e-01 3.997664146790619877e-01 6.317247075518260813e-01
-5.931542725060865440e-01 3.594814594720098233e-01 7.203756584613675296e-01
-5.931272886565963631e-01 3.601094186976677713e-01 7.200841798124038018e-01
-5.310145794689445919e-01 3.930666957964684127e-01 7.506810834482685602e-01
-2.200303546373990338e-01 5.740335806277397923e-01 7.887154691964881614e-01
-4.847408602658365151e-01 3.884688275051585982e-01 7.836569839193062714e-01
5.459005635771106701e-02 7.926894140850920811e-01 6.071765958469540481e-01
2.700710920639479151e-01 8.351957212675399367e-01 4.790717194823552738e-01
-2.757062750697161224e-01 5.420935079187453320e-01 7.938014100261672201e-01
-1.709665802305128726e-02 6.803386544342624465e-01 7.326984506377914874e-01
2.750410636353389227e-01 7.506074065653161043e-01 6.007836004116886564e-01
4.363899944683904963e-01 7.876714846349316401e-01 4.348993044612519676e-01
3.885935368742196028e-01 7.567300223969962714e-01 5.256945275562853181e-01
6.012304847019771525e-01 6.922840551179071378e-01 3.990798056711615804e-01
4.529470940078943464e-01 7.628307383193432267e-01 4.614414315002170475e-01
4.748243055763818332e-01 7.925187230630489355e-01 3.826956394165225150e-01
-3.768577122198826235e-01 8.582342705527845617e-01 3.484425369973159214e-01
-2.773581890074766076e-01 8.676025256558367316e-01 4.127205985483473616e-01
-2.721732003063572214e-01 8.469711831383204270e-01 4.566854102861938047e-01
-1.628520201216381302e-01 8.528635500602866903e-01 4.960876782594649259e-01
-1.306561169011365431e-01 8.100730440379940722e-01 5.715860761419355729e-01
-3.703670593164924002e-02 6.836699498615097514e-01 7.288509326810890254e-01
-6.908798645919730363e-01 3.359516379716145362e-01 6.401730310201813046e-01
-7.007896428782756093e-01 3.429056108710635820e-01 6.255474550085561303e-01
-4.398795239900765708e-02 6.859644300451690491e-01 7.263042480645071075e-01
1.442257778138630320e-01 8.448906986436984790e-01 5.151297238165831738e-01
-3.844199404640044060e-01 -8.438217657298104912e-01 3.744143921569737521e-01
-1.429694717101336054e-01 -8.438907702251430276e-01 5.171151690752651131e-01
4.021294015843878689e-01 -5.158320178872065620e-01 7.564451557805065285e-01
6.393410679135643759e-01 -3.296448600927570638e-01 6.946778138774619693e-01
-3.692665892763855040e-02 -6.477927181083388275e-01 7.609211629507043329e-01
-5.413475871534204620e-01 -3.715880418281504172e-01 7.542314744516371849e-01
2.745866936645254275e-01 -8.648683447817274716e-01 4.202438504688664755e-01
1.213110991824339346e-01 -8.193293865871505988e-01 5.603418362837753186e-01
3.756238664539065519e-01 -8.579496850710888189e-01 3.504697545247482671e-01
3.796878868577940325e-01 -8.409406581910566780e-01 3.855592275833315541e-01
-5.931136222937962721e-01 -7.084507373383955864e-01 3.825098479963823239e-01
-4.449186444875379842e-01 -7.644007598330013753e-01 4.666249866371302013e-01
-4.515959143482803362e-01 -7.529252728372257675e-01 4.787114618086029671e-01
-5.419637492341357055e-01 -7.501595788390373887e-01 3.788613213197105645e-01
-4.852850221586411106e-01 -7.794823207713691415e-01 3.961133156981315739e-01
-3.875436158514323770e-01 -8.404112817326296891e-01 3.788387827946287922e-01
-2.752388557820024118e-01 -7.498901077868017628e-01 6.015882300305691599e-01
-5.467865580568034151e-02 -7.927891971504864577e-01 6.070383294988638267e-01
-1.422427421129466574e-01 -7.829457124618963704e-01 6.056096215002889638e-01
-1.399491774696254298e-01 -7.661508274990252998e-01 6.272377039433567614e-01
1.370954009666787987e-01 -6.746960722573224212e-01 7.252517225862532557e-01
5.185923405421443144e-01 -2.975078916209097923e-01 8.015928135620362660e-01
3.628475950432855091e-01 -4.759544322494054236e-01 8.011298279264417177e-01
2.215397549613524197e-01 -5.742059483128694186e-01 7.881672829379448020e-01
3.833849611136506685e-01 -4.603267484998076475e-01 8.006967317327324807e-01
4.824273212581049464e-01 -3.879821411057893243e-01 7.853239700191868566e-01
6.542526099718187771e-01 -3.872071484678668019e-01 6.496338557375582745e-01
5.911107198270810770e-01 -3.569927178227120246e-01 7.232871603499286817e-01
6.650791343091885244e-01 -4.632381015590011919e-01 5.857304895346945317e-01
-6.520665799220984882e-01 -4.534613986232733374e-01 6.076034358916367895e-01
-6.445696180388832408e-01 -3.512354618817923324e-01 6.790903163923721619e-01
