7.284739645155177135e-01 8.726093512157367948e-02 -6.794933496545444429e-01
8.974972989560060510e-01 3.449394910365657929e-02 -4.396689275374230377e-01
5.927902142977928834e-01 2.410774030656513967e-01 -7.684279065494031835e-01
6.947842931931065280e-01 5.746916463136739761e-01 -4.324399352389119988e-01
6.156156745222290949e-01 6.161091218259298063e-01 -4.913521052009673928e-01
8.148094910615618636e-01 -6.494961526843136268e-02 -5.760790230102821319e-01
1.654139787095716962e-01 -8.574476636287130527e-01 -4.872593968156290756e-01
5.267546151910509344e-01 4.746228182365905823e-01 -7.051686009629782870e-01
4.265342964707204976e-01 7.262488601106742436e-01 -5.391021119622644298e-01
3.186449012019378357e-01 7.739396016552213542e-01 -5.472503265670697337e-01
2.518126135720476499e-01 8.640758502905833138e-01 -4.358478319214402763e-01
5.715674227803718699e-01 7.533234833874007386e-01 -3.252912703920538551e-01
5.530794208016649449e-01 3.869590736337136239e-01 7.378115136118661432e-01
2.417787988010315081e-01 1.701827470192305014e-01 9.552909740321631205e-01
7.793025113576621532e-01 -2.673434660238170890e-01 -5.667583849984162425e-01
7.710549651420366413e-01 6.756228452308565835e-02 -6.331742086028413485e-01
6.816789651794841198e-01 2.509242538604976036e-01 -6.872778239230334929e-01
6.781224397333378562e-01 2.977987186529353902e-01 -6.719121072720564136e-01
6.282501964048778920e-01 2.636073063709531983e-01 7.319924034749833996e-01
-1.939836832401171940e-02 -9.966770384467233956e-01 -7.911121500416153085e-02
6.101966223821396751e-01 7.101734637372183467e-01 -3.511605522220713760e-01
-2.571004262883298461e-02 -9.933476289681029137e-01 -1.122474130279715460e-01
7.866368307804367799e-01 -3.963384908099154003e-01 -4.734113403396975062e-01
8.365066969843720779e-01 2.069817382347601542e-01 -5.073609227538253830e-01
9.381075445643799471e-01 3.447016356560618777e-01 -3.369001643551659819e-02
-7.519210818721279166e-01 3.405775388042731611e-01 -5.644657887757880133e-01
7.010007234607107396e-01 -4.115271094664122442e-01 -5.824460695049624714e-01
8.772827418510742437e-01 4.053960872299584017e-01 -2.569610929866648075e-01
5.497447523992449181e-01 -4.493475674688225951e-01 -7.041785787847745226e-01
7.962485961883979391e-01 4.719402093643116358e-01 -3.784978359953663496e-01
7.163668136052918634e-01 5.576859371443614322e-01 -4.192910491250873561e-01
4.712031229133961108e-01 7.354447333498029815e-01 -4.869175095893557015e-01
4.659164546962493020e-02 5.563553529786265939e-01 -8.296372338464931273e-01
5.408008332893508019e-01 7.848168038889137277e-01 -3.026500339453710997e-01
8.218739568220624347e-01 -2.553065200686851499e-01 -5.092561044386848534e-01
6.628586467219182987e-01 2.221951609243491277e-01 -7.150158913812962869e-01
5.770967843183428814e-01 5.924381205333144607e-01 -5.621177588978860662e-01
6.549811958321781757e-01 3.137693875475487393e-01 -6.874215624667923130e-01
-4.934643112895810702e-01 -7.893118046232230345e-01 3.653489408304483876e-01
-9.197662157259603455e-02 -9.902900248948801609e-01 -1.042399524068818445e-01
-2.693326256682068709e-01 -9.291210464204768815e-01 2.533653840783850475e-01
5.605759709391431450e-02 -6.165624721544722409e-01 7.853077509733504824e-01
8.026505006848423385e-01 -2.101160553801081909e-01 -5.582144901575696316e-01
8.003361539177733519e-01 -5.171477429442016688e-02 -5.973170203935121991e-01
8.314298670771909094e-01 -2.092501532163582381e-03 -5.556257711529789534e-01
7.967323443508742553e-01 -6.472439494001755445e-02 -6.008563257258831003e-01
7.354056011749871002e-01 -8.968692502309985604e-02 -6.716657332634713429e-01
7.230175584138224254e-01 1.787495742373122198e-01 -6.673036789463208107e-01
3.363935038807933653e-01 2.393452288159284291e-01 -9.107981510685303483e-01
8.221760044675285872e-01 -1.994821980868307920e-01 -5.331355084068747363e-01
9.211958899263840150e-01 1.403488465752560643e-01 -3.629054059224423590e-01
8.813041055629777798e-01 3.664307713187053839e-01 -2.983815734066337932e-01
4.423538767097420776e-01 2.479333495556383937e-01 -8.618886830316220271e-01
4.588748585986752171e-01 2.395512412501907551e-01 8.555986599811494786e-01
1.435086056999466675e-01 9.219366211060255889e-01 -3.597751335955026719e-01
4.654627782270305825e-01 8.826633092647724332e-01 6.519113868413929647e-02
7.361810154169200482e-01 5.720371908261766558e-01 -3.616779850245362415e-01
8.119009304009261463e-01 -2.897905212461542868e-01 -5.067921990421645484e-01
8.762920319610580933e-01 -2.342527976655414679e-01 -4.209963200639961767e-01
2.105296001201043266e-01 -5.191933179726634234e-02 -9.762078008595272971e-01
8.224087640786461595e-01 -4.258821814113744053e-01 -3.771845600272140109e-01
7.006897900569643012e-01 4.539106753485833146e-01 -5.504533739696035877e-01
4.378198968150167625e-01 5.652814595113200280e-01 -6.991213124241313359e-01
3.212035983584782817e-01 7.796830107597594317e-01 -5.375152566524623587e-01
3.595479787296211871e-01 8.103333106330201652e-01 -4.626933938041187799e-01
4.925664094670952342e-01 7.783970231498665848e-01 -3.891997001747562468e-01
8.323123016827561615e-01 4.128369415611192750e-01 -3.698944337916071912e-01
-1.204081897300975090e-01 -1.709504503329392078e-01 9.778945809119130583e-01
6.143155388977283859e-01 2.578682217682501943e-01 7.457348046530174468e-01
9.269882957198023465e-01 3.149356876817154816e-01 2.037356429860550933e-01
-4.604351229682584340e-02 -9.987469355750627775e-01 1.961003964283089887e-02
3.153991660182547396e-01 -2.346511120258359673e-01 9.194901966307351682e-01
8.139213326476657517e-01 -1.012847688822128972e-01 -5.720781938280155021e-01
7.115743130268326055e-01 6.843961652442517862e-02 -6.992696303503970201e-01
6.992336412596188433e-01 2.840415160039013176e-01 -6.560432395178081855e-01
7.180478741772907680e-01 2.849267423943921407e-01 -6.349992140609256319e-01
9.126002601786840085e-01 -8.918890097273508540e-04 -4.088520143716950495e-01
2.926808380099515383e-01 -1.975173189208561386e-01 9.355879626139432803e-01
8.294102840746776506e-01 -3.013441549831709643e-01 -4.703937509455681787e-01
8.551662905803790737e-01 -2.961271911388372452e-02 -5.175072002607080668e-01
8.937652932350911295e-01 2.561315767721006331e-01 -3.682121888105132079e-01
9.105332121156155534e-01 2.792789805120562963e-01 -3.048483568572509794e-01
8.457635425067939750e-01 3.595576664239634734e-01 -3.942110027410604678e-01
-2.041047426966655087e-01 -7.963258290339093604e-01 5.693912784914999525e-01
5.309551016555194014e-01 6.631296891089638601e-01 -5.275847756031497582e-01
5.205285943434940776e-01 6.815452206122255552e-01 -5.143404463304621643e-01
-1.521188652139388864e-01 -6.845271409025444065e-01 7.129392991088453480e-01
8.269601681323823783e-01 4.887747750520259893e-01 -2.779138348396912317e-01
-2.605105706578376146e-01 1.116339971679909393e-01 -9.589953562201564141e-01
6.661513709288374718e-01 4.041600965625080089e-01 -6.268149386830332848e-01
7.878165884031255173e-01 1.945628016849792474e-01 -5.843717474667573519e-01
-8.212945481589851993e-02 -5.909435451707772957e-01 8.025213262416374116e-01
9.654181372035780528e-02 2.538501618860401488e-01 9.624135148230280601e-01
4.228869335655724981e-01 -6.803872491346467655e-01 5.985313965319573049e-01
-8.192576779617120886e-02 1.243283412438420804e-01 9.888531903849846483e-01
7.405041601701288778e-01 -3.488998520523069469e-01 -5.743887899398893992e-01
7.705024159711076903e-01 3.605355816024462257e-02 -6.364166622006939278e-01
6.739737240123077067e-01 -5.465011805404326739e-02 -7.367311476635564071e-01
6.955533299548968262e-01 2.055165403593585960e-01 -6.884537143682023519e-01
6.822167323901849878e-01 2.949310059441203613e-01 -6.690261816847289378e-01
7.073346886939279043e-01 1.634790316843869884e-01 -6.877152349408868215e-01
1.406241508603591484e-01 -4.146141123378588866e-01 8.990661744527441712e-01
8.095897346445271037e-01 6.780608347206903974e-02 -5.830667171108147029e-01
8.289460148011891238e-01 3.635053420247288947e-01 -4.251027768254539430e-01
6.532455079085750516e-01 5.854128093470841732e-01 -4.801688755527814267e-01
6.299737802495392058e-01 5.967309578649504509e-01 -4.970364173012719045e-01
8.429349400011179050e-01 -3.850825410558283424e-01 -3.757287898195957876e-01
4.855094708882907173e-01 7.801315163690872856e-01 -3.945571832389322964e-01
5.727214024164992701e-01 5.208661562647972643e-01 -6.329997175923650632e-01
-2.598876391071479608e-01 -7.118142690877219403e-01 -6.525173264844581489e-01
4.967277647174227484e-01 5.789526339075031780e-01 -6.465874847616502885e-01
4.436611618992331585e-01 6.846369496082794770e-01 -5.783053005578389083e-01
3.614443311328049413e-01 7.915044557498975841e-01 -4.928272435854351707e-01
2.399719366347601579e-01 -3.009589798901522451e-01 9.229502489577874336e-01
-6.431370274755704441e-01 5.757845665443728222e-02 7.635833191074700155e-01
-1.681348119275243580e-01 -2.453031328528117172e-02 9.854587504042073842e-01
7.631775454593715535e-01 -1.230814741278187657e-01 -6.343587193639983468e-01
7.987539501478779780e-01 4.857192808978216120e-02 -5.996940010745499539e-01
6.384851166816335466e-01 2.567702900402586697e-02 -7.692057240800846962e-01
6.589140210783634988e-01 2.760987429248102365e-01 -6.997155114628239581e-01
5.323623827222363769e-02 -9.981694025390633884e-01 -2.870098899746106186e-02
-2.120030625692576332e-01 -1.963112162178244635e-01 -9.573487388868979764e-01
7.281335679133903449e-01 3.171367432592093194e-01 -6.076559827341935227e-01
8.387316693479618390e-01 2.449169774589835258e-01 -4.863587780488154433e-01
8.793181929655525808e-01 2.293999978365943715e-01 -4.173429722810311215e-01
8.663905658027629686e-01 2.857790719113682543e-01 -4.095091080128075434e-01
8.064834946462637877e-01 3.439411716768832061e-01 -4.809249871743852545e-01
7.037625641008579125e-01 4.609254756126096586e-01 -5.406162773182799919e-01
4.786727078151445380e-01 6.866953306626848441e-01 -5.471032458677093091e-01
-6.748685074205269530e-01 -7.366067954310034915e-01 4.430492768144365934e-02
3.404449416399538131e-01 8.313957304050044739e-01 -4.391792130510023262e-01
5.336419778283344462e-01 7.959136128857480230e-01 -2.859156524617336714e-01
5.849623537950152663e-01 7.464339589172778178e-01 -3.172623356430370745e-01
4.230501161860198978e-01 7.735658205840681978e-01 -4.718310295212598815e-01
8.187736824862437146e-01 1.656942075197365832e-02 -5.738772614103645475e-01
8.251625650512550703e-01 -2.808841489681859760e-01 -4.901130850084001178e-01
6.106029949765194864e-01 6.312606402097510339e-01 -4.781986895085345024e-01
5.222073791681661747e-01 5.528882399239621881e-01 -6.493181402795538126e-01
7.375785225952813384e-01 3.168532733658515066e-01 -5.963069060169493563e-01
7.633914658647829032e-01 1.817484691492025906e-02 -6.456803735474986317e-01
6.515538061217722721e-01 -3.117674429800845401e-02 7.579615084839128603e-01
-8.387036774244026605e-01 -4.688868746036254920e-01 2.769859929657588760e-01
5.270544426827679096e-01 -4.351583323397537617e-01 7.299663281574302331e-01
2.720057631013353960e-01 -1.700253435694319692e-02 9.621454041178502115e-01
-6.393399349677010290e-01 -7.351048227830203619e-01 -2.255334721868131886e-01
-3.898242007452280555e-01 1.602630148735911253e-01 9.068367320399913778e-01
6.584035438152439079e-01 -3.574441993243232529e-01 -6.623733221234997526e-01
7.406719137954584919e-01 1.092667634931234755e-01 -6.629222356432999952e-01
6.206428996891850680e-01 -5.872451006126089106e-03 -7.840713649819007758e-01
5.904125653219230996e-01 2.128260197439503232e-01 -7.785358617494337885e-01
6.030440223702239200e-01 -1.610815289652265947e-01 7.812750143897893018e-01
1.482636189501677637e-01 2.410470876402245610e-01 9.591215777136731235e-01
-2.477109724722298956e-01 -5.463135909675906898e-01 -8.001129510518864008e-01
7.211857569176628457e-01 1.503544704254464459e-01 -6.762282434520028307e-01
8.714192362326691477e-01 2.337211768266271861e-01 -4.312805655561676721e-01
5.920315304240718612e-01 5.947079491548216135e-01 -5.438944035341761740e-01
-7.495481525165569314e-01 -2.461917977397486967e-01 6.144649426815879112e-01
3.656160211290027662e-01 8.348157913543290398e-01 -4.115914474320886973e-01
-1.525834111035873630e-01 -6.983166895742309865e-02 -9.858203896585900905e-01
-6.241544871115733278e-02 6.226114687136785619e-01 -7.800379931698075975e-01
5.550232496409401861e-01 8.214768729320708340e-01 -1.308622924900717244e-01
3.802124220080192463e-01 7.418836657695491166e-01 -5.523107283179751192e-01
4.791759307068378937e-01 8.313387464374589753e-01 -2.815427429415114924e-01
9.988805384054229020e-01 -2.622971141980501991e-02 3.936587651413954447e-02
6.259635678450623519e-01 7.013397007425978824e-01 3.410164745184070534e-01
8.989924591023346068e-01 4.046716873728452013e-01 -1.674914443067209713e-01
6.080570446137735230e-01 3.420418942128822803e-01 -7.164314154884798835e-01
5.125617883426832888e-01 1.866621253787688617e-01 -8.381155433948419553e-01
7.796707482114878518e-01 -3.117693016086062752e-01 -5.430593217668036043e-01
2.023866728932305695e-02 3.936840534058536067e-01 9.190229934230639275e-01
6.178534353049404126e-01 -4.208648992169412018e-01 -6.641760828944367478e-01
7.231429210925177653e-01 -5.203418261642777515e-02 -6.887356238160047273e-01
7.737617597129660130e-01 6.546000509990582139e-02 -6.300854917693429202e-01
6.415719895128551009e-01 2.527958969953991164e-01 -7.242096497111925046e-01
6.825684620910119627e-01 2.560750471276666551e-01 -6.844894921014303968e-01
4.474504263835446527e-01 -8.020516173167482887e-02 8.907049163223361710e-01
1.486864830168451446e-01 1.657505458605297854e-01 9.748943975195558664e-01
3.883592780974345904e-01 -8.845461913895949491e-02 9.172528830527714172e-01
2.922182081025419612e-02 -5.217214630039238576e-01 8.526152709338361557e-01
6.718811737699985631e-01 -2.654422780469629095e-01 -6.914593880761817912e-01
6.526967898074100827e-01 2.227029409649600722e-01 -7.241479825703164286e-01
7.351235533547594292e-01 3.181357883835576050e-01 -5.986509679710244614e-01
8.274010820178847592e-01 2.632218734811704874e-01 -4.961065357326955860e-01
8.361401217909300021e-01 2.658678449943656652e-01 -4.797749323688144663e-01
6.746365435619069428e-01 3.840882328151978276e-01 -6.303505084504507083e-01
4.963027942733719278e-01 6.534717388067620147e-01 -5.715402199122211480e-01
2.969872930226748475e-01 -1.550455293952166247e-01 9.422098660052445895e-01
-2.262541531872553080e-01 7.690667355742429878e-01 5.977837522036671958e-01
-6.011193918226460930e-02 5.910869378340836144e-01 8.043648343193987582e-01
-4.075724587945269567e-02 9.663735667563158049e-01 2.538916626890261319e-01
5.906649736666048645e-01 3.853153836667747578e-01 7.089759826631331086e-01
-6.850839617486427224e-01 1.106063587612685500e-01 7.200181933509444132e-01
-2.124529368610046376e-01 8.733979058432363995e-01 4.382235133898947366e-01
8.760064953084408801e-01 -2.171001121823976088e-02 4.818104353273460205e-01
7.512398946162544000e-01 -1.274230432081550068e-01 6.476125298328713198e-01
1.459466186467068063e-02 9.454682210033890088e-01 3.253872138203076081e-01
4.859547430455773975e-01 -5.096137430989185202e-02 -8.724969490146965434e-01
-9.115207638791839040e-02 8.255279693933986751e-01 5.569514078619274278e-01
3.390076653213233149e-01 4.527639073528788582e-01 8.246688105245277844e-01
6.256632204892993432e-01 -3.538534086088370723e-01 6.952217629957118117e-01
-5.094417405581604941e-01 1.963588803080144884e-01 8.378020667802477117e-01
9.666215658328210225e-02 9.607130771907146372e-01 2.601668902827894425e-01
9.069620931582400569e-01 9.969730992093393807e-02 4.092434580644549458e-01
8.677290382316921180e-01 -1.309829436889840826e-01 4.794682311395309648e-01
7.090640892908441906e-01 -3.553405812831495481e-01 6.090658327073510403e-01
6.197284086582448559e-01 -2.678081390585903554e-01 7.377096313292204055e-01
-1.398428691340354579e-01 8.566029277181523849e-01 4.966642690762554380e-01
9.452858969662571997e-01 5.985529103068625012e-02 3.207053431614920735e-01
9.019753967334807054e-01 -6.431685266764337883e-02 4.269704043026972817e-01
8.314567483731369890e-01 -2.141851440029421405e-01 5.126445158910890587e-01
7.607399199635498377e-01 -3.375024718437000248e-01 5.544067601258525491e-01
6.274189808840648919e-01 -4.556508289133437972e-01 6.314489247254949644e-01
5.604275499290009011e-01 -3.620858061527509886e-01 7.448589331298173244e-01
-4.524769869720218080e-02 -9.988512769557927884e-01 1.577251680579741522e-02
9.751889923562557794e-01 -2.138775853424836615e-01 -5.712099154653178801e-02
9.089251866733430996e-01 5.089140615959255459e-02 4.138418415408571249e-01
8.587609407768889147e-01 -1.532668295777447898e-01 4.889160720892485323e-01
5.955310887750709936e-01 -4.691741685140957685e-01 6.520876642764262821e-01
3.925170843144781124e-02 7.570742153512629580e-01 6.521487068418385658e-01
9.491319865167824332e-01 5.841760414993079492e-02 3.094121130403403308e-01
9.382866579334194768e-01 6.730282467472042604e-03 3.457930751794229818e-01
8.978457464381975894e-01 -1.201934252540786813e-01 4.235877195204413304e-01
8.078180085531199150e-01 -2.949036342609592243e-01 5.103546919123503889e-01
7.090432786699547574e-01 -3.694937292982823362e-01 6.006097010390429869e-01
5.144671447795666763e-01 -2.655584116693077146e-01 8.153540868445038337e-01
9.474544922309632300e-01 9.752041259424777675e-02 3.046633458078200629e-01
9.130601298762894835e-01 -6.647325473594338507e-02 4.023711043739396920e-01
8.659023198713597935e-01 -1.816983765743149515e-01 4.660459981500279514e-01
6.715932261371945211e-01 -4.888607609974643942e-01 5.567564054086985292e-01
3.985687387430700279e-01 -5.971960385199259758e-01 6.960602359515054571e-01
5.396621783757086233e-01 -4.812585455654987410e-01 6.907640302961391976e-01
6.834301088615436504e-01 5.954862684730958255e-01 -4.222788064318246937e-01
9.549502143926559272e-01 -2.026445934751021014e-02 2.960733688104583705e-01
9.478848177833727462e-01 -1.513183076381190845e-02 3.182536722702778986e-01
9.250609522717601063e-01 -1.196761070451976133e-01 3.604717242511134567e-01
7.152211828018697481e-01 -4.208407528435533229e-01 5.579889966814448599e-01
-7.685290817403239716e-01 2.548460871732209365e-01 -5.868701068991958314e-01
-1.309973705117200848e-01 -7.730972816923799007e-01 6.206128277427626072e-01
9.752554202488377122e-01 2.120655400581275205e-02 2.200616898564163870e-01
8.477670528086161950e-01 -2.963027642419047702e-01 4.398814568435447381e-01
6.068095440011492814e-01 -6.134175887251422932e-01 5.054711061492530577e-01
9.473554329168369925e-01 -7.071140213489635062e-02 3.122780513117587309e-01
9.312014781431657839e-01 -1.049823062773919541e-01 3.490594827141400569e-01
8.530349558359595630e-01 -2.329947592026128389e-01 4.669526810138892037e-01
5.503710822726745056e-01 -5.708937740925760229e-01 6.092388451997620136e-01
4.310727589977288443e-01 -7.612337841606624522e-01 4.844578436794307885e-01
8.635159990117855511e-01 4.229640101716646283e-01 -2.746662803297523769e-01
8.571013488237971822e-01 2.189576448596469160e-01 4.662990752745968526e-01
9.574511794290736511e-01 1.853628012937587055e-01 2.211964531958103275e-01
9.747123814465331604e-01 6.772334909713887199e-03 2.233604909886676981e-01
8.114767050107063451e-01 -3.509884369778272784e-01 4.672394186419085993e-01
3.569029145003732029e-01 -6.988450268394124087e-01 6.198676778821108346e-01
-2.082853093067681682e-01 7.492142118007825147e-01 6.287251345084877707e-01
9.342507922392639941e-01 -1.619319147519579782e-01 3.177318243189877212e-01
7.090806233920147195e-01 -4.864573675781697637e-01 5.104546003896029971e-01
9.856304623469951398e-01 1.540550359356951671e-01 6.927941683141015938e-02
7.445144321361568673e-01 -4.585715327314838219e-01 -4.851911063789950962e-01
9.727276900016035288e-01 5.240015666726789006e-02 2.259536781851318177e-01
9.713951372774768389e-01 -8.477385873723866649e-02 2.218217305596336120e-01
8.999108842269719633e-01 -2.959055682988072644e-01 3.203128082040887503e-01
8.168827316446971576e-01 -4.248285844563049474e-01 3.901580148728840958e-01
3.443368145997383611e-01 -6.819640534695109446e-01 6.452574586060509931e-01
3.756683973995368908e-01 -7.648819896001662899e-01 5.232865344919117589e-01
3.857735436101996096e-01 -7.673774831870853186e-01 5.121626414996354182e-01
9.769673340059624733e-01 1.631095877634897440e-01 1.375866660142130715e-01
9.436835322098976464e-01 -1.078975788037550981e-01 3.127610965643561891e-01
9.523099898131124341e-01 -1.766797332813396515e-01 2.487769184425762392e-01
9.107872119168746172e-01 -2.546691132706582761e-01 3.249773797583805357e-01
7.339584310613278539e-01 -5.255525255078487001e-01 4.302319890551093984e-01
9.485128222843132173e-01 3.161911999653879146e-01 -1.861588103461401730e-02
9.662649781751325717e-01 -7.241143389738087521e-02 2.471610329180868870e-01
3.806084734395413505e-01 -7.574759313643080194e-01 5.304407632806855677e-01
3.806084734395413505e-01 -7.574759313643080194e-01 5.304407632806855677e-01
5.984402436594877805e-01 6.561261675440894781e-01 -4.597474600611495266e-01
-9.968452301363098789e-01 7.930680567986120311e-02 -3.165079358302833046e-03
9.780193636123025724e-01 1.590900942911221416e-01 1.347904532889048212e-01
9.861701665626778635e-01 1.026217262932424407e-01 1.301429363213192358e-01
9.527073598437796331e-01 -1.757349915976038346e-01 2.479231720265070438e-01
7.661123827112791274e-01 -4.562751636163701607e-01 4.526420132105518079e-01
4.954277837992396849e-01 -7.660188169906047007e-01 4.095930700782038358e-01
6.529872084636232366e-01 -7.071641496394406312e-01 2.711578341992196273e-01
6.389689565974325802e-01 -3.204890561301659280e-01 6.992892373014070184e-01
9.739973756839651609e-01 -7.152686775437708255e-02 2.149721362176888195e-01
9.046150689274655710e-01 -2.572995723641876009e-01 3.398065731126501676e-01
4.061499767197534472e-01 -7.474033896028807744e-01 5.257664592009158033e-01
9.642127130221059828e-01 2.331935700012777724e-01 1.261530933295302859e-01
5.167854257276148777e-01 -7.378369047656100355e-01 4.341998684032871703e-01
6.195639057709205755e-01 -7.274359114653922154e-01 2.949195845928107573e-01
9.886716186168374998e-01 1.134827618978271058e-01 -9.823488837273509910e-02
3.416969786131941744e-02 9.967561814187371194e-01 -7.286663538001431073e-02
9.994951349826998177e-01 -5.958917073384671810e-03 -3.120843561005875316e-02
9.230946098716352743e-01 -2.307026509170161666e-01 3.076891744696176878e-01
9.157999659444598928e-01 -3.194826049230167775e-01 2.433953317706194497e-01
7.622205481901790369e-01 -4.924682145096153096e-01 4.201129533998855803e-01
-2.707656069163616452e-01 -1.872590205309542788e-01 9.442563451420392662e-01
8.380021384007502183e-01 -5.423603729708540433e-01 5.998034566994337596e-02
7.688360013869647291e-01 5.995011289623349837e-01 -2.224625796492273322e-01
9.435103232714092680e-01 -2.636653774399690953e-01 -2.006709710439439076e-01
9.855891409526951197e-01 9.796656593638408683e-02 1.379006787320509464e-01
9.833416544739045362e-01 -1.102785453870350346e-01 1.444916364494628347e-01
4.378317281479233714e-01 -7.097485444350746242e-01 5.518698954457433858e-01
6.006852301520672066e-01 -7.359394919816274472e-01 3.123624792112236759e-01
9.048099958335524828e-01 4.098521504705076035e-01 -1.154992908826162484e-01
8.926941596321578132e-01 3.957078065955808022e-01 -2.156674967582039304e-01
-6.774107699587006426e-02 3.832928048812556665e-01 9.211393880481385521e-01
-4.253485078027826605e-01 4.803744917593486541e-01 7.670195529299718151e-01
-4.829699445767209748e-02 -9.984510786870444132e-01 2.761962698939144506e-02
9.346049848764085288e-01 2.882631198073224432e-01 2.083696139150751081e-01
9.658559955268734010e-01 2.360849968467605697e-01 1.067055301690464642e-01
9.597354880731392424e-01 -1.772166538790052592e-01 2.179496513439334038e-01
9.367175063753130360e-01 -2.672794711503155285e-01 2.261017415935205055e-01
7.833479559603816478e-01 -4.934699585326359217e-01 3.779594950765100547e-01
4.365756261081920608e-01 -7.740512799376464415e-01 4.585262682934658773e-01
-3.893897245475834712e-01 4.847888142152229074e-01 7.831701271298306954e-01
-1.684423291119646060e-01 3.792084638346342462e-01 9.098506046156772387e-01
9.678707585498829147e-01 -9.816669828989382784e-02 2.314940476360789756e-01
9.938005873065258733e-01 1.533292647671692481e-02 1.101149128631707386e-01
9.220906668129120742e-01 3.671565006655311825e-01 -1.222493607163694512e-01
9.828147567282481400e-01 1.507165776536372181e-01 1.065817394189534223e-01
-8.843900433021339991e-01 -4.658272749083417485e-01 2.931213502148432432e-02
1.143611481274047353e-01 -6.337605612854060322e-01 7.650288091034146420e-01
8.159336727698959790e-02 9.192134145417796276e-01 3.852132149120078286e-01
4.122895907873484062e-02 5.704333378456482029e-01 8.203084663756413653e-01
7.801011837614979516e-01 1.086244176668487299e-01 6.161516688125151520e-01
7.374077008323126625e-01 2.741367609223266943e-01 6.173158989238959338e-01
-4.554219321316815283e-01 8.274882953203741009e-02 8.864217365027347029e-01
8.274005528799854847e-01 4.712825037150148444e-01 -3.054523314463345462e-01
9.825188283314643112e-01 1.813815268093425526e-01 4.192247257114547349e-02
9.828248836273132394e-01 -1.054110312335763827e-01 1.514719862457488686e-01
8.873326374002830086e-01 -3.581045144671109459e-01 2.905201323876413499e-01
7.591595491543577934e-01 -5.625216890092377131e-01 3.274845466918197001e-01
5.068614124466238602e-01 -7.760715125798879344e-01 3.752392782406691607e-01
8.499142337884189047e-01 -4.632382805924491476e-01 2.511097182460214627e-01
2.190455322678795946e-01 5.610908897074849966e-01 7.982456190175704069e-01
-3.024786157022789704e-02 -9.992143428156501361e-01 -2.560788905623872375e-02
2.205353033872353707e-01 9.072549748453360152e-01 3.581237084839377638e-01
7.417539240732676786e-01 -3.733115554929102853e-01 5.571710676779376703e-01
6.551689979104127204e-01 -8.085652627139125470e-02 7.511429999250405221e-01
7.566516927501626411e-01 7.528612261848163789e-02 6.494691798687516338e-01
7.976603114600974154e-01 1.496000265639371440e-01 5.842583842560155061e-01
7.601388500858864417e-01 3.385558879395472731e-01 5.545888921819215334e-01
6.252974339683771143e-01 5.292518426500719686e-01 5.734942075767345271e-01
4.509904735997141700e-01 -8.897698395239671265e-02 8.880825913444315711e-01
2.592189251687228579e-01 9.024883379421246854e-01 -3.439772502838424617e-01
6.126709279349477066e-01 -7.821691961324271913e-01 1.133387960271447642e-01
9.293396359669452433e-01 3.071369637701577560e-01 2.049261489094900412e-01
4.531843721134461433e-01 -7.772641165181006784e-01 4.364452062349616357e-01
9.475619831768902213e-01 2.269803931703415212e-01 -2.249581942364317078e-01
4.491084392531475289e-01 8.433594161697507419e-01 -2.950364468153369724e-01
9.914228397584498031e-01 1.019014809538016930e-01 -8.183422868649320447e-02
-5.942832636918526923e-01 5.384858871786868395e-01 5.973778969840970454e-01
2.591270674634498991e-02 8.601649885203911383e-01 5.093571675678995048e-01
-1.897302293784946525e-01 9.260268710829394623e-01 3.263076371958291144e-01
6.266898566731041731e-01 -4.561412334720482131e-01 6.318188020862014476e-01
8.663824844577894257e-01 2.306034057807930804e-01 4.429485973192003878e-01
5.417039093599981259e-01 5.981819302095653379e-01 5.905381045748476776e-01
8.590219764236829425e-01 4.031042981500641553e-01 -3.155759319626477710e-01
9.912189132820061754e-01 -1.017690923982450882e-02 1.318389034783105096e-01
9.508642124080622926e-01 2.180646581195045952e-01 2.197841087085664613e-01
8.420005450400628311e-01 -4.156902710472085705e-01 3.438556102624115707e-01
4.883852217221053005e-01 -7.509818898997047132e-01 4.444165571241894819e-01
-2.326529768551622024e-01 9.996564486675031669e-02 9.674086324851592922e-01
-3.897183328967872562e-01 4.611062211973303571e-01 7.971829612938722276e-01
-6.757325604946375075e-02 8.714292331730436603e-01 4.858445704526445641e-01
6.558354814253921639e-01 -2.145180481945291595e-01 7.237829980749298509e-01
7.780737338003722581e-01 -2.889581903312543054e-01 5.577673610121285375e-01
7.256688645743069044e-01 -4.582101632943489378e-01 5.132719992764094297e-01
7.791421151887788499e-01 -3.441783049903531233e-01 5.239072997326177372e-01
7.718541871814051936e-01 -3.490496600920588999e-01 5.314183366427532862e-01
8.243243497604388903e-01 -2.790666130712037285e-01 4.925557753808158523e-01
8.233276287905392232e-01 -1.705922794142709642e-01 5.413223530156422436e-01
9.062397245619607800e-01 1.883243990805258672e-01 3.785016279183227583e-01
8.504922121202601604e-01 2.644791545602455662e-01 4.546578646915547250e-01
8.296799299268253769e-01 -5.349062822749625079e-01 -1.597074921830410610e-01
5.759468256098602135e-01 -6.571181764850869689e-01 4.862930764496235514e-01
-7.341073591566052992e-01 6.514227764048083902e-01 -1.916631201174760768e-01
7.324411651586613115e-01 -2.070282548305441284e-01 6.485901951793919817e-01
7.175334530981651859e-01 -4.166253193689499201e-01 5.581837394135946706e-01
7.579996108083412176e-01 -5.122814122159105032e-01 4.037379654088473213e-01
9.167371844700862304e-01 -2.475458714645967506e-01 3.135505958066298060e-01
8.974734194813508426e-01 1.394666087491860107e-01 4.184381989833778070e-01
7.621474050181614723e-01 5.292248964702367386e-01 3.728972271017172990e-01
9.201229071182716046e-01 -3.581796138085162062e-01 -1.583704519416506140e-01
9.595179980859075419e-01 -2.077163112124540412e-01 1.902081633513744152e-01
9.240852459151617238e-01 -3.550184058335310588e-01 1.415216937481080794e-01
9.812343591946723897e-01 1.531496151256767357e-01 -1.171508758937711558e-01
9.587426133057503908e-01 -2.047743345506473356e-01 -1.971803066764020174e-01
1.714650680342263700e-01 4.587980102942086913e-01 8.718395013958092354e-01
6.160979903862328078e-01 -4.249386131736114791e-01 6.632122143598783159e-01
7.400962425431490965e-01 -3.449049811836233381e-01 5.773197603826119018e-01
7.305014628923077735e-01 -2.233374336632064083e-01 6.453588175867214227e-01
8.348727320711527566e-01 -3.920827746908875366e-01 3.863400303291699700e-01
9.494809444685351485e-01 -2.854038432239430212e-01 1.305012734196162039e-01
9.896290229543840411e-01 -1.039375199080337930e-01 9.915336041566177872e-02
7.633084242152489152e-01 2.692263998364248789e-01 5.872626287728097694e-01
8.511045271676116464e-01 3.121442079539744618e-01 4.221221118060296540e-01
6.686183070929225813e-01 6.508921316020472858e-01 3.595677855964539149e-01
6.825849156172208998e-01 2.941609503257337499e-01 6.689896623082398630e-01
9.227645036775137255e-01 3.677979331236486682e-01 1.150232634851038049e-01
6.498490778771953691e-01 -6.305306793284501943e-01 4.244139941233817104e-01
5.383108495947341865e-01 -7.654858886309811039e-01 3.524950829663197061e-01
9.743500961986356623e-01 -1.804574942363362522e-01 1.344506705511432365e-01
5.824964153524008204e-01 -1.665542717384990434e-01 7.955863250881461957e-01
9.169545848933348120e-01 -2.585328114348906525e-01 -3.038997773192069762e-01
9.342991611366908700e-01 1.951401004119265592e-01 -2.983377594447254588e-01
-7.013032724197112433e-01 2.616821603180113365e-01 6.630958958285770866e-01
-1.626469805117415901e-01 4.879308241369219590e-01 8.575951670732976373e-01
7.927456760544696612e-01 -3.338148277211728798e-01 5.100215229678308759e-01
7.790903948461328499e-01 -2.135471883184893727e-01 5.894198461366602082e-01
7.378074879007787690e-01 -1.914596948731946413e-01 6.472891904215652970e-01
9.711365702883313356e-01 -5.058377426125987980e-02 2.330987851321896231e-01
9.726663109750733893e-01 5.707439491802124981e-02 2.250838975557414579e-01
8.051554553425078753e-01 4.167094305795736586e-01 4.219928236335851457e-01
8.440927753509094300e-01 4.305711308039943397e-01 3.195557665237301892e-01
7.032068030573115358e-01 6.160434592932660935e-01 3.549516141615661202e-01
9.903465656380618931e-01 -7.060555102363955116e-02 1.192834275729207777e-01
5.330642095129591862e-01 -7.575348501653628164e-01 3.768069788648628626e-01
5.526691588284272927e-02 -9.950187689213972897e-01 -8.296515836750809059e-02
4.036300683118609345e-01 8.828545207439620901e-01 2.401055250437011401e-01
9.934882449377585578e-01 9.362137967879020917e-02 -6.493184455667530552e-02
9.394626112102835158e-01 2.166693790816162368e-01 -2.654512804759894262e-01
9.458486671622160502e-01 1.271790525129167237e-01 -2.986566380132484322e-01
9.925484030963166449e-01 4.504639678621028681e-02 1.132187689719827556e-01
2.454967576563872877e-01 9.219942410498251917e-01 2.994293930982026009e-01
-9.374200861950170161e-02 8.559328531302441423e-01 5.085188165174434616e-01
-6.576970776886692516e-02 8.997964694292792664e-01 4.313243085459035897e-01
7.618772886977339676e-01 -3.357573195083430329e-01 5.539043413470975397e-01
8.970808873738516098e-01 -2.696379989242929653e-01 3.500588965369199612e-01
7.531413518155568587e-01 -3.829268471158298603e-01 5.349253536180217372e-01
8.918215385476110368e-01 -7.856511239178504136e-02 4.455130374045613295e-01
9.138433352454237157e-01 -3.391422422488313826e-01 2.233224085262268677e-01
8.932711817719993785e-01 -2.881950047741276832e-01 3.449786008419886141e-01
7.254569500418157624e-01 -4.025204957122940352e-01 5.582915583882275268e-01
9.775697105117144847e-01 7.320226838812042558e-02 1.974813636596538524e-01
8.833423207104316166e-01 4.338446544320682663e-01 1.774405823441419783e-01
9.175198261659675003e-01 3.782511207826466104e-01 1.228147312786393719e-01
8.800215316222081974e-01 -3.783964601116886484e-01 2.870160672440587590e-01
5.537877101459099949e-01 -7.608702114182533949e-01 3.382243241809964607e-01
7.093274364711686930e-01 -6.813396639371033237e-01 1.806401124205684050e-01
9.186436467647585147e-01 2.804323746953916729e-01 -2.783011560907518445e-01
9.795504183684881072e-01 1.480794805533878766e-01 1.362110322740370805e-01
5.527012238778966635e-01 7.866991619305228056e-01 -2.750014286175408440e-01
5.761430979709785127e-01 3.072240886986072339e-01 7.574117044142595345e-01
9.619110550104546797e-02 6.457763509527723045e-01 7.574431831976630169e-01
-7.046948677096069591e-02 7.054223538356256817e-01 7.052753746893780651e-01
5.471180425496570410e-02 -9.974162812672030531e-01 -4.655513224414307982e-02
4.164035720162382326e-01 8.565235836076009468e-01 3.049187038148212237e-01
1.042659880109425424e-01 7.724163366369196648e-01 6.264994865444843963e-01
8.331963477207353641e-01 -2.178584527783287150e-01 5.082534217276457600e-01
8.725420017247320636e-01 -3.747791669127916170e-01 3.133863929310773400e-01
8.262310508765116079e-01 -3.017778613958707057e-01 4.756809570908112628e-01
9.267826404864405454e-01 1.447398597778473961e-01 3.465895415105167410e-01
8.691233690588603400e-01 4.334911035880585906e-01 2.381386832620503158e-01
6.638144352565003015e-01 6.504381044685382252e-01 3.691621158792823820e-01
9.895483195365735174e-01 9.115750546074487259e-02 1.117337572111384708e-01
5.599843472936169020e-01 -7.557470865535532711e-01 3.395053342025097787e-01
2.571573393998283774e-01 9.630094080967397385e-01 -8.051697156480901174e-02
8.916891886885777163e-01 3.435229099918936657e-01 -2.947582078358589319e-01
-3.613259933315820516e-01 7.019870110720671796e-01 6.137245007566920485e-01
-5.230043825796224510e-01 4.589004651701462101e-01 7.182456257222393781e-01
-1.057308968562742507e-01 8.027459887838921393e-01 -5.868729461658113156e-01
7.102522792287656594e-01 4.808378975108867914e-01 5.141367679593176199e-01
6.726731536910132148e-01 6.133750360340032293e-01 4.138621672413076991e-01
6.744958660061215472e-01 5.984884283665496962e-01 4.322810750564839988e-01
7.768421773289739818e-01 -1.544418913464941923e-01 6.104620657502780601e-01
8.856963376008473166e-01 -2.083602244901615330e-01 4.148831334374240565e-01
9.153927406920372434e-01 -2.246611042406292114e-01 3.340411928635478311e-01
8.774921987646969734e-01 -4.563758922772312432e-01 1.474058548879876862e-01
9.046248074690885765e-01 -2.629887886410888220e-01 3.353965634299300169e-01
8.274940113895020710e-01 3.302180309018951654e-01 4.541031966214132409e-01
5.793381454382972029e-01 7.592379558627686542e-01 -2.965215668673000793e-01
-1.042518111741537468e-01 7.274984642089648013e-01 6.781427168675530082e-01
1.807441010821814187e-01 5.810732902008782785e-01 7.935271900439959669e-01
9.947724936293723674e-01 -7.476189235982729289e-03 1.018419977853349118e-01
8.955399138373394408e-01 4.338970641464796052e-01 9.869954634787553305e-02
7.910895159103521479e-01 -5.155612180077359108e-01 3.292020782180827276e-01
9.974216006973569693e-01 6.985722707234666429e-02 -1.643527572281561905e-02
8.944255761850743447e-01 3.525159102277632961e-01 -2.752006934989247311e-01
9.443922304007336122e-01 2.293963294266425368e-01 -2.355857364194846038e-01
9.137488858269544600e-01 3.261268954153689337e-01 2.422895411212220573e-01
8.495688722097444190e-01 4.950255485654622700e-01 1.821604722208585436e-01
6.664960678533984328e-01 -6.790621918774750743e-01 -3.076646406373624854e-01
-4.373911730712529145e-01 3.692273370550365197e-01 8.199756918900703573e-01
-4.092532171312992378e-02 8.437609944711663701e-01 5.351565212642980240e-01
9.434627760020812826e-01 -2.356265584471025076e-01 2.331482688179796481e-01
9.340879770873371513e-01 -1.420443756119129097e-01 3.275714371215965870e-01
9.140409801369807630e-01 -2.303404654389058781e-01 3.338747618668049255e-01
9.075668222277327724e-01 -3.325323352254459519e-01 2.564073111690979290e-01
9.585029940833769135e-01 -1.874006731126217837e-02 2.844658506927870145e-01
9.139928316787161444e-01 8.312198735866085930e-02 3.971244626782249321e-01
7.954351460114813532e-01 -1.186023446326065350e-01 5.943201261419148729e-01
3.488848880548079956e-01 -9.326534551411990170e-01 -9.185242239683964749e-02
6.355674026770923302e-01 2.925267898871098393e-01 7.144803383247417816e-01
9.910993523400333238e-01 2.111477173965862694e-02 1.314391121605309187e-01
5.572517196942399220e-01 -7.325227232903013252e-01 3.909999753979183090e-01
8.163201188852974022e-02 1.535982736866261800e-01 9.847556981076672766e-01
2.277425359345986722e-01 9.541406246009225267e-01 1.942910337927088449e-01
9.981120799544523914e-02 9.647282270290205020e-01 2.435922222320179575e-01
6.137338253730980631e-01 4.931038552970851141e-01 6.165868791046844599e-01
-4.672274529605231069e-02 -9.986835435084036039e-01 2.116990782924692283e-02
8.528861209800859822e-01 -4.510245109013991671e-01 -2.629869867611244749e-01
1.276411502503587148e-01 4.660259956342656107e-01 8.755155670551247882e-01
9.000526169017957212e-01 -1.328700832647932741e-02 4.355786292025372597e-01
8.992085769290900643e-01 -6.727631069330160252e-02 4.323168203952502675e-01
8.614212191849238698e-01 -3.112862226239089258e-01 4.013157992684783237e-01
8.710819382704642067e-01 -2.357098871351426816e-01 4.308794563746449202e-01
9.555380752247566445e-01 -1.741353760130320560e-01 2.379576803059050283e-01
8.934376944503105156e-01 -3.932386857920286416e-01 2.171000279407437616e-01
9.916370529207872986e-01 -2.707859342951205936e-02 1.261852014003819189e-01
-2.246166273493817034e-01 7.552998820424211557e-01 6.156861691681029258e-01
2.886362461923610775e-02 -6.197148048127734121e-01 7.842961506151270301e-01
8.065396471155017455e-01 -4.766650965937556661e-01 -3.496915545449554297e-01
8.948692168025755844e-01 4.328668443254025666e-01 1.087905322301189748e-01
7.569951801714649431e-01 -6.211142128092267400e-01 2.029173029673563278e-01
9.969780245015966713e-01 4.279535958600265422e-02 -6.483344706861048079e-02
1.859535508987891217e-01 9.233284475461022156e-01 3.359849027266496591e-01
6.235799710053360201e-01 2.456053431621572358e-01 7.421765525609005376e-01
5.642780378666454322e-01 3.234282411265388402e-01 7.595949373338147792e-01
4.639093405230332312e-01 3.845839546501970130e-01 7.980496886792823874e-01
4.634676879462836241e-01 4.293285045848207471e-01 7.751611041458980056e-01
4.254239159126382841e-01 4.470120669104063471e-01 7.868892576506829606e-01
4.222838593862343615e-01 8.351499449600354730e-01 3.524214969821179988e-01
9.182848667215067762e-01 -3.261589250018422370e-01 2.244398787914202442e-01
9.391971589496591610e-01 -2.531782057884778836e-01 2.319687322347905034e-01
9.553197279138190279e-01 -1.750653503121041010e-01 2.381519275142804648e-01
9.886027131754794306e-01 -8.487838119875903975e-02 1.243395991113007831e-01
-3.469319830254281034e-01 2.785162805447157774e-01 8.955818670705549822e-01
6.939256163328459959e-01 -5.532698324390783462e-01 4.608250552106668008e-01
6.682036694701373181e-01 -7.433844004076203271e-01 2.972354853052324580e-02
9.213528055963593477e-01 3.761298797472439337e-01 9.815967186702030667e-02
9.163306984041941217e-01 -3.443220818415285711e-01 2.044024342281607343e-01
8.161502246841996211e-01 -5.469821600269468842e-01 1.863043943662779367e-01
9.440384896668843062e-01 2.948830956428684646e-01 -1.477676890647851571e-01
7.325771721406716397e-01 1.506433803519141024e-01 6.638051361766683645e-01
8.300191862786499009e-01 9.955083569370383467e-02 5.487784448409148697e-01
7.682393821960549207e-01 5.305207131954819966e-01 3.582680902809809997e-01
4.067327581790760593e-01 8.293651899251086590e-01 3.830428764048869894e-01
3.122520709578003317e-01 9.091924403460840409e-01 2.754410111078182122e-01
7.515975805574972579e-01 4.363267646830480961e-01 4.946918549171194779e-01
8.334440377967607949e-01 -1.671451005852634952e-01 5.267196134675200536e-01
8.535957910654962122e-01 -1.222458488329413312e-01 5.063893540729140774e-01
8.678156283786757630e-01 -2.335601818958125686e-01 4.385723162427369592e-01
9.226775251960569468e-01 -1.577178406885929030e-01 3.518398317794720898e-01
9.765412285746336574e-01 -1.776303767153399049e-01 1.217155625296590382e-01
8.899165790149847766e-01 -3.173105117898922245e-01 3.276622063984541144e-01
9.666715644319694434e-01 1.277164288407424686e-01 -2.218887115714010261e-01
9.143740419133036257e-01 2.980378328986089120e-01 -2.740320449075783205e-01
8.072109189398296580e-01 5.762782913808738305e-01 -1.277257343977959425e-01
6.866383853359626643e-01 -7.230110215980621868e-01 7.604466076555672915e-02
8.853410078976834408e-01 4.513602821217436167e-01 1.115580362757165322e-01
6.191803024595207150e-01 -7.154427780445136165e-01 3.236624544028628425e-01
-3.638316749274165818e-01 -3.859057530036558159e-01 8.477636829436562271e-01
8.494388064168072461e-01 1.116204194168791131e-01 5.157466394678592581e-01
-5.810801604545399179e-01 -4.966397938265004197e-01 6.447439509713117634e-01
7.008582511842866847e-01 2.101260856733018489e-01 6.816485457085047495e-01
7.055158650235145990e-01 4.833708909477963389e-01 5.182662886822330117e-01
8.602154260669276908e-01 3.765278125559488598e-01 3.438840315110987533e-01
8.175041688632904702e-01 5.307241607847030807e-01 2.236488297544014792e-01
7.341383111869632661e-01 6.414079066035586196e-01 2.227932615542810024e-01
6.259284361332795310e-01 7.477009316496968649e-01 2.217135757005479491e-01
2.635382887896213777e-01 9.211650819501269183e-01 2.863607203120814293e-01
3.832899113579977257e-01 8.703825191676274331e-01 3.090681384073632465e-01
9.670947746666942457e-01 -2.636413107563536848e-03 2.544027243138369254e-01
8.727885781074327110e-01 -3.094781632303480468e-01 3.774431936182923719e-01
9.092748859524930616e-01 -2.282387360133082688e-01 3.480319829543374599e-01
8.962051777401300878e-01 -8.659231314419733871e-02 4.351069416776972565e-01
-8.990677538056059126e-02 8.159777718115458489e-01 5.710490763937318137e-01
9.669746379621184662e-01 9.518912919776684189e-02 -2.364298611017670859e-01
8.908709595528294667e-01 -4.075751003161025565e-01 -2.005778428135561176e-01
8.257498611154181489e-01 -4.426472463320422213e-01 -3.495719985675738717e-01
9.163326123456193573e-01 1.555563490189851295e-01 3.689671609123724161e-01
7.003158917214690193e-01 -6.700604979000671646e-01 2.461231012243222660e-01
6.859986963920200465e-01 -7.223374470255619073e-01 8.737506036073806881e-02
6.738968061387695663e-01 -6.996795085095631750e-01 2.373008218438820427e-01
9.854109723122570497e-01 1.064128078337043676e-01 -1.328214213730562754e-01
5.981621761167754681e-01 7.730985665271229434e-01 -2.109990935927245626e-01
6.676280211815934784e-01 6.101080938289102362e-02 7.419909072701594832e-01
8.043398662738352467e-01 5.504896034797973625e-01 2.236036135290401794e-01
6.355276944324401711e-01 -7.457217426337785504e-01 2.000090802254428646e-01
3.195775683920565324e-01 9.349229413784994058e-01 1.542377109036416893e-01
9.920176027936498109e-01 -4.572189774370093163e-03 1.260165498186942290e-01
8.983566486990458566e-01 -8.110143734377538161e-02 4.317150548672036847e-01
8.609999523531992605e-01 -3.008588866602848189e-01 4.100768371480186802e-01
9.513838241895007375e-01 -2.565959474949828789e-01 1.703741142301649913e-01
8.363528815136600514e-01 -3.451534779773369199e-01 4.258907538605947729e-01
4.086687111610158851e-01 7.449468658124109854e-01 5.272988257470898610e-01
3.682374152306561732e-01 7.584365056075503819e-01 5.377501957099165564e-01
6.784826452362867633e-01 6.409517010289601524e-01 3.589459807007923664e-01
9.660892152522841947e-01 2.573876318404709762e-01 -2.057267966940010476e-02
7.128350278723702971e-01 -6.859154819852429918e-01 1.462401265424400354e-01
9.264602736118356940e-01 -3.227477933041777436e-01 1.936626534372758168e-01
9.937428486277332107e-01 3.298794491014249430e-02 -1.067096354217526161e-01
1.882662839065893934e-01 2.470772449789382930e-01 9.505307156308107075e-01
7.332107463263062286e-01 2.355123270111586509e-01 6.379153120104659180e-01
7.634664608748742420e-01 3.957193049451119271e-01 5.104166874358160300e-01
7.456890033687473274e-01 5.495703056611319637e-01 3.767232265078091502e-01
9.802056741088084335e-01 8.351658720564458793e-02 1.795043623604130056e-01
9.691048903704165829e-01 2.173922665256544651e-01 1.165174403897609179e-01
9.054248147817726133e-01 4.245019811583110037e-01 1.993180890308138623e-03
6.690255508689243458e-01 7.080904597555577329e-01 2.258599413080924490e-01
4.438431406099915266e-01 8.385749274392142460e-01 3.159040322689406488e-01
9.653141694389056893e-01 -1.624358809503866075e-01 2.044092435785313522e-01
9.241168939471584576e-01 -8.254920774029650410e-02 3.730865779184578956e-01
8.920750875708686189e-01 -2.645609497354585171e-01 3.663462051263792763e-01
8.190936285868130051e-01 -2.772585702154696241e-01 5.022084356624861856e-01
7.476308301262356570e-01 -3.140430639134118573e-01 5.851709971048056902e-01
3.451424590189481334e-01 8.263476348222175139e-01 -4.450014262966813239e-01
8.795144173354387807e-01 4.506969640867164451e-01 -1.527306002807574115e-01
8.250677705743950652e-01 4.905695129947675870e-01 -2.803653453611446023e-01
4.352893127449162375e-02 -9.985460449115963755e-01 -3.179667173634175004e-02
9.877411753477092216e-01 -4.315424140328676106e-02 1.500169389490156047e-01
8.068400354568406874e-01 5.858544552737600108e-01 7.605073582740518034e-02
5.416969827597662990e-01 -6.925589135935210638e-01 4.763680615565312748e-01
9.540509070980418560e-01 2.182488499551673566e-01 -2.053151386494682373e-01
3.321019212566369005e-01 9.045479482479489297e-01 2.673973134084863257e-01
7.442977959922796316e-01 3.315119733602248098e-01 5.797590899674143206e-01
3.089502343298562992e-01 9.219703284205801319e-01 2.334961803104587397e-01
8.454361593379718931e-01 -2.946396188022586959e-01 4.454494309300653931e-01
-4.838435377798249726e-01 6.291358192384137737e-01 6.083449283917085060e-01
4.522634769163931534e-03 4.653013086007120047e-01 8.851408012227262034e-01
-3.318452766704877432e-01 -4.859028849245465853e-01 8.085648389421161708e-01
8.509116799603763104e-01 4.899570317820384768e-01 -1.894503098818915154e-01
5.126938854458044093e-01 8.165018975506077581e-01 2.654611668827312476e-01
8.017463294598617951e-01 -5.326438845943436418e-01 2.710965056984067090e-01
-7.953019173549635140e-03 -8.758280301368371878e-01 4.825577800768033332e-01
7.417624950999883726e-01 -6.417910765743793933e-01 1.946602550407734999e-01
8.608229994961641429e-01 -4.912587907881916793e-01 1.328478980328660353e-01
5.745857908349450982e-01 2.832061332747544125e-01 7.678837509975989795e-01
9.166213422136365585e-01 3.815992207532686864e-01 1.191106616511281580e-01
4.189282995586284808e-01 8.460027735926474168e-01 3.298156862589524674e-01
-5.356510230198803235e-01 7.884354397269432990e-01 3.024029413222317775e-01
8.916289154175883747e-01 1.273011030541572677e-02 4.525879157499314576e-01
