-3.453250916780496449e-01 -9.384075946584549133e-01 1.190660929397384035e-02
-3.899312185013933396e-01 -9.208415098995681447e-01 -2.135060631952337938e-03
-4.097422111130667455e-01 -9.121262319599576784e-01 -1.170715177592390396e-02
-4.115767035282169028e-01 -9.113396631604943066e-01 8.039618359296941269e-03
-4.273151111751914977e-01 -9.040927084540952841e-01 4.262661313321485998e-03
-4.557740939846308126e-01 -8.900951094246053463e-01 8.194088653827446157e-04
-4.430558331686847984e-01 -8.962284308032943958e-01 2.182036926972439825e-02
-4.671004766083771131e-01 -8.841809068727755072e-01 6.424069883119215910e-03
-4.890085102995922473e-01 -8.722719809319752216e-01 3.502589839191154464e-03
-4.568580712782134290e-01 -8.895284977482015298e-01 4.444592419851976783e-03
-5.460563843220536118e-01 -8.377472117106680161e-01 -1.426328197504036490e-03
-5.403018083830797291e-01 -8.414009590001406691e-01 1.088035163114793417e-02
-4.858798378873822599e-01 -8.739651744881491435e-01 1.027895502618300649e-02
-5.705632245240528366e-01 -8.209560239724952302e-01 -2.210912761705275884e-02
-5.703973162145992148e-01 -8.210958091361023614e-01 -2.117956265629087828e-02
-5.898771865813023929e-01 -8.072716043892964599e-01 1.890665220652507084e-02
-6.134535410861085003e-01 -7.897196753214956733e-01 -4.193726150516271373e-03
-6.148657297931008348e-01 -7.886219817638654428e-01 -3.937537914867591908e-03
-6.058272719052627542e-01 -7.955579113950632664e-01 -7.805525770341019930e-03
-6.004221646981028337e-01 -7.993523769845858329e-01 2.300003365947419706e-02
-6.442518317130118133e-01 -7.645212164004757671e-01 -2.113970217306550617e-02
-6.480086453436257887e-01 -7.610740074114703546e-01 2.917448889978884949e-02
-6.757879700555862179e-01 -7.370443105551310881e-01 -8.735205003985571648e-03
-6.852211652361449579e-01 -7.282407637128260891e-01 1.171941890110644001e-02
-6.978407228071674684e-01 -7.162529758785980416e-01 -1.170566411065667758e-05
-7.124176380830972155e-01 -7.014956837187279470e-01 1.910273991068644345e-02
-7.497215707818529751e-01 -6.617437228073144162e-01 3.579333668066062187e-03
-7.314496615857565276e-01 -6.818409361048748396e-01 8.621509015846273369e-03
-7.510872185995455252e-01 -6.601838934856129049e-01 5.021637041367844716e-03
-7.490202431560943896e-01 -6.625045197530430308e-01 7.512432973071202051e-03
-7.708710220841504812e-01 -6.368216861307618437e-01 -1.469718968070245040e-02
-7.108863760903680884e-01 -7.031482351322227986e-01 1.493719249203386348e-02
-7.336374920134742794e-01 -6.793511699856736863e-01 -1.606294341880761326e-02
-8.066477428271510153e-01 -5.910090711724167445e-01 -5.262773392396708980e-03
-7.879785042806565221e-01 -6.152259642257110750e-01 2.422580719323013179e-02
-8.174047612351365011e-01 -5.758824619696724101e-01 1.445151569484838527e-02
-8.081974303491507028e-01 -5.888756282647967799e-01 6.512143485114568059e-03
-8.125927333340082770e-01 -5.828313447100171851e-01 -8.205828895568807778e-04
-8.707401826605787321e-01 -4.917244735798391719e-01 -4.310032813336409606e-03
-8.790860267649805992e-01 -4.764064428193020562e-01 -1.564157238959908158e-02
-8.746667079481216245e-01 -4.845529564790709287e-01 1.290667945627143806e-02
-8.781973766890699418e-01 -4.780217218490682707e-01 -1.626656131110715622e-02
-8.764418213308440286e-01 -4.813630619439648317e-01 -1.180408481007893737e-02
-8.767458974655230053e-01 -4.807283711001101856e-01 1.472631986646143198e-02
-9.110981405139952916e-01 -4.121885015066619196e-01 -9.041999958471019999e-04
-9.001183749107433130e-01 -4.354236252716582878e-01 -1.389883820068624383e-02
-9.185369150665704252e-01 -3.950698381904912404e-01 -1.448304567855965980e-02
-9.174985176369843121e-01 -3.976048856048619018e-01 1.033562175590869124e-02
-9.467080301084263017e-01 -3.219764298656532797e-01 8.665121995147762393e-03
-9.305735229720784041e-01 -3.652960636161028396e-01 2.432497173512967667e-02
-9.459648169578306343e-01 -3.242617535754294122e-01 2.209127910620047649e-03
-9.394674414591948075e-01 -3.424722819022158471e-01 -1.066126478442158167e-02
-9.499151385022698291e-01 -3.123384832110581710e-01 -1.029084785764480467e-02
-9.386165360819337389e-01 -3.447464294006697405e-01 -1.220236079785335520e-02
-9.699230785626818951e-01 -2.432285854038894191e-01 9.438056680934329978e-03
-9.704478548400116145e-01 -2.410520515685427578e-01 1.117450092919255317e-02
-9.713902008734295324e-01 -2.374891059489874501e-01 -4.693217193743216419e-05
-9.719868722497383429e-01 -2.350351454923902128e-01 -2.361232410768593443e-05
-9.665131800917370342e-01 -2.562736416846050358e-01 -1.327001456925345525e-02
-9.808129539477330461e-01 -1.932265476914149793e-01 2.587374413530984726e-02
-9.792101413018222678e-01 -2.016626157782254458e-01 2.190179374273072688e-02
-9.888711171951389822e-01 -1.487378051936067147e-01 -3.313439817831559473e-03
-9.942400550468650788e-01 -1.061462052177719606e-01 1.482214755941682442e-02
-9.933947790647069676e-01 -1.133159873408071949e-01 1.806377424460594433e-02
-9.891424413823708406e-01 -1.469571298429318551e-01 9.124935345877770469e-04
-9.927844790142344999e-01 -1.185177865739795305e-01 -1.823492511746599778e-02
1.975487647155229742e-04 5.077706106944845097e-04 9.999998515717350989e-01
-1.680460585318512782e-03 3.050795702746726071e-03 9.999939343305044304e-01
3.627628965150973015e-05 2.455742826942170789e-04 9.999999691886506392e-01
-6.889617243026688190e-04 -3.091341857696435630e-05 9.999997621880232224e-01
-2.058289913181367314e-04 6.389998479775677606e-05 9.999999767756088120e-01
2.848403776097875313e-04 5.691182483390257299e-05 9.999999578135009282e-01
-1.323670466729267962e-04 -6.372377992183098842e-05 9.999999892091223641e-01
-1.696267574118820586e-05 -3.888203328126365070e-04 9.999999242655054355e-01
-3.797916254881608553e-05 1.107443253978292554e-04 9.999999931466386771e-01
-7.860888937280149610e-05 7.441774061535462339e-05 9.999999941413211246e-01
-1.759055318617477762e-04 -1.008474043505170909e-03 9.999994760185364484e-01
-1.589672570465352049e-05 -5.079463227822663746e-05 9.999999985835996696e-01
-4.719825427283836462e-05 2.051147094904895809e-04 9.999999778501400538e-01
-9.337788226876757585e-05 -5.452521309849907337e-04 9.999998469903306209e-01
-2.214121406242598364e-04 5.147910608934231280e-04 9.999998429834014990e-01
3.445380378917376266e-03 2.033949056307886912e-03 9.999919961706098537e-01
-6.480262298276458525e-04 -5.546570745394922668e-04 9.999996362087013591e-01
-1.813767878782606129e-03 -1.907871698359938620e-04 9.999983369217859686e-01
1.960014774435415530e-04 -2.253630046664873270e-05 9.999999805377678408e-01
-8.607234365846510053e-05 2.467840923561166787e-04 9.999999658445811734e-01
-1.527119720748423143e-04 -7.239715998826377159e-05 9.999999857188522911e-01
3.977130718552396185e-05 -4.333272026641351281e-05 9.999999982702590939e-01
1.450047414496208125e-04 2.049409506644218849e-04 9.999999684864153693e-01
1.047217743042228602e-04 -2.425414622987365042e-05 9.999999942225431537e-01
8.654281856761863491e-05 1.578102367629067334e-04 9.999999838031347066e-01
-1.041952027551525665e-04 9.444831383991386968e-05 9.999999901114379197e-01
4.953484129712430192e-05 1.019732412165843258e-04 9.999999935738786982e-01
-2.215335713404412339e-04 -3.962412885501000089e-05 9.999999746764022257e-01
-2.664421447460696576e-04 1.200339655057736869e-04 9.999999573002144038e-01
-1.584734168424832589e-04 -1.036455879329233623e-04 9.999999820718838972e-01
-3.160361802346799582e-05 4.359100826847525645e-05 9.999999985505175770e-01
-4.648816637263778915e-04 -8.821284015347283540e-04 9.999995028671374575e-01
3.039159381417865652e-04 7.905077165143677750e-04 9.999996413662620709e-01
-2.177501293694547992e-04 -1.297846435142000735e-04 9.999999678704131201e-01
6.374812491686443396e-04 8.359610505783721666e-05 9.999997933146527185e-01
-7.599091693617353750e-04 5.546324308210536999e-03 9.999843302895912167e-01
-4.873178912349403094e-04 -4.149238838577699168e-05 9.999998803998201291e-01
2.718300817379848137e-05 -1.050862504836553050e-03 9.999994474743874040e-01
3.002675998809615316e-04 1.468050862398844435e-04 9.999999441438159886e-01
-6.712528057962913490e-04 8.869583011495865785e-04 9.999993813621299577e-01
7.037988835367896018e-05 -7.601454477734657066e-04 9.999997086127423440e-01
3.921113662025297263e-04 1.087330381971092166e-04 9.999999172128979374e-01
5.605796039192533788e-05 -2.062897337356041653e-04 9.999999771510250657e-01
-2.494388483371877624e-04 -8.528251456846428239e-05 9.999999652535761507e-01
-5.485418208016301330e-05 8.090910263346819218e-05 9.999999952223678212e-01
-4.420332859573284149e-05 2.617409814428862686e-04 9.999999647688615489e-01
3.163364531677176784e-03 2.326921925104085374e-03 9.999922892498692706e-01
-9.456830112308041610e-04 -1.550373559413169343e-04 9.999995408234249039e-01
-6.261085368651774256e-04 -4.023790722837959914e-04 9.999997230395528680e-01
-9.336080990977650652e-05 1.751912642794831415e-04 9.999999802958898787e-01
-2.359496550711245421e-04 4.159592621963204885e-05 9.999999712987692746e-01
7.081916697984695090e-06 3.203072728809428123e-04 9.999999486765474010e-01
-3.745214771716944653e-04 6.273668071440830667e-05 9.999999278988833673e-01
-4.635421497627188292e-04 -4.528013242188656936e-04 9.999997900497960002e-01
-2.261443408409737803e-04 -5.327087442830181748e-05 9.999999730104752738e-01
1.494349490844760413e-04 -6.782904187960082137e-06 9.999999888115940205e-01
1.090364367809416738e-04 -1.731463710960459538e-04 9.999999790656945997e-01
-9.568382104234519404e-05 -9.490130534662240855e-05 9.999999909191743530e-01
-2.516041132965658126e-04 -1.605938808473649361e-04 9.999999554524867662e-01
-2.791493765383794355e-04 8.996823692647812787e-05 9.999999569906700136e-01
1.039795679828434583e-04 7.540934151846472196e-05 9.999999917508403113e-01
-4.560801492346658955e-04 6.190741261055386657e-05 9.999998940791793300e-01
-3.003636792367501756e-04 -3.490846883821960202e-05 9.999999542815283249e-01
-2.524139354546796983e-04 -5.979994277709387528e-05 9.999999663555855234e-01
-5.279234411980195454e-05 1.944275562862507066e-04 9.999999797054467399e-01
1.632155411087426403e-04 -3.001574813014444657e-05 9.999999862298708520e-01
8.605235610617283819e-05 1.532502053651266900e-04 9.999999845546831967e-01
-3.304054519870739401e-04 1.108880681810465286e-04 9.999999392680349874e-01
4.655997516078735806e-05 4.476986914961396543e-04 9.999998986990201733e-01
3.990506381700001577e-04 -6.268894476186657062e-04 9.999997238840662162e-01
-2.689041901674269841e-04 9.302775024681519630e-05 9.999999595181863210e-01
-5.162036295125329395e-04 7.034024163443695422e-05 9.999998642930224557e-01
4.150988383540277893e-05 -8.674967038305656777e-05 9.999999953757122695e-01
-1.870405636305502977e-04 2.431093028829704739e-04 9.999999529568460721e-01
-3.289578114918555391e-04 8.358369948414271584e-05 9.999999424002600223e-01
-4.427183882791587018e-04 -1.454065444318699445e-04 9.999998914286768459e-01
-1.579299779452294746e-04 1.638877281081226609e-04 9.999999740994669484e-01
0.000000000000000000e+00 -0.000000000000000000e+00 1.000000000000000000e+00
3.028269943821948755e-04 1.076618872886980793e-04 9.999999483523633881e-01
-2.141105015400604538e-05 2.032587940283557321e-04 9.999999791137145211e-01
-3.864951267017474471e-04 6.247463559660111957e-05 9.999999233592156145e-01
-9.104464901788993190e-05 2.683249046766062124e-04 9.999999598563079628e-01
2.128916584596099351e-04 -3.594334728465716568e-05 9.999999766926084277e-01
-1.719174935599099296e-04 7.605066422190227121e-05 9.999999823303357127e-01
-1.096732519818379071e-04 9.178699807810282278e-05 9.999999897734623833e-01
5.168752696159435717e-05 1.972755841900427059e-05 9.999999984696115174e-01
-9.223305491117483271e-05 -7.430155312242601919e-04 9.999997197104526503e-01
-2.186545930814133370e-04 1.092006222975746611e-04 9.999999701326961477e-01
-2.822474203014308219e-04 3.606061390915334531e-04 9.999998951497975908e-01
-3.163682098700975687e-04 -7.314825988533524195e-05 9.999999472802425515e-01
-2.108343538521625991e-04 -4.982036953862861110e-04 9.999998536709659991e-01
-2.001711490380092746e-04 2.616438098435134728e-04 9.999999457370123412e-01
-2.341308140940039431e-03 5.431894805004193125e-04 9.999971116065172749e-01
-2.282263043817252756e-04 1.041464241063028129e-04 9.999999685331376620e-01
6.378907898404607827e-05 1.308675081985181585e-04 9.999999894023243741e-01
4.295026816813320099e-05 4.410343238726951076e-05 9.999999981050808895e-01
-2.053987134764697730e-04 -8.935116196081126379e-05 9.999999749138689387e-01
7.332642121428641394e-05 -7.437698450606444809e-05 9.999999945456500283e-01
-1.627668723131227833e-04 -1.474404332487484763e-05 9.999999866447790708e-01
1.575802499706998932e-04 3.829754591210345104e-04 9.999999142491275972e-01
3.009736996220537648e-04 3.639350985680903940e-04 9.999998884830318957e-01
-1.305493448853338196e-04 1.331816310065839638e-04 9.999999826097606404e-01
-8.169989556628678377e-04 -3.411398025802834426e-04 9.999996080680940702e-01
-2.090622862233503171e-04 -3.664930653931309764e-04 9.999999109878928705e-01
-1.580716692657965620e-04 2.248134302102711046e-06 9.999999875041465369e-01
-3.607922668362787918e-04 3.749993445201834920e-05 9.999999342113454759e-01
-3.669437058563017394e-04 1.472849047523403703e-04 9.999999218297337400e-01
3.375844347933962047e-05 -9.197454037647681178e-05 9.999999952005257375e-01
5.093024311321161834e-05 -8.534073871986199919e-04 9.999996345509040152e-01
-1.517503695782165840e-04 -2.917806256371342777e-04 9.999999459179443884e-01
-1.941146731762219922e-04 5.672275431622900296e-05 9.999999795510112754e-01
-1.028966363000952811e-04 -1.500804117147448973e-04 9.999999834440760349e-01
-1.000507719057909062e-04 8.697610635250041685e-05 9.999999912124999391e-01
-4.358558069149590249e-05 2.658119464819149445e-04 9.999999637221524962e-01
-1.976765838517491021e-04 8.515409131175719201e-05 9.999999768363742048e-01
2.533656305740961644e-04 -2.065934687630344982e-04 9.999999465624965778e-01
1.873006077518320407e-04 1.197057762427343530e-05 9.999999823875935778e-01
-8.872507150142834760e-04 -1.687268288978404317e-04 9.999995921586298797e-01
3.807219896500868041e-04 1.821135274131191418e-04 9.999999109427109012e-01
-8.990123800270592778e-06 -1.032592037627095405e-04 9.999999946283572028e-01
8.488648546360308726e-05 2.143746674250920318e-04 9.999999734188929068e-01
-6.019781592062443270e-05 2.854419772667556314e-04 9.999999574495493926e-01
9.862255920939583601e-04 6.142507480497781495e-04 9.999993250273221390e-01
1.658991852031167368e-04 6.331867783481860798e-05 9.999999842341026346e-01
-1.104952540046998062e-04 -8.582868850006306898e-06 9.999999938585665271e-01
3.274734471611978810e-05 -8.921981194596484974e-05 9.999999954837182070e-01
-1.611524095429924734e-04 -7.220021986057911724e-05 9.999999844085144529e-01
-3.397240154395607782e-04 1.931609051291084374e-04 9.999999236382260959e-01
-3.713833178411275813e-04 -7.286601810595407663e-05 9.999999283824848595e-01
-4.932988308587920375e-05 2.137158654973096543e-04 9.999999759460455051e-01
-1.305156565232186221e-04 5.320501727390158437e-05 9.999999900674446662e-01
5.144274549806345746e-04 -2.161221074377559593e-05 9.999998674486441086e-01
-2.763376212932701749e-04 3.777092876515208736e-04 9.999998904866005400e-01
-1.002842563111695177e-04 1.692894634871533862e-05 9.999999948282392026e-01
-1.364421925549885750e-04 2.516823660224063743e-04 9.999999590197564681e-01
4.946732531620461754e-04 1.275818856350681679e-04 9.999998695106090407e-01
-3.744610307837039059e-04 8.246355422887869226e-05 9.999999264893466577e-01
-4.103692261711711477e-04 -1.259362306294568520e-04 9.999999078685777310e-01
-2.222162870047780586e-04 -4.971327385689708979e-05 9.999999740742557819e-01
-4.584582914898442728e-04 6.179377284778473430e-05 9.999998929987565788e-01
1.005606422834980470e-04 -9.427445192618543452e-06 9.999999948993401055e-01
-6.148956626243016880e-05 8.042684898643781110e-05 9.999999948752775758e-01
9.995911709977293546e-05 1.658263805063734471e-04 9.999999812548930889e-01
-3.402795691504485309e-04 2.793370109279090689e-06 9.999999421010041800e-01
-1.437602244569667858e-04 2.316748333474932169e-04 9.999999628298840149e-01
9.988447133742714456e-05 2.843152336264949921e-05 9.999999946073703239e-01
-3.378966773828986388e-05 3.814970336762279948e-04 9.999999266591330649e-01
-1.977001904837358346e-04 -3.948521550102170985e-05 9.999999796777759853e-01
-1.127047874583695855e-04 -1.163514309884614362e-05 9.999999935811271223e-01
-1.441055482971260755e-04 1.512900812477165318e-04 9.999999781724510095e-01
1.730714449439533012e-04 2.432714867058302156e-04 9.999999554326283180e-01
1.372304334227579016e-04 2.157539247346578588e-04 9.999999673090256280e-01
-2.576674505489773834e-05 2.655261207503785328e-04 9.999999644159763834e-01
3.773617186144919761e-05 1.852892958668719305e-04 9.999999821219289764e-01
3.158051858817592149e-06 1.327248213829399881e-04 9.999999911870741665e-01
-8.203456391876569526e-05 1.023719459931238821e-04 9.999999913951576058e-01
8.322482324009804091e-05 1.190360174066034516e-04 9.999999894520276156e-01
4.961570042436710476e-05 -1.516118665745158840e-06 9.999999987679918378e-01
2.810785057847709124e-05 4.077269662486670757e-05 9.999999987737678842e-01
-1.816441881285971302e-04 -5.483587829065033774e-05 9.999999819992074768e-01
1.116848170834051912e-05 4.212584603694841091e-04 9.999999112082832431e-01
-2.023419889832819667e-05 8.731058722957058243e-05 9.999999959837192476e-01
-7.002792683303420173e-05 7.483792442600123072e-05 9.999999947476873041e-01
-1.217372743121958187e-04 1.808313436614989204e-04 9.999999762400303416e-01
5.259929914636134402e-04 3.076513013952160620e-04 9.999998143410075979e-01
7.750858969788458912e-05 -7.310907988696226025e-05 9.999999943237404265e-01
7.093342510294335906e-05 -6.744578629160234641e-05 9.999999952097575751e-01
-3.408585190971798813e-04 7.396295014887244374e-05 9.999999391724740949e-01
-1.887006870285246529e-04 -7.125997512690210724e-05 9.999999796570331334e-01
-2.005086525303996265e-04 -8.761939462423778334e-06 9.999999798597540845e-01
1.234367212612570068e-04 -7.189019165674326902e-05 9.999999897975879737e-01
9.424635834677306384e-05 -4.952252119113123531e-04 9.999998729347986393e-01
-5.514763607713871332e-05 1.657035648195228673e-05 9.999999983420807537e-01
5.390261652819322368e-05 2.519124356802498218e-04 9.999999668173157330e-01
4.115210478747644750e-05 2.575369116567680842e-04 9.999999659906211313e-01
-4.783168018020164159e-05 2.473008659218768395e-04 9.999999682772056087e-01
-6.438872889106371099e-05 2.283624182974144945e-04 9.999999718523484571e-01
-2.264431028367205033e-04 -4.874935613596068459e-05 9.999999731735103037e-01
-1.382126900485252080e-04 -1.745770468247144133e-04 9.999999752100531270e-01
1.453862571136170252e-04 4.189801095581354080e-04 9.999999016592472367e-01
2.514101834231664736e-05 2.170152266119454172e-04 9.999999761361598738e-01
-1.370949017385971348e-04 -2.602935424667435996e-04 9.999999567261289579e-01
-1.121668178045795455e-04 8.827052468722555885e-05 9.999999898134596110e-01
4.812307186986313547e-05 2.825215550623129401e-04 -9.999999589328695260e-01
2.201652978104656907e-04 -6.349856276389754259e-04 -9.999997741602216772e-01
1.263553939920099213e-04 -4.597151084201292373e-04 -9.999998863481602829e-01
9.727209400898202229e-05 -6.614134456860912411e-04 -9.999997765351718026e-01
2.055537111065030079e-03 -1.036868933777886862e-03 -9.999973498314879139e-01
-1.179546127998139715e-03 -9.568837018344215862e-04 -9.999988465215913225e-01
9.878037166953716579e-04 1.442366474908368321e-03 -9.999984719102169572e-01
2.778488378450564363e-04 -3.589833119615889957e-04 -9.999998969654971814e-01
-1.613510425908141295e-03 4.213019997561960530e-05 -9.999986974037274878e-01
3.728085213457177621e-04 3.081257748615227323e-04 -9.999998830361498392e-01
1.393556130759246046e-04 3.524708718622138995e-04 -9.999999281721461131e-01
5.009739299530393142e-04 2.080065439328584174e-04 -9.999998528791887997e-01
3.567748979218549217e-05 3.989035374143098706e-04 -9.999999198015390167e-01
-9.774049854614455957e-04 -2.247741739012128984e-03 -9.999969961637731330e-01
7.874524612574660418e-04 1.220987626896733076e-04 -9.999996825052063221e-01
6.311304200031003970e-06 -3.446971346528198560e-04 -9.999999405720245704e-01
3.958007472590915443e-04 2.316053869909701557e-04 -9.999998948503510121e-01
1.197456244853078387e-04 2.307185179477382292e-04 -9.999999662149748891e-01
1.678042946965694151e-04 -3.795071375016253307e-04 -9.999999139080218979e-01
1.192326248878655866e-04 3.446999158912583032e-04 -9.999999334827723851e-01
5.458390680380449276e-04 5.266000361470397949e-04 -9.999997123760153706e-01
5.458390680380449276e-04 5.266000361470397949e-04 -9.999997123760153706e-01
-7.143973742214596175e-05 -5.738762030147522182e-04 -9.999998327812198440e-01
-1.395486671552784988e-03 -3.199564631947382672e-03 -9.999939076829995610e-01
-1.976989888785711004e-04 8.204659875243163478e-05 -9.999999770917324948e-01
-4.218027372708902105e-04 3.494077842033121886e-04 -9.999998499983143718e-01
-1.032654073151470460e-04 3.464412850230041258e-04 -9.999999346573437142e-01
1.341613783453953965e-04 3.069230812650472788e-04 -9.999999438994717771e-01
-3.208607079243644346e-04 8.757404565050377519e-05 -9.999999446895947441e-01
7.677235170095044305e-04 -1.174757742780204329e-03 -9.999990152719387959e-01
-3.375048636117379758e-04 2.875473942549095657e-04 -9.999999017034766347e-01
3.496608465278643095e-04 -6.884747500772671520e-05 -9.999999364986568162e-01
2.710170531911727364e-04 1.323989018557628007e-04 -9.999999545101427856e-01
1.073016891524679256e-05 4.332160536310859485e-04 -9.999999061043527426e-01
2.030683487196090306e-04 9.038804755760762133e-05 -9.999999752966228783e-01
1.688011782148357641e-04 5.233839396128114527e-06 -9.999999857393844227e-01
6.154828523550974050e-04 -3.568378321565133333e-04 -9.999997469237780212e-01
5.741552275624854510e-05 8.614397806900150317e-06 9.999999983146249383e-01
1.612672086657613321e-04 1.651116892582757650e-04 9.999999733655083878e-01
7.388066398367825155e-05 -7.405031540021587034e-05 9.999999945290990455e-01
5.715239058571784456e-06 -3.002791789185166356e-05 9.999999995328300306e-01
2.521567160459004865e-04 -4.370531426424467008e-04 9.999998727007625154e-01
-3.564524451659376226e-05 -2.393276274541750236e-04 9.999999707258512283e-01
4.052793400229081250e-05 -8.419563971202409210e-05 9.999999956342904284e-01
-1.254842548799667756e-04 1.660888233839654196e-04 9.999999783341020354e-01
3.732038099050025175e-05 -8.823791888882581735e-05 9.999999954106294497e-01
6.913967067834695518e-05 -2.401246456983530011e-04 9.999999687799298043e-01
-7.916259819379537291e-05 -3.233539605302657508e-04 9.999999445877481019e-01
7.405934737284376377e-05 -2.514035826104441874e-04 9.999999656557252425e-01
-2.154983300322980695e-04 -3.093482817313490587e-04 9.999999289320525842e-01
3.330295811877864541e-05 4.491662391866904348e-05 9.999999984367049510e-01
6.729958415064858212e-05 3.048748649394182196e-04 9.999999512610400210e-01
3.293220544160265374e-04 -1.782896418120290738e-04 9.999999298798915026e-01
8.395367184268612618e-05 -8.687663217656807057e-04 9.999996190983571065e-01
-1.473802266170366748e-04 1.610618047828643032e-03 9.999986920934311740e-01
-4.122233196355575783e-04 1.378719490348794159e-03 9.999989646017147793e-01
2.802659147366867286e-03 1.393061195354487703e-03 9.999951022291108105e-01
-1.044803280762389647e-03 1.150525061552266546e-04 9.999994475743599898e-01
2.209180037150367567e-04 4.234587772345554398e-05 9.999999747010307471e-01
1.535318877786425828e-04 2.710314660053476262e-05 9.999999878466894199e-01
-1.121277330819424323e-04 -1.710225568514915433e-04 9.999999790893279172e-01
-5.179570058864156916e-04 2.223525129183502233e-04 9.999998411399374509e-01
3.256328972093654661e-04 9.320240525537451211e-05 9.999999426382623069e-01
-1.884973832585822747e-05 -4.976989115691595161e-05 9.999999985838226024e-01
-2.829503303500789093e-04 -2.076299546489019494e-04 9.999999384144543368e-01
-4.193682682911645299e-06 -9.825542092031516403e-05 9.999999951641426188e-01
0.000000000000000000e+00 0.000000000000000000e+00 1.000000000000000000e+00
2.681459971389645394e-05 -1.615468800302220223e-04 9.999999865917912345e-01
-1.922440942508251869e-05 -1.606691629722417972e-04 9.999999869079210235e-01
2.192882190001613945e-04 -2.162617406271160681e-04 9.999999525717671034e-01
-6.586343768765210490e-04 6.678159776549814821e-04 9.999995601111920651e-01
2.220664418371904965e-05 -4.000770087103334104e-05 9.999999989531244138e-01
2.016798284771254631e-04 1.414294595850742521e-04 9.999999696614769729e-01
8.098229007012563898e-05 -2.566932311949602068e-04 9.999999637752262638e-01
1.343093203717352080e-04 -2.676640022409964754e-05 9.999999906222829527e-01
-0.000000000000000000e+00 0.000000000000000000e+00 1.000000000000000000e+00
1.024749817978124643e-04 -1.553052800409470606e-04 9.999999826895739075e-01
2.311166760207953401e-05 -1.032074988534216817e-04 9.999999944070314672e-01
6.132816397283859422e-06 -1.477974759853560506e-04 9.999999890591472207e-01
2.126338749932776709e-04 3.954598624564756174e-04 9.999998991991612129e-01
1.601064775894220317e-03 1.457746768124583035e-03 9.999976557802239263e-01
4.803172633457124946e-04 2.385415260488388397e-04 9.999998561966231270e-01
0.000000000000000000e+00 0.000000000000000000e+00 1.000000000000000000e+00
2.981010397031136783e-04 1.524208947289481381e-04 9.999999439518189037e-01
5.035184045197822810e-05 -6.384832501691632364e-06 9.999999987119629896e-01
2.576352316699295330e-04 3.317889865287474349e-05 9.999999662616235740e-01
2.759926663055007891e-06 -1.309347548505596667e-04 9.999999914242363452e-01
1.159896898621016922e-04 3.093809006539744919e-05 9.999999927946132683e-01
1.074982552403967094e-04 -7.877256367734295829e-05 9.999999911195042168e-01
-5.126661383021330386e-04 -9.327793677369198487e-06 9.999998685432027745e-01
9.560105304781896718e-05 -1.205086058091181810e-04 9.999999881690572190e-01
8.746042240175894893e-05 -1.241904677267578934e-04 9.999999884637010839e-01
1.298225157179688772e-05 -1.673501770206362700e-04 9.999999859126895707e-01
2.179450429680467244e-04 -1.114774528802269486e-04 9.999999700363673139e-01
4.441724799727429221e-05 4.675709685535092160e-05 9.999999979204409195e-01
-4.224524032248176306e-05 -4.447067034763320311e-05 9.999999981188495424e-01
-1.712126822060246087e-05 -3.216784197829305764e-04 9.999999481149268732e-01
7.597283296067171888e-06 -1.822232040433562875e-04 9.999999833684923845e-01
4.721053079764727278e-04 1.325883890463403457e-03 9.999990095737530948e-01
2.929563280901181552e-05 -8.272264124162415631e-05 9.999999961493653000e-01
5.845196871118758656e-05 9.705919262427452950e-06 9.999999982445811897e-01
-1.561960847364493501e-04 -5.731826750484331152e-05 9.999999861586996719e-01
-1.323315970422792400e-04 3.538512140840791156e-05 9.999999906181207265e-01
0.000000000000000000e+00 0.000000000000000000e+00 1.000000000000000000e+00
2.379365391002005904e-05 -2.148454332012877965e-04 9.999999766376506116e-01
2.950868407388185840e-04 -8.382290456213552048e-05 9.999999529487373362e-01
-1.881220383582135364e-04 3.351638733029091845e-04 9.999999261376355530e-01
-1.377695126990116788e-04 -3.436784473612205354e-04 9.999999314523406735e-01
4.036182509701387381e-05 -1.854941833797350316e-04 9.999999819814153756e-01
1.697257470353559028e-04 -1.564724990565588027e-04 9.999999733547636493e-01
0.000000000000000000e+00 0.000000000000000000e+00 1.000000000000000000e+00
-4.263596283752991431e-05 1.001148367048739483e-04 9.999999940795970543e-01
-1.295556521336683304e-04 -9.805447698366036671e-05 9.999999868003260906e-01
8.867691089529604299e-05 -2.634966850412519612e-05 9.999999957210501389e-01
-2.471740930180908888e-06 -1.166402702541642568e-04 9.999999931944688614e-01
1.632036166702372838e-04 -5.847153712611964020e-05 9.999999849728293810e-01
1.025091792504435497e-05 -1.406123825747505808e-04 9.999999900615382797e-01
1.998595297481458273e-05 -1.973856401675530092e-04 9.999999803197352488e-01
2.156820368308577600e-05 -1.416332192196297849e-04 9.999999897374218794e-01
-3.752549218633973341e-06 -1.592247851010170404e-04 9.999999873166930398e-01
5.205283444805316185e-06 -9.402312742648616937e-05 9.999999955662782769e-01
1.242929483183083698e-04 1.229351516664211360e-04 9.999999847191056723e-01
4.167579883412060712e-05 -1.509090804611730311e-04 9.999999877447885988e-01
-2.977678419203801772e-05 -2.110615628598605715e-04 9.999999772831796863e-01
6.832632703885638343e-06 -5.427207283594589761e-05 9.999999985039286221e-01
-7.453431041115612596e-04 -1.042871017498217838e-03 9.999991784415115381e-01
1.582697893201047456e-04 -7.233017288213347508e-05 9.999999848595099161e-01
4.802626620802783418e-05 -8.871396481785816409e-05 9.999999949116550324e-01
-1.258195038808175732e-04 -2.253559232086666865e-04 9.999999666920796892e-01
-1.021683453613096239e-05 -1.516039306078597530e-04 9.999999884559321872e-01
-2.354300286254265063e-04 4.847773031106293666e-05 9.999999711113052303e-01
-2.683040911027161893e-05 -4.206289915187879166e-05 9.999999987554208936e-01
5.581927239131820963e-05 -2.141427869946888019e-05 9.999999982128188192e-01
4.639710989224331858e-05 -9.585076880425451014e-05 9.999999943299691108e-01
8.892936490184467717e-05 3.402499825565664243e-05 9.999999954669337443e-01
-2.391927369101915418e-05 -2.069674117353493864e-04 9.999999782961791484e-01
3.636016807380025654e-05 -1.774867307441331738e-04 9.999999835881991928e-01
-1.446062096859589183e-05 -1.142357925618523628e-04 9.999999933705370214e-01
9.320769708810756470e-05 -1.096269424995571968e-04 9.999999896471292171e-01
-3.182111222633291468e-05 -4.962410534270917653e-05 9.999999982624324657e-01
3.068535722297535695e-05 -1.003318166829641469e-04 9.999999944959676590e-01
7.826891136042593144e-05 6.812984238175321706e-05 9.999999946161511888e-01
-4.942861534318269610e-07 -1.257321010357703890e-04 9.999999920955972010e-01
8.093292635770498508e-05 -1.402715171683507867e-04 9.999999868868812980e-01
4.516455787095338155e-05 -1.052101883259683358e-04 9.999999934454895101e-01
-5.476413426546902227e-05 -3.128347809069365612e-04 9.999999495676435979e-01
9.583798036969236626e-05 -1.902884693709129844e-05 9.999999952264922998e-01
5.451315528005945885e-05 -1.238420079244332292e-04 9.999999908457363196e-01
7.807059327408121864e-05 -1.599038987723244178e-04 9.999999841678627321e-01
1.112656894351611548e-04 -2.902726056612870754e-04 9.999999516808792954e-01
-4.453141917991933614e-05 1.319026013261398576e-05 9.999999989214848339e-01
-5.784852859844360042e-05 -1.095522992494243371e-04 9.999999923259207391e-01
7.464805901812879773e-05 -1.112639192055987986e-04 9.999999910240037204e-01
2.143329860558777243e-05 -2.764343834281808511e-04 9.999999615623220706e-01
5.094279187289148578e-05 -1.983337604713485451e-04 9.999999790342755102e-01
-8.838155476880178397e-07 -2.041732732140913095e-04 9.999999791562464990e-01
6.509614649010931036e-05 -1.364904608951926870e-04 9.999999885664228039e-01
1.098117664800921876e-04 -1.092793390496769331e-04 9.999999879997009122e-01
3.492702195125782077e-05 -1.573334760690445438e-04 9.999999870131401902e-01
3.526353975558585955e-05 -1.565443060186247988e-04 9.999999871251814554e-01
-3.173852206335673509e-06 -1.545328740008531667e-04 9.999999880547586484e-01
1.772074657704032161e-05 -2.878981587263540823e-04 9.999999584003117503e-01
8.922449685267883946e-07 -8.957426649794581527e-05 9.999999959878274058e-01
-5.483000015093567590e-05 -1.145137405764992336e-04 9.999999919401371118e-01
4.416914603189786776e-05 -1.109728462351633851e-04 9.999999928670568750e-01
3.011577188644254212e-05 -1.142636378158261962e-04 9.999999930184307884e-01
-4.383890602918351842e-05 -2.000792092573101304e-06 9.999999990370737057e-01
-2.691132078663346829e-04 3.640486379207582180e-04 9.999998975233300724e-01
2.693311395167534360e-05 -1.286422464214054089e-04 9.999999913628899728e-01
1.062409429112617915e-04 -1.199721730292508624e-04 9.999999871597697876e-01
3.850155366114401371e-05 -1.788110631381477247e-04 9.999999832721169213e-01
1.716897958239545016e-05 -2.014551861251362875e-04 9.999999795605168940e-01
1.083526570379140749e-04 -9.343745922330800094e-05 9.999999897645713842e-01
9.230869537509117889e-05 -1.542433888001713187e-04 9.999999838440407629e-01
9.482302908932698600e-05 -8.080550981142443640e-05 9.999999922395313989e-01
-8.195402155868783701e-06 -1.920132612124747387e-04 9.999999815318713070e-01
-9.424700000413280664e-06 -1.391408131639776944e-04 9.999999902755044578e-01
6.626027855328654899e-05 -1.203546836695450418e-04 9.999999905621627105e-01
5.453990780697272919e-05 -2.061248891251370348e-04 9.999999772689639466e-01
2.159907487911671314e-06 -2.816679885513861340e-04 9.999999603292387684e-01
-1.551609090381499150e-05 -1.878546057510644828e-04 9.999999822349489031e-01
-5.768856295439447796e-06 -8.748198341197847589e-05 9.999999961568114548e-01
4.827224699197644683e-05 -6.132960886320042604e-05 9.999999969542345823e-01
-1.421674572898959415e-05 -1.737049262945954999e-04 9.999999848122411716e-01
6.037019810716040614e-06 -1.694725981975183412e-04 9.999999856212962168e-01
-1.330085807381815866e-03 -2.470113971436111258e-04 -9.999990849281386041e-01
-4.632196693433817845e-04 -3.030232513694424887e-04 -9.999998468022118780e-01
9.289330291736051055e-04 2.003695586890150409e-03 -9.999975611407371234e-01
-8.447254133167436240e-04 -4.541265006933480107e-04 -9.999995401039429854e-01
1.350383547297069294e-04 5.141034688406178254e-05 -9.999999895608094880e-01
1.153257664436018121e-03 4.890768882700099844e-03 -9.999873751085538442e-01
1.019268148187376825e-04 8.905141806520834537e-05 -9.999999908403846005e-01
1.375292969208865635e-04 1.308783399533632337e-06 -9.999999905419897361e-01
-4.490457519611988960e-05 1.085962798435413483e-03 -9.999994093340153212e-01
-3.690451720636308414e-04 9.457604221621610213e-05 -9.999999274305141350e-01
2.327281103788060286e-04 -1.902911069032879710e-05 -9.999999727377593128e-01
3.582696129010987237e-04 -8.266387106659879266e-05 -9.999999324047821325e-01
-2.730199148904966368e-04 -5.384259830430517283e-04 -9.999998177787768894e-01
-8.038114306872607903e-04 -5.803692935515134595e-04 -9.999995085292127106e-01
7.735757590983025327e-05 -6.425268595038372780e-04 -9.999997905874982163e-01
1.943237138631305168e-04 4.007877857749727007e-04 -9.999999008037175896e-01
3.477312257423622439e-04 -8.632465342403359925e-05 -9.999999358155224893e-01
1.638528965992321984e-04 -7.311816080923800980e-05 -9.999999839029812820e-01
1.107539657788841946e-04 4.433835073302874199e-05 -9.999999928838348984e-01
2.542323129669160696e-04 -7.572386741897713417e-05 -9.999999648159129118e-01
1.421338774333762980e-04 1.190031705339893132e-04 -9.999999828181029837e-01
4.536750210720819548e-05 6.707457675821739990e-05 -9.999999967213953900e-01
0.000000000000000000e+00 0.000000000000000000e+00 -1.000000000000000000e+00
-3.675644584510545914e-04 7.241789915587117836e-04 -9.999996702305241625e-01
5.821052387906156152e-04 -1.605105863571592174e-04 -9.999998176949047579e-01
8.252939157311981735e-05 -1.399485885952078744e-04 -9.999999868016459237e-01
1.386942788721001654e-03 -6.054729801652887966e-04 -9.999988548954298340e-01
4.518899163614060500e-04 -3.853587814436498934e-04 -9.999998236470409863e-01
-8.728993270880041483e-04 -1.087744269473529509e-03 -9.999990274291115089e-01
3.006326614657568808e-05 2.104090022768643228e-04 -9.999999774121257623e-01
-9.782811595445309143e-04 2.754644844682308576e-03 -9.999957274397488494e-01
-4.377478892298332629e-04 -4.539573790284969607e-04 -9.999998011497220896e-01
3.671365840499283103e-05 -1.210748887958377091e-04 -9.999999919964891459e-01
1.281000413258427350e-05 -3.479287244968923634e-05 -9.999999993126799103e-01
-1.579656364656679122e-04 1.278427555863289916e-04 -9.999999793515436108e-01
-4.401274229454980240e-04 1.956474976930741908e-04 -9.999998840049473259e-01
8.619928820512311640e-05 8.203066545114211329e-07 -9.999999962845048662e-01
2.509392851837937257e-04 -1.748944685771180074e-04 -9.999999532206989006e-01
3.199484271959654176e-04 -4.834713898235437586e-05 -9.999999476477776650e-01
8.853093319069195140e-05 -1.416415894983239832e-04 -9.999999860499668713e-01
-1.815765048255300797e-03 -3.065183893267917504e-03 -9.999936538023579402e-01
4.363228300114072077e-04 3.578092184134511731e-04 -9.999998407974628467e-01
4.363228300114072077e-04 3.578092184134511731e-04 -9.999998407974628467e-01
8.724072466887390544e-04 3.947790372984589678e-04 -9.999995415274486321e-01
6.437419297020846067e-05 3.099485760789970947e-05 -9.999999974476410092e-01
7.424078551191388509e-04 1.263493774911167867e-03 -9.999989262064521434e-01
2.335839975021256206e-04 -8.719806274551506994e-05 -9.999999689175065321e-01
1.157488830459081142e-04 3.772560586579502904e-05 -9.999999925894873520e-01
0.000000000000000000e+00 0.000000000000000000e+00 -1.000000000000000000e+00
0.000000000000000000e+00 -0.000000000000000000e+00 -1.000000000000000000e+00
0.000000000000000000e+00 0.000000000000000000e+00 -1.000000000000000000e+00
0.000000000000000000e+00 0.000000000000000000e+00 -1.000000000000000000e+00
0.000000000000000000e+00 0.000000000000000000e+00 -1.000000000000000000e+00
0.000000000000000000e+00 0.000000000000000000e+00 -1.000000000000000000e+00
0.000000000000000000e+00 0.000000000000000000e+00 -1.000000000000000000e+00
0.000000000000000000e+00 0.000000000000000000e+00 -1.000000000000000000e+00
0.000000000000000000e+00 0.000000000000000000e+00 -1.000000000000000000e+00
0.000000000000000000e+00 -0.000000000000000000e+00 -1.000000000000000000e+00
0.000000000000000000e+00 0.000000000000000000e+00 -1.000000000000000000e+00
0.000000000000000000e+00 0.000000000000000000e+00 -1.000000000000000000e+00
0.000000000000000000e+00 -0.000000000000000000e+00 -1.000000000000000000e+00
1.030265869688927607e-04 -1.262548959244027249e-05 9.999999946130596618e-01
-2.279679069805641063e-05 5.565281067932599805e-05 9.999999981915355107e-01
1.990681493983001264e-04 -5.577065715964571403e-05 9.999999786307526284e-01
0.000000000000000000e+00 0.000000000000000000e+00 -1.000000000000000000e+00
0.000000000000000000e+00 -0.000000000000000000e+00 -1.000000000000000000e+00
0.000000000000000000e+00 0.000000000000000000e+00 1.000000000000000000e+00
-0.000000000000000000e+00 0.000000000000000000e+00 1.000000000000000000e+00
0.000000000000000000e+00 0.000000000000000000e+00 1.000000000000000000e+00
0.000000000000000000e+00 0.000000000000000000e+00 1.000000000000000000e+00
-2.755765698721688553e-04 -2.617324352099235809e-04 9.999999277768406580e-01
0.000000000000000000e+00 0.000000000000000000e+00 1.000000000000000000e+00
-0.000000000000000000e+00 0.000000000000000000e+00 1.000000000000000000e+00
0.000000000000000000e+00 -0.000000000000000000e+00 1.000000000000000000e+00
0.000000000000000000e+00 0.000000000000000000e+00 1.000000000000000000e+00
0.000000000000000000e+00 0.000000000000000000e+00 1.000000000000000000e+00
0.000000000000000000e+00 0.000000000000000000e+00 1.000000000000000000e+00
0.000000000000000000e+00 0.000000000000000000e+00 1.000000000000000000e+00
0.000000000000000000e+00 0.000000000000000000e+00 1.000000000000000000e+00
0.000000000000000000e+00 -0.000000000000000000e+00 1.000000000000000000e+00
0.000000000000000000e+00 0.000000000000000000e+00 1.000000000000000000e+00
-0.000000000000000000e+00 0.000000000000000000e+00 1.000000000000000000e+00
0.000000000000000000e+00 0.000000000000000000e+00 1.000000000000000000e+00
0.000000000000000000e+00 0.000000000000000000e+00 1.000000000000000000e+00
0.000000000000000000e+00 0.000000000000000000e+00 1.000000000000000000e+00
0.000000000000000000e+00 0.000000000000000000e+00 1.000000000000000000e+00
0.000000000000000000e+00 -0.000000000000000000e+00 1.000000000000000000e+00
0.000000000000000000e+00 -0.000000000000000000e+00 1.000000000000000000e+00
0.000000000000000000e+00 0.000000000000000000e+00 1.000000000000000000e+00
0.000000000000000000e+00 -0.000000000000000000e+00 1.000000000000000000e+00
-0.000000000000000000e+00 0.000000000000000000e+00 1.000000000000000000e+00
0.000000000000000000e+00 -0.000000000000000000e+00 1.000000000000000000e+00
0.000000000000000000e+00 0.000000000000000000e+00 1.000000000000000000e+00
0.000000000000000000e+00 0.000000000000000000e+00 1.000000000000000000e+00
0.000000000000000000e+00 0.000000000000000000e+00 1.000000000000000000e+00
0.000000000000000000e+00 -0.000000000000000000e+00 1.000000000000000000e+00
0.000000000000000000e+00 0.000000000000000000e+00 1.000000000000000000e+00
0.000000000000000000e+00 -0.000000000000000000e+00 1.000000000000000000e+00
0.000000000000000000e+00 0.000000000000000000e+00 1.000000000000000000e+00
0.000000000000000000e+00 0.000000000000000000e+00 1.000000000000000000e+00
0.000000000000000000e+00 0.000000000000000000e+00 1.000000000000000000e+00
0.000000000000000000e+00 0.000000000000000000e+00 1.000000000000000000e+00
0.000000000000000000e+00 0.000000000000000000e+00 1.000000000000000000e+00
-0.000000000000000000e+00 0.000000000000000000e+00 1.000000000000000000e+00
0.000000000000000000e+00 0.000000000000000000e+00 1.000000000000000000e+00
-0.000000000000000000e+00 0.000000000000000000e+00 1.000000000000000000e+00
0.000000000000000000e+00 0.000000000000000000e+00 1.000000000000000000e+00
0.000000000000000000e+00 -0.000000000000000000e+00 1.000000000000000000e+00
-0.000000000000000000e+00 0.000000000000000000e+00 1.000000000000000000e+00
0.000000000000000000e+00 -0.000000000000000000e+00 1.000000000000000000e+00
-0.000000000000000000e+00 0.000000000000000000e+00 1.000000000000000000e+00
0.000000000000000000e+00 -0.000000000000000000e+00 1.000000000000000000e+00
-0.000000000000000000e+00 0.000000000000000000e+00 1.000000000000000000e+00
0.000000000000000000e+00 0.000000000000000000e+00 1.000000000000000000e+00
0.000000000000000000e+00 0.000000000000000000e+00 1.000000000000000000e+00
0.000000000000000000e+00 0.000000000000000000e+00 1.000000000000000000e+00
0.000000000000000000e+00 0.000000000000000000e+00 1.000000000000000000e+00
0.000000000000000000e+00 0.000000000000000000e+00 1.000000000000000000e+00
0.000000000000000000e+00 -0.000000000000000000e+00 1.000000000000000000e+00
-0.000000000000000000e+00 0.000000000000000000e+00 1.000000000000000000e+00
0.000000000000000000e+00 0.000000000000000000e+00 1.000000000000000000e+00
0.000000000000000000e+00 0.000000000000000000e+00 1.000000000000000000e+00
-0.000000000000000000e+00 0.000000000000000000e+00 1.000000000000000000e+00
0.000000000000000000e+00 0.000000000000000000e+00 1.000000000000000000e+00
-0.000000000000000000e+00 0.000000000000000000e+00 1.000000000000000000e+00
-0.000000000000000000e+00 0.000000000000000000e+00 1.000000000000000000e+00
0.000000000000000000e+00 0.000000000000000000e+00 1.000000000000000000e+00
0.000000000000000000e+00 0.000000000000000000e+00 1.000000000000000000e+00
-2.652751558183622654e-04 6.391370379288613488e-05 9.999999627720643769e-01
0.000000000000000000e+00 0.000000000000000000e+00 1.000000000000000000e+00
-0.000000000000000000e+00 0.000000000000000000e+00 1.000000000000000000e+00
0.000000000000000000e+00 0.000000000000000000e+00 1.000000000000000000e+00
-0.000000000000000000e+00 0.000000000000000000e+00 1.000000000000000000e+00
-1.732576572752196143e-04 2.471680058549414731e-05 9.999999846854319419e-01
0.000000000000000000e+00 0.000000000000000000e+00 1.000000000000000000e+00
-0.000000000000000000e+00 0.000000000000000000e+00 1.000000000000000000e+00
0.000000000000000000e+00 0.000000000000000000e+00 1.000000000000000000e+00
0.000000000000000000e+00 0.000000000000000000e+00 1.000000000000000000e+00
0.000000000000000000e+00 0.000000000000000000e+00 1.000000000000000000e+00
0.000000000000000000e+00 0.000000000000000000e+00 1.000000000000000000e+00
0.000000000000000000e+00 0.000000000000000000e+00 1.000000000000000000e+00
0.000000000000000000e+00 -0.000000000000000000e+00 1.000000000000000000e+00
0.000000000000000000e+00 -0.000000000000000000e+00 1.000000000000000000e+00
0.000000000000000000e+00 0.000000000000000000e+00 1.000000000000000000e+00
0.000000000000000000e+00 0.000000000000000000e+00 1.000000000000000000e+00
0.000000000000000000e+00 0.000000000000000000e+00 1.000000000000000000e+00
3.160322583090079715e-04 -4.825041949788100347e-04 9.999998336566429114e-01
-2.716504118810417678e-04 2.445875008792167864e-04 9.999999331915018219e-01
-9.521339623725402464e-05 -4.768430136502767926e-05 9.999999943303082839e-01
0.000000000000000000e+00 0.000000000000000000e+00 1.000000000000000000e+00
-1.411330018627149710e-04 6.462404417883299242e-05 9.999999879526042523e-01
7.049812857373589361e-04 -2.735192796618670231e-04 9.999997140942543661e-01
-0.000000000000000000e+00 0.000000000000000000e+00 1.000000000000000000e+00
0.000000000000000000e+00 0.000000000000000000e+00 1.000000000000000000e+00
0.000000000000000000e+00 -0.000000000000000000e+00 1.000000000000000000e+00
0.000000000000000000e+00 -0.000000000000000000e+00 -1.000000000000000000e+00
0.000000000000000000e+00 0.000000000000000000e+00 -1.000000000000000000e+00
0.000000000000000000e+00 0.000000000000000000e+00 -1.000000000000000000e+00
-0.000000000000000000e+00 0.000000000000000000e+00 -1.000000000000000000e+00
0.000000000000000000e+00 0.000000000000000000e+00 -1.000000000000000000e+00
0.000000000000000000e+00 0.000000000000000000e+00 -1.000000000000000000e+00
0.000000000000000000e+00 0.000000000000000000e+00 -1.000000000000000000e+00
-0.000000000000000000e+00 0.000000000000000000e+00 -1.000000000000000000e+00
-0.000000000000000000e+00 0.000000000000000000e+00 -1.000000000000000000e+00
0.000000000000000000e+00 0.000000000000000000e+00 -1.000000000000000000e+00
-0.000000000000000000e+00 0.000000000000000000e+00 -1.000000000000000000e+00
0.000000000000000000e+00 0.000000000000000000e+00 -1.000000000000000000e+00
0.000000000000000000e+00 0.000000000000000000e+00 -1.000000000000000000e+00
0.000000000000000000e+00 0.000000000000000000e+00 -1.000000000000000000e+00
-0.000000000000000000e+00 0.000000000000000000e+00 -1.000000000000000000e+00
0.000000000000000000e+00 0.000000000000000000e+00 -1.000000000000000000e+00
0.000000000000000000e+00 0.000000000000000000e+00 -1.000000000000000000e+00
-0.000000000000000000e+00 0.000000000000000000e+00 -1.000000000000000000e+00
-0.000000000000000000e+00 0.000000000000000000e+00 -1.000000000000000000e+00
0.000000000000000000e+00 0.000000000000000000e+00 -1.000000000000000000e+00
0.000000000000000000e+00 0.000000000000000000e+00 -1.000000000000000000e+00
-0.000000000000000000e+00 0.000000000000000000e+00 -1.000000000000000000e+00
0.000000000000000000e+00 0.000000000000000000e+00 -1.000000000000000000e+00
0.000000000000000000e+00 -0.000000000000000000e+00 -1.000000000000000000e+00
0.000000000000000000e+00 0.000000000000000000e+00 -1.000000000000000000e+00
0.000000000000000000e+00 0.000000000000000000e+00 -1.000000000000000000e+00
0.000000000000000000e+00 0.000000000000000000e+00 -1.000000000000000000e+00
0.000000000000000000e+00 -0.000000000000000000e+00 -1.000000000000000000e+00
-0.000000000000000000e+00 0.000000000000000000e+00 -1.000000000000000000e+00
0.000000000000000000e+00 0.000000000000000000e+00 -1.000000000000000000e+00
-0.000000000000000000e+00 0.000000000000000000e+00 -1.000000000000000000e+00
0.000000000000000000e+00 -0.000000000000000000e+00 -1.000000000000000000e+00
0.000000000000000000e+00 0.000000000000000000e+00 -1.000000000000000000e+00
0.000000000000000000e+00 0.000000000000000000e+00 -1.000000000000000000e+00
0.000000000000000000e+00 0.000000000000000000e+00 -1.000000000000000000e+00
0.000000000000000000e+00 0.000000000000000000e+00 -1.000000000000000000e+00
0.000000000000000000e+00 0.000000000000000000e+00 -1.000000000000000000e+00
0.000000000000000000e+00 0.000000000000000000e+00 -1.000000000000000000e+00
0.000000000000000000e+00 0.000000000000000000e+00 -1.000000000000000000e+00
0.000000000000000000e+00 0.000000000000000000e+00 -1.000000000000000000e+00
