-8.978700076593073565e-01 -1.290555536126866409e-01 4.209205547696598937e-01
-8.978700076593073565e-01 -1.290555536126866409e-01 4.209205547696598937e-01
-9.411863922487870848e-01 -1.136981820617907202e-01 3.181837494932075461e-01
-9.411863922487870848e-01 -1.136981820617907202e-01 3.181837494932075461e-01
-9.334334631997803777e-01 -1.044455962801554977e-01 3.432099753744737858e-01
-9.334334631997803777e-01 -1.044455962801554977e-01 3.432099753744737858e-01
-8.982624990662081421e-01 -1.227177347765355531e-01 4.219772983735572969e-01
-8.982624990662081421e-01 -1.227177347765355531e-01 4.219772983735572969e-01
-8.848893333209235657e-01 -1.073207797565416677e-01 4.532693658381287682e-01
-8.848893333209235657e-01 -1.073207797565416677e-01 4.532693658381287682e-01
-8.849972822554530438e-01 -1.017923016882804621e-01 4.543326289377242477e-01
-8.899353502094068391e-01 -1.085468870469119412e-01 4.429815411053661944e-01
-8.899353502094068391e-01 -1.085468870469119412e-01 4.429815411053661944e-01
-9.244493860658063999e-01 -7.661593535594771187e-02 3.735282198871818227e-01
-9.383607649530883998e-01 -1.012823949426157749e-01 3.304859320324283201e-01
-8.898442241664176189e-01 -1.169868584367706188e-01 4.410117137568584367e-01
-8.898442241664176189e-01 -1.169868584367706188e-01 4.410117137568584367e-01
-8.709606532802129930e-01 5.382235727680659970e-02 -4.883960424643842280e-01
-9.854120387006822801e-01 -1.248001069192020834e-01 -1.157067296950385765e-01
-9.712794588297419818e-01 -1.669374775296080249e-01 -1.695526214821087285e-01
-9.796195712888821072e-01 -1.140036136577007031e-01 -1.653743378543739984e-01
-8.907487007376647670e-01 5.219533352678382143e-02 -4.514890910002031243e-01
-8.882329032816428382e-01 8.257246106644874906e-02 -4.519116044109662833e-01
-9.958333076194988420e-01 -8.693705419790580258e-02 2.753129206918519811e-02
-9.958333076194988420e-01 -8.693705419790580258e-02 2.753129206918519811e-02
-9.057946224187757300e-01 3.254272626280385605e-02 -4.224654695529701520e-01
-9.057946224187757300e-01 3.254272626280385605e-02 -4.224654695529701520e-01
-9.963130607980480447e-01 -6.296658060269481882e-02 5.827087274470371669e-02
-9.963130607980480447e-01 -6.296658060269481882e-02 5.827087274470371669e-02
-9.121711296597041496e-01 -1.547239991221532537e-02 -4.095173196047949271e-01
-9.959221292067315101e-01 -6.691886514701829436e-02 6.050601659145747602e-02
-9.961341585834001533e-01 -6.241458556808685693e-02 6.181551271085101995e-02
-9.175764688668954783e-01 -5.044783782381245807e-02 -3.943455837722306678e-01
-9.302844344578767855e-01 -3.815872287252789624e-02 -3.648489863959144541e-01
-9.302844344578767855e-01 -3.815872287252789624e-02 -3.648489863959144541e-01
-9.955380504133751751e-01 -5.663678648133313454e-02 7.547360198244035256e-02
-9.685717408573722986e-01 -3.974256445918975672e-02 -2.455388184844233823e-01
-9.685717408573722986e-01 -3.974256445918975672e-02 -2.455388184844233823e-01
-9.941477283899669004e-01 -5.538484540265797840e-02 9.275135059282156591e-02
-9.940666963714782645e-01 -4.952739756104965196e-02 9.684234639828225022e-02
-9.500315764327638135e-01 -1.261664339214347008e-01 -2.855206380145327572e-01
-9.841095415643620337e-01 -1.723909852183306279e-01 -4.254125547553084391e-02
-9.320928580801299823e-01 -1.955063527787007649e-01 -3.049264992406937047e-01
-8.684382486186879024e-01 -3.848318591137321887e-01 -3.126011013211161260e-01
-9.838520789181299797e-01 -1.518959668224467430e-01 -9.467154837408987833e-02
-9.776199546279292774e-01 -1.850948777840071835e-01 9.999555255814657206e-02
-9.776199546279292774e-01 -1.850948777840071835e-01 9.999555255814657206e-02
3.196919494870367195e-01 -6.574067574364875766e-01 -6.823587126358257038e-01
-8.215350208526503994e-01 4.504112865948773359e-01 -3.495853006357429460e-01
-2.466818132660688334e-01 -1.747195438773432863e-01 -9.532162210071004615e-01
7.052365063536347733e-02 -1.060055647273724366e-01 -9.918614998818594541e-01
7.052365063536347733e-02 -1.060055647273724366e-01 -9.918614998818594541e-01
-1.949609400848501817e-01 -1.529670415669355243e-01 -9.688092258207964269e-01
6.985452117443528841e-02 -1.004684480315288925e-01 -9.924849806529196794e-01
-1.733017973245936927e-01 -1.354599534411054795e-01 -9.755086304373727923e-01
1.063568255058205125e-01 -8.401372179412552876e-02 -9.907723856762579162e-01
-1.529271763085039149e-01 -1.685799812562404076e-01 -9.737525705567884327e-01
3.327822255669916074e-01 -7.433456435853762201e-02 -9.400693394044431495e-01
8.738230371926842821e-01 1.587317074350367840e-01 -4.596058580197934229e-01
3.219039517128323702e-01 -1.692561557676941497e-02 -9.466210273435773370e-01
5.030643114312571829e-01 4.797137787675368609e-02 -8.629165924171354751e-01
2.627156099443994641e-01 -5.810694637603031759e-02 -9.631220540899243510e-01
6.816966115763707368e-01 1.420535894443832603e-01 -7.177119948079878631e-01
6.798630374997958192e-01 1.414666051965223215e-01 -7.195647641843800901e-01
6.868747969178792268e-01 1.503219701370525074e-01 -7.110599965214872142e-01
8.741945006961766573e-01 2.589248502634594606e-01 -4.107820551930278508e-01
5.774442638661478888e-01 3.794382204571095790e-02 -8.155479069292288496e-01
6.906861264035387693e-01 3.824347716186555363e-02 -7.221427222151066694e-01
6.521313935062313938e-01 3.408660480579265434e-02 -7.573392561966100223e-01
4.471365962466172239e-01 -3.386122212536314680e-02 -8.938245252470791158e-01
3.545278244829026537e-01 -6.372967314220023827e-02 -9.328711328091402466e-01
5.910160282257804765e-01 -4.126642903520383876e-01 -6.931148807005027557e-01
3.530152630070246822e-01 -4.166019508498115531e-01 -8.377487920804257415e-01
3.659264970772412306e-01 -2.971963110928497742e-01 -8.819139138314928683e-01
6.256153367412053967e-01 1.001703856310905139e-01 -7.736739263260116184e-01
3.421779669871597429e-01 -2.605005501831942141e-02 -9.392739927955403578e-01
6.172898234036743315e-01 2.654655998754554824e-01 -7.405952262910051598e-01
3.412036219909330703e-01 2.902724013101690703e-01 -8.940481090958677379e-01
3.195132269034490213e-01 3.101381809666163836e-01 -8.953913147559917629e-01
3.115258981854434617e-01 2.955286367532060643e-01 -9.031137467775275374e-01
6.290152917618886397e-01 -1.245652741781546891e-01 -7.673481968432761535e-01
3.131420914484080997e-01 -4.907281884930242422e-02 -9.484376041751509945e-01
2.697323820521871918e-01 -6.861192486296871507e-02 -9.604878166010495377e-01
2.716460674709455514e-01 -8.403038191800357715e-02 -9.587217056801650150e-01
2.352237104739438034e-01 6.324474256758039203e-01 7.380244303455806287e-01
2.376974277641011879e-01 4.016118651095628711e-01 8.844251481259159942e-01
5.870686502824399300e-01 2.363796360974864397e-01 7.742577526211631422e-01
4.413239702326219871e-01 2.223542844026641652e-01 8.693628273085380886e-01
2.450734570666562584e-01 2.234635011458415144e-01 9.433997372784456159e-01
-2.187208402882466832e-02 2.428887744613272004e-01 9.698075351227739560e-01
1.886048701185653043e-01 4.177771883623903060e-01 8.887577981945222749e-01
-6.359611090397158939e-02 4.330080448842032470e-01 8.991437970332941676e-01
1.381048103846679864e-01 4.869855756841159899e-01 8.624222344212982838e-01
-4.927336148523255716e-02 4.186936271284568134e-01 9.067898226435729958e-01
1.364433459714343155e-01 4.544880288771153132e-01 8.802407880503572146e-01
1.053039683010353750e-01 3.742578404029797134e-01 9.213262957047043678e-01
-3.906316744238609306e-01 -2.887528162551901700e-01 -8.740873560700367362e-01
-2.529831664078239714e-02 -4.054340499454366920e-01 -9.137741659294071894e-01
-2.568603226544810200e-02 -3.105878658015175930e-01 -9.501975612278307226e-01
-4.341786166077694631e-01 -1.907414203486558490e-01 -8.804014081337790953e-01
-1.234232262827128779e-01 -1.306996331438365355e-01 -9.837094658028012750e-01
-6.411910699368901512e-02 -1.297370745800796588e-01 -9.894731080720358118e-01
1.761875301214786346e-02 -1.280002825655534304e-01 -9.916176214677892009e-01
1.761875301214786346e-02 -1.280002825655534304e-01 -9.916176214677892009e-01
-3.173080787674135705e-01 -2.056874557804051207e-01 -9.257474027419773099e-01
-3.173080787674135705e-01 -2.056874557804051207e-01 -9.257474027419773099e-01
1.820583107220751992e-02 -1.392532532637058007e-01 -9.900894298852223052e-01
-2.980966040665192773e-01 -8.439573937152565763e-01 -4.459532848150802309e-01
-5.374108999293201183e-01 -7.649489632183226195e-01 -3.550247995681028446e-01
-6.465265255265790767e-01 -7.372707410811882855e-01 -1.960492441610655889e-01
-6.620103674603120547e-01 -7.494758122149490775e-01 5.317920627944640148e-03
-7.414299637822856504e-01 -6.273285950475243622e-01 2.382025244230164540e-01
-9.332813323283424278e-01 6.082637440047029831e-02 3.539577755958017713e-01
-8.970071035930384795e-01 -9.038495374845191901e-03 4.419237057513284994e-01
-7.677923077749467806e-01 -2.393353029658626396e-02 6.402516366626199718e-01
-8.591969020920461331e-01 3.943663525146104964e-01 3.259691142420591548e-01
-8.945049123930545187e-01 2.513620168052880799e-01 3.697000111066703898e-01
-7.661728337263581379e-01 5.448961323613820545e-02 6.403202877537916837e-01
-7.812135986506357765e-01 -1.233791835018427097e-01 6.119500717883296081e-01
-9.461786378217543758e-01 9.117468718489844803e-02 3.105368927301638271e-01
-9.173306188607285305e-01 -2.788102299635694115e-01 2.841995625757617883e-01
-7.600758083792232833e-01 -2.003845617508636656e-01 6.181672855535016442e-01
-9.324871642487433387e-01 -2.434586889299880930e-01 2.668249525359808194e-01
-9.196844236341726875e-01 -2.922606823957690225e-01 2.622293928037796040e-01
-7.946912264112481195e-01 -5.949421560509619844e-02 6.040912952315410367e-01
-8.580443426131711959e-01 -1.038861983243214021e-01 5.029588093544545835e-01
-9.254152575465085517e-01 -1.177003679011725534e-01 3.602127489360390511e-01
-9.329311986812115487e-01 -6.957539440978102729e-02 3.532685140512259458e-01
-9.379428909511940970e-01 -6.403500599558600154e-03 3.467306281455215244e-01
-9.947581866089781899e-01 -1.022522530994067896e-01 7.917768069956042419e-04
-9.745960701413520777e-01 -1.499652941864872691e-01 1.663517676629648057e-01
-9.762954594067966285e-01 -1.389787283283794306e-01 1.659279633271582288e-01
-9.817627472617841411e-01 -6.390399885419767445e-02 1.790480019978914206e-01
-9.973374264576960746e-01 1.412454826559149043e-02 7.154407678510277258e-02
-9.890152519463123459e-01 1.301643150782148262e-01 7.004343293836769180e-02
-9.736503771963590514e-01 8.545978805025040981e-02 2.114274523608365985e-01
-9.873600854822810469e-01 1.136617637744220671e-01 1.104584313310223720e-01
-7.844314722927077099e-01 -5.952098711520541208e-02 6.173528305349595957e-01
-7.886658040245132506e-01 2.537082688194283037e-02 6.142984378180482707e-01
-8.966806395806605767e-01 -2.586330259317190863e-02 4.419218484983422068e-01
-8.587023718063293565e-01 4.149818249935746661e-02 5.107916772065050903e-01
-8.998752981317351685e-01 3.314770137548028739e-02 4.348858214587396076e-01
-9.972442017224224520e-01 -6.924300800242974563e-02 -2.663471369817267329e-02
-9.573612192245558594e-01 5.969027187908684806e-02 2.826598085470811705e-01
-9.979430832140812058e-01 -5.658363736457894949e-02 -3.013129017761242631e-02
-9.979430832140812058e-01 -5.658363736457894949e-02 -3.013129017761242631e-02
-9.408258706321629417e-01 6.994354539754446543e-02 3.315940011617433125e-01
-9.412711213121949250e-01 8.393376244408905229e-02 3.270532062305190335e-01
-9.972280355279070641e-01 -4.333580772330957592e-02 6.048349300528040734e-02
-9.915810012794342709e-01 -9.260168134948268404e-02 9.050992494153978218e-02
-9.224269807551971345e-01 1.495659411767624215e-02 3.858818024567241545e-01
-9.951387192266959447e-01 -1.587047608006461955e-02 9.719597463292026229e-02
-9.951387192266959447e-01 -1.587047608006461955e-02 9.719597463292026229e-02
-9.867914400197003166e-01 -8.713046831473295062e-03 1.617613573099550284e-01
-9.927485117069655418e-01 1.055270797527761845e-01 -5.757106862353892490e-02
-8.373865457669280588e-01 4.168280978817704985e-01 -3.536072818605375812e-01
-9.929159037827685053e-01 1.186355344015514596e-01 -6.604391910402871400e-03
-9.939936014153685218e-01 6.664500317865490464e-02 8.680532182201042279e-02
-9.949498579175172219e-01 9.494317145262320956e-02 -3.256646165045056635e-02
-9.798048081892851702e-01 2.371228442355861887e-02 1.985453736972345173e-01
-9.979534639599192403e-01 6.296120857345220700e-02 -1.117004858399150806e-02
-9.227987782483575430e-01 -3.117496763541714039e-02 3.840189269505731029e-01
-8.459539188489531014e-01 -4.762348396832243730e-03 5.332347393239171840e-01
-9.072794431227034773e-01 9.854415508167875537e-02 4.088191061902501366e-01
8.569248198895117463e-01 -1.089901220425237710e-01 -5.037866675036999364e-01
8.489406043254061895e-01 -5.153566093644038060e-02 -5.259695105036586993e-01
8.489406043254061895e-01 -5.153566093644038060e-02 -5.259695105036586993e-01
9.200258696892946730e-01 -1.679013245049711944e-01 -3.540643223087205915e-01
8.955816923714433608e-01 -2.141003407366259131e-02 -4.443816408562196729e-01
9.223367137116812442e-01 -6.439679489324377781e-02 -3.809829908893748174e-01
9.339311721272459677e-01 -7.998127909651599199e-02 -3.483899549687302089e-01
9.339311721272459677e-01 -7.998127909651599199e-02 -3.483899549687302089e-01
9.253911270277553891e-01 -1.828560373124671345e-02 -3.785721842852224350e-01
8.759843344039273116e-01 8.070949700039904695e-02 -4.755390866930405136e-01
8.867244873052878562e-01 -7.219845006429926812e-03 -4.622418819744238960e-01
8.867244873052878562e-01 -7.219845006429926812e-03 -4.622418819744238960e-01
8.697320933522797448e-01 -1.453818079632789306e-01 -4.716250795986040578e-01
8.222457308330185510e-01 -1.631594362523292319e-01 -5.452439421843191525e-01
8.351842007076597518e-01 -1.732267841135416431e-01 -5.219768502088841799e-01
8.351842007076597518e-01 -1.732267841135416431e-01 -5.219768502088841799e-01
8.467194225409984121e-01 -1.046334561936158869e-01 -5.216493643596405994e-01
8.467194225409984121e-01 -1.046334561936158869e-01 -5.216493643596405994e-01
3.560133657939064666e-01 6.700329629533307019e-01 6.513910591434878272e-01
5.718481406649060794e-01 4.384214294044059268e-01 6.933803820826541786e-01
2.156634316890655989e-01 6.655107751512104874e-01 7.145520921456535168e-01
7.172490745774137699e-02 5.555003194634395847e-01 8.284171248388066955e-01
-5.388325211267070980e-01 -7.765961320349903385e-01 -3.264321704191066043e-01
-4.872692435223364704e-01 -8.290142525075980817e-01 -2.744158403890679110e-01
-6.614746535377812320e-01 -7.494629903623021283e-01 2.750470512963361369e-02
4.510409105973205990e-01 3.029146985589122321e-01 8.395265227284385290e-01
5.358113683673081384e-01 3.639864773918011775e-01 7.618530185043967951e-01
4.852828834644146161e-01 4.705993728855554781e-01 7.369102749020298715e-01
6.491432264564996890e-01 4.683964372824739320e-01 5.993478531593575687e-01
4.681240929639688408e-01 5.222281741305183633e-01 7.128376868060263272e-01
6.273520884957326516e-01 5.220103758927648885e-01 5.778706814853445950e-01
6.340050316768308658e-01 5.185663084687671676e-01 5.736955669425518600e-01
4.453658005799327468e-01 5.317665248144730628e-01 7.203288601469011176e-01
4.644674063411128873e-01 4.510346006400060004e-01 7.621271662080219000e-01
6.647219339092906853e-01 4.525398431864817717e-01 5.944345556145329557e-01
6.647219339092906853e-01 4.525398431864817717e-01 5.944345556145329557e-01
-5.445281528558680861e-01 -2.805863457822630469e-01 -7.904178599373452574e-01
-7.236515416454366578e-01 -2.723406846422432026e-01 -6.341600726652356634e-01
-5.321893482278926557e-01 -2.371586803742381511e-01 -8.127301261525382570e-01
-5.290089416370862274e-01 -2.392565337183619745e-01 -8.141903037626303519e-01
-7.187080449647164082e-01 -2.299903917600372716e-01 -6.561731218215659522e-01
-5.175621237126104557e-01 -2.355695764916667378e-01 -8.225791285521589780e-01
-7.150357454108937638e-01 -2.298311069827218278e-01 -6.602284036966178382e-01
-5.164314009618937718e-01 -2.341194611090413047e-01 -8.237030326704811722e-01
-5.164314009618937718e-01 -2.341194611090413047e-01 -8.237030326704811722e-01
-5.860878085046600239e-01 -2.176890511233764702e-01 -7.804566341208261093e-01
-8.903654960719924460e-01 -4.487864732088177600e-01 -7.641979370075557831e-02
-7.954490034626717776e-01 -4.669110601359841017e-01 -3.863352751340910496e-01
-9.556643406341444047e-01 -1.810520384587704368e-01 -2.322193519287957808e-01
-9.494742258827407744e-01 -1.458960455401913103e-01 -2.778723416968742477e-01
-9.494742258827407744e-01 -1.458960455401913103e-01 -2.778723416968742477e-01
-8.496989344397474220e-01 -1.962976171558174776e-01 -4.893658818419057699e-01
-8.539009124076687440e-01 -1.885580557862525652e-01 -4.850763768598291281e-01
-9.449099220513075270e-01 -1.408727995914912656e-01 -2.954658923534956294e-01
-9.512572260642561117e-01 -1.392879929268549810e-01 -2.751518578656977909e-01
-8.666154581234879473e-01 -2.235337858598991922e-01 -4.461056985968211430e-01
-8.666154581234879473e-01 -2.235337858598991922e-01 -4.461056985968211430e-01
-9.699200273724808419e-01 -1.651093862396350032e-01 -1.788687537758821833e-01
-9.562859490767494641e-01 -2.401424871288137808e-01 -1.668795058536788056e-01
-9.562859490767494641e-01 -2.401424871288137808e-01 -1.668795058536788056e-01
-8.764635679355039510e-01 -3.234365831732879393e-01 -3.566516378021483691e-01
-9.753802651685770098e-01 -2.167831420535590026e-01 -4.047724843739596706e-02
-9.753802651685770098e-01 -2.167831420535590026e-01 -4.047724843739596706e-02
-9.759999116641070449e-01 5.476697486886419192e-02 2.107717981499626636e-01
-7.543947217147635165e-01 -4.210530985555840933e-01 5.035900039175182918e-01
-4.901307743553063867e-01 2.931694293726282430e-01 -8.208675348137451921e-01
-7.247102172880078852e-01 1.414205656034560332e-01 -6.743851455828242525e-01
-4.629291272008060898e-01 2.395683913979752000e-01 -8.534070593990223941e-01
-4.629291272008060898e-01 2.395683913979752000e-01 -8.534070593990223941e-01
-6.900219779062076730e-01 1.859844770533279346e-01 -6.994851280060250254e-01
-4.401540770491226828e-01 2.530235674957828640e-01 -8.615355261094820305e-01
-4.435238392536002827e-01 1.906704017833268372e-01 -8.757461971927319455e-01
-4.435238392536002827e-01 1.906704017833268372e-01 -8.757461971927319455e-01
-7.051713254326724689e-01 1.481911794750525035e-01 -6.933778018608042215e-01
-4.818758534943878846e-01 6.298401448615201237e-02 -8.739729262043895996e-01
-4.818758534943878846e-01 6.298401448615201237e-02 -8.739729262043895996e-01
-7.401943718564665264e-01 3.916013113051902000e-02 -6.712516487889258476e-01
-5.805994029167735881e-01 5.558492466268709353e-03 -8.141703977019728589e-01
-5.805994029167735881e-01 5.558492466268709353e-03 -8.141703977019728589e-01
-5.805994029167735881e-01 5.558492466268709353e-03 -8.141703977019728589e-01
-5.782343536908465254e-01 -4.347684195778378502e-02 -8.147114804795050347e-01
-7.862011522016961740e-01 -4.423767436581729079e-02 -6.163852500209826557e-01
-7.862011522016961740e-01 -4.423767436581729079e-02 -6.163852500209826557e-01
-6.272651804322008084e-01 -5.348441592521169241e-02 -7.769670589352534185e-01
-8.151922373780576825e-01 -8.299511740790553593e-02 -5.732132470599439200e-01
-8.151922373780576825e-01 -8.299511740790553593e-02 -5.732132470599439200e-01
-7.850108793741812363e-01 -4.689504584530775760e-02 -6.177044389830310678e-01
-7.850108793741812363e-01 -4.689504584530775760e-02 -6.177044389830310678e-01
-7.850108793741812363e-01 -4.689504584530775760e-02 -6.177044389830310678e-01
-6.896229699295680637e-01 -1.135702217512866985e-01 -7.152076370375847203e-01
-6.896229699295680637e-01 -1.135702217512866985e-01 -7.152076370375847203e-01
-7.493490334238406270e-01 -6.909692626367473778e-02 -6.585602788565887433e-01
-8.501256196160383860e-01 -1.251684783343846308e-01 -5.114873242846799117e-01
-7.087828062502858906e-01 -7.568338568374238795e-02 -7.013550874524371315e-01
-5.183194064927755251e-01 -3.118320433193973173e-02 -8.546183947356676969e-01
-5.183194064927755251e-01 -3.118320433193973173e-02 -8.546183947356676969e-01
-5.263178375861995439e-01 -5.329871370907587197e-02 -8.486158029141014358e-01
-7.131560556963131292e-01 -3.661633358011974482e-02 -7.000483442868973283e-01
-7.131560556963131292e-01 -3.661633358011974482e-02 -7.000483442868973283e-01
-4.034902981304733238e-01 2.352236949186150856e-03 -9.149808994158931119e-01
-6.710382338996144780e-01 7.538814931604435540e-03 -7.413844177714510320e-01
-7.085687002211719099e-01 -1.096941630704379930e-02 -7.055565668128684909e-01
-1.019987531841987927e-01 1.821231002559176304e-01 -9.779710786633937225e-01
-8.762418411178025945e-02 1.609986376581259704e-01 -9.830571911292711462e-01
7.011463483426109145e-01 1.657499725229050758e-01 6.934844950065419678e-01
-5.350466814347309974e-01 -7.452261020855678320e-01 -3.979486216285118005e-01
-3.999122011994820647e-01 -8.636731939122804791e-01 -3.068205427430593657e-01
-3.359148044707244707e-01 -9.262412756431900318e-01 -1.709922320816675279e-01
-2.829414834694342074e-01 -9.509995115788164588e-01 -1.246757631176497599e-01
9.673469470174606011e-01 9.476333722762106393e-02 2.350740181591376432e-01
9.890698365334151809e-01 1.166466877790306167e-01 9.019095680801203496e-02
9.959431025068242738e-01 1.941578448904425144e-02 8.786560124278450234e-02
9.657848929020727002e-01 -1.406910992211636013e-01 -2.178659111519568869e-01
9.572934364935925533e-01 -1.518016088359920857e-01 -2.460600495836177959e-01
9.270697805082197540e-01 -2.611716419094363140e-01 -2.689442238286042230e-01
9.632172759849809696e-01 -2.680259065759455495e-01 1.935439609533906244e-02
9.630675152041211495e-01 -2.611234086726582082e-01 -6.569266779277493917e-02
9.835779594641688162e-01 -1.726142957546747680e-01 -5.271340016940030682e-02
9.933548034565329310e-01 -1.142633270393995787e-01 1.378863821122662189e-02
9.653535564504173161e-01 -2.107393909015582711e-01 -1.538876868725074787e-01
9.969792920207335429e-01 4.307001223368869119e-02 6.463176717394397697e-02
9.671226825660641513e-01 2.483921202265893802e-01 5.454421578462267939e-02
9.549636733416614343e-01 2.924392337475618109e-01 5.023621366046044506e-02
9.462481479740091350e-01 2.419786885362976148e-01 -2.146176990604713453e-01
9.481016815186670277e-01 1.196563362301025363e-01 -2.945938945420707444e-01
9.470287731539258624e-01 -1.683575786492780973e-02 -3.207071250778248395e-01
9.531940696694493065e-01 -1.045609925758407555e-01 -2.837041846334803497e-01
9.999565758739795696e-01 5.932933185937681528e-03 7.186561778595760078e-03
9.604209151289965218e-01 -1.646735942810914621e-01 -2.246648017143040021e-01
8.541990845103986096e-01 4.956587044972295408e-01 1.570553172539060627e-01
8.660074194241185186e-01 4.487481474367398526e-01 2.205816168099079266e-01
8.186288465431871275e-01 -5.648193863848079976e-01 1.040474524976950227e-01
7.408971944094173701e-01 -5.975520510774332550e-01 3.065989131901915021e-01
8.916601964779200529e-01 -3.307715087417465449e-01 3.090830034499886247e-01
9.693837401117102459e-01 -2.103888628094980895e-01 1.266163133753248349e-01
9.294996111616368184e-01 -1.522984059068774321e-01 3.359102088484210435e-01
9.749912441261213703e-01 -1.083331838925920970e-02 2.219790825507546306e-01
9.707529958078382482e-01 -1.298908130886499146e-01 2.019083896356879126e-01
7.809513339948755961e-01 -2.060543202469394264e-01 -5.896241438740410512e-01
6.818785815785485260e-01 -1.409600334503429142e-01 -7.177547415058329605e-01
6.818785815785485260e-01 -1.409600334503429142e-01 -7.177547415058329605e-01
8.224658158324855695e-01 -4.340327434514037325e-02 -5.671561844528580920e-01
8.172086577733388424e-01 -5.005290446964073131e-02 -5.741643635880330221e-01
9.116210269606671579e-01 -3.937499449806975554e-02 -4.091414339949641654e-01
9.178928848613088221e-01 -3.362364836348880753e-02 -3.954011914394194860e-01
8.973716212372158108e-01 -6.941270646549409229e-02 -4.357821125048914612e-01
8.080028496116878900e-01 -1.521590374387351841e-01 -5.691915515405245873e-01
5.687862297687419355e-01 4.928890043289846368e-01 6.584395600486366851e-01
5.152230838427352966e-01 6.327500241590124919e-01 5.780766219130044625e-01
6.891026219911623452e-01 5.428524790583209025e-01 4.800507914222624795e-01
-6.901644165313233215e-01 4.704463462579956401e-01 -5.498666324177892140e-01
-6.729646871630847738e-01 4.389448089763135497e-01 -5.953536633835715408e-01
-1.109138911586489834e-01 9.486282025198592427e-01 2.963151061488226712e-01
3.794839904255957810e-03 9.374696417374903668e-01 3.480463618696260086e-01
-2.889877214031773001e-01 9.483749585714081887e-01 -1.306561702824608207e-01
-3.452624477769523637e-01 8.476971124508910771e-01 -4.027448915845968647e-01
1.802532747864009632e-01 8.934771412470698948e-01 4.113482162325998170e-01
2.309844040251821662e-01 -3.358021410925369210e-01 9.131720139901350342e-01
3.692151244037260027e-01 -2.759749669935999128e-01 8.874221146131204829e-01
7.098320804030804343e-01 -4.056027956181874061e-01 5.758687262018538089e-01
7.948862396117928331e-01 -5.472171914143093563e-01 -2.621244198781535473e-01
6.271683678960153774e-01 -7.269773543766079316e-01 2.795778326946470327e-01
6.971205080865802151e-01 -7.129862043984915854e-01 7.532376479266537916e-02
6.186971912777574634e-01 -7.804730504693652149e-01 -8.986435887523844257e-02
3.449117017850444888e-01 -9.296630250791346750e-01 1.294703741110564688e-01
5.856726248461266993e-01 -8.040272092656389757e-01 1.026051814790883421e-01
2.492579535099136989e-01 6.674947003826658953e-01 7.016561106219376676e-01
6.851030595295669601e-01 6.442395908238670588e-01 3.399840399758831677e-01
8.595673471980129765e-01 5.042784213229566381e-01 8.274810825026315819e-02
7.980092089512844655e-01 6.026452354621414376e-01 1.503453533437048521e-04
8.328464254201801698e-01 5.492244389539883143e-01 6.869750592637971498e-02
9.318205895342185352e-01 3.222953464040739791e-01 1.668415374131373974e-01
7.008212270575647773e-01 7.086570191969405741e-01 8.157718338136096814e-02
8.456562816437765973e-01 4.658308244723996516e-01 2.605131403361178877e-01
7.778495830619521767e-01 6.277005526103650590e-01 3.069270895488861520e-02
5.482120501098408649e-01 8.326242776680099489e-01 7.874236694556534244e-02
7.684286793933609028e-01 6.393373042576897536e-01 2.766181610606211275e-02
6.131755486638407193e-01 7.878108817018881771e-01 5.804964420986128554e-02
7.200435475317390477e-01 6.865636298798505344e-01 1.008348738488424184e-01
8.982590902263998256e-01 4.332300874749200337e-01 7.377193322743870463e-02
7.530819136019191173e-01 2.163013039273572191e-01 6.213544699485122891e-01
8.420842284812668499e-01 -1.070761873928058501e-02 5.392397417142431593e-01
7.809796534986412908e-01 -5.952183127356752007e-02 6.217137061566063716e-01
9.241066010596939995e-01 1.792884912996451086e-01 3.374650008006705448e-01
8.512582865763679285e-01 -5.246970501027252709e-01 7.234303599115954851e-03
8.677042970526323007e-01 -4.961099244859607516e-01 3.105150081608611459e-02
8.492156972606309528e-01 -4.402851018654923010e-01 -2.915162578681219085e-01
8.662054780956657263e-01 -4.948109385880450350e-01 -6.964341153818678909e-02
9.495028359336756818e-01 -2.916560133199835869e-01 -1.156768535542040260e-01
9.951154347967910985e-01 9.382798551293641820e-02 -3.068518476036479967e-02
9.500104337086195949e-01 3.119667093264225088e-01 -1.252789355015371600e-02
9.950507001691279996e-01 -7.957613234935399793e-02 -5.951254702368393573e-02
9.848174732366498096e-01 1.710625135419507892e-01 2.953236984209954216e-02
9.895924298473320890e-01 5.466726011938265878e-02 1.331101553597358600e-01
7.961725136091568622e-01 -6.033407661279412970e-01 -4.570829794934230111e-02
7.329506800237538533e-01 -6.528611503023552531e-01 1.911952381169640391e-01
8.823602350831124541e-01 -4.416211029577137848e-01 1.625152822551985121e-01
9.643807722712586239e-01 -2.565064832553992091e-01 -6.460766302411997952e-02
9.932724253364381140e-01 -1.076192217857493000e-01 4.275502506722973078e-02
9.843899887061392517e-01 1.689039804897217445e-01 -4.947520095820742009e-02
8.959482896876559410e-01 -2.163068012325454655e-04 4.441583224674867103e-01
9.677073672563226703e-01 -4.452666356633002559e-02 2.481125300936806721e-01
9.561834557450439309e-01 -1.960900300524453244e-01 2.173980199392274715e-01
9.940581467606366406e-01 -7.499210171033386663e-02 -7.889604261226101922e-02
9.940581467606366406e-01 -7.499210171033386663e-02 -7.889604261226101922e-02
9.723121712896886093e-01 -1.353307298969845529e-01 -1.905115091207894851e-01
-4.575340924369684648e-01 -6.138542980526453530e-01 -6.433082115286369307e-01
7.224433627570781002e-01 -2.561964876469939312e-01 -6.422140977318920863e-01
8.370314530994655833e-01 -2.251415756376421926e-02 -5.466913747548896030e-01
7.815488701702629770e-01 -1.516987505777163125e-01 -6.051188747748207364e-01
7.603516372439517168e-01 -1.697219855143195233e-01 -6.269448423693420036e-01
1.653413120026727134e-01 -9.533074045848909384e-01 2.527196923645916304e-01
2.796440870126997227e-02 -8.646005082626081473e-01 5.016811267708084499e-01
9.255232236962223080e-01 -1.989824692050343180e-02 3.781677169834083418e-01
-5.511850571201790672e-01 -4.942398457765954933e-02 -8.329179446715577750e-01
6.864672549634263099e-01 -5.553166070283066524e-01 4.694530581661467417e-01
5.874553015611396756e-01 -5.910432126884903603e-01 5.527786079458740787e-01
9.073916242006373478e-01 -2.081195590862635891e-01 -3.651392740534336601e-01
8.457512097892297964e-01 -2.940654218130545061e-01 -4.452307478532502305e-01
-7.598826605661653799e-01 3.423234333019616882e-01 -5.526237501078317127e-01
-8.974439774665970981e-01 9.069701915888790655e-02 -4.317040166880850016e-01
-9.192762564189802532e-01 6.267644786467513329e-02 -3.885908224178383219e-01
8.976982382933170745e-01 -1.016507948409187123e-01 -4.287248405134511109e-01
9.000402332232800839e-01 -2.900244167050072125e-02 -4.348407029666530588e-01
8.971495819044795761e-01 -5.936361170825069089e-02 -4.377197611412689815e-01
6.059762925304277292e-01 1.075831930249645935e-01 7.881742126393319614e-01
-9.837713758015780297e-01 -6.630493661234909686e-02 1.667259294000276171e-01
-9.837713758015780297e-01 -6.630493661234909686e-02 1.667259294000276171e-01
-9.837713758015780297e-01 -6.630493661234909686e-02 1.667259294000276171e-01
-9.966261458380852867e-01 1.979013807766070998e-02 -7.965347366430765297e-02
-9.990532681251225178e-01 -4.183651989726959453e-02 1.192782676758940945e-02
-9.992291179023136127e-01 1.391712811731412799e-02 -3.670808468349241044e-02
-9.735581290875801042e-01 3.935666642371511009e-02 -2.250236034186257617e-01
-9.735581290875801042e-01 3.935666642371511009e-02 -2.250236034186257617e-01
7.104190501513266698e-01 -2.646704742866532456e-01 6.521152606886030378e-01
8.089547878243309453e-01 -3.399406887456267179e-01 4.796170132420666810e-01
5.811912703496788790e-01 -8.083047155550043827e-01 9.412860394624936178e-02
5.649149678193261526e-01 -7.884945228545002793e-01 2.432025217018598806e-01
8.525299611229536501e-01 -2.931964009802264792e-01 4.326991285407651433e-01
8.796208518353128003e-01 -2.850596171908501564e-01 3.807993850619045828e-01
8.811280518383822757e-01 -2.600919089071794810e-01 3.949247462296031075e-01
9.229701666640721669e-01 -2.242670661705074009e-01 3.127784431180770652e-01
4.564555156433214855e-01 -8.888483168176283256e-01 -3.996288189381008021e-02
1.833971714521592800e-01 -9.789065866696493590e-01 -9.004094667496195803e-02
1.164769169876825466e-01 -9.638799697462936411e-01 -2.395172890021274592e-01
3.101123992867362289e-01 -9.349668604698343488e-01 -1.722418927897776397e-01
5.359803143565492478e-01 -8.435969538481572494e-01 3.269987890443647877e-02
4.339966289438698110e-01 -9.004381647677157652e-01 2.929227705564822412e-02
7.242150216644991367e-01 -6.577790728155725741e-01 -2.069765536513133997e-01
9.253750948262696729e-01 -3.622804787683586158e-01 -1.115068992423398769e-01
-5.116960414642393040e-01 -6.158347512968039839e-01 -5.990949175590049025e-01
-5.082626514678530993e-01 -6.149568978004501529e-01 -6.029071993022757647e-01
-5.082626514678530993e-01 -6.149568978004501529e-01 -6.029071993022757647e-01
-5.082626514678530993e-01 -6.149568978004501529e-01 -6.029071993022757647e-01
-5.059384654271715798e-01 -6.201300056123281168e-01 -5.995540387158213580e-01
-5.059384654271715798e-01 -6.201300056123281168e-01 -5.995540387158213580e-01
-5.059384654271715798e-01 -6.201300056123281168e-01 -5.995540387158213580e-01
-6.971697918595227694e-01 -4.570616329961186275e-01 -5.523123617677510033e-01
-6.971697918595227694e-01 -4.570616329961186275e-01 -5.523123617677510033e-01
-7.028536507801574906e-01 -4.863482566277010366e-01 -5.190974078727422780e-01
-7.028536507801574906e-01 -4.863482566277010366e-01 -5.190974078727422780e-01
-7.028536507801574906e-01 -4.863482566277010366e-01 -5.190974078727422780e-01
-7.028536507801574906e-01 -4.863482566277010366e-01 -5.190974078727422780e-01
-5.543426388648843295e-01 -6.184337243785301697e-01 -5.569954822865413879e-01
-8.351471560155964147e-01 -2.634238889774654924e-01 -4.828427099118811627e-01
-7.995217746730582942e-01 -2.806223366828686783e-01 -5.310518204264909059e-01
-7.995217746730582942e-01 -2.806223366828686783e-01 -5.310518204264909059e-01
-8.152480739863583459e-01 -3.175094863562088476e-01 -4.843121967650098059e-01
-8.152480739863583459e-01 -3.175094863562088476e-01 -4.843121967650098059e-01
-8.420378538116205513e-01 -1.573416160236058570e-01 -5.159611115339993725e-01
-8.627258715850527615e-01 -1.937872561699194585e-01 -4.670659159518548154e-01
-7.891748500582228543e-01 -3.339375951463578462e-01 -5.154500350018891286e-01
-7.891748500582228543e-01 -3.339375951463578462e-01 -5.154500350018891286e-01
-8.541103468097508422e-01 -9.569130024110705790e-02 -5.112129600574434329e-01
-8.541103468097508422e-01 -9.569130024110705790e-02 -5.112129600574434329e-01
-8.687759618182165910e-01 -1.164969068617524722e-01 -4.813073850030529233e-01
-8.687759618182165910e-01 -1.164969068617524722e-01 -4.813073850030529233e-01
-8.687759618182165910e-01 -1.164969068617524722e-01 -4.813073850030529233e-01
-8.425208730429398774e-01 -4.625374427447306869e-02 -5.366741745487237925e-01
-8.425208730429398774e-01 -4.625374427447306869e-02 -5.366741745487237925e-01
-8.597853341855492548e-01 -6.465197793212108801e-02 -5.065464449277163883e-01
-8.597853341855492548e-01 -6.465197793212108801e-02 -5.065464449277163883e-01
-8.597853341855492548e-01 -6.465197793212108801e-02 -5.065464449277163883e-01
-8.369442657483119330e-01 -1.426325629297064967e-01 -5.283751016305767712e-01
-8.512501230473985547e-01 1.720153539350924255e-03 -5.247573430487562085e-01
-8.324846936269181263e-01 -1.484156190643161864e-02 -5.538492239924815985e-01
-8.324846936269181263e-01 -1.484156190643161864e-02 -5.538492239924815985e-01
-8.489384269047574039e-01 -2.692223453416359852e-02 -5.278055897886677617e-01
-8.489384269047574039e-01 -2.692223453416359852e-02 -5.278055897886677617e-01
-8.305741718591059808e-01 2.110183581319821644e-02 -5.565080929922520125e-01
-8.436790551356798673e-01 1.594112944684100350e-02 -5.366111556027561846e-01
-8.309121895097503208e-01 4.471720999994606427e-02 -5.546037364226222843e-01
-8.536911204751909121e-01 8.013501752484554486e-02 -5.145773506365253214e-01
-8.527426869974565893e-01 8.033745567828431966e-02 -5.161160751105291489e-01
-8.955400718279822314e-01 1.557031904054645699e-01 -4.168506881940964304e-01
-8.701064935039225512e-01 1.575544102293241211e-01 -4.670024601429830780e-01
-8.739881928687536217e-01 1.130943097276378567e-01 -4.726037619753353236e-01
-8.739881928687536217e-01 1.130943097276378567e-01 -4.726037619753353236e-01
-8.739881928687536217e-01 1.130943097276378567e-01 -4.726037619753353236e-01
-8.828814450673968528e-01 1.982603283744933664e-01 -4.256914330222578147e-01
-8.927097101520456990e-01 2.596516562007057383e-01 -3.683074677935287977e-01
-8.927097101520456990e-01 2.596516562007057383e-01 -3.683074677935287977e-01
-8.864470616778117318e-01 3.212938248406704278e-01 -3.331394377164409448e-01
-8.864470616778117318e-01 3.212938248406704278e-01 -3.331394377164409448e-01
-8.600897170090789912e-01 4.027718095069601212e-01 -3.130823344772610817e-01
-8.600897170090789912e-01 4.027718095069601212e-01 -3.130823344772610817e-01
-8.628168811044054642e-01 4.152133219059872538e-01 -2.883486205846337858e-01
-8.628168811044054642e-01 4.152133219059872538e-01 -2.883486205846337858e-01
-8.783551945651677517e-01 4.068838495654023557e-01 -2.508738430829828836e-01
-8.783551945651677517e-01 4.068838495654023557e-01 -2.508738430829828836e-01
-8.855273511611563286e-01 4.119316623778318531e-01 -2.148339262689721030e-01
-9.170859200010661461e-01 3.815831020034892163e-01 -1.155324698999929955e-01
-9.170859200010661461e-01 3.815831020034892163e-01 -1.155324698999929955e-01
-8.810644684648527569e-01 4.537003988273917710e-01 -1.337211670327921043e-01
-9.339779361283933046e-01 3.172412981977587032e-01 -1.644480876846780570e-01
-9.530769393377885867e-01 2.291149136290553667e-01 -1.978653685091557313e-01
-9.599472928449963582e-01 2.792184447245279477e-01 2.320032510933106237e-02
-9.682597356959821155e-01 2.490255055332096790e-01 2.143319443937758556e-02
-9.653178381805775921e-01 2.417965430021440931e-01 9.846777687440960714e-02
-9.653178381805775921e-01 2.417965430021440931e-01 9.846777687440960714e-02
-9.853669528942780031e-01 1.469452416066476808e-01 8.636587354395176830e-02
-9.842180391676442763e-01 1.393774223442455773e-01 1.090357075350595617e-01
-9.842180391676442763e-01 1.393774223442455773e-01 1.090357075350595617e-01
-9.826489038399345288e-01 -4.437918021231636312e-02 1.800878123190399471e-01
-9.826489038399345288e-01 -4.437918021231636312e-02 1.800878123190399471e-01
-9.850973781681993113e-01 -3.925604945151854597e-02 1.674578099331280323e-01
-9.943141127181183148e-01 6.058743793886687407e-02 8.757058646363467813e-02
-9.943141127181183148e-01 6.058743793886687407e-02 8.757058646363467813e-02
-5.504533654481603699e-01 -6.813046616909431696e-01 -4.825194819123718171e-01
-5.504533654481603699e-01 -6.813046616909431696e-01 -4.825194819123718171e-01
-5.504533654481603699e-01 -6.813046616909431696e-01 -4.825194819123718171e-01
-5.956231212436218225e-01 -6.751276285440975800e-01 -4.352422114368374451e-01
-5.956231212436218225e-01 -6.751276285440975800e-01 -4.352422114368374451e-01
-5.985712835861860537e-01 -7.128006429724020876e-01 -3.655511754106606226e-01
-7.129495694418421792e-01 -5.729354649530538079e-01 -4.042868590885932423e-01
-7.206716451998018691e-01 -6.229912567906922272e-01 -3.041615915387160807e-01
-7.206716451998018691e-01 -6.229912567906922272e-01 -3.041615915387160807e-01
-6.269555810745772728e-01 -7.069928468143019673e-01 -3.272427446298056264e-01
-6.269555810745772728e-01 -7.069928468143019673e-01 -3.272427446298056264e-01
-6.269555810745772728e-01 -7.069928468143019673e-01 -3.272427446298056264e-01
-8.259592208585507800e-01 -4.320158863147222084e-01 -3.621514040431718096e-01
-8.259592208585507800e-01 -4.320158863147222084e-01 -3.621514040431718096e-01
-8.195411184990800679e-01 -5.075674493116796304e-01 -2.659466854249408208e-01
-8.426710996073065729e-01 -3.417502558757651299e-01 -4.160675191545982199e-01
-8.426710996073065729e-01 -3.417502558757651299e-01 -4.160675191545982199e-01
-8.725255622992380555e-01 -4.014373466774392996e-01 -2.784729786298408838e-01
-7.994704894026223307e-01 -5.202325230184674520e-01 -3.003415698303708026e-01
-7.994704894026223307e-01 -5.202325230184674520e-01 -3.003415698303708026e-01
-8.942343132084935586e-01 -2.185382196241089925e-01 -3.906226307372096529e-01
-8.644180113107547969e-01 -2.412934814419095408e-01 -4.410883783724104390e-01
-9.047569380773270442e-01 -2.941234589471456995e-01 -3.080686188139039050e-01
-9.047569380773270442e-01 -2.941234589471456995e-01 -3.080686188139039050e-01
-9.047569380773270442e-01 -2.941234589471456995e-01 -3.080686188139039050e-01
-8.720755197423306626e-01 -1.612009926825240802e-01 -4.620590090284062423e-01
-8.720755197423306626e-01 -1.612009926825240802e-01 -4.620590090284062423e-01
-8.854498060516630131e-01 -3.096005559300187837e-01 -3.465921763844299064e-01
-8.930547849048969811e-01 -7.506782983945911591e-02 -4.436417158943266048e-01
-8.799351420337818697e-01 -8.868943973211521059e-02 -4.667422512415088653e-01
-8.979842300743452466e-01 1.341077124494777402e-02 -4.398232301191025151e-01
-8.979842300743452466e-01 1.341077124494777402e-02 -4.398232301191025151e-01
-9.442412669468428499e-01 -5.010701845584723986e-03 -3.292162247849209078e-01
-9.300234008205362501e-01 -1.224204276845992090e-01 -3.465107686807501475e-01
-9.300234008205362501e-01 -1.224204276845992090e-01 -3.465107686807501475e-01
-9.300234008205362501e-01 -1.224204276845992090e-01 -3.465107686807501475e-01
-8.986703043986293826e-01 1.077895395210192453e-01 -4.251741986079604629e-01
-9.473158423481765622e-01 1.159532751065588535e-01 -2.985758409989450191e-01
-9.473158423481765622e-01 1.159532751065588535e-01 -2.985758409989450191e-01
-9.473158423481765622e-01 1.159532751065588535e-01 -2.985758409989450191e-01
-9.141572569041664931e-01 2.384154624139819267e-01 -3.278331541064400390e-01
-9.141572569041664931e-01 2.384154624139819267e-01 -3.278331541064400390e-01
-9.427839695629089967e-01 2.356162432333537282e-01 -2.358884750465880809e-01
-9.581503558457885594e-01 1.414681368213226709e-01 -2.488667552263502669e-01
-9.581503558457885594e-01 1.414681368213226709e-01 -2.488667552263502669e-01
-8.900930182730346640e-01 3.223030900002763488e-01 -3.222656311148816011e-01
-8.900930182730346640e-01 3.223030900002763488e-01 -3.222656311148816011e-01
-8.943746927860075635e-01 3.698894806903030852e-01 -2.515465781492416952e-01
-8.943746927860075635e-01 3.698894806903030852e-01 -2.515465781492416952e-01
-9.095654410708773341e-01 3.741116371824738107e-01 -1.809176368798507961e-01
-9.095654410708773341e-01 3.741116371824738107e-01 -1.809176368798507961e-01
-8.691422478958518161e-01 4.674694025772627715e-01 -1.614438310267775067e-01
-8.789121269877021581e-01 4.657800182441068082e-01 -1.027737692140977543e-01
-8.789121269877021581e-01 4.657800182441068082e-01 -1.027737692140977543e-01
-8.789121269877021581e-01 4.657800182441068082e-01 -1.027737692140977543e-01
-8.732464128138519577e-01 4.600188982574467400e-01 -1.606963464231357386e-01
-8.727534805343680757e-01 4.803843442113165385e-01 -8.678850184102597509e-02
-8.757774961381483703e-01 4.769230737712921719e-01 -7.455306138944348127e-02
-9.078261699446394939e-01 4.150520836149090842e-01 -5.986161583660096902e-02
-9.078261699446394939e-01 4.150520836149090842e-01 -5.986161583660096902e-02
-9.105698177184506914e-01 4.105313073392354295e-01 -4.823538902637435066e-02
-9.105698177184506914e-01 4.105313073392354295e-01 -4.823538902637435066e-02
-8.747848325444325113e-01 4.819079376745217802e-01 -5.016210079829441087e-02
-8.747848325444325113e-01 4.819079376745217802e-01 -5.016210079829441087e-02
-9.513956612668458268e-01 3.040970364472367904e-01 -4.869587402058936365e-02
-9.513956612668458268e-01 3.040970364472367904e-01 -4.869587402058936365e-02
-9.413408360781314599e-01 3.320759074456807736e-01 6.002517826589338912e-02
-9.413408360781314599e-01 3.320759074456807736e-01 6.002517826589338912e-02
-9.399371983106619144e-01 3.387679847404888034e-01 4.188455260321170825e-02
-8.956091250442674845e-01 3.787207858935731641e-01 2.333556544624448281e-01
-8.956091250442674845e-01 3.787207858935731641e-01 2.333556544624448281e-01
-8.956091250442674845e-01 3.787207858935731641e-01 2.333556544624448281e-01
-8.945442026280506775e-01 3.974138671535186185e-01 2.045797833086894502e-01
-8.945442026280506775e-01 3.974138671535186185e-01 2.045797833086894502e-01
-9.054721210925932295e-01 3.746904217912971902e-01 1.993171486398995496e-01
-9.054721210925932295e-01 3.746904217912971902e-01 1.993171486398995496e-01
-8.466312367871668965e-01 4.676042665185322078e-01 2.540901391827268263e-01
-8.224624649949817679e-01 4.673708616644327019e-01 3.242221018706529789e-01
-8.224624649949817679e-01 4.673708616644327019e-01 3.242221018706529789e-01
-8.229705200578827373e-01 4.658659168689694985e-01 3.250976324359996505e-01
-8.229705200578827373e-01 4.658659168689694985e-01 3.250976324359996505e-01
-7.672763013762707862e-01 5.007549567414356639e-01 4.006638873734852946e-01
-7.672763013762707862e-01 5.007549567414356639e-01 4.006638873734852946e-01
-7.672763013762707862e-01 5.007549567414356639e-01 4.006638873734852946e-01
-7.857732011414094719e-01 4.776011318227509350e-01 3.930109861691009621e-01
-8.147308509920530017e-01 4.602214248242262884e-01 3.527178483923433250e-01
-8.147308509920530017e-01 4.602214248242262884e-01 3.527178483923433250e-01
-8.147308509920530017e-01 4.602214248242262884e-01 3.527178483923433250e-01
-8.168615021067852089e-01 4.457429335564660478e-01 3.661291077752794609e-01
-8.168615021067852089e-01 4.457429335564660478e-01 3.661291077752794609e-01
-8.355366636896957022e-01 4.407025771440402639e-01 3.281154097705461514e-01
-8.355366636896957022e-01 4.407025771440402639e-01 3.281154097705461514e-01
-8.355366636896957022e-01 4.407025771440402639e-01 3.281154097705461514e-01
-8.349712908334369077e-01 4.297964741766318597e-01 3.436538000215916266e-01
-8.349712908334369077e-01 4.297964741766318597e-01 3.436538000215916266e-01
-8.689610078691850648e-01 4.381654629381351862e-01 2.300386791197943370e-01
-8.689610078691850648e-01 4.381654629381351862e-01 2.300386791197943370e-01
-8.730366525671332534e-01 4.041734864631612578e-01 2.728567318476635695e-01
-8.730366525671332534e-01 4.041734864631612578e-01 2.728567318476635695e-01
-8.730366525671332534e-01 4.041734864631612578e-01 2.728567318476635695e-01
-8.649264402346309444e-01 4.176760702467972042e-01 2.782965205068901882e-01
-8.526019839163434533e-01 4.648001540894904360e-01 2.388109582500374806e-01
-8.767275527987479222e-01 4.616869414637355118e-01 1.348850111961297504e-01
-8.767275527987479222e-01 4.616869414637355118e-01 1.348850111961297504e-01
-8.767275527987479222e-01 4.616869414637355118e-01 1.348850111961297504e-01
-8.845386167404728495e-01 4.302382537326500667e-01 1.802400635816881480e-01
-8.845386167404728495e-01 4.302382537326500667e-01 1.802400635816881480e-01
-8.797774546842441756e-01 4.722007234922683816e-01 5.493730028578878988e-02
-8.817261042462499754e-01 4.676137437723403290e-01 6.242166071122344506e-02
-8.817261042462499754e-01 4.676137437723403290e-01 6.242166071122344506e-02
-9.057399636640222074e-01 4.198749951152626614e-01 5.779365621635203232e-02
-8.735040922921365469e-01 4.835671220178606733e-01 5.615549173726538945e-02
-8.735040922921365469e-01 4.835671220178606733e-01 5.615549173726538945e-02
-8.735040922921365469e-01 4.835671220178606733e-01 5.615549173726538945e-02
-8.757309903552050745e-01 4.825966333901082761e-01 -1.399006690567828129e-02
-8.757309903552050745e-01 4.825966333901082761e-01 -1.399006690567828129e-02
-8.781432950709148200e-01 4.783309952871144799e-01 -7.988258235356784226e-03
-9.588643050741930962e-02 7.750852847418132630e-01 6.245387048224056992e-01
-8.563766458465786602e-02 7.723296359919773479e-01 6.294228497385404575e-01
-1.564019481090302421e-01 6.479057947957956864e-01 7.454907857899575330e-01
-4.021129105494677947e-01 7.184528572336443819e-01 5.675655901323198860e-01
-4.021129105494677947e-01 7.184528572336443819e-01 5.675655901323198860e-01
-3.630690639815922771e-01 6.234264181726741905e-01 6.924740832001731183e-01
-3.630690639815922771e-01 6.234264181726741905e-01 6.924740832001731183e-01
-1.939433113849038937e-01 6.593503702424333701e-01 7.263904468192187158e-01
-3.997337028064097408e-01 7.195951803570551641e-01 5.677990342080322383e-01
-4.831081568243453250e-01 7.159181321147669586e-01 5.040513236954020648e-01
-4.831081568243453250e-01 7.159181321147669586e-01 5.040513236954020648e-01
-4.298989486368847701e-01 6.139427809704762762e-01 6.620129573166516623e-01
-5.685499949856804847e-01 6.790228540549447800e-01 4.644123888020857405e-01
-5.685499949856804847e-01 6.790228540549447800e-01 4.644123888020857405e-01
-5.624904029297908004e-01 5.791121244717546412e-01 5.901132890400726527e-01
