-6.042974827169566021e-01 -7.963593480915517331e-01 -2.522580205163213116e-02
1.492367732168097261e-01 2.606091455942535773e-01 9.538402689929104117e-01
-7.510972887103349593e-02 -3.616211616390225814e-01 9.292947132550382072e-01
8.513841364317752403e-01 3.072962490106009859e-01 4.251047724694879681e-01
5.015386164021810034e-01 -4.231791774193627981e-02 8.640996528730772175e-01
9.051987683100091164e-01 3.120735447679290342e-02 4.238411151323123738e-01
3.932041259929928284e-02 -8.668275099195342781e-01 -4.970553019531331884e-01
-3.806566199952677448e-02 2.521764205104057854e-01 -9.669322925185076523e-01
2.505759937508306168e-01 4.623086139211350920e-01 8.505776959514648183e-01
-6.936547584588723669e-01 -7.083708895919872406e-01 1.305900411441092701e-01
9.857381419187437599e-01 1.539117140130351336e-01 -6.805512365834412436e-02
-2.901518589526200231e-01 -2.297358451184225159e-01 9.289958773934700043e-01
-8.094128750905704717e-02 -9.765597342523733015e-01 1.994482223869398496e-01
-3.532055574332716996e-01 6.638482169112217557e-01 -6.592051115563677399e-01
4.657718916502084916e-01 2.341107130180217488e-01 8.533748994426657575e-01
-1.678987449646006103e-01 -9.262682200216093564e-01 3.373976822939235842e-01
-1.877899281677541388e-01 8.069782419766441395e-01 -5.599295132916591866e-01
-6.606138015663149954e-01 7.285347972098610292e-01 -1.811807231315951394e-01
3.382936444596602032e-01 3.478943774670656963e-01 8.743722961330624432e-01
9.284387552448573888e-02 3.079000159069376907e-02 9.952044968646589496e-01
8.823773907816254702e-01 7.037652902784873044e-02 4.652497011276878758e-01
-1.762967497706474651e-01 -9.651276405551565407e-01 1.935150987823485991e-01
-6.862628366912394418e-01 -7.231754730835255884e-01 7.784956073679656641e-02
2.260215573621394136e-01 5.010188011444410838e-01 8.354007520390318575e-01
2.532593326599808514e-01 4.993035769066689333e-01 8.285865365239934999e-01
2.488812113356917433e-01 -9.494021871471491902e-01 1.915558134964543135e-01
8.895835102663576799e-02 4.046736173423607363e-01 9.101239889211086842e-01
8.935080406618525206e-01 2.664744093271366743e-01 3.614343238354250087e-01
2.352350793140492446e-01 9.240271608025152350e-01 -3.013938678197611853e-01
-5.379121252435623557e-01 -7.455245238404569763e-01 3.935018803873926996e-01
8.000356249517827367e-02 8.390723514040269171e-01 5.381050260844972843e-01
-4.693975162823452174e-01 -5.123774871221210558e-01 7.191211875604736070e-01
2.479529213726752723e-01 -9.646930061344082263e-01 8.880739101062744278e-02
-5.296313336589857784e-02 9.978705640760817674e-01 3.806893555838570392e-02
-1.933799668506197902e-02 -9.408638035863051696e-01 -3.382326787661406597e-01
8.895652998616813134e-01 -2.991021887933584603e-02 4.558277702033822210e-01
-9.006447120008538310e-01 -3.408905727024188342e-02 4.332170805950811276e-01
2.644000081294965998e-01 7.341056771257460367e-01 6.254450339661127289e-01
-4.410756777280827601e-01 -8.533983051021722943e-01 2.777833316911801353e-01
5.427984682924513749e-01 -3.316342633848454874e-02 8.392079658659469255e-01
8.793690625742961453e-01 1.872945794722638002e-01 4.377565445398977628e-01
7.977517705800524217e-01 -2.275519502620184098e-01 5.584014885978932918e-01
9.390688296638842747e-01 8.421250726924260632e-02 3.332536372991759532e-01
2.025994005945685461e-01 4.084906972699662853e-01 8.899937264512701729e-01
-4.419942852136222178e-01 -8.375193800700535540e-01 3.212512098740986088e-01
8.508720719231560592e-01 -7.108909100625408761e-02 5.205411207206399604e-01
6.702016993516419774e-01 -4.017883341149234844e-01 6.240158786083297437e-01
9.466299822863843971e-01 2.952531847241652296e-01 1.292951412339905792e-01
1.604763835124824733e-01 -5.193610728987837488e-01 8.393517774402927678e-01
7.176519441937825317e-01 -4.054988770831755018e-01 5.661681266895618458e-01
6.787472572712915930e-01 1.526494750997005601e-01 7.183316076148152929e-01
7.310952538824437852e-01 1.537322904342390828e-01 6.647301051016178963e-01
-3.390098185428446209e-01 -9.402230035652580087e-01 3.245067793240016818e-02
4.515876444564423942e-01 3.111637290984594073e-01 -8.362091443340130548e-01
6.955468916473794838e-01 -5.851932397493641025e-01 4.168493656841901762e-01
-9.941088383256156957e-01 9.163935236635460668e-02 5.787785984960059499e-02
-1.050986820200593558e-01 8.209193970602445267e-01 -5.612892396687211294e-01
9.811740665542360018e-01 1.702968458043062905e-01 9.108477057405439670e-02
1.554023756075057633e-02 -9.550903252637509278e-01 -2.959070320288759715e-01
-5.515182479541557159e-01 -2.611121246677364227e-02 -8.337540565161247752e-01
-4.797812710031532646e-01 8.039356479267992794e-01 3.514219770975006152e-01
1.854620740696216463e-01 2.866178154024809910e-01 9.399223622064235562e-01
9.239698857503280127e-01 -2.339840083144971161e-01 3.025411279142179444e-01
-6.332031274002699606e-01 -6.207711733112559749e-01 -4.622736741761141466e-01
-2.220393152106845125e-01 5.266986869236645052e-01 8.205406971586831633e-01
6.096867989006191646e-01 1.986514137407261738e-01 7.673458301607736232e-01
7.079711594909764150e-02 3.075953393748762088e-01 9.488798003794498559e-01
8.944752011673837711e-01 2.817807001821983140e-02 4.462287651716513315e-01
9.109669536689413150e-01 3.292971474999818460e-01 2.484000764321621646e-01
6.632456167961207905e-02 -9.737074462572192779e-01 -2.179331586088995021e-01
9.932068667577147181e-02 4.571334321397961808e-01 8.838350674296328036e-01
7.012453946108921921e-01 6.585055372780979077e-01 -2.731764153639509307e-01
2.638253640469817585e-01 6.132931517502284713e-01 7.444915629486668074e-01
7.343644693031520232e-01 -6.651552063863951370e-01 1.351938520871865945e-01
-3.615053253793823473e-02 6.855319494584865003e-01 7.271444734499951101e-01
-4.285872762801165581e-01 3.045182392890527501e-01 8.506359906276518279e-01
-4.098168375939271191e-01 -6.340240693667607008e-01 6.557923749847399675e-01
4.196166899544746809e-02 4.533937955191609803e-01 8.903220117012976553e-01
2.382594937052651962e-01 4.800105159684640577e-01 8.442880540544203116e-01
1.002411442197373298e-01 4.384322638347714074e-01 8.931566844816396511e-01
-1.974016024726617524e-01 7.373302777619297199e-01 -6.460469555974558409e-01
-2.605817508356383372e-01 -9.628266201278218306e-01 -7.114808995797816671e-02
-9.078022239194296628e-01 -4.053375777459615192e-01 1.076873730479783603e-01
8.054419568293410547e-01 3.604300396957147989e-01 4.704821363918797461e-01
4.676532337648793836e-01 -8.260439332711392302e-01 3.145661667363428560e-01
1.015365588374588929e-01 -5.477812259801222439e-01 8.304372677590773355e-01
7.064981347374222898e-01 -4.527583006336162175e-01 -5.439396168876680093e-01
2.822334778963657143e-01 4.964856854340441994e-01 -8.208813727412804795e-01
7.058985887682610594e-01 4.175160158804462340e-01 5.721779083976383795e-01
7.249677009253895354e-01 3.307579839740154570e-01 6.041696687623435702e-01
-6.007745827284225459e-01 -7.993341740825494757e-01 1.160943113413715096e-02
1.605838932012300657e-01 6.891992063338843177e-01 7.065530887577237129e-01
8.033580697643299962e-01 -3.291034782483361343e-01 -4.962929702800322196e-01
-3.498287850830226753e-01 2.557049309526628345e-01 9.012407055908151499e-01
3.958600329899210069e-01 4.666774806229155304e-01 7.908899818310174412e-01
-7.278659145983592538e-01 3.853484962973985350e-01 5.672016808571953561e-01
2.730974978772864326e-01 4.509945348769103801e-01 8.497185923376778804e-01
4.511838088276974301e-01 3.548086702840583251e-01 -8.188674973052662009e-01
5.584130536552573965e-01 5.569639943175902497e-01 6.147893708752665276e-01
7.703285578307550452e-01 3.839456204754183588e-01 5.090969195626066091e-01
-5.859069342668676850e-02 6.343270946629204765e-01 7.708412726497448908e-01
3.998984180930234000e-01 4.632508341272151831e-01 7.908728847843607968e-01
1.301372296791467320e-01 8.920777602061575884e-01 -4.327373004456655514e-01
-3.585718576103117949e-01 7.986519745364869527e-01 -4.833024379194266196e-01
7.878143431485841452e-02 4.826381458176319250e-01 8.722693997894296336e-01
7.193737443375106677e-01 4.630245699547645422e-01 5.177930702279001096e-01
6.383803916398975709e-01 -6.811008123275651416e-01 3.585696013557506112e-01
-3.733554213670481903e-01 6.892771739034172507e-01 -6.208886428914223155e-01
-2.166805296652952462e-01 5.353346114219739160e-01 -8.163739350797840633e-01
1.318140106353895002e-01 -7.549936539544034597e-02 9.883951195878595275e-01
-2.591132384517137732e-02 1.883011723429519613e-01 9.817694595936768964e-01
4.983681570388917570e-01 -2.631325316467695852e-01 -8.260692772636083481e-01
-7.730386314684077886e-01 5.455101213973047036e-01 3.237745847199087756e-01
7.270447460186959532e-01 -6.648619881914821228e-01 1.713606545992383268e-01
4.251305146879370001e-01 -9.050130887984181305e-01 1.467496455587422900e-02
1.574825043099647437e-01 6.420776671287957704e-01 7.502902972921250413e-01
5.730669929268311646e-01 3.515036382011617055e-01 7.402968417797998191e-01
7.683409215493081090e-02 5.541233538433540939e-01 8.288810716913014298e-01
5.311582104446380681e-01 3.353616777893378975e-01 7.780767960475173384e-01
-5.830860417818521657e-02 5.555004485822736537e-01 8.294693233047769620e-01
-6.031054538098770124e-01 -7.920343934087900051e-01 -9.457976127244378806e-02
-8.312295949507335358e-02 7.043579494697751464e-01 7.049613128558999131e-01
3.058516242839536825e-01 -9.181886225705068183e-01 -2.517626606646481413e-01
6.067824587359560602e-03 6.938383806545913579e-01 7.201051888685371383e-01
1.608051842758776162e-01 4.931815289273977498e-01 8.549348935649049297e-01
4.502540888101180250e-01 4.832971806460916175e-01 7.507963043924161806e-01
-4.305825963044218607e-02 2.870954986652399926e-02 9.986599761801105979e-01
1.099417927940230799e-01 6.219489001483245738e-02 9.919902206439734638e-01
5.024967072691259862e-01 -6.717207239569124022e-01 -5.443237347300664553e-01
2.883965313905980654e-01 -5.554569161176291930e-02 -9.558985912874037316e-01
6.389297096859545277e-01 6.155242258242380471e-01 4.614095290564489971e-01
2.332927875192019329e-01 5.586708256927715999e-01 7.959028733528213939e-01
3.400700226509886237e-01 5.734187589611160485e-01 7.453477755824119422e-01
1.209474033207083854e-01 4.101719224586799495e-01 9.039528304378103840e-01
-8.375400159774649689e-01 -9.299556764954869381e-02 5.384037017276216419e-01
1.579800495788078185e-01 4.093949589383116816e-01 8.985755791979745943e-01
1.318429563443818953e-01 5.329807136500502862e-01 8.357924346029081963e-01
4.795919371280217836e-01 6.507951703049696945e-01 5.886061672710511949e-01
-6.717901855614396567e-01 -2.462271446462621638e-01 6.986201684912017873e-01
1.947057580344006000e-01 5.856591385864726718e-01 7.868246572003195771e-01
-7.334190869274487268e-01 1.354056862301323549e-01 6.661544438544669822e-01
-2.239415355344581693e-01 6.197382425545868712e-01 -7.521799647543272460e-01
3.100296723215152928e-01 -2.347526738372434085e-01 -9.212886542265018575e-01
3.362514825044771172e-01 7.781731886320826241e-01 5.304539838739252833e-01
-4.325347707134161168e-01 1.206075525951654515e-01 8.935141243320651183e-01
4.830676321464872358e-01 3.626530937475251348e-01 7.969494314997249695e-01
2.350020068729808675e-01 3.235321238849364067e-01 9.165702491245140138e-01
-2.017775584772085740e-02 -1.013542857037976197e-01 9.946457494698415225e-01
2.024842292333603466e-01 6.414984240041079477e-01 7.399188529237633594e-01
-6.043348752442256888e-02 8.775009017552560797e-01 4.757519952710107525e-01
-1.945259596005965248e-03 -5.926618837365718040e-01 -8.054490098888459348e-01
2.833015226045192958e-01 4.245503238228572340e-01 8.599402710839096908e-01
3.447746757976579146e-01 -2.400727547521553373e-01 -9.074665257486533854e-01
5.228072032683244164e-01 6.591502816886534930e-03 8.524254690595347572e-01
5.047448398183781437e-01 5.920379663147451801e-03 8.632482816556105165e-01
-8.747590335373397474e-01 4.756796297231585258e-01 -9.233375932592567670e-02
1.509491731294763106e-01 5.875609535392919414e-01 7.949757688178460402e-01
-3.723344604588411655e-01 -6.258401893531254645e-01 6.853401395987744893e-01
-1.286760150540297576e-02 -9.981440508171356418e-01 -5.952208539573619617e-02
1.675937415525073082e-01 -2.065937621673911706e-01 -9.639664699697573225e-01
5.381145371834921559e-02 3.463761254018662972e-01 9.365510702574144641e-01
1.028228192643779182e-01 6.000973342728715965e-01 7.932910293436568061e-01
1.035997760613795032e-01 -2.559615541048526621e-01 -9.611195395060182500e-01
1.884609336187498818e-01 6.418350472865713696e-01 7.433237844803527450e-01
-8.884812339937543380e-01 7.302681906172381332e-02 4.530653159740455904e-01
-6.479027405472088247e-03 3.840039357291271660e-01 9.233087238559046783e-01
1.569846251877546339e-01 -2.846928394830809950e-01 -9.456774368682593357e-01
1.950170853674551008e-01 3.574134700461229497e-01 9.133586085675066135e-01
6.808835167885834982e-01 3.584693763630457386e-02 7.315139326271986597e-01
8.593242789728589015e-01 3.128550844270266973e-01 4.045781503194830209e-01
2.416397721298751411e-01 2.530458674075831138e-01 9.367913372320251231e-01
3.107067559807065171e-01 7.102048795377686741e-01 6.317201444221082207e-01
5.448550131238855121e-01 4.448840983133836580e-01 7.107820719050658154e-01
1.286726488461119866e-01 5.720283642744993235e-01 8.100783294869490225e-01
1.325875168709997609e-01 -1.970762145408090360e-01 -9.713812413425777503e-01
2.825819446218052478e-01 2.590784966883538099e-01 9.235939460214438457e-01
1.499036204304188269e-01 -1.194938583412419320e-01 -9.814530668353816933e-01
-1.743637512417552451e-02 6.748228236093204435e-01 7.377737658377890861e-01
4.484649349313872546e-02 -1.239422766536910220e-01 9.912754935330893025e-01
5.464651841811640071e-02 8.807896581210825637e-01 4.703438488719980937e-01
7.096611320003999059e-03 -2.024767771332153521e-01 -9.792613506258270872e-01
1.741060821374575684e-01 6.288895982812685581e-01 7.577499226897812523e-01
-1.232038351026711331e-01 9.425562374110518782e-01 3.104972694461494154e-01
-6.347970847240672621e-01 1.200033259703534305e-01 7.633032575470108938e-01
4.965207455737638553e-01 7.782962956031723445e-02 8.645285987041593234e-01
4.139942776008846415e-01 8.691064804335381089e-01 2.706707663973886846e-01
5.018357393365422414e-01 8.383909322986987656e-01 2.127475860353407189e-01
-9.575017947876991731e-02 -9.920387267076191673e-01 8.179894768338299982e-02
-5.597370902042294594e-01 -5.322254701726286674e-01 -6.351617421958180021e-01
-6.786363144539757364e-02 1.196825722074662951e-01 9.904900854813478706e-01
4.948851358641665615e-02 4.606013043469604495e-01 8.862264526952948751e-01
-1.769643024222988248e-01 -4.832995575405332200e-01 -8.573827461229400759e-01
-1.177902981798576720e-01 3.958001014051788502e-01 9.107511874174802902e-01
9.309100538301242622e-01 -1.436533319446272605e-01 3.358127333785931312e-01
3.361992618735268334e-01 -8.950256176520239304e-01 -2.930856531157891021e-01
-5.148568200107115356e-01 -8.307106697069770451e-01 -2.117598595660742378e-01
-1.454499117555818621e-01 2.051974284890227818e-01 9.678524363309655154e-01
-4.378545346574280739e-01 -1.856371733022348924e-01 8.796716696406011726e-01
-7.159116592976102478e-01 -4.672005421754343302e-01 5.188392327809479010e-01
1.229265524343863825e-01 -1.848886100645087405e-01 -9.750411604517061903e-01
-3.084280932554089080e-03 -2.217816232846606117e-01 -9.750914822642795521e-01
-5.143001226473033205e-02 5.978651370361801748e-02 9.968854129826641985e-01
7.127106176652823902e-04 -9.992469913760008149e-01 -3.879358541803283600e-02
7.470638038071913956e-01 1.308255373980226621e-01 -6.517517562735438696e-01
1.887221559161256224e-01 4.462262896778096954e-01 -8.747948595337907696e-01
5.898332755279741407e-02 -1.794121300300568767e-01 -9.820042029792324101e-01
-1.856176594446883876e-01 4.292918767411645908e-01 8.838860611336307738e-01
-9.477697841022653114e-02 7.238730886456510305e-01 6.833923294111756697e-01
-1.501321533596026714e-01 -3.362410008711222420e-01 9.297323947571122238e-01
4.065623971041675833e-01 4.414558213394936259e-01 -7.998898518336047259e-01
1.057975318041897289e-01 -1.931761413077444367e-01 -9.754434174741207775e-01
6.476299291213094556e-02 1.413014328609966258e-02 9.978006282819116279e-01
7.990193578479724834e-02 -1.816464333095751671e-01 -9.801123680087667767e-01
-2.531793259484217962e-01 -1.422458253180483856e-01 9.569045689575789160e-01
7.894476525209762618e-01 -5.184055005981063058e-01 3.286763466980041626e-01
2.314194893698585387e-01 -3.528621144884055982e-01 9.066053982293317270e-01
-1.864097418511947296e-02 -5.631080473195511082e-01 8.261730091968582101e-01
6.561339412177097374e-01 4.577762776486890006e-01 5.999409394300622145e-01
-3.497435545537948554e-01 1.186874764169844609e-01 -9.292969003444725429e-01
2.677607893240510073e-01 -1.706001680764155926e-01 9.482614314380080067e-01
-5.900167957292213883e-01 -3.335117392254021568e-02 8.067018531994400998e-01
-9.139324516961222500e-02 3.345259883182793437e-01 9.379443682207627697e-01
-1.203924662315712379e-01 8.058885156593695864e-01 5.796976405015098477e-01
3.753725464881257912e-01 2.428703431743458874e-01 8.944883720593552745e-01
-1.086367105621471735e-01 -2.228371141175980452e-01 -9.687836113859363829e-01
-2.417550123486215674e-01 2.772755402128965208e-01 9.298778354192361872e-01
4.057915224901682827e-02 -3.350557757633098044e-01 9.413240459748161149e-01
-5.365216334696045752e-01 3.107236642977165286e-01 7.845988409783098971e-01
2.308013814482938464e-02 -3.110224088290438824e-02 9.992496974406733790e-01
-9.137214942808383755e-01 5.684629055139626269e-02 4.023450386667368206e-01
-2.153123273471402865e-01 -2.004855148439552703e-01 9.557437732102218586e-01
-5.808383598004619452e-01 -8.127183619170492701e-01 -4.599634754170221773e-02
-8.349536099117232935e-01 3.770867337316433643e-01 4.008217366099081080e-01
1.811549482977852302e-02 3.309138265904802423e-01 9.434870789885348996e-01
2.641720299072937150e-01 -3.440943868063528477e-01 9.010062106240001034e-01
-2.440070908087442481e-02 -5.262060612986277919e-01 8.500069331769802838e-01
-5.943580572693363262e-02 -2.305506299549581195e-01 -9.712434257306259422e-01
-7.426694813170345855e-01 -1.969107236717595327e-02 6.693685854514814793e-01
6.608200437399709415e-01 -5.378623115494368667e-01 5.234701554111746979e-01
-3.319573676923018302e-01 1.594361694172693189e-01 9.297227618577195152e-01
8.433967918849783266e-03 -9.941810626067205670e-01 1.073912610006777235e-01
-6.552188714579904039e-02 1.742092625920206306e-01 9.825263432254616180e-01
-5.147151982634771139e-01 -5.094250678230374252e-01 6.896044989340508469e-01
-1.316592922212788674e-01 8.753128075700200572e-01 4.652884263289612243e-01
-6.393243148100767881e-01 -6.218170719796791701e-01 4.523361023478495446e-01
-3.763068182368212167e-02 -4.693445283595182871e-01 8.822129252535728661e-01
-4.024516410640833763e-01 -8.976262319837103876e-01 1.797215186324455927e-01
7.888657939961489785e-01 6.036597095386742051e-01 1.152636722584744478e-01
-8.281453702333311240e-01 -2.673834742713608881e-01 4.926269617547088808e-01
8.686488231837691254e-01 -3.640048746686285197e-01 -3.360798613409157753e-01
-1.947493484844083356e-01 -2.159093816828922263e-01 -9.567945600630313185e-01
-4.670090941359174991e-02 4.007134357422305615e-01 9.150124411589171114e-01
1.483037505896428188e-01 -6.194616781162463059e-01 7.708911900563198971e-01
-3.135026814253172311e-01 2.419246152626959578e-01 9.182529876178637807e-01
-4.912113374271131483e-01 4.157851380926342287e-03 8.710305013344601388e-01
-5.225409928972102325e-02 3.416254409344850473e-01 9.383824205587711909e-01
2.491405147614709492e-01 1.969509292741287720e-01 9.482295794597669358e-01
7.325249322359899118e-01 -5.210264874584027428e-01 4.381080038294409840e-01
2.307157106469066854e-01 -9.260402062521715105e-02 -9.686045406793926116e-01
-1.535872998311721138e-01 -3.014038843136108148e-01 9.410455036029008458e-01
7.386585497388080401e-02 5.958386369407376870e-01 7.997000401385392365e-01
-5.608557934363193054e-01 -6.258946888618061033e-02 8.255442673494030048e-01
2.700103114540006732e-01 -2.137719119010157154e-01 -9.388269283476576854e-01
7.603193886902408216e-02 -1.800954037845926281e-01 -9.807062709126936895e-01
-4.152586748031487085e-01 1.149608192702291920e-01 9.024102409843600681e-01
-1.439428288376305987e-01 -2.356703892738603590e-01 -9.611139004539094310e-01
-9.585204912997405402e-02 1.935710320449424426e-01 9.763926670303505473e-01
-2.073306128223433367e-02 4.192212479927093227e-02 9.989057391076403558e-01
-1.442955095822645861e-01 2.818629062180987854e-01 9.485420960677928282e-01
1.916233810397665605e-01 -1.839226342119607838e-01 -9.640813992933489063e-01
-4.213113493241049112e-01 -8.979139952432009242e-01 -1.274645208561787091e-01
-4.113857766291454388e-01 -9.097968611038173004e-01 5.505828105631589697e-02
-1.317718849028112760e-01 3.408151338127519692e-01 9.308497273531084470e-01
4.395261597072844251e-01 -8.754226246726483085e-01 -2.011267837564604810e-01
-9.663123520417997714e-01 2.514199158226840258e-01 5.503148389021757930e-02
6.672196888059994668e-02 -1.113665319534677678e-01 -9.915370262523499623e-01
-1.149875413840049931e-01 -8.995937332458512348e-01 -4.213181463351110545e-01
-5.967101727161199243e-01 -4.399135459060736775e-01 -6.711281858970333802e-01
1.748503546792836705e-01 3.405373438285965171e-01 9.238298928518674513e-01
3.914313128332289060e-02 2.650521666973334467e-01 9.634392374210143384e-01
-2.210972029826663854e-01 3.296502548282421730e-01 9.178489725030566371e-01
6.318293698243247769e-02 -2.404521046591920341e-01 -9.686024477768157004e-01
-1.580606590922747356e-01 7.285169825062810522e-01 6.665431975853168822e-01
-6.054423169383446046e-01 -3.133466321094697249e-01 -7.316102029127133921e-01
-2.585740303077133651e-01 9.484990692480174124e-01 1.829999630766910301e-01
1.449319309116203214e-01 -9.574025969723591878e-01 2.497498803059002292e-01
-2.448542715889841792e-01 7.850154694188657967e-01 -5.690317200804412279e-01
-3.909770393761334284e-01 7.550260837494829902e-01 5.263768303588143294e-01
-2.000737449020366654e-01 7.896296140637714123e-01 5.800479024997626798e-01
-1.559297178875324319e-01 7.819072638221601368e-01 6.035784570887675615e-01
-7.332447357315634573e-01 -4.595309723193535256e-01 5.011820457689794006e-01
-2.309238833283142611e-01 -9.490077718248174365e-01 2.146122296717176969e-01
-2.483108417180280858e-01 5.216797739207632567e-01 8.162058192436916215e-01
-6.294452020302737649e-01 6.322953524738503805e-01 4.516650582910275435e-01
-5.738306621163438148e-01 -7.754085154707723859e-01 2.635526614370105047e-01
-3.650402133132454319e-01 4.192352060388072621e-01 8.312565697074634219e-01
-3.269622118223126650e-01 6.885200879325050760e-01 6.473297463840794741e-01
-6.218994770447513476e-01 -7.731918303265780112e-01 -1.241589061151118917e-01
-2.808067141403589040e-01 -6.207110063889779150e-01 7.320283026231136914e-01
-9.990833737075192067e-01 -2.404139145825017441e-03 4.273912137806433476e-02
2.408325353420572856e-01 -2.513168679658524529e-01 -9.374644109493175392e-01
-2.556127167299422909e-01 4.048466210703284829e-01 8.779301523776683602e-01
-9.595768636890777969e-02 5.745051338408334596e-01 8.128566747079416510e-01
-2.975796082049591562e-01 6.153177448934381566e-01 7.299523611851918004e-01
-3.177839701268562744e-01 8.057798195410873499e-01 4.997321590119510049e-01
-3.256451218089499999e-01 7.659475533005599690e-01 5.543280619226487183e-01
-3.179927281171868181e-01 3.134093501298421680e-01 8.947933862718135956e-01
5.704944231631313700e-01 -8.133139388660429736e-01 1.142652615013348416e-01
-4.347302059525875451e-01 8.196625731915707647e-01 3.730454585454615057e-01
-6.043883740518082304e-01 7.781867420030003091e-01 1.707046803159399939e-01
-7.952400636638513598e-01 5.552454081862390201e-01 2.435072439004849210e-01
-2.845388683763478976e-01 6.750645931134983124e-01 6.806801212813654578e-01
7.099970396741925871e-01 6.344863769551991606e-01 -3.055016221105023577e-01
6.726632737289419683e-01 7.358230880900522575e-01 -7.802886139039627578e-02
-4.444925196425159042e-01 4.365815301945680793e-01 7.821911323166589325e-01
-4.407298399194869987e-01 3.393451640779166500e-01 8.310247095131859663e-01
-9.397174345792457251e-01 -3.361715037044576415e-01 -6.260881123999045839e-02
-5.990193815912886466e-01 1.956543148932889664e-01 7.764632441665398899e-01
-3.586734939547308598e-01 -6.216187463504323218e-02 9.313910167465448975e-01
1.582265585989177104e-01 -2.412688269637389693e-01 -9.574725632045466561e-01
-6.649133153697905918e-01 5.419901559337131358e-01 5.139425589644260883e-01
-1.003541449063949514e-01 -2.316067338639207218e-01 -9.676194326433266157e-01
-6.260325549642973275e-01 5.310193187689892236e-01 5.710531702205955407e-01
-6.204715080660549997e-01 -6.573369727601965362e-01 4.276952325204200211e-01
3.053214820885611358e-01 -3.253618724103660154e-01 -8.949404698396787872e-01
8.119111163929099151e-01 5.756660055777601537e-01 9.699994381320531378e-02
-8.298497312085216793e-01 1.408218504379539215e-01 5.399246521991514225e-01
-4.722358759178202359e-03 -9.647739829787383981e-01 -2.630377560258045366e-01
-5.735076038896259609e-01 -2.937837749107400920e-01 -7.647091747062900735e-01
-9.710924900914075231e-01 -1.134710381917830024e-01 -2.100088073861390570e-01
-9.488745897963378473e-02 7.302172896781389255e-01 6.765937333315330537e-01
-9.329508782909100295e-02 8.045555586543897686e-01 5.865035205565990450e-01
-1.825381636786940487e-01 -2.223183009024459478e-01 -9.577339880596593691e-01
-3.284257711414553804e-01 7.923667713268178758e-01 5.140928053836725242e-01
-1.144888249439176553e-01 7.149301091448100332e-01 -6.897588332171985526e-01
-6.297272924958163820e-01 1.270404530081648276e-01 7.663577887549448686e-01
8.869382749850500680e-01 4.595026853901305608e-01 4.688047019604691529e-02
-5.153009081942921954e-01 2.440695616408994906e-01 8.215199468634690749e-01
-2.866472520067438468e-01 8.259358521872577352e-01 4.854516669954801467e-01
-6.696130917860783072e-01 -6.727553119470149057e-02 -7.396568868138522213e-01
-2.656992092013010232e-01 5.366905629126688115e-01 8.008540253443731105e-01
-3.298951038518903589e-01 3.710935817687699423e-01 8.680200308890203553e-01
7.349467851786881667e-01 -2.517189916188079524e-01 -6.296751322816565022e-01
-4.947738913944275119e-01 -8.298954722872898815e-01 -2.578222284277896792e-01
-6.729727477932900825e-01 3.948742536160964045e-01 6.254454449100093072e-01
-1.767068266368467810e-01 3.673650293266006450e-01 9.131361523057782703e-01
-8.626585281196846866e-01 -4.829032685060430929e-01 -1.504150827828099890e-01
1.425347810578716790e-01 9.373882577840488839e-01 -3.177846603556723770e-01
8.876055838631019546e-02 4.725903049694720193e-01 8.768009847872046958e-01
-5.222399582483499003e-01 2.313648231199262328e-01 8.208140743380604176e-01
-2.968316742131578700e-01 -6.104498308368265791e-01 -7.343309616345367052e-01
-4.491051110208760244e-01 5.107483256243857683e-01 7.331035036929048898e-01
-8.766045716487823602e-01 3.414555659222623385e-01 3.390759818464916808e-01
-8.774692156750223404e-01 3.610119587665027718e-01 3.157817936015852589e-01
7.736159957265276166e-01 6.135011059058120830e-01 1.585392197798342062e-01
4.452715494825873477e-02 -1.735350402192023800e-01 -9.838205742351262550e-01
-3.208037971695196777e-01 5.534236393300662193e-01 -7.686398370838467553e-01
7.311432554075342205e-02 -1.535861011533430631e-01 -9.854266106277198567e-01
-1.708370297729155107e-01 5.938295493992042928e-01 7.862449844156119694e-01
3.354609722160130370e-02 -1.718977053021314150e-01 9.845434669292466578e-01
-5.843148079455643407e-01 -3.358323933128153360e-01 -7.387779157617834214e-01
-9.683229915705684476e-01 -1.505071312711576403e-01 -1.992440398916650868e-01
7.479030180513905890e-01 4.076091639325785110e-01 5.239235107034285743e-01
-6.818753514659378068e-01 4.424263616520918707e-01 5.824988580061732923e-01
8.912457528098817194e-01 -1.099554118287068005e-01 4.399895629534030794e-01
-2.261419851879716350e-02 6.534807525434834785e-01 7.566052498367661361e-01
-6.015077820908647510e-01 -7.879461659337554380e-01 1.316405244384246664e-01
-7.320924411530197462e-01 -5.802864965221236904e-02 6.787292047835816744e-01
9.646400669972207687e-02 6.201822145931135122e-01 7.785041529200837918e-01
-3.414115244957924289e-01 7.986153004706271208e-01 4.956326994818530118e-01
-6.538879121898935054e-01 -4.277636033377627545e-01 6.240584090863893207e-01
-1.638998232055175752e-01 4.047815537992928703e-01 8.996047696944643457e-01
6.942911875514748976e-01 -6.492256349833600004e-02 -7.167599372434031446e-01
-9.305521814382674561e-01 3.625286432800754466e-01 5.143559489292923864e-02
-2.657528107155739117e-02 7.164862292877394179e-01 6.970948555806482094e-01
-7.745739943628374702e-01 -4.822085207834450604e-01 -4.092799405549225611e-01
8.057101161359940533e-02 -1.179146237426061464e-02 -9.966791226380924407e-01
1.099551816253938746e-01 -2.349266267639695260e-01 -9.657739580621487185e-01
-1.508722817949554873e-01 3.563704248120196372e-01 9.220833340350991225e-01
-1.639349721778727009e-01 4.160900115403273758e-01 8.944240757009005449e-01
-5.962984645013880147e-01 6.824622149277933536e-01 4.226978429435586104e-01
-7.556813230594633390e-01 -6.501409848442162298e-01 7.913556599210952447e-02
-1.489914614068979688e-02 4.367128503758331837e-01 8.994775715719061093e-01
-1.699627046602996405e-01 5.091001595522972600e-01 8.437592705081119471e-01
-9.629389484980438452e-01 1.646076886376675319e-02 2.692166869900439186e-01
-1.226541494866339871e-01 -2.349980435201536877e-01 -9.642260518962399996e-01
-6.009607605458857638e-01 -4.635070699845891817e-01 6.511584756097488214e-01
8.088806640744325982e-01 5.765458525788215161e-01 -1.153557591135564442e-01
-5.210107811038024173e-02 5.939651609627369933e-01 8.028018841671000771e-01
-1.251508894456292709e-01 6.263116271497229937e-01 7.694615003806456466e-01
-1.960523867608145454e-01 6.707037043869464865e-01 7.153460718889953496e-01
-8.365980256285131533e-01 -3.099192594612386609e-01 -4.517231410161216543e-01
3.035642118742597484e-01 7.808868922469704987e-01 -5.459527734026339285e-01
8.312923589969584137e-01 -1.601787067736475112e-01 5.322553858530636450e-01
-2.373104078613731405e-01 2.763967709110378701e-01 9.312833056329421488e-01
1.269424921326453223e-02 6.587167795540761484e-01 7.522838961262020563e-01
-8.185163463564169017e-01 2.271303578612673679e-01 5.276767867598070039e-01
2.309696684178927650e-01 -1.583233042056435835e-01 -9.599930956086798473e-01
-9.722834156991461141e-01 -1.756567045656124981e-01 -1.543038615769237454e-01
-9.963428650852720891e-02 7.589789493553207311e-01 6.434469390613574147e-01
-5.544084660083656857e-01 3.492400136126744270e-01 7.554221771367781724e-01
-2.484311471188303810e-02 7.317305727144401972e-01 6.811410930243524398e-01
6.349310675234864920e-01 -3.649841986546748518e-01 -6.809178175271157762e-01
-1.507566545083829923e-02 8.664269226575859184e-01 4.990762587073444556e-01
-1.794314818620613705e-01 6.385102977263866775e-01 7.484042644280868295e-01
-9.223509545152008826e-01 2.042571786027294611e-01 -3.279446930416016204e-01
7.212685079414837830e-01 6.601514165406883183e-01 -2.096946510791068696e-01
-1.042186690347894490e-01 6.163111864882072632e-01 7.805760631957114892e-01
-7.780121875742772308e-02 6.911950636824654159e-01 7.184680607381593864e-01
-8.797195261209409534e-01 4.563036618964251834e-01 1.337180746999441228e-01
-8.676124389929832370e-01 3.594909980248281456e-01 3.435329358937216360e-01
-4.330353241640158002e-01 -3.587261763456794372e-01 -8.269195477376104497e-01
-8.728152878146572258e-02 -2.197163885819047868e-01 -9.716515030205508108e-01
-3.504541624897818397e-01 8.379524483105611488e-01 4.183510181222485635e-01
-2.189226414536948884e-01 -4.879285794480141547e-01 -8.449843657824562815e-01
-5.630944929075953898e-01 5.038717750038858023e-01 6.550097910806917945e-01
9.717451650296740628e-02 8.539953416050274360e-01 -5.111252976123635827e-01
-4.832864171871907311e-01 -2.779511805193088381e-01 -8.301670796955822329e-01
-1.406762514198451330e-01 4.819711632487360675e-01 8.648202067962570405e-01
8.550126301017351160e-01 2.566758503740250719e-01 4.506338981937386134e-01
-7.985858872102549744e-02 9.403624304687796531e-01 3.306676657466464664e-01
-5.662601996146690020e-01 -1.313170256563803151e-01 -8.136984853771800363e-01
-9.191770449295665057e-02 7.456098770760828387e-01 6.600129141216360962e-01
8.865483740550147984e-02 3.636119793585270155e-01 9.273223001047576908e-01
-4.934986943548512195e-01 5.544204841931336114e-01 6.701320507012840100e-01
-5.256030790640883188e-01 -3.470432287035620789e-01 -7.767254345580276720e-01
-4.745989635934107220e-02 7.548936285824027204e-01 6.541277916151049254e-01
-7.023147118648807030e-01 6.710774194831221617e-01 2.375060895177703857e-01
-4.278803640883470094e-01 4.421882483458008384e-01 7.882816419608513758e-01
2.532720099382324563e-01 -1.134485999823451607e-01 -9.607198884919024851e-01
-2.775990350042576438e-01 8.389554065650212111e-01 4.680732865268267262e-01
6.413146447931551419e-01 7.670695301121992493e-01 -1.788469589562571849e-02
-4.268549223215135219e-02 -2.826545580393871604e-01 -9.582715427124284258e-01
-2.318122400949721718e-01 7.570000125390130563e-01 6.109124866608024451e-01
-5.963096209860401231e-01 6.145714218685834895e-01 5.164463218398527289e-01
4.791330160022056472e-01 -5.671661816008288781e-01 -6.698910922119847289e-01
-1.162851538960843895e-01 7.811386876596754236e-01 6.134330555363675108e-01
-1.233543430166525318e-01 8.479518198311890576e-01 5.155205304388030818e-01
1.457094392665647387e-01 7.493342213878874114e-01 6.459620607788292279e-01
-4.848873250666193568e-01 -1.943804208913129938e-01 8.527019021697175294e-01
9.174059208596538895e-01 -3.896185408675876261e-01 8.101709068994300544e-02
2.033198601120113080e-01 -9.219278718153646190e-01 3.297120465709815207e-01
-8.504243962875653040e-02 -7.250286897825608534e-01 6.834480100594135799e-01
8.039708804326778369e-01 -5.941685348158594060e-01 2.438392197903084882e-02
2.029291620366740490e-01 -6.197543973435780673e-01 7.581056932700028783e-01
9.101088420938981127e-02 -1.320895569900563393e-01 9.870508436193119461e-01
8.091541043182284287e-01 -5.748638164860814248e-01 1.216602973858858933e-01
9.529041596116810675e-01 -1.506661991877387696e-01 2.631983263949002616e-01
8.527512045636699289e-01 -5.024231656345728991e-01 1.427807611302878976e-01
8.485175794432484597e-01 -5.276422903827948652e-01 4.014387593854056024e-02
-5.069996805132623852e-01 -3.342919406398152105e-01 -7.944811025963526285e-01
-2.243390575783084928e-01 2.486897079012595213e-01 9.422448813492501074e-01
8.961994310222795024e-01 -3.855346187629647980e-01 2.195213829462583921e-01
-5.315377409509920437e-01 -8.141480060544529218e-01 -2.337320136016341476e-01
-3.607154142844001266e-01 8.299927784642410211e-01 4.254366904662114091e-01
8.357667027859240205e-01 -5.475843592657286818e-01 4.056338252520757387e-02
-6.953075791449856435e-01 -6.805646209003070046e-01 2.310393195158801927e-01
8.162044753142213560e-01 -5.534628806266177481e-01 1.657983541701266994e-01
2.733474622196120918e-01 -7.877644153460399146e-01 5.520039771710072429e-01
2.709305698995665979e-01 -8.381718268860024468e-01 4.733546396820013102e-01
3.723220340539517559e-01 -7.678694431485715288e-01 5.212991667331060563e-01
3.812615898540406417e-02 -9.096522015408059492e-01 4.136172968251985993e-01
5.061604681622590141e-01 2.472124861190510559e-01 -8.262490951139376261e-01
-1.418269455087217135e-01 9.108117699229962838e-01 3.876945154337434474e-01
-8.867353098562162916e-01 -3.625725783510901912e-01 -2.867779902329368746e-01
7.783739615187265093e-01 3.855157240133345597e-01 -4.954912739575930147e-01
9.710031358465511797e-01 3.570258812251358299e-02 -2.363857765973201852e-01
-5.538035353019480356e-01 -5.472112179732471215e-01 -6.275838806178019036e-01
8.225824449928131887e-01 3.805719987350231759e-01 -4.225199107361390372e-01
-4.906530307654095591e-01 -8.923523881183828554e-02 -8.667737164652100645e-01
6.705138544180686555e-01 5.485548572453461391e-01 -4.994984881117891518e-01
9.628827853447140539e-01 1.787848936078398066e-01 2.022194439326706339e-01
8.510329004618263360e-01 -3.275224967929461495e-01 -4.104534278405357339e-01
9.113509144684446561e-02 -2.197489166550352646e-01 -9.712902803672616159e-01
8.520826434938746363e-01 4.553501141900422322e-01 2.580919258008784745e-01
-9.686288182804404512e-01 -5.941466131368737524e-02 -2.413050153179945867e-01
9.370023606694075635e-01 3.490423396213065410e-01 1.400075896663261106e-02
6.286207424104042207e-01 7.652921445557030466e-01 -1.384337231050478956e-01
2.514602003067719638e-01 1.529551408160899351e-01 9.557052330920910999e-01
-9.908976550378784109e-02 -6.998507229487933579e-01 7.073826291056741766e-01
5.325847128641603145e-01 8.241818778811897950e-01 -1.925558511072444912e-01
-2.585337538545314784e-01 8.404945796405079994e-01 4.761608548723954559e-01
6.530809181116368212e-01 1.551178535492571398e-01 -7.412312499542452748e-01
-6.546778915552751155e-01 -4.771042416986072121e-01 -5.863176620757184487e-01
1.549180213491928582e-01 -4.153259412174759579e-01 -8.963842754160008530e-01
9.584794788629718010e-01 2.215429384192000792e-02 2.842996233956912033e-01
-4.696408670985401379e-01 7.143890337451902495e-01 5.187347727071558445e-01
7.970678394962795732e-01 5.484870792803914208e-01 -2.526752522571185100e-01
9.411853759670265607e-01 -3.378346138543690258e-01 -6.153190040638810247e-03
8.964541876395365483e-01 -4.387759191836175798e-01 6.201275843010106703e-02
-3.652132150968011581e-01 -4.017135512663810859e-01 -8.397889795940467472e-01
3.212543345800794592e-01 -3.444040364123949760e-01 8.821459699031447554e-01
-9.844362745711737750e-01 -4.638990825886431246e-02 -1.695086951166899780e-01
-6.103415673204134473e-01 -7.742279123371967886e-01 1.674942117174413325e-01
-6.015287653268198698e-01 -5.820293019012804381e-01 -5.471791628093121140e-01
6.078164699016114225e-01 4.488108138006138836e-01 -6.550786153828974667e-01
8.416416303579131730e-01 4.690781358519775512e-01 -2.675912340008687607e-01
9.068804410862655319e-01 7.510329420999253824e-02 4.146412434550956205e-01
9.405687637835652426e-01 -1.966350769242957153e-01 -2.768845375199424641e-01
-8.346598846510083769e-01 4.913671677245970981e-01 -2.487994843979244863e-01
5.723196815886864020e-01 6.151570252412191797e-01 -5.422471911984411141e-01
-4.087539829908717337e-01 5.022227041371844780e-02 -9.112617104562164005e-01
-4.792681148753825948e-02 4.522233122966259899e-01 -8.906161331101668521e-01
8.606707522738239469e-01 3.595947523346083585e-01 -3.604684039882297131e-01
-8.029154155084200495e-01 5.943790422910739668e-01 4.517067216775567245e-02
9.449457213095947550e-01 -6.394363241784721541e-02 -3.209186745141219266e-01
-8.551985629030915970e-01 -5.174148038833390473e-01 3.028760028217534692e-02
3.886346743029765460e-01 7.200504111605715574e-01 -5.748830275081281416e-01
8.860507953359486599e-01 -1.217107766309441508e-01 -4.473259157889529769e-01
4.887107822589328299e-01 7.434436135749140639e-01 -4.565669334703683635e-01
7.192545027821027892e-01 6.456419774963818581e-01 -2.565529129092701810e-01
-8.163799696925323479e-01 -4.701425566289819113e-01 -3.353948740383257965e-01
-5.916659476458556721e-01 -4.912121857305884465e-01 -6.392511204418098725e-01
8.908421799350074721e-01 -2.758528428591514592e-01 3.609784197637970204e-01
8.926021400725066002e-01 2.042416212550429433e-01 4.019288241530993289e-01
-2.840919765339157688e-01 8.967453408537227055e-01 3.393221810111947123e-01
9.624337156492438483e-01 -8.655377606542481728e-02 2.573514849974769536e-01
-6.715926067599552463e-01 -6.476006914615984877e-01 -3.599676582192175567e-01
9.562519061107433993e-01 2.868701740538306399e-01 -5.733929976808862378e-02
9.502860649286248851e-01 2.646783402383785511e-01 -1.640175936024131642e-01
8.274367695439174275e-01 3.769080151306298809e-01 -4.162796422322554979e-01
5.955354597914742643e-01 6.947689427973474663e-01 -4.032786037657011824e-01
5.525706909183826232e-01 7.902178764749565598e-01 -2.649930928107213091e-01
9.763038967711354932e-01 2.143248274283823529e-01 -2.992606718715290146e-02
-7.148186905548372660e-01 -2.095775310538992298e-01 -6.671667693394356391e-01
-6.966925505597468815e-01 -2.092604508821393761e-01 6.861702075222722019e-01
7.856551415957067075e-01 5.086031664226785542e-01 3.522340380898122958e-01
9.972356720468572577e-01 -7.010938739169073064e-02 2.461073336604265721e-02
-6.313847900079968545e-01 1.903961989444231256e-02 -7.752359252645820709e-01
-5.420496218052476278e-01 -3.588810100220926613e-01 -7.598596108139389349e-01
-7.315359186561984917e-01 5.430754971953208887e-01 -4.122186362379638425e-01
1.011909671299865247e-02 -7.899686268169181513e-01 -6.130637589408670651e-01
6.626854188925429545e-01 7.364728388189404340e-01 -1.358521007168677630e-01
-9.769608151499376003e-01 -1.880754100570276033e-01 -1.008722250842628704e-01
-1.518018620943884511e-01 -9.634192708068655131e-01 2.208608233767222484e-01
7.143204653507219115e-01 6.975999701573213363e-01 -5.568262222302581416e-02
6.290738842455984026e-01 6.803190678370228950e-01 -3.760744794552268178e-01
2.044471012840818613e-01 8.078713510589267122e-01 -5.527614882702670540e-01
9.901594270855108570e-01 1.103879556691270414e-01 -8.601632517658279464e-02
1.255186997294620299e-01 4.450596607867882137e-01 -8.866605632137781745e-01
6.854038798639110475e-01 7.243764335614620853e-01 -7.416403419632797145e-02
9.082576897862446597e-01 3.982710047497270422e-01 1.282504414019572103e-01
9.922648151449126042e-01 8.255643857851646672e-02 9.270906684172877665e-02
-3.529146000654747595e-01 8.025351200652489636e-01 4.810287581033821369e-01
5.363473140633354674e-01 -1.874662331436623697e-01 -8.229143151798805622e-01
3.443167555827418846e-01 8.962236394983106313e-01 -2.796947618912022371e-01
-9.696775988054155970e-01 2.443877069453387063e-01 5.539821984752423949e-05
7.607728495889778397e-01 3.869138943362073757e-01 5.210780264968546405e-01
9.494997342691456899e-01 2.966057524517473620e-01 -1.023488262529409776e-01
9.552307660295186187e-01 -9.074337218153777362e-02 2.816022443727713154e-01
6.621438531639098901e-01 7.483610034493588525e-01 3.900418225676684225e-02
-3.165781592971086966e-01 1.273685754071958443e-01 -9.399763374972777141e-01
4.818249577322453181e-01 8.534316722932564492e-01 -1.987437818726812688e-01
6.853211371431688903e-01 7.271287635916401371e-01 -4.023307274477811585e-02
9.825672211088867236e-01 2.129909487164305046e-02 -1.846835254158010753e-01
9.553846398639234128e-01 7.098434736486927688e-02 -2.867078867789737973e-01
3.630122067106139605e-02 9.865503764161145384e-01 -1.593755821040770682e-01
-7.551999088560946705e-01 6.446082483946730113e-01 -1.189676584845562740e-01
7.980908399998984937e-01 5.504053998808974280e-01 2.451630210496796025e-01
-1.455316001922889700e-02 -9.979414082288522447e-01 -6.245919688620641536e-02
6.741528829638827602e-01 6.764752068353814263e-01 -2.964779670203389617e-01
5.029390061323699701e-01 1.183834740703014893e-01 -8.561762138588235871e-01
7.035548001134636076e-01 4.475527468003587250e-01 -5.520028823011325914e-01
8.566873860871171420e-01 4.565662464422824973e-01 2.400707919111101096e-01
9.035118531032632072e-01 4.255068263170964094e-01 5.109082167532447843e-02
8.435142652709629596e-01 5.348820089547438039e-01 -4.883565071671461255e-02
1.596723431644499758e-01 -2.363111342308268081e-01 -9.584684609661989763e-01
6.988119391444345130e-01 5.788184103790944279e-01 -4.202750545956938644e-01
2.757961285374095906e-01 -3.965024909021233057e-01 -8.756267870458211977e-01
9.851054352053271179e-01 -1.170687340098000434e-01 -1.259451985836128052e-01
1.391097607494505561e-01 4.847140147145049260e-01 -8.635396912728315888e-01
7.121355255917338756e-01 5.884722327006003395e-01 -3.828360282556432792e-01
-5.094555990209110874e-01 -4.465674215366026711e-01 -7.355491354412667659e-01
-7.123494755905552811e-01 -8.987333531751517945e-02 -6.960466997441814296e-01
-1.452693401252560801e-01 -2.860287662710226941e-01 -9.471453762147864497e-01
4.505397000726585888e-01 -7.429119411074248669e-01 4.950715366676182727e-01
4.805555939507858421e-01 7.701599409543775643e-01 -4.194281660448629934e-01
9.228428535356326678e-01 1.211708319935503042e-01 -3.656209747158955525e-01
-4.532817397902403900e-01 -5.511135981628740854e-01 -7.005779516175933974e-01
5.349193848480374713e-01 6.947660937811436233e-01 -4.807923945383167919e-01
3.184592911104240642e-02 -1.297262939366440881e-01 -9.910383067573714788e-01
-7.615779939533419141e-01 6.269900525422466009e-01 -1.639586324018180163e-01
9.985820923239283609e-01 -5.095046174314578347e-02 1.542255938959405902e-02
9.315676317484277158e-01 3.291575908875291057e-01 -1.543924474828475002e-01
9.730613052976755384e-01 2.286250717136479316e-01 -2.970307587293447016e-02
-1.432659358338808642e-01 -1.497471941016691177e-01 -9.782896552086806086e-01
3.566348187156027916e-02 -9.379095744675987056e-01 -3.450416586193680302e-01
5.561394701200373936e-01 7.655026889074326713e-01 -3.235962346043204096e-01
-1.297592689691738632e-01 5.451436018730400068e-01 8.282396908223331744e-01
6.129196193948840410e-01 6.834088827590876214e-01 -3.965877445494328524e-01
-9.427506455378223960e-01 8.778700475472966946e-02 3.217369455536805978e-01
7.911020307009619668e-01 5.787350360773843017e-01 -1.980488198331987748e-01
-7.938910984678280158e-01 -4.373324332240283718e-01 -4.224656987542257935e-01
5.572787385182584319e-02 -8.402755887324022677e-01 -5.392878072572842019e-01
-3.000526126240356597e-02 8.057016715381236649e-01 -5.915610710461332022e-01
8.010443181975948068e-01 -8.474399574121273260e-02 -5.925761178693957909e-01
-6.139262232968988320e-01 1.361051333813342590e-01 -7.775409860680371210e-01
6.648997103263794006e-01 7.088238249536847890e-01 2.355359004184388316e-01
3.825666543984808654e-01 8.584788864213777071e-01 -3.415505182415405350e-01
-5.505976652307692509e-01 1.261292065520088490e-01 8.251870298889738553e-01
9.777622344135193933e-01 -3.040956176017745038e-02 -2.075000518270677663e-01
5.050201429283827093e-01 8.094634012498105324e-01 2.995390747025905021e-01
-8.966698540311729415e-02 3.915930420963791847e-01 -9.157590955652150644e-01
8.951489765319178282e-01 -4.393466207520290712e-01 -7.538472423265085709e-02
5.182428655236579473e-01 -6.944856593922693611e-01 4.991132148444002992e-01
8.247376211842857296e-01 5.486314585339113759e-01 -1.371545803472801750e-01
2.122270010978176691e-01 2.603908062976965643e-01 -9.418897642509245216e-01
6.229319357343369168e-01 7.710044497969987809e-01 1.323175794650844339e-01
2.246466444330326995e-01 8.144664668765427828e-01 -5.349563154862462255e-01
-7.058206455045801242e-01 1.307423396484033440e-01 -6.962209828802629064e-01
-6.323848668606061318e-01 -6.293074062086031484e-01 4.517317441321714866e-01
-9.461369037680636418e-02 3.221224887594562047e-01 -9.419582537611185247e-01
8.608070344445477584e-01 -1.717582282946590877e-01 4.790723958483338873e-01
1.844992463691248474e-01 9.454792006852449360e-01 -2.683823935373098046e-01
8.569089341195774701e-01 2.168642060411461181e-01 -4.676291209539808480e-01
-3.296972812990636714e-01 7.395784899598105699e-01 -5.867907292150860155e-01
5.410196872175045968e-01 8.342388289241995381e-01 1.065048090850995305e-01
6.533255598358723715e-01 6.771104251693238485e-01 -3.386549645172226564e-01
9.530732208715304576e-01 1.956044130361399846e-01 -2.310635178005260859e-01
5.152005846336905372e-03 8.853216387569594614e-01 -4.649505917669650712e-01
9.509194162433899367e-01 -2.281647063123778962e-01 -2.090290185709070825e-01
-1.994598183786015690e-03 5.146448514005517172e-01 -8.574011304546951262e-01
8.527503225791666086e-01 3.292121844088100602e-01 4.055073673534267398e-01
5.514435959575105656e-02 9.940907739615628680e-01 -9.350204665821684746e-02
7.031888316815401163e-01 3.999733530472052156e-01 -5.878322752712090704e-01
6.450190906935613366e-01 6.704046805526632236e-01 -3.667532371144565650e-01
-4.102012989220175654e-01 -5.049751901329475601e-01 -7.594306760415220348e-01
6.554039285732459197e-01 1.891135169942715910e-01 -7.312193707095108186e-01
4.001451879307335036e-01 5.207192528129972464e-01 -7.541454026417927503e-01
