-1.936620367806262980e-05 9.999999998095228104e-01 -2.429904455745178911e-06
-2.002479476107645579e-05 9.999999995946188269e-01 2.024277556755308834e-05
0.000000000000000000e+00 1.000000000000000000e+00 -0.000000000000000000e+00
-1.944469627967582143e-05 9.999999996182223905e-01 1.963310367764891089e-05
-2.004596069125858543e-05 9.999999995942470132e-01 2.024019397931763064e-05
0.000000000000000000e+00 1.000000000000000000e+00 0.000000000000000000e+00
0.000000000000000000e+00 1.000000000000000000e+00 0.000000000000000000e+00
-1.945633190180147778e-05 9.999999996180238826e-01 1.963168719396300789e-05
0.000000000000000000e+00 1.000000000000000000e+00 0.000000000000000000e+00
1.945595060793247805e-05 9.999999996180304329e-01 -1.963173361146773209e-05
0.000000000000000000e+00 1.000000000000000000e+00 -0.000000000000000000e+00
0.000000000000000000e+00 1.000000000000000000e+00 -0.000000000000000000e+00
2.004595329087283757e-05 9.999999995942472353e-01 -2.024018819449337799e-05
1.944469483313087733e-05 9.999999996182226125e-01 -1.963310385374670487e-05
2.002479401824186625e-05 9.999999995946189379e-01 -2.024276897777254824e-05
1.936625144926944366e-05 9.999999998095219222e-01 2.429910348092526991e-06
1.941378194596455071e-05 9.999999998087162334e-01 2.381744584633480215e-06
1.971413438843657484e-05 9.999999998021171788e-01 2.668045471927796269e-06
1.971413438843657484e-05 9.999999998021171788e-01 2.668045471927796269e-06
1.988405583904916891e-05 9.999999997992000678e-01 2.494879980874040425e-06
1.850998436121009566e-05 9.999999986763045134e-01 4.800803496858882080e-05
5.754484921127308249e-05 9.999999983139693516e-01 7.787928769571545723e-06
5.390149880838615429e-05 9.999999800337369127e-01 1.924244123842581023e-04
5.390149880838615429e-05 9.999999800337369127e-01 1.924244123842581023e-04
1.692616961430540952e-04 9.999999830306660620e-01 7.272651424775959076e-05
2.642885960599729192e-04 9.999999364485511189e-01 2.392789831817738913e-04
-1.277561935754811123e-04 9.999999294839114761e-01 3.531437769249458087e-04
-5.235281185499875275e-04 9.999998629434775355e-01 -5.597776928181361780e-06
7.863445487387421811e-04 9.999938179597909205e-01 -3.427200672734934204e-03
-1.055770256747852074e-03 9.999985981884871311e-01 -1.299603872594000831e-03
6.263773459774851695e-04 9.999787722899939890e-01 -6.485570199808174743e-03
-1.282303340594655606e-03 9.999922039603916790e-01 -3.734664185832596225e-03
9.447260427901467139e-01 3.278602038767303717e-01 -6.251303692029145515e-04
9.447260427901467139e-01 3.278602038767303717e-01 -6.251303692029145515e-04
-9.424085664601495882e-01 -3.340513320810836184e-01 -1.660726941370346474e-02
-9.403610986929354931e-01 -3.401754122059238439e-01 1.301151622555728714e-03
-5.212688900289383018e-03 -9.998693651728474130e-01 -1.529968833917680869e-02
-2.859052248440440043e-03 -9.999804316673113203e-01 -5.564360043917376646e-03
4.005662456536438105e-03 -9.999020977623328532e-01 -1.340707122269837320e-02
4.005662456536438105e-03 -9.999020977623328532e-01 -1.340707122269837320e-02
-1.204430780587711696e-03 -9.999974171012119273e-01 -1.927469169582111388e-03
1.678826213968150072e-03 -9.999889243208881506e-01 -4.396905513698878137e-03
-3.614553840933592242e-04 -9.999996676357632008e-01 -7.308066562043106932e-04
6.108000223938371033e-04 -9.999987202505822292e-01 -1.478654973516959790e-03
-2.490967379070703827e-04 -9.999999342110668099e-01 -2.636829108704713347e-04
-1.326025238897715999e-04 -9.999999854771483010e-01 -1.070620090716084674e-04
-3.676953374646685775e-05 -9.999999807633179749e-01 -1.926690562258411704e-04
-5.764558882070911107e-05 -9.999999975848428146e-01 -3.882396659909352865e-05
-1.918078771238586132e-05 -9.999999971584979663e-01 -7.290474212082734750e-05
-1.913547445251759650e-05 -9.999999994220056809e-01 -2.810377505694138173e-05
-2.000381990927129017e-05 -9.999999997857326184e-01 -5.327443825519255830e-06
-1.995386608824985808e-05 -9.999999997864983392e-01 -5.370887635646768779e-06
0.000000000000000000e+00 -1.000000000000000000e+00 0.000000000000000000e+00
0.000000000000000000e+00 -1.000000000000000000e+00 0.000000000000000000e+00
-3.949397033257276489e-05 -9.999999991652926967e-01 -1.047093828235311252e-05
-3.948182733037672993e-05 -9.999999991656621789e-01 -1.048145763513632243e-05
0.000000000000000000e+00 -1.000000000000000000e+00 0.000000000000000000e+00
0.000000000000000000e+00 -1.000000000000000000e+00 0.000000000000000000e+00
0.000000000000000000e+00 -1.000000000000000000e+00 0.000000000000000000e+00
0.000000000000000000e+00 -1.000000000000000000e+00 0.000000000000000000e+00
-0.000000000000000000e+00 -1.000000000000000000e+00 0.000000000000000000e+00
0.000000000000000000e+00 -1.000000000000000000e+00 0.000000000000000000e+00
3.948260173968005569e-05 -9.999999991656410847e-01 1.048055261539874651e-05
3.948260173968005569e-05 -9.999999991656410847e-01 1.048055261539874651e-05
3.949376279294892518e-05 -9.999999991653016895e-01 1.047088413047106617e-05
-0.000000000000000000e+00 -1.000000000000000000e+00 0.000000000000000000e+00
0.000000000000000000e+00 -1.000000000000000000e+00 0.000000000000000000e+00
2.000391935222422648e-05 -9.999999997857311751e-01 5.327357564567719417e-06
2.000391935222422648e-05 -9.999999997857311751e-01 5.327357564567719417e-06
1.913639864445759433e-05 -9.999999994219931354e-01 2.810359410489544888e-05
1.913639864445759433e-05 -9.999999994219931354e-01 2.810359410489544888e-05
3.919339470667510889e-05 -9.999999991762905660e-01 1.054972325919756341e-05
1.918077510159847411e-05 -9.999999971586173153e-01 7.290310869412529099e-05
5.764596709328080409e-05 -9.999999975848681277e-01 3.882275564880032967e-05
1.815731336150763645e-05 -9.999999728777851926e-01 2.321954801519079882e-04
1.517824713664244808e-04 -9.999999821150971080e-01 1.128356624745061195e-04
-1.694900757697475236e-04 -9.999997465415386699e-01 6.915128144921429227e-04
2.683340445033783142e-04 -9.999999141084462417e-01 3.158796298405221604e-04
-9.055573879064146483e-04 -9.999976165946196094e-01 1.986648156439594064e-03
-2.699869281106716170e-03 -9.999738768340410422e-01 6.704950064147507938e-03
-2.699869281106716170e-03 -9.999738768340410422e-01 6.704950064147507938e-03
1.931054461677129009e-03 -9.999945071533720142e-01 2.693824743825547208e-03
-6.119320307061314017e-03 -9.997418213622069061e-01 2.188251672812318444e-02
-8.083695776581342751e-03 -9.981928583174317637e-01 5.954554111491026230e-02
-8.083695776581342751e-03 -9.981928583174317637e-01 5.954554111491026230e-02
8.089640591422491214e-03 -9.996526226066901888e-01 2.508369651124101041e-02
8.089640591422491214e-03 -9.996526226066901888e-01 2.508369651124101041e-02
9.384117078062809147e-01 -3.455163288354514695e-01 1.390381304315018709e-03
-9.961760896106144347e-01 8.710675931264307004e-02 6.753589427439688625e-03
-9.969870583286277732e-01 7.693828275287166452e-02 -9.864389097587107982e-03
9.968415518397174546e-01 7.940709456882834305e-02 1.197438065697557091e-03
9.968415518397174546e-01 7.940709456882834305e-02 1.197438065697557091e-03
9.973195791808124877e-01 7.292493742065786488e-02 -5.967452119641508332e-03
9.973195791808124877e-01 7.292493742065786488e-02 -5.967452119641508332e-03
-8.841592111986604774e-01 4.670348925878999857e-01 1.187006141396617157e-02
-8.814464774303970573e-01 4.717763210041004407e-01 2.189087402048054201e-02
4.226614818349269491e-03 9.998722073503930607e-01 1.541767477377891174e-02
4.226614818349269491e-03 9.998722073503930607e-01 1.541767477377891174e-02
-5.548279365584381055e-03 9.995137862686277463e-01 3.068236716802705613e-02
3.906649255624851901e-03 9.999744180362001300e-01 5.991774758454459886e-03
-4.323285440077936394e-03 9.998750478692201016e-01 1.520519159788441196e-02
1.725580676761076428e-03 9.999968656793007948e-01 1.814112152688696642e-03
-2.163587870144945916e-03 9.999806425110853159e-01 5.833822987119424187e-03
-2.163587870144945916e-03 9.999806425110853159e-01 5.833822987119424187e-03
5.323739532109368795e-04 9.999997791661978663e-01 3.978008663950447030e-04
5.323739532109368795e-04 9.999997791661978663e-01 3.978008663950447030e-04
-8.088848412643299566e-04 9.999981849170542780e-01 1.725070407477277603e-03
9.863506870263950442e-05 9.999999942081518878e-01 4.306761247825093659e-05
9.863506870263950442e-05 9.999999942081518878e-01 4.306761247825093659e-05
1.196144967440598318e-09 9.999999997964897913e-01 -2.017474496016780631e-05
1.196144967440598318e-09 9.999999997964897913e-01 -2.017474496016780631e-05
1.196144967440598318e-09 9.999999997964897913e-01 -2.017474496016780631e-05
-5.878332042436422298e-05 9.999999975976646693e-01 3.673134736709024939e-05
-2.001842117265872375e-05 9.999999995791472029e-01 -2.099924593279841475e-05
-2.003760249862658645e-05 9.999999995791526430e-01 -2.098068626742146664e-05
-2.003285967047223665e-05 9.999999997990179912e-01 -8.053412268876665842e-07
-1.996155742816919227e-09 9.999999997960732356e-01 -2.019538059685880684e-05
-1.996155742816919227e-09 9.999999997960732356e-01 -2.019538059685880684e-05
0.000000000000000000e+00 1.000000000000000000e+00 0.000000000000000000e+00
1.996116344071320689e-09 9.999999997960733467e-01 2.019537913524451642e-05
2.003325446088324158e-05 9.999999997990104417e-01 8.049575192096390426e-07
2.003760153689349935e-05 9.999999995791609697e-01 2.098028714112030107e-05
2.001763382845077557e-05 9.999999995791554186e-01 2.099960809824582338e-05
5.878329993969843371e-05 9.999999975976235911e-01 -3.673249732993413185e-05
-1.194660877248029948e-09 9.999999997964897913e-01 2.017474429540318641e-05
2.349653468851027117e-04 9.999999048547890679e-01 -3.675346226665221656e-04
-9.863312560851037109e-05 9.999999942084299986e-01 -4.306560611513341369e-05
-9.863312560851037109e-05 9.999999942084299986e-01 -4.306560611513341369e-05
8.088869311422834836e-04 9.999981848877390611e-01 -1.725086420994909097e-03
-5.323553374597165102e-04 9.999997791847116124e-01 -3.977792387697771850e-04
-5.323553374597165102e-04 9.999997791847116124e-01 -3.977792387697771850e-04
2.163217487626449900e-03 9.999806456467860150e-01 -5.833422832108419061e-03
-1.725375616281563237e-03 9.999968661088119992e-01 -1.814070433413983181e-03
4.324488185568026687e-03 9.998750682834158798e-01 -1.520350706802257000e-02
-3.904481420310915857e-03 9.999744243535170218e-01 -5.992133484075142999e-03
5.511625135793634181e-03 9.995173673360757682e-01 -3.057211772060745500e-02
5.511625135793634181e-03 9.995173673360757682e-01 -3.057211772060745500e-02
-4.195563114540826720e-03 9.998723161096456646e-01 -1.541910268740332053e-02
-4.195563114540826720e-03 9.998723161096456646e-01 -1.541910268740332053e-02
-4.195563114540826720e-03 9.998723161096456646e-01 -1.541910268740332053e-02
8.810447552727573850e-01 4.730323869559300287e-01 7.071754678172935751e-04
-6.458926514607763458e-01 7.622767884743482103e-01 4.191396595648880924e-02
-6.263764188115569231e-01 7.794747149743833647e-01 8.470576864227289185e-03
-3.130555288705866857e-01 9.491926384819815432e-01 3.208692716935494793e-02
1.076913915209889994e-01 9.940636644921951870e-01 -1.549177616096219547e-02
6.997421193979391774e-02 9.973327284057467157e-01 2.076146705205990373e-02
4.654485554534198988e-01 8.848089831268148853e-01 -2.169575083781447727e-02
4.338544086780463660e-01 9.009125544787764950e-01 1.126593330125882919e-02
7.445122230872724955e-01 6.665707037722460315e-01 -3.721621348578955241e-02
7.118058525951463933e-01 7.023648552832427727e-01 4.004781423022854385e-03
-7.423256360545067434e-01 6.691313431940881795e-01 3.486969474411183434e-02
-4.606647328210211612e-01 8.873860671275960454e-01 1.827489542390123289e-02
-1.021773966018565544e-01 9.946734194135116169e-01 1.358559295353884908e-02
-1.021773966018565544e-01 9.946734194135116169e-01 1.358559295353884908e-02
3.117210079226136465e-01 9.500223530789375648e-01 -1.695705959382149547e-02
2.832212784254801163e-01 9.590148062573448096e-01 8.735492328663604228e-03
2.832212784254801163e-01 9.590148062573448096e-01 8.735492328663604228e-03
6.437001771430342911e-01 7.651568158592249036e-01 -1.360621513128253829e-02
6.437001771430342911e-01 7.651568158592249036e-01 -1.360621513128253829e-02
6.273211289762010701e-01 7.787468249082190042e-01 4.645840655045324445e-03
-6.257165927621122226e-01 -7.746798667575315323e-01 9.137751136196535506e-02
-6.399983913782798517e-01 -7.668701699880473566e-01 4.808535552241981897e-02
-6.399983913782798517e-01 -7.668701699880473566e-01 4.808535552241981897e-02
-2.966579801572693520e-01 -9.519382626872823217e-01 7.620752483139600630e-02
-3.197294719835907517e-01 -9.415905339149815978e-01 1.057370852009549556e-01
8.367706190451931758e-02 -9.949123901212610921e-01 5.610245354908108273e-02
8.367706190451931758e-02 -9.949123901212610921e-01 5.610245354908108273e-02
4.054397536377025296e-02 -9.937834511994229070e-01 1.036852843168511590e-01
4.471281500223092120e-01 -8.937977173482215543e-01 3.467070695466143576e-02
4.070128439537349374e-01 -9.098358016649452651e-01 8.086630240958823934e-02
6.923901588429192122e-01 -7.194814128916420248e-01 5.424356589424674663e-02
6.949038452859945814e-01 -7.160564675792109313e-01 6.611944528443236546e-02
-7.059969461211962338e-01 -7.038133517837570352e-01 7.883576547772080945e-02
-4.505598267007515645e-01 -8.899552888780676296e-01 7.053670222901019249e-02
-4.621376610216870739e-01 -8.826953374809137776e-01 8.530957422739768314e-02
-4.621376610216870739e-01 -8.826953374809137776e-01 8.530957422739768314e-02
-9.381412616688714068e-02 -9.942853525154500272e-01 5.094651612005178520e-02
-1.222945876753322864e-01 -9.887564913292823388e-01 8.605018698136139566e-02
-1.222945876753322864e-01 -9.887564913292823388e-01 8.605018698136139566e-02
2.951965310815499732e-01 -9.552692280855953344e-01 1.788043372433993639e-02
2.639556773895063713e-01 -9.622580972115789555e-01 6.623258053706271298e-02
6.222778832720061715e-01 -7.822072290118915472e-01 3.036588335697972332e-02
6.250451845315525556e-01 -7.797722768569746998e-01 3.568912354215318661e-02
7.918960662203735623e-01 -6.059793636016846952e-01 7.542964399753623872e-02
2.309523608069156183e-03 -9.961158722731215942e-01 8.802178767931166659e-02
2.309523608069156183e-03 -9.961158722731215942e-01 8.802178767931166659e-02
-3.913626313196534590e-03 -9.952690261710664954e-01 9.707857164986305465e-02
1.823581850526885149e-03 -9.965129349644108459e-01 8.341849314061125509e-02
-2.322892336562581636e-03 -9.961290583988633429e-01 8.787208421669924496e-02
8.141028325492383503e-04 -9.966729033080997668e-01 8.150129476260600803e-02
-9.967951572006077555e-04 -9.965186640738332713e-01 8.336401233096397967e-02
2.549969102295071739e-04 -9.967249832091834572e-01 8.086558491242552826e-02
-3.545506749059561258e-04 -9.966749926865678955e-01 8.147903562910227548e-02
-3.545506749059561258e-04 -9.966749926865678955e-01 8.147903562910227548e-02
7.090079898105938901e-05 -9.967428998773159021e-01 8.064481705128885569e-02
7.090079898105938901e-05 -9.967428998773159021e-01 8.064481705128885569e-02
7.090079898105938901e-05 -9.967428998773159021e-01 8.064481705128885569e-02
1.375765782882295977e-05 -9.967524258428518413e-01 8.052702271360245856e-02
-1.008665119644781014e-04 -9.967431994795777905e-01 8.064108206839394610e-02
-1.008665119644781014e-04 -9.967431994795777905e-01 8.064108206839394610e-02
2.385596017169634028e-05 -9.967576744772450592e-01 8.046202707866247084e-02
-4.030118897879623395e-05 -9.967525203019496072e-01 8.052584459368167247e-02
4.771712559427649057e-06 -9.967601193285537953e-01 8.043173809733319968e-02
-2.461410975633258809e-05 -9.967577595692914683e-01 8.046097272934328581e-02
9.544004004881755511e-06 -9.967601109125004966e-01 8.043184196953317988e-02
-1.621521430021549194e-05 -9.967555731232058402e-01 8.048805616298868038e-02
1.578116361077606060e-05 -9.967581420881125309e-01 8.045623612877279840e-02
1.578116361077606060e-05 -9.967581420881125309e-01 8.045623612877279840e-02
-3.259149943356564390e-05 -9.967492586299672164e-01 8.056621102177469185e-02
4.471377324446082859e-05 -9.967554650469184763e-01 8.048938377065487093e-02
4.471377324446082859e-05 -9.967554650469184763e-01 8.048938377065487093e-02
-2.701602631531104833e-05 -9.967411917097015461e-01 8.066595328425872624e-02
1.082303498878231946e-04 -9.967409430406583004e-01 8.066895780044819331e-02
1.082303498878231946e-04 -9.967409430406583004e-01 8.066895780044819331e-02
9.288317714491277756e-05 -9.967246808836280891e-01 8.086965988641885150e-02
1.743864151414485414e-04 -9.967312797429701554e-01 8.078815241927100876e-02
7.506659575268128000e-04 -9.967760183909047944e-01 8.023095201600656534e-02
1.242059992553246788e-04 -9.967246237532136899e-01 8.087032197836331593e-02
1.242059992553246788e-04 -9.967246237532136899e-01 8.087032197836331593e-02
2.696629817348965719e-03 -9.970710757131509006e-01 7.643296516456836442e-02
2.696629817348965719e-03 -9.970710757131509006e-01 7.643296516456836442e-02
-3.415282410159383841e-03 -9.970590832141392745e-01 7.656056704491458198e-02
-3.415282410159383841e-03 -9.970590832141392745e-01 7.656056704491458198e-02
-7.392567754306367256e-01 -6.730445586818208925e-01 2.259296369868861454e-02
8.752997946035970811e-01 -4.814557793175170963e-01 4.528357460120521066e-02
8.671486257094590533e-01 -4.974275474368299310e-01 2.488163943908503276e-02
8.671486257094590533e-01 -4.974275474368299310e-01 2.488163943908503276e-02
-9.957530734643329495e-01 -8.989334662479755989e-02 1.987468034783545709e-02
-9.946762575888328239e-01 -1.030273585588582647e-01 -2.122728776389699434e-03
9.951742905380845938e-01 -9.336840586663532060e-02 3.017403251047683088e-02
9.914632526354667519e-01 -1.301357280160356789e-01 -8.081520106833618364e-03
9.914632526354667519e-01 -1.301357280160356789e-01 -8.081520106833618364e-03
-9.465668731743753783e-01 3.207071498609370130e-01 -3.403055446154778368e-02
-9.451866314486820908e-01 3.238443038862731660e-01 -4.179830823261259515e-02
-4.148482845776037958e-03 9.953446935321085265e-01 -9.628982888940862406e-02
-4.148482845776037958e-03 9.953446935321085265e-01 -9.628982888940862406e-02
4.348705123705891469e-03 9.938830275490448951e-01 -1.103522374657244648e-01
-2.008682923889463547e-03 9.959393783338422734e-01 -9.000399922731719404e-02
1.061675462960130940e-03 9.960239825760834886e-01 -8.907917252921297713e-02
1.061675462960130940e-03 9.960239825760834886e-01 -8.907917252921297713e-02
-2.435610559973300042e-04 9.961762712489077298e-01 -8.736576720108797656e-02
-1.258695922473344506e-04 9.961324757999353574e-01 -8.786395628206557229e-02
-1.887516136548011503e-04 9.961384431371582693e-01 -8.779616436443578309e-02
-1.887516136548011503e-04 9.961384431371582693e-01 -8.779616436443578309e-02
-1.971919522573225994e-05 9.961069427526958453e-01 -8.815303858081630084e-02
-1.971919522573225994e-05 9.961069427526958453e-01 -8.815303858081630084e-02
-2.566291522958024599e-04 9.961299301333852441e-01 -8.789252774801206702e-02
3.478758677057078216e-05 9.960898421612411902e-01 -8.834605329621311731e-02
-7.407546710020919054e-05 9.960881535148885524e-01 -8.836506628824092324e-02
-7.407546710020919054e-05 9.960881535148885524e-01 -8.836506628824092324e-02
3.827678652064431958e-05 9.960683937460494963e-01 -8.858754717821441804e-02
-4.988547479015060306e-05 9.960762836441018342e-01 -8.849878345601272511e-02
4.908172453407818025e-05 9.960578200349127220e-01 -8.870635117217912091e-02
-6.081093525451475903e-05 9.960562607592617912e-01 -8.872385081987596567e-02
-6.081093525451475903e-05 9.960562607592617912e-01 -8.872385081987596567e-02
1.705382817975605603e-06 9.960473363309092498e-01 -8.882400455502940939e-02
-1.544102118911920522e-05 9.960488667019833375e-01 -8.880684040809919133e-02
-1.544102118911920522e-05 9.960488667019833375e-01 -8.880684040809919133e-02
0.000000000000000000e+00 9.960456058362693321e-01 -8.884340771413017090e-02
-1.649625245723283554e-05 9.960470785140919103e-01 -8.882689407727882569e-02
-1.404908384798664456e-05 9.960485665433563840e-01 -8.881020712479001378e-02
-1.404908384798664456e-05 9.960485665433563840e-01 -8.881020712479001378e-02
-6.966488384561183390e-06 9.960513489138171916e-01 -8.877899683164514055e-02
5.193325866477092325e-05 9.960521809403521942e-01 -8.876964654038416169e-02
5.193325866477092325e-05 9.960521809403521942e-01 -8.876964654038416169e-02
4.153796020705932321e-05 9.960589754704540777e-01 -8.869338001985788145e-02
-4.442790485794187737e-05 9.960788117852811263e-01 -8.847032688186293181e-02
8.912826118948527347e-05 9.960668533072907227e-01 -8.860482943195188699e-02
8.912826118948527347e-05 9.960668533072907227e-01 -8.860482943195188699e-02
-4.665001511435796897e-05 9.960958223316404014e-01 -8.827859625769537977e-02
1.164867289258033120e-04 9.960811865885157435e-01 -8.844351957750413995e-02
-2.838698113141787917e-05 9.961172387164709541e-01 -8.803661696165117345e-02
1.715844813312292574e-04 9.960993659408862166e-01 -8.823844814439039952e-02
-1.249072545658137161e-04 9.961506017418654269e-01 -8.765821722746283684e-02
2.089318536406876330e-04 9.961218522029327005e-01 -8.798415716070358272e-02
-4.292460393810096733e-04 9.961811938055923354e-01 -8.730890479156380724e-02
-5.733135122973489562e-05 9.961521288519811224e-01 -8.764093162890433664e-02
7.613385621898989845e-04 9.960641130170166946e-01 -8.863240447611465955e-02
7.613385621898989845e-04 9.960641130170166946e-01 -8.863240447611465955e-02
1.878733561057923046e-03 9.957301617802369886e-01 -9.229255268606269269e-02
1.878733561057923046e-03 9.957301617802369886e-01 -9.229255268606269269e-02
2.752099622769834872e-03 9.948926984991384170e-01 -1.009006661066653293e-01
-2.450499154163017067e-03 9.956758199368529461e-01 -9.286364545381067814e-02
9.447485511313298279e-01 3.275030193796523159e-01 -1.385450946312861628e-02
9.442636979927568897e-01 3.289516456447923454e-01 -1.252531359394176702e-02
-9.383565822815523871e-01 -3.438951618152460976e-01 -3.497201980083220613e-02
-9.383565822815523871e-01 -3.438951618152460976e-01 -3.497201980083220613e-02
-5.841161000889745838e-03 -9.943424925081911780e-01 -1.060607770608884559e-01
-5.841161000889745838e-03 -9.943424925081911780e-01 -1.060607770608884559e-01
-3.828082974835025649e-03 -9.954437048899620333e-01 -9.527421569177971228e-02
3.767387610228032247e-03 -9.945810665211765045e-01 -1.038956635677987933e-01
-1.909403159498496497e-03 -9.959397445967418383e-01 -9.000210726505929182e-02
-5.240967425605433730e-04 -9.960812754498196142e-01 -8.844104262651454607e-02
5.903371342213301455e-04 -9.960030022214372281e-01 -8.931780935486322015e-02
-1.184100911505187866e-04 -9.961085029676240987e-01 -8.813532943518855023e-02
-1.184100911505187866e-04 -9.961085029676240987e-01 -8.813532943518855023e-02
-5.281718525229745599e-05 -9.961031152184558479e-01 -8.819626444715539249e-02
2.442487410525081927e-05 -9.960892999612108722e-01 -8.835216978778938357e-02
-1.223710429138107135e-04 -9.961011523764101705e-01 -8.821836123911853955e-02
3.778809295306851236e-05 -9.960773979798598354e-01 -8.848624642130475948e-02
-7.824701599839225207e-05 -9.960865272506489454e-01 -8.838339271122426510e-02
3.247808336349405553e-05 -9.960663253037130849e-01 -8.861080374949444061e-02
-7.259406382789266796e-05 -9.960744996007039331e-01 -8.851884531165710168e-02
4.558591451923965854e-05 -9.960561188086866080e-01 -8.872545353899248533e-02
-5.625683752237043735e-05 -9.960640192517898894e-01 -8.863671015520829810e-02
-5.970960330579555161e-06 -9.960511173234365412e-01 -8.878159518211663215e-02
-5.970960330579555161e-06 -9.960511173234365412e-01 -8.878159518211663215e-02
-4.141327930983649478e-05 -9.960538648485613988e-01 -8.875075551894850978e-02
1.756401432520305844e-05 -9.960479482858383138e-01 -8.881714027752513063e-02
-1.896754198416297329e-05 -9.960507807708560701e-01 -8.878536909874490402e-02
-1.757655037396371371e-06 -9.960455603629566612e-01 -8.884391750792222653e-02
-1.757655037396371371e-06 -9.960455603629566612e-01 -8.884391750792222653e-02
-1.757655037396371371e-06 -9.960455603629566612e-01 -8.884391750792222653e-02
1.297989004912263240e-05 -9.960459415431862640e-01 -8.883964299157086353e-02
1.124339850704998128e-05 -9.960519197175617956e-01 -8.877259205715422319e-02
3.716584428527054191e-05 -9.960499076237223637e-01 -8.879515832225416683e-02
2.670890554131953712e-05 -9.960523194139667691e-01 -8.876810393768425067e-02
7.619316141733172454e-05 -9.960603567115789980e-01 -8.867784380669366251e-02
7.619316141733172454e-05 -9.960603567115789980e-01 -8.867784380669366251e-02
6.232533344287622616e-05 -9.960712677071258403e-01 -8.855521308128547209e-02
6.232533344287622616e-05 -9.960712677071258403e-01 -8.855521308128547209e-02
1.270462638186927926e-04 -9.960826451103119705e-01 -8.842707712737857273e-02
1.270462638186927926e-04 -9.960826451103119705e-01 -8.842707712737857273e-02
1.713513771109448813e-04 -9.961028006936747392e-01 -8.819966603634429858e-02
-2.305164385712317400e-04 -9.961667937271948547e-01 -8.747380143478435122e-02
-2.305164385712317400e-04 -9.961667937271948547e-01 -8.747380143478435122e-02
2.527992627435751640e-04 -9.961304855911933265e-01 -8.788624333981992498e-02
2.527992627435751640e-04 -9.961304855911933265e-01 -8.788624333981992498e-02
-8.432416638676052019e-04 -9.962709933562400311e-01 -8.627512237294730768e-02
-1.960289746087071506e-03 -9.965363274438751029e-01 -8.313546384537214007e-02
1.070835090718021652e-03 -9.963233577956281950e-01 -8.566574591429991503e-02
-4.566145968960902586e-03 -9.972571335977947760e-01 -7.387394533460420187e-02
2.860650884911673623e-03 -9.966456053956344041e-01 -8.178847059386695761e-02
2.860650884911673623e-03 -9.966456053956344041e-01 -8.178847059386695761e-02
-8.871636013534389339e-03 -9.989996021786531344e-01 -4.383022839703416135e-02
5.112404548872327009e-03 -9.974880515662026825e-01 -7.065019676115087688e-02
9.405137381154614618e-01 -3.394246954670190886e-01 -1.499281571962384103e-02
9.363170453278629735e-01 -3.497854775919797543e-01 -3.099210051370101041e-02
-9.975084009840684551e-01 7.041840660489066817e-02 4.270594506047181542e-03
-9.964878467294786546e-01 8.114552875108560492e-02 2.067303761312968419e-02
9.973625714584413160e-01 7.249583642683476992e-02 -3.500679159705062139e-03
9.948476563068719969e-01 9.847396875059565013e-02 2.410431951395078376e-02
9.948476563068719969e-01 9.847396875059565013e-02 2.410431951395078376e-02
-8.845811014350221102e-01 4.650435919803617146e-01 3.536569725038696960e-02
-8.845811014350221102e-01 4.650435919803617146e-01 3.536569725038696960e-02
-8.711710839132081885e-01 4.850594974901029088e-01 7.601464627382770178e-02
3.822930732946908453e-03 9.952864526610906148e-01 9.690336604016357158e-02
3.822930732946908453e-03 9.952864526610906148e-01 9.690336604016357158e-02
3.822930732946908453e-03 9.952864526610906148e-01 9.690336604016357158e-02
-5.507915308758094992e-03 9.938009250382261461e-01 1.110377605236965715e-01
-5.507915308758094992e-03 9.938009250382261461e-01 1.110377605236965715e-01
3.780761301350525801e-03 9.961459855788566964e-01 8.762922605564030243e-02
-4.144477899744616195e-03 9.953396698939712683e-01 9.634191631008209855e-02
1.971275962882735114e-03 9.965405698809123303e-01 8.308433457941775957e-02
7.289621808947336452e-04 9.966867307684965649e-01 8.133283054305263937e-02
-8.883142294027211771e-04 9.965561704878664884e-01 8.291567982226456801e-02
2.264677010591029669e-04 9.967331813982157618e-01 8.076455789621923842e-02
2.264677010591029669e-04 9.967331813982157618e-01 8.076455789621923842e-02
-2.994805659278682334e-04 9.966920586239602642e-01 8.127023186458039172e-02
7.016826319745000972e-05 9.967507547258429579e-01 8.054767550883971949e-02
7.016826319745000972e-05 9.967507547258429579e-01 8.054767550883971949e-02
-1.334735538080038242e-04 9.967349982912142581e-01 8.074233936556227120e-02
-6.110684831177086646e-05 9.967514119592530975e-01 8.053954943497139418e-02
-2.143110342856669113e-05 9.967577274639852769e-01 8.046137136253177224e-02
-2.143110342856669113e-05 9.967577274639852769e-01 8.046137136253177224e-02
-2.143110342856669113e-05 9.967577274639852769e-01 8.046137136253177224e-02
-1.431680732161732149e-05 9.967582756519890452e-01 8.045458168620649164e-02
7.953482901002879781e-06 9.967599915943541333e-01 8.043332079160503412e-02
7.953482901002879781e-06 9.967599915943541333e-01 8.043332079160503412e-02
-1.344767764100041813e-05 9.967557426073203608e-01 8.048595777208208957e-02
-1.344767764100041813e-05 9.967557426073203608e-01 8.048595777208208957e-02
1.737212107434722260e-05 9.967581171205061041e-01 8.045654511966617017e-02
-2.302139193462817329e-05 9.967513489959703987e-01 8.054034855107607138e-02
-2.302139193462817329e-05 9.967513489959703987e-01 8.054034855107607138e-02
-4.772651451703269672e-06 9.967467064127620846e-01 8.059778677192558360e-02
2.747947962420127860e-05 9.967465436808767842e-01 8.059979469641481709e-02
2.747947962420127860e-05 9.967465436808767842e-01 8.059979469641481709e-02
-2.031336927102414980e-04 9.967553386539652616e-01 8.049070506289458804e-02
1.902017921211167232e-03 9.970480925098517133e-01 7.675600009311149552e-02
-9.631033595937415950e-04 9.968213409958566196e-01 7.966358369506587600e-02
-9.631033595937415950e-04 9.968213409958566196e-01 7.966358369506587600e-02
4.613880169884631427e-03 9.976524777870990901e-01 6.832456128684342989e-02
4.613880169884631427e-03 9.976524777870990901e-01 6.832456128684342989e-02
-2.841971318209557656e-03 9.970603845167407275e-01 7.656704791459384429e-02
5.669417479977926708e-03 9.986642936276509674e-01 5.135646345517372313e-02
-5.043082724030052005e-03 9.976532341189494613e-01 6.828317339315143064e-02
-5.043082724030052005e-03 9.976532341189494613e-01 6.828317339315143064e-02
8.812771675567495633e-01 4.722804010441477574e-01 1.737172221547982412e-02
8.614531091126284013e-01 5.050766925288594500e-01 5.287792984123017986e-02
8.614531091126284013e-01 5.050766925288594500e-01 5.287792984123017986e-02
-6.440494300224224311e-01 7.593120141806690704e-01 9.298170147232115434e-02
-6.344220482649850501e-01 7.693587553255540890e-01 7.480488138601200376e-02
-3.058243440220843601e-01 9.499687260169826786e-01 6.348929195646245416e-02
-3.350541711033027115e-01 9.372210869259647303e-01 9.672298924036640266e-02
7.438650687034485676e-02 9.958599220791896078e-01 5.224617873164370124e-02
2.270714807108195621e-02 9.946570028136866304e-01 1.007066640305981781e-01
4.376587489920001350e-01 8.983368891833259928e-01 3.802174329488558491e-02
3.883306993258731077e-01 9.174635277094234098e-01 8.637096319978342096e-02
7.145354651203537077e-01 6.993193938606504512e-01 1.978520800023139681e-02
7.145354651203537077e-01 6.993193938606504512e-01 1.978520800023139681e-02
-7.383795272921011010e-01 6.718572220627064828e-01 5.833992490633248262e-02
-4.555124548570519405e-01 8.882486352368855753e-01 5.935288931393620238e-02
-4.555124548570519405e-01 8.882486352368855753e-01 5.935288931393620238e-02
-4.715091901118819706e-01 8.785638374394462158e-01 7.618836645913557026e-02
-9.935270869054085852e-02 9.933025191862197012e-01 5.898427463453426861e-02
-9.935270869054085852e-02 9.933025191862197012e-01 5.898427463453426861e-02
2.839238176291628557e-01 9.573304907366149141e-01 5.390359254144358458e-02
5.975501898085940899e-01 7.985664933270224530e-01 7.228641916083504426e-02
5.975501898085940899e-01 7.985664933270224530e-01 7.228641916083504426e-02
-6.097689664525441922e-01 -7.766148392539850009e-01 1.582757056591533040e-01
-6.319057978737211423e-01 -7.682354052870015160e-01 1.025154850600257933e-01
-3.000078455799093380e-01 -9.410767367728432031e-01 1.561085138468691347e-01
4.305548781564710881e-02 -9.925315137152045386e-01 1.141377205447934445e-01
4.097489127376989781e-01 -9.073418670888082627e-01 9.400300387790382073e-02
3.209375413114491926e-01 -9.306688332124538610e-01 1.756548247670174090e-01
6.487734088636299967e-01 -7.508387997507339762e-01 1.238311783855041287e-01
-4.465307177367429103e-01 -8.839553024766455547e-01 1.386843226213097247e-01
-4.505527270126406525e-01 -8.811317712973580907e-01 1.435584960629405493e-01
-1.100508881227130059e-01 -9.862016554078617547e-01 1.236733475498875967e-01
-1.419204245304533096e-01 -9.768230577276293403e-01 1.602351615368511895e-01
2.740101548802271747e-01 -9.575587942202075098e-01 8.944043064551980560e-02
2.333746031178276781e-01 -9.615077501648738867e-01 1.450487538466940785e-01
2.333746031178276781e-01 -9.615077501648738867e-01 1.450487538466940785e-01
5.981078196120930279e-01 -7.948097672231710931e-01 1.026862699951486407e-01
-8.683256989218518518e-01 -4.885107182082868427e-01 8.583564986357015980e-02
-8.625421797699853732e-01 -5.016301230937697531e-01 6.624354853547448352e-02
-8.625421797699853732e-01 -5.016301230937697531e-01 6.624354853547448352e-02
7.794132566269537099e-01 -6.107855911916654224e-01 1.394845403147389473e-01
2.412828740810610880e-03 -9.858846490951729269e-01 1.674085927781345240e-01
-5.640276877766407793e-03 -9.838787369881479838e-01 1.787479179720674327e-01
-5.640276877766407793e-03 -9.838787369881479838e-01 1.787479179720674327e-01
1.761413764427270266e-03 -9.867765196668981664e-01 1.620771348945748702e-01
-2.827935906703006683e-03 -9.859524427924480916e-01 1.670023452832687660e-01
7.733280776039123299e-04 -9.871175505775338088e-01 1.599948227459073447e-01
-1.082189648077036591e-03 -9.868073052645548460e-01 1.618955562764871903e-01
3.256125755210112450e-04 -9.872448870156756984e-01 1.592087530189736921e-01
-1.886554814630995883e-04 -9.872496450619111519e-01 1.591794670623050689e-01
-1.886554814630995883e-04 -9.872496450619111519e-01 1.591794670623050689e-01
-1.124071863644349618e-04 -9.873048957162460226e-01 1.588364890677117225e-01
-7.530900285320037601e-05 -9.873323570552171580e-01 1.586657210626899461e-01
-7.530900285320037601e-05 -9.873323570552171580e-01 1.586657210626899461e-01
2.857133836167997441e-05 -9.873619984934846050e-01 1.584811758999496167e-01
1.880139101468183347e-05 -9.873672868181267992e-01 1.584482267742956252e-01
-1.214968475938394076e-05 -9.873623768618301488e-01 1.584788206989894144e-01
-1.214968475938394076e-05 -9.873623768618301488e-01 1.584788206989894144e-01
-2.642256389158628959e-05 -9.873629718484644435e-01 1.584751120031672733e-01
1.788204214887985850e-06 -9.873674450103344657e-01 1.584472421046410617e-01
-4.765878691048530360e-05 -9.873490175183993189e-01 1.585620236188085841e-01
3.667011452974218921e-05 -9.873623846772422441e-01 1.584787682302335465e-01
-7.141961044664608764e-05 -9.873239249765671799e-01 1.587181844279509924e-01
-9.527776533507873466e-05 -9.872831665533636780e-01 1.589715067630368406e-01
1.484002852330587997e-04 -9.873218523075963926e-01 1.587310238524660411e-01
1.484002852330587997e-04 -9.873218523075963926e-01 1.587310238524660411e-01
-1.138110185114300446e-04 -9.872155055093001508e-01 1.593911312748258480e-01
5.726697349934828260e-05 -9.870944427588072001e-01 1.601391825730780760e-01
5.726697349934828260e-05 -9.870944427588072001e-01 1.601391825730780760e-01
7.522341847601704415e-04 -9.872064291886707421e-01 1.594456029882455328e-01
1.676157326519324550e-03 -9.871275525996339173e-01 1.599261873342625873e-01
1.389152154604137487e-03 -9.870801444509608169e-01 1.602212803811077224e-01
5.959456501448361261e-03 -9.884447899462397435e-01 1.514641281173247089e-01
5.959456501448361261e-03 -9.884447899462397435e-01 1.514641281173247089e-01
-5.932331013758460623e-04 -9.871354316635846393e-01 1.598852326790560496e-01
-8.094245150140119138e-01 -5.796216216804950250e-01 9.418455380159189427e-02
8.529832043316000201e-01 -5.118631239783525411e-01 1.020578044018065622e-01
8.529832043316000201e-01 -5.118631239783525411e-01 1.020578044018065622e-01
8.376988245204215477e-01 -5.421890650695904146e-01 6.551104575617280878e-02
-9.884290677486536891e-01 -1.352405583131318090e-01 6.868747641804757997e-02
-9.834282525672902731e-01 -1.794465036996051033e-01 -2.584229793253064317e-02
9.746401775607783646e-01 -2.232479954602802630e-01 -1.539015293170527439e-02
9.746401775607783646e-01 -2.232479954602802630e-01 -1.539015293170527439e-02
-9.478959108062571248e-01 3.156707408106420587e-01 -4.295725401880826078e-02
-9.396972896575939149e-01 3.217369622776908855e-01 -1.159928054428195909e-01
-9.976004524119045369e-01 4.694020428276017565e-02 5.089159625572867163e-02
4.052597799820363382e-03 9.809949319762473197e-01 -1.939910304317981615e-01
-2.314119322592071443e-03 9.847275659010036319e-01 -1.740869489836763540e-01
1.214890486683419630e-03 9.840055607115778535e-01 -1.781336030337874465e-01
1.214890486683419630e-03 9.840055607115778535e-01 -1.781336030337874465e-01
-1.453557831338118424e-03 9.852636268507271033e-01 -1.710364662128584234e-01
7.002147117370266299e-04 9.848985003691057560e-01 -1.731313191483399294e-01
7.002147117370266299e-04 9.848985003691057560e-01 -1.731313191483399294e-01
-3.549746318700801643e-04 9.853881563456720061e-01 -1.703233845562266147e-01
1.538552473879382495e-05 9.853931196494761791e-01 -1.702950366592014264e-01
-2.204792703649565387e-04 9.852581982549999395e-01 -1.710737681826258461e-01
1.030701135208782183e-04 9.851020945984759747e-01 -1.719704991975276320e-01
1.030701135208782183e-04 9.851020945984759747e-01 -1.719704991975276320e-01
-2.284444295534550991e-04 9.851633860417983168e-01 -1.716189110086679681e-01
9.533304356800744101e-05 9.850508713526680005e-01 -1.722636692949509052e-01
-1.355059919914871204e-04 9.850914957951723006e-01 -1.720311790058884072e-01
9.085303834510032126e-05 9.850090778956132054e-01 -1.725024875442643102e-01
-1.011222665411498677e-04 9.850422164667733682e-01 -1.723131496796269646e-01
6.359093615765765270e-05 9.849829084333870943e-01 -1.726518637324790106e-01
-5.236473731340802974e-05 9.850028197146403208e-01 -1.725382346384198018e-01
3.233746485815706636e-05 9.849618928692349673e-01 -1.727717238142351952e-01
-5.900884628304956686e-05 9.849775645258719292e-01 -1.726823497020990028e-01
-5.966907638558874587e-05 9.849578838410090187e-01 -1.727945702244222670e-01
5.568796031781661961e-06 9.849328705764166525e-01 -1.729370996261016258e-01
-1.887469420225011679e-05 9.849370697483964543e-01 -1.729131813344151614e-01
-1.887469420225011679e-05 9.849370697483964543e-01 -1.729131813344151614e-01
-5.564015334079686680e-06 9.849361957414491942e-01 -1.729181606639496604e-01
-3.843197072567451037e-05 9.849493071108169628e-01 -1.728434579175768815e-01
2.905500111961554816e-05 9.849377019848466475e-01 -1.729095785797198914e-01
-3.096257418955759426e-05 9.849681293708866248e-01 -1.727361663489597743e-01
-6.962822166969841675e-05 9.849954687929869390e-01 -1.725801889244375775e-01
6.504947621221085280e-05 9.849723043103044695e-01 -1.727123490379726123e-01
8.712862720744544162e-05 9.850022988594148154e-01 -1.725411940675911360e-01
-7.233066219049507175e-05 9.850637379269487903e-01 -1.721900896964248806e-01
-7.233066219049507175e-05 9.850637379269487903e-01 -1.721900896964248806e-01
1.050864508386871731e-04 9.850332043168661400e-01 -1.723646580656400529e-01
-9.095490270330393561e-05 9.851154785937090708e-01 -1.718938206053177431e-01
1.514797800691887594e-04 9.850738783917434294e-01 -1.721320166736126644e-01
-1.480044955207863782e-04 9.851819326861519510e-01 -1.715124998460681727e-01
-3.440576325574431550e-04 9.852493819876870784e-01 -1.711243317510001694e-01
1.761614713875963724e-05 9.851903743681885706e-01 -1.714640660369985969e-01
5.094967610691312078e-05 9.851748279517477114e-01 -1.715533613030497118e-01
-3.876171059431068660e-04 9.852473229502819452e-01 -1.711360931314080402e-01
1.655857010822808090e-03 9.845626209389228833e-01 -1.750248656261126357e-01
-1.291527537282563271e-03 9.851224089175363297e-01 -1.718492694343819460e-01
3.832562054956640662e-03 9.825466948142395074e-01 -1.859766221268381037e-01
-1.823046800651297473e-03 9.843975080291416102e-01 -1.759494890199417294e-01
9.470166502005551434e-01 3.060504838188846666e-01 -9.742979830188569501e-02
9.470166502005551434e-01 3.060504838188846666e-01 -9.742979830188569501e-02
9.972448001371434501e-01 5.079700101794206585e-02 5.405990461526977847e-02
-9.011483982020840333e-01 4.327119397010179558e-01 -2.630478393754628191e-02
-3.699743566301939932e-03 9.654340955251656808e-01 -2.606210258115199130e-01
7.028332820834680590e-04 9.668652208832336781e-01 -2.552864091012159165e-01
7.028332820834680590e-04 9.668652208832336781e-01 -2.552864091012159165e-01
-2.007952605163692943e-03 9.676065208790363137e-01 -2.524551225043823455e-01
-9.594376539674765760e-04 9.683506219444291130e-01 -2.495919719446630658e-01
1.649170764207102751e-04 9.684422460738520977e-01 -2.492380164055839065e-01
3.803707420186766023e-06 9.686499901393280654e-01 -2.484294599853479057e-01
3.479708571168420371e-04 9.684033108350882380e-01 -2.493890664803125878e-01
-1.786800983712244050e-04 9.683673676704119826e-01 -2.495287745020593750e-01
1.283218299480080849e-04 9.682855128849756632e-01 -2.498462508635815871e-01
1.283218299480080849e-04 9.682855128849756632e-01 -2.498462508635815871e-01
-1.840022293417085790e-04 9.682609121530997287e-01 -2.499415374435129678e-01
-1.840022293417085790e-04 9.682609121530997287e-01 -2.499415374435129678e-01
9.799192741411452982e-05 9.681892744410878215e-01 -2.502189426378862436e-01
8.032344542131756985e-05 9.681231159061708391e-01 -2.504748011203341007e-01
-9.630660783733060797e-05 9.681086554285081025e-01 -2.505306807747174624e-01
-7.157850841193398356e-05 9.680471207529685040e-01 -2.507683530240705227e-01
-4.684854746461741148e-05 9.680057724485282566e-01 -2.509279225425929405e-01
-4.684854746461741148e-05 9.680057724485282566e-01 -2.509279225425929405e-01
2.322963162960985247e-05 9.679885357837142434e-01 -2.509944103992862163e-01
-8.917260897871157375e-06 9.679859048119229259e-01 -2.510045577393471561e-01
-9.112681166510147282e-07 9.679806802140895616e-01 -2.510247054204787776e-01
1.693127218563914078e-05 9.679821399336054899e-01 -2.510190759342600386e-01
4.636626054834376055e-05 9.680002009937050955e-01 -2.509494146761777067e-01
4.636626054834376055e-05 9.680002009937050955e-01 -2.509494146761777067e-01
-3.899590988612792412e-05 9.680212571233521857e-01 -2.508681809968011378e-01
8.083567489466910252e-05 9.680310534264314759e-01 -2.508303671163182869e-01
-6.091210083770993592e-05 9.680660262068893074e-01 -2.506953633271229442e-01
8.278272286776473213e-05 9.680777754316824968e-01 -2.506499827693310367e-01
-7.424157392386021483e-05 9.681165193481803266e-01 -2.505002983099081093e-01
1.033741035533631533e-04 9.681310720925043745e-01 -2.504440387847408633e-01
-1.022718817358668665e-04 9.681818014137860695e-01 -2.502478550389957146e-01
1.363301925961723994e-04 9.682015073342662426e-01 -2.501715863357261149e-01
-1.158113415556834009e-04 9.682636267462563229e-01 -2.499310619109190723e-01
-1.324212682670907501e-04 9.683546522615854579e-01 -2.495781438907491157e-01
7.996386123435453666e-05 9.683728564294314944e-01 -2.495075240077633261e-01
-9.844583968698187595e-05 9.684446515239896192e-01 -2.492287046930885541e-01
-8.421804045581499369e-05 9.684411577055640485e-01 -2.492422856764646977e-01
-3.153881078351055333e-04 9.684226600512989558e-01 -2.493139627648394419e-01
2.135996357076216609e-04 9.682859207856269190e-01 -2.498446116759894808e-01
-2.124574947209687968e-04 9.682467886659892331e-01 -2.499962221710804178e-01
1.102847521525846929e-03 9.679050450910637871e-01 -2.513137628833927439e-01
1.102847521525846929e-03 9.679050450910637871e-01 -2.513137628833927439e-01
-1.869721062778255220e-03 9.668848926027443502e-01 -2.552060120759832573e-01
9.140659968398422430e-01 3.703267418121518606e-01 -1.653525255929929882e-01
-2.753726559780633482e-03 -9.663415962140874393e-01 -2.572476169305433213e-01
1.447251005948748531e-03 -9.652504872843323813e-01 -2.613224105619046389e-01
1.766125999266518606e-03 -9.668047495361925536e-01 -2.555101897639600605e-01
7.108073520289190763e-04 -9.679223780758454687e-01 -2.512484124783841422e-01
1.768011385303739161e-04 -9.683785622950442651e-01 -2.494853278827044718e-01
2.138597901172665627e-04 -9.683609235920256353e-01 -2.495537535762369641e-01
-2.040115751858995831e-05 -9.684223476433165834e-01 -2.493153749145852194e-01
-2.040115751858995831e-05 -9.684223476433165834e-01 -2.493153749145852194e-01
1.247680432785228100e-04 -9.682705250455154733e-01 -2.499043312170025621e-01
-1.279122283030483865e-04 -9.683359343286161991e-01 -2.496507599155024792e-01
-1.401147453893797704e-04 -9.682491027116545412e-01 -2.499873106098264297e-01
7.552270961306705062e-05 -9.681165228225396824e-01 -2.505002844994696498e-01
-1.312729416768005145e-04 -9.681673428813848403e-01 -2.503037733343501658e-01
-1.312729416768005145e-04 -9.681673428813848403e-01 -2.503037733343501658e-01
7.312865305228493295e-05 -9.680652890097594110e-01 -2.506982067479762155e-01
-8.245769584884961062e-05 -9.681032660309756288e-01 -2.505515106737258857e-01
6.072758651884532858e-05 -9.680210746760032903e-01 -2.508688806832685692e-01
-7.101710186525322650e-05 -9.680531916831699446e-01 -2.507449162567389478e-01
-5.183093166943177841e-05 -9.680116287874210856e-01 -2.509053284525436522e-01
1.336344409824330292e-05 -9.679786290804460736e-01 -2.510326143451458436e-01
1.336344409824330292e-05 -9.679786290804460736e-01 -2.510326143451458436e-01
-1.447978692491781128e-05 -9.679854255402430274e-01 -2.510064057589170283e-01
-6.438682271379606743e-06 -9.679802146113108963e-01 -2.510265007515820601e-01
-1.631650223562474284e-05 -9.679950348632124779e-01 -2.509693451677714737e-01
-1.631650223562474284e-05 -9.679950348632124779e-01 -2.509693451677714737e-01
-1.631650223562474284e-05 -9.679950348632124779e-01 -2.509693451677714737e-01
-5.881446817638474829e-05 -9.680273197753360703e-01 -2.508447821052641746e-01
-6.679846310364208372e-05 -9.680764975454332344e-01 -2.506549230279191409e-01
-7.063702405191620156e-05 -9.681227626245717532e-01 -2.504761695223275408e-01
-7.063702405191620156e-05 -9.681227626245717532e-01 -2.504761695223275408e-01
-1.078120529664931338e-04 -9.681973451366318040e-01 -2.501877080252730146e-01
1.523142115220834508e-04 -9.682193782479096011e-01 -2.501024037981487425e-01
-1.870810864421422828e-04 -9.684037628578276991e-01 -2.493874838147803197e-01
1.854027602631618443e-04 -9.683131578719296195e-01 -2.497390516477307199e-01
-3.863806769564364610e-04 -9.685931613656996175e-01 -2.486506353612884246e-01
2.417385348198585067e-04 -9.684414773786026442e-01 -2.492409405680177659e-01
-8.681111196479408300e-04 -9.690544692545375316e-01 -2.468454617790059868e-01
6.470519917842415883e-04 -9.686821720318737894e-01 -2.483031029031475545e-01
-1.933098724057446443e-03 -9.703444676619894516e-01 -2.417185909422218115e-01
2.051360679090899735e-03 -9.692851177291160747e-01 -2.459311945813665301e-01
-3.035708686202592387e-03 -9.730494250790813204e-01 -2.305766701686056686e-01
7.404420638157660495e-03 -9.739243128695982410e-01 -2.267523039717435351e-01
8.128273836587943113e-03 -9.789753423133334964e-01 -2.038166094971874120e-01
-1.432569904635821187e-03 -9.822220146159225118e-01 -1.877175051701538144e-01
-1.432569904635821187e-03 -9.822220146159225118e-01 -1.877175051701538144e-01
-9.048538687199928487e-01 -3.865626769498484716e-01 -1.783501417207978834e-01
-9.620859733543397629e-01 -2.725891091848380854e-01 -9.260530689395394394e-03
-2.603024683949101570e-03 -9.825070304236830365e-01 -1.862073023018451512e-01
-2.603024683949101570e-03 -9.825070304236830365e-01 -1.862073023018451512e-01
1.861436145753076659e-03 -9.827745109692491710e-01 -1.847993388641542556e-01
-3.440687406157145675e-03 -9.838316439051749684e-01 -1.790627211929212703e-01
1.569602739043886221e-03 -9.841549935007807282e-01 -1.773033702858467786e-01
-2.122325015074645084e-03 -9.847839272339781180e-01 -1.737702862924310754e-01
-2.122325015074645084e-03 -9.847839272339781180e-01 -1.737702862924310754e-01
-7.809338139436785555e-04 -9.851534945814662825e-01 -1.716740581925619014e-01
1.293402605574370137e-04 -9.851921968798221796e-01 -1.714535461231607993e-01
8.512212142199805545e-05 -9.851995235581060273e-01 -1.714114685051889575e-01
8.512212142199805545e-05 -9.851995235581060273e-01 -1.714114685051889575e-01
1.240026013317639068e-04 -9.851535360341033831e-01 -1.716755517330805780e-01
