8.292262424850862512e-01 -3.697548461495673844e-01 -4.191243163107749581e-01
3.342088159378167611e-01 -5.775657825861314487e-01 -7.447967737142205946e-01
2.429377390068497011e-01 9.546494921433190672e-02 -9.653329469347582403e-01
9.039541773879209430e-01 3.775411760815767792e-01 2.008220743490787552e-01
3.663065503512205612e-01 -7.263727631263504625e-01 -5.815514767911603711e-01
3.040852465717129305e-01 1.843682659113557443e-01 -9.346338883981578638e-01
8.781275283156326772e-01 4.178981148933655354e-01 2.329231838672338462e-01
-8.814258465299443790e-01 -2.687435935328735467e-02 4.715572562036569604e-01
2.947480113572124583e-01 2.756546063622573595e-01 -9.149525385462558003e-01
5.585527307517977880e-01 -8.462889790284845726e-02 8.251404708347900296e-01
3.244559711821743408e-01 -3.112595659111740964e-01 8.932221478406250359e-01
9.846162735879214756e-01 1.033594388784046803e-01 -1.408815821197959561e-01
6.417657006872774517e-01 -6.045636844580757341e-01 -4.718469421918977669e-01
6.751423409149216459e-01 -5.455604556847468700e-01 -4.965345996977160170e-01
-3.851618350763690718e-02 8.568484087361314394e-01 5.141277157033702361e-01
9.033604019846359634e-01 2.854712622000675770e-01 3.200720896674015270e-01
8.984668548401122390e-01 1.930433810350360990e-01 3.943241861619429800e-01
-8.162807876722499856e-01 3.782584424428836467e-01 4.365847299183228114e-01
8.888329650457074127e-01 1.531156679493939354e-01 4.318929872971628559e-01
9.443949722536851832e-01 -1.039658091640460469e-01 3.119443009686601598e-01
8.812729285959037817e-01 9.045494438579412821e-02 4.638705944120211644e-01
2.141985067680569621e-01 6.106663207962987894e-01 7.623684439583309214e-01
-1.328657022068925331e-01 -1.281380485233117872e-01 9.828160284090337040e-01
8.738145151712792269e-02 2.705700181507047497e-01 9.587264193755625774e-01
9.426903805131769953e-02 4.735928142277940900e-01 8.756844150586883258e-01
-1.894378234882356238e-01 -3.561746669804923687e-02 9.812465067953382025e-01
-3.676743275061578053e-02 3.657887558827045693e-02 9.986541652392116886e-01
-8.291770885849687744e-02 2.086788531540449965e-01 9.744628211501811244e-01
2.224715345583624382e-01 4.964595216798070032e-01 8.390675536836738058e-01
2.753423124283609913e-01 4.819302013312256050e-01 8.318232336448935227e-01
-2.148158322227987360e-01 -1.760825155298697542e-01 9.606503557231942381e-01
-1.756401774273509686e-01 -2.919268933015761736e-02 9.840215012706590159e-01
2.696532084958928044e-01 4.115645865974387752e-01 8.705755212540436938e-01
2.543482579723202464e-01 3.929234193515908635e-01 8.836957339443819448e-01
-1.973900196854855293e-01 -1.884396451813090123e-01 9.620434918716025408e-01
-2.284031111906317246e-01 -1.908107770578787998e-01 9.546849041212541742e-01
-1.725314578345530647e-01 -1.384032230903826099e-01 9.752319949097637553e-01
2.869385588441280555e-01 1.821396550147379445e-01 9.404740344738748981e-01
2.723865499374161225e-01 2.142925167804722308e-01 9.380214734562757339e-01
-1.988177120341298176e-01 -1.810658242139812912e-01 9.631649311946658409e-01
2.439281672299623838e-01 2.778966110064865977e-02 9.693950608331685093e-01
-2.028515317457718348e-01 -1.802086844456843306e-01 9.624843303237461400e-01
2.711323579020384900e-01 -3.163437463100002289e-02 9.620220947775505183e-01
-1.744767119014669632e-01 -1.895698195855245738e-01 9.662407363107623492e-01
1.941604281175785263e-01 -1.133844324535119019e-01 9.743950423880416434e-01
-6.582857442159038841e-02 -2.135241799149113495e-01 9.747174069345871938e-01
1.446370678483890893e-01 -1.691155201019878540e-01 9.749256686870310107e-01
-1.770714416944695613e-01 -2.150975279272872298e-01 9.604055174850943954e-01
-9.464406563995925170e-02 -2.162122336359856567e-01 9.717483063351729511e-01
4.723740026470424347e-02 -2.029071700285571267e-01 9.780579268976016261e-01
1.692675536216015353e-01 -1.946644362577521492e-01 9.661543626912885152e-01
-5.742049116857408236e-02 -2.406445474428033082e-01 9.689133547330267549e-01
7.926897274928372539e-02 -2.391676092522077579e-01 9.677371981296660763e-01
1.908681453550216400e-01 -2.222888580995102670e-01 9.561155864504825574e-01
-1.631213789511886531e-02 9.941180997781562390e-01 1.070659509403354553e-01
-5.743302771090541721e-03 9.864676658819405697e-01 1.638552978780834501e-01
-1.863607195291603486e-02 9.727119218810666990e-01 2.312665428733854112e-01
5.334643846846196663e-02 9.343764066496168530e-01 3.522710436571254711e-01
2.458072426675574074e-01 9.049348100583091137e-01 3.473784521194493435e-01
-2.328871288976669136e-03 9.599623477045683417e-01 2.801193805291825600e-01
9.345389811919772860e-02 9.607113051824561767e-01 2.613429873192469333e-01
6.972162229824147017e-02 9.803604939345101910e-01 1.844781757189302984e-01
-8.662025085927252399e-02 9.954349387929891657e-01 4.007760935079108383e-02
-7.434194760230369847e-02 9.955625546804929282e-01 5.769293323056958606e-02
-7.222539541375891381e-02 9.950532681601844676e-01 6.820913268076587987e-02
2.653715028123097563e-01 8.902447297025214423e-01 3.701922294322513296e-01
3.690380201274967575e-02 5.714576463832865549e-01 8.198013587370286404e-01
-4.685414360435634362e-02 9.981332590324230036e-01 3.917507422349401219e-02
-9.927638170690070152e-02 9.949013168896024828e-01 1.776428119909945202e-02
2.658227660393345793e-01 8.855449143634154252e-01 3.809835451831071196e-01
-6.645526088204696258e-01 -1.293471106329149856e-01 7.359613815145630289e-01
2.952756406379420939e-01 8.435015834083576802e-01 4.486840478927754394e-01
-6.499740728676496326e-01 -3.529606435886593063e-01 6.730174504998504004e-01
3.072428613051338409e-01 8.246528378866051501e-01 4.749205419252811033e-01
-6.584873074201201826e-01 -4.106550456353939560e-01 6.306797122635170449e-01
3.246302583578167256e-01 8.085521639957773399e-01 4.907734644989302231e-01
-6.200901973207796347e-01 -4.928567908249736340e-01 6.103935868965080225e-01
3.554339317405920684e-01 7.978151367437797958e-01 4.869884267104590547e-01
3.727526959196241219e-01 7.985177818264024285e-01 4.726783047609592892e-01
3.880231042361259597e-01 8.213059802108719776e-01 4.182039663236341021e-01
9.261445561859785736e-01 -3.233229669184296134e-02 3.757803662216902540e-01
-6.330261314293396113e-01 -4.997880821901793946e-01 5.911766147508431546e-01
3.930988649884256669e-01 8.398009861615683969e-01 3.744430343682047524e-01
3.794999593865777121e-01 8.414144845418635166e-01 3.847095606151944569e-01
-6.522850973354646920e-01 -4.952765574349669575e-01 5.737815642293075946e-01
3.603652047827228255e-01 8.222593928562011989e-01 4.404842903460436943e-01
-6.576494382089217439e-01 -4.587967523802228831e-01 5.974970765023458474e-01
3.032504739328815702e-01 7.980965091863764238e-01 5.206545035664272847e-01
3.209534182776522249e-01 7.562498896405811522e-01 5.701534948717751350e-01
-6.714736712166410326e-01 -4.624780492937790588e-01 5.789966863327173918e-01
3.216527953743131274e-01 7.038518023478721464e-01 6.333499187333510028e-01
3.551044377009425212e-01 5.900865647179082130e-01 7.250508150912702288e-01
-6.946730138565446744e-01 -4.376805865147501695e-01 5.708459582125191556e-01
-7.402678828486336515e-01 -3.741364079717044433e-01 5.585923467546185517e-01
5.015210283373395805e-01 1.655642240804287291e-01 8.491555486717985435e-01
5.088644777488423587e-01 1.591759075120473266e-02 8.606994676366861441e-01
5.443692197649704356e-01 9.110944631860613471e-03 8.387962465702817338e-01
-7.509386797473933672e-01 -3.098380707008219215e-01 5.831736184050462235e-01
5.360921666126717833e-01 -7.215562775210938862e-02 8.410700055763673522e-01
-7.558172894407342302e-01 -2.974443548845289165e-01 5.833241643629960560e-01
-7.278602767714282828e-01 -3.192818497439240955e-01 6.068595537044120247e-01
5.400224583057089411e-01 -1.837422488711145940e-01 8.213492134928018773e-01
6.945446681445228698e-01 -7.098829585299358813e-01 1.169354058478432323e-01
5.289057015891316382e-01 -2.436095396176716776e-01 8.129656518167139856e-01
7.546374162110099926e-01 -6.503095409876471500e-01 -8.729187221503890981e-02
8.328429544287531128e-01 -5.385064023573894465e-01 -1.279979213834625262e-01
-8.081252993970439169e-01 3.155906180276211725e-01 4.973289276599363595e-01
8.757290059770365120e-01 6.485613130036317750e-04 4.828025346440248389e-01
1.446271384953589645e-01 9.135199435198606555e-01 3.802161274881888930e-01
-2.123839206234486576e-01 8.224901075946468021e-01 5.276391694800141030e-01
-8.062222393035285706e-02 8.383727048748506050e-01 5.391022766872263228e-01
2.362988200445655662e-01 8.632526812752755463e-01 4.460467194326102613e-01
7.470254903734774299e-01 -3.031831903000393735e-01 5.916357577528216227e-01
2.884640772634433636e-01 8.291526723073795457e-01 4.788468671027110157e-01
2.807205415148712468e-01 8.299503636115862504e-01 4.820563986844209614e-01
-1.681219350598000817e-01 8.632521524539134017e-01 4.759524516539798689e-01
-1.993598131676441454e-01 8.652620258738421555e-01 4.599753161577877503e-01
-8.013653953546039377e-01 2.954066760654430190e-01 5.201426716431998276e-01
-1.325974792307975381e-01 8.839561697448303779e-01 4.483741723958760139e-01
8.144846874530283776e-01 5.777481974025232558e-01 5.311981083059102993e-02
4.423698218689070538e-01 -6.404808515680150416e-01 6.277684441530824166e-01
7.311549835956729360e-02 9.109046366619675261e-01 4.060872650149978669e-01
-1.195155349452762666e-01 9.228888471013354522e-01 3.660494676989877183e-01
-9.606712558038756067e-02 9.390142952329455506e-01 3.301867058663878751e-01
3.793137244757042170e-01 9.100633191153690849e-01 1.670504523342797032e-01
1.638811968315688483e-01 9.797263870241459394e-01 1.152352372048850854e-01
8.660696726631446352e-02 9.813337856601368481e-01 1.717068267218170019e-01
-3.054409135629868391e-02 9.541199145132134296e-01 2.978627993095416815e-01
3.537608320662015849e-03 9.268075623066707180e-01 3.755199432500706536e-01
3.505280030455749929e-02 8.496740786269245671e-01 5.261418642346336050e-01
-7.339101409550974342e-01 -4.936840470458282448e-01 4.665318496048488917e-01
5.249762020475974289e-01 7.689461797380348074e-01 3.648585478647336511e-01
6.088526046891228338e-01 7.481178394544197863e-01 2.638526180528089071e-01
1.861671292564661684e-01 -8.488431129862893387e-01 4.947799202879517577e-01
5.683466624152375690e-01 7.981131306666696679e-01 1.999937548497644491e-01
4.094032829011238772e-01 8.798504026077390572e-01 2.413549688338355315e-01
2.493378806369020151e-01 8.927755481428234496e-01 3.752098638332676539e-01
1.585208977090945548e-01 8.707396577504245005e-01 4.654928285271175414e-01
2.033043004654847552e-01 8.572085216459884860e-01 4.731394211326496180e-01
1.837837821020266438e-01 8.641304172664735495e-01 4.685105584628220243e-01
2.371755429543456750e-01 8.640938093618472093e-01 4.439478014889169377e-01
4.889752271159450436e-01 7.708145777894727102e-01 4.083480304031682495e-01
5.909533322857321025e-01 5.848489515518843218e-01 5.556310492845505378e-01
6.270056591267695323e-01 2.679947352476303446e-01 7.314661477488606511e-01
6.226344249418583887e-01 -1.169641767346519118e-01 7.737220135411079225e-01
6.350029546582198758e-01 -1.617887493809160304e-01 7.553778181473758124e-01
-7.850934471285411220e-01 2.861749990479551808e-01 5.493015102798528559e-01
6.275969210673785215e-01 -2.755632964658993878e-01 7.281393920861536362e-01
1.563340764504611569e-01 -8.705107470180643015e-01 4.666590788428241487e-01
6.101923084057424562e-01 -3.273403199274934616e-01 7.214663274971587770e-01
1.663512460871346410e-01 -8.557937782094705570e-01 4.898410682080640011e-01
-1.198521029862678611e-01 -7.469689463729187184e-02 9.899777004262845237e-01
7.462651113640206280e-02 9.047949354657175425e-02 9.930983561979973562e-01
-2.395028115726486051e-01 -4.494106552252950804e-02 9.698549911602745155e-01
-6.425854477802792064e-02 4.733155865006690166e-01 8.785460687969286475e-01
-2.600315979307315506e-01 5.593958712541532430e-01 7.870577026504455009e-01
1.115911707559185534e-01 4.665438063403978819e-01 8.774305028745791324e-01
-4.811287206150955537e-02 2.799488019860923438e-01 9.588085417895194640e-01
1.920541781898453537e-01 -8.755901539341482964e-01 4.432347853828685347e-01
1.603142594095862128e-01 -8.569492960072665477e-01 4.898338925621684159e-01
-2.522026894083586046e-01 6.489129615672220019e-01 7.178480143911022404e-01
-2.609238936234042350e-01 6.259841030778816595e-01 7.348895321272322922e-01
2.754544266469056146e-01 4.539130509951376791e-01 8.474006142179212331e-01
-2.008607674878259697e-01 1.577134731495653808e-01 9.668409447635648579e-01
-2.487895213866141153e-01 1.884298409286893072e-01 9.500515612827591383e-01
7.869234354220033811e-02 9.091321869892792229e-01 4.090063344838639203e-01
8.793987699702955629e-02 8.976562109392731692e-01 4.318331911698015113e-01
4.165762413621263982e-01 3.975018151497400343e-01 8.175919165973115632e-01
2.904262504477114759e-01 2.964912644706430567e-01 9.098052116488903884e-01
-1.333120399627246433e-01 1.770548994024594425e-01 9.751304849088462401e-01
-1.832767809035230899e-01 2.384782967652626373e-01 9.536968719428524643e-01
2.240087536403466695e-01 3.248386524410696863e-01 9.188579477660125949e-01
-2.432895118882213437e-01 7.039885748473041494e-01 6.672408110192695752e-01
2.164661540046361379e-03 2.228068955888264091e-01 9.748601958837415093e-01
6.140370593788051501e-01 4.858238250730695929e-01 6.220399510488061612e-01
1.243081318266233692e-01 8.037059369501412531e-01 5.818971174295936022e-01
1.295903314514194604e-01 7.816328012750576315e-01 6.101282733698033534e-01
-1.844896108446426874e-01 7.521795169914744505e-01 6.326053728106207918e-01
-2.325704530558626026e-01 7.504075263021424691e-01 6.187079511647559649e-01
2.646751780271076604e-01 3.443857055589462091e-01 9.007472097891759955e-01
9.737375997243798154e-02 7.794883305200303036e-01 6.188023056291290791e-01
4.039953569986170362e-02 7.791838633895409316e-01 6.254921138979968598e-01
-1.309258330231832974e-02 7.761692248972913433e-01 6.303887043601036355e-01
-9.144650884200063168e-02 7.733546966697849578e-01 6.273436451892973054e-01
6.531578273536406964e-01 4.517384965117446360e-01 6.077147220003644712e-01
9.214947682430268960e-01 3.581738023658711523e-01 1.501962695925037339e-01
9.111588203672537079e-01 4.110524261011846980e-01 2.873163871562038618e-02
-7.679995674935107264e-01 2.342647544991312281e-01 5.960676883787966451e-01
1.963895629757431149e-01 8.879785930891885837e-01 4.158427079672575299e-01
3.165272180683563752e-01 9.165655529034344440e-01 2.443728860833963568e-01
-1.635917878470563858e-01 9.161769878931868005e-01 3.658653492802660945e-01
-1.409636499492982475e-01 9.139818310824997516e-01 3.804818810982367183e-01
3.687521157435579289e-01 8.380310310960689124e-01 4.021515486165747610e-01
3.887036070502115637e-01 8.508141855762715311e-01 3.535883588133812983e-01
3.931536771450824252e-01 8.461860940275427456e-01 3.597211147843712431e-01
4.208655432642960936e-01 8.314785611429874601e-01 3.626507918817166165e-01
4.358298441143738100e-01 8.284264582977475255e-01 3.517981668108733917e-01
4.178869798006705771e-01 8.214814658721357743e-01 3.879931356888174365e-01
4.165222640816937383e-01 8.098485718850573223e-01 4.131034908349150991e-01
4.223037609829682348e-01 7.960709321244306969e-01 4.335096359784635367e-01
4.536498744847624609e-01 7.701596163871662348e-01 4.483926367218044606e-01
4.841465940507012067e-01 7.313729921036654646e-01 4.803078407546947926e-01
6.216874031642095622e-01 5.165010262062958990e-01 5.888390804581374871e-01
7.287880454955972809e-01 1.582933726787611739e-01 6.661915587191795662e-01
7.513084262921577716e-01 -6.246434616942048851e-02 6.569884732931225990e-01
7.469879380982102912e-01 -2.226448288739694137e-01 6.264489608192076453e-01
7.450834465938480644e-01 -2.481685824841173005e-01 6.190823953882522712e-01
7.194162233610139623e-01 -2.766010725558569749e-01 6.371280438231590182e-01
7.064818601148558086e-01 -3.224231520158343245e-01 6.300211840667163665e-01
-2.056038254904206108e-01 6.950703756343852291e-01 6.889152631922007552e-01
1.697741906484218077e-01 6.199962926223504533e-01 7.660165281011984684e-01
-5.029740545589463929e-01 5.854571624687896492e-01 6.358120880846223066e-01
-7.915231692689381759e-01 4.816679901248104301e-01 3.761476037403155837e-01
3.177322606485975531e-01 3.938225606795430767e-01 8.625253626664779460e-01
1.291773877970659942e-02 4.231721409868618444e-01 9.059572126306048023e-01
-2.142435158297043701e-02 3.036878813662800547e-01 9.525306650552041177e-01
-9.446181266092121831e-01 1.911498836297856607e-01 2.667551627796953539e-01
2.913684114503706790e-01 8.198901144001456698e-02 9.530908932583380677e-01
-2.944644215865464543e-01 1.962459926808969579e-01 9.352957899918025175e-01
8.709661339481129458e-04 3.038756201628600162e-01 9.527113145589438670e-01
8.544004631700358177e-02 2.621690464705521695e-01 9.612322245732660697e-01
1.348459094161842953e-01 2.039804091756396154e-01 9.696435290281993913e-01
-7.805773387266479180e-01 1.986829863931418791e-02 6.247433624902332117e-01
-4.060111661656147786e-01 -7.842663997185909952e-02 9.104966749481088195e-01
6.157966498335916139e-01 1.301214397607849960e-01 7.770861580084317266e-01
-1.517128236783372996e-01 3.737529635856414595e-02 9.877177260501378564e-01
1.436019134644619111e-01 1.155876096947448667e-01 9.828621444202643165e-01
2.520014578062769739e-01 2.917169583476294722e-02 9.672870708458969347e-01
3.621459247046380225e-01 4.751282637676186582e-02 9.309096951635611461e-01
-2.127111116070182772e-01 9.230093441195911241e-01 3.206364509328735179e-01
-1.655071325525158676e-01 9.258505878364676756e-01 3.397176446361170887e-01
-1.398854189145185556e-01 8.923480528710693305e-01 4.291235511042488793e-01
3.690040129683143655e-01 -2.323427115817292693e-02 9.291373456368162698e-01
-1.796620432751110108e-02 -1.288823172817899487e-01 9.914971325193724372e-01
3.071783724692507267e-01 2.285100647560632699e-03 9.516492136297768356e-01
4.025057987699964257e-01 7.830827668889479565e-01 4.740996331553914978e-01
-9.388907307135734293e-01 1.647630950450047205e-01 3.022206450448461923e-01
-4.285656236302964328e-01 -3.117878394463344804e-01 8.480093451228952750e-01
3.482918758371524870e-01 -5.606060987093081094e-02 9.357082757177777044e-01
-3.190442112538063868e-01 1.407389133283973304e-01 9.372317480434486647e-01
1.822560078283725904e-01 1.062241387622742637e-02 9.831937306217458650e-01
-1.372339182138108959e-01 6.047010550967608644e-01 7.845403021238290808e-01
5.054729494815357604e-01 5.976591474165446893e-01 6.223348301772653191e-01
-7.099065179722601204e-01 -1.657999752284450012e-01 6.845020846971526796e-01
6.128805064830341806e-03 -5.436109597125174941e-01 8.393149362598718577e-01
-6.917630399309838696e-01 -1.490809610734355750e-01 7.065683007543324123e-01
2.045059913836702881e-01 2.036696866850329080e-01 9.574424046457327142e-01
4.317192929888996611e-01 8.116876482439688845e-02 8.983485312939775147e-01
4.346348919893301965e-01 1.144702481242341752e-01 8.933023412931366813e-01
4.447877210919422009e-01 -2.795002442045129154e-01 8.509074548124808679e-01
-6.410581395064657295e-02 -6.256902364657978000e-01 7.774330663208885994e-01
-1.059608820323097583e-01 -5.991689585468787937e-01 7.935797695208615110e-01
-7.089472972352626190e-01 -9.103287199417559039e-02 6.993616703532645751e-01
-6.642151088027388184e-01 1.083938945532059994e-01 7.396411649318567205e-01
5.425666510712315871e-01 -3.239246542298344633e-01 7.750446745365267009e-01
-3.183973905884789346e-01 6.278200431662303016e-01 7.102570626647795038e-01
-3.334378405837562509e-01 5.600449660203798974e-01 7.583988676824835462e-01
3.480044652197689103e-02 6.016797464662178019e-01 7.979789543679824959e-01
1.588855461032465666e-01 6.062878818964287930e-01 7.792113882028515182e-01
1.368895639124076691e-01 6.544546790295407979e-01 7.436062939406924421e-01
-9.151764765982262073e-02 5.918120959466499631e-01 8.008638855998225781e-01
-6.037200883028243092e-01 3.236070348201837144e-01 7.285605959661272113e-01
-6.376365476992262860e-01 2.611129332175681217e-01 7.247342058608317039e-01
7.868596465273981488e-01 4.875380142859713772e-01 3.783630284434117974e-01
6.583942671890764542e-01 2.576329253834421795e-01 7.072073703595918026e-01
-7.817980311118862824e-01 -4.689034901413713929e-01 4.110004324606229553e-01
7.824484452854549854e-01 9.037242072173636009e-02 6.161227605301299315e-01
5.456578209519765688e-01 -6.245058786312687182e-01 5.587932980887725387e-01
2.702449690492816914e-01 -8.438887742302744188e-01 4.634861307867556013e-01
-5.836081377993129760e-01 -6.547985508987870240e-01 4.802503505831793862e-01
-5.799062520666823373e-01 -7.105797302809681026e-01 3.984785887946801775e-01
3.266808303327804475e-01 -8.083673801004087611e-01 4.897160543444397662e-01
-4.038565783039226309e-01 -8.355519886143836228e-01 3.724952865248049028e-01
-1.166582529474732705e-01 -8.810980454806119910e-01 4.583198514896432707e-01
8.368059180003951936e-02 -8.699392994236286869e-01 4.860073804730963842e-01
2.013373445143076257e-01 -8.096339032754925613e-01 5.513222436749830591e-01
-1.597600598654717874e-01 -5.525220377445140274e-01 8.180440826009505173e-01
3.000773338859764050e-01 -7.072938274525429891e-01 6.400695550761780206e-01
-3.935292924460019326e-01 -4.430248920579001326e-01 8.055207266135584465e-01
-1.600637822504707708e-01 -4.582925155464314115e-01 8.742697271470617482e-01
3.024546773521751275e-01 -6.552892007791361051e-01 6.921829465466716735e-01
5.291183044884085335e-02 1.425108132217588197e-01 9.883779673350807649e-01
1.157498845099360213e-01 1.171998188297500160e-01 9.863397825811398567e-01
-3.486344868514901219e-02 9.753108689516024055e-02 9.946216501940960963e-01
4.301068741614270247e-02 1.023260868760724196e-01 9.938206340746912337e-01
1.143076893228706231e-01 9.792649969190783676e-02 9.886071782157748178e-01
-8.534782473891534826e-02 9.721121340718079373e-02 9.915975639341995107e-01
5.238350779069063726e-03 9.255981372341763602e-02 9.956933466507655872e-01
7.877697302229068332e-02 9.178394097494141368e-02 9.926579958377174107e-01
1.209239634840483940e-01 8.756353484744547333e-02 9.887922038630404531e-01
-7.959179177800525251e-02 1.096593140254443904e-01 9.907774631717435332e-01
-2.421181905815807112e-02 9.337550046929461722e-02 9.953365278788897097e-01
1.515721653104499245e-01 8.754738529817658599e-02 9.845614932702549948e-01
-1.075728390970791398e-01 1.522871273376604218e-01 9.824646126633961307e-01
-9.818592194048429700e-02 1.446037759100173847e-01 9.846061510701943353e-01
3.643046801486494318e-02 9.464213147194260045e-02 9.948445546670422468e-01
1.206587606803562612e-01 9.133968849459959960e-02 9.884829410651403414e-01
-5.481891000166178030e-02 1.494059961385246216e-01 9.872551521385365403e-01
-2.213054796423776643e-02 1.366657794810046955e-01 9.903699831707601930e-01
1.918866721491201133e-01 8.867383922616230152e-02 9.774029134847249667e-01
-8.950531619841609055e-02 1.894196288255303728e-01 9.778082647369165104e-01
-8.833545266905995508e-02 1.839984212688323129e-01 9.789491451410177181e-01
-3.030085845574729056e-02 1.533092844840128754e-01 9.877135826077541036e-01
1.805882639815359347e-01 9.706461767323615319e-02 9.787575485829388411e-01
-5.751299517747447687e-02 9.593451218213293330e-02 9.937247228272486632e-01
-6.703046153841059340e-02 2.084875685917427224e-01 9.757252948287499228e-01
2.059377715668893327e-01 9.997561984679591285e-02 9.734446618469447809e-01
-1.580659667071732111e-01 7.548087111097742663e-02 9.845393787275624753e-01
-5.981679943690741685e-02 1.506797518577683292e-01 9.867712819520063627e-01
-3.151334532938433047e-02 1.826658942702269195e-01 9.826698734247474309e-01
-7.632471647092914369e-02 2.241115946929931879e-01 9.715701368299644036e-01
2.159685893657131706e-01 9.575779294883626780e-02 9.716933742168625265e-01
2.906844923748225229e-01 7.981061174511387690e-02 9.534845526518310743e-01
-5.547647391464520517e-02 1.916246598193730721e-01 9.798991532760437106e-01
-3.210309330896053415e-01 9.526774137020881106e-02 9.422649295468003006e-01
-1.502909653889743791e-01 1.491539230899433244e-01 9.773258069596491016e-01
1.919220371050715523e-01 1.005290621062171069e-01 9.762478370503485658e-01
3.455413235915661962e-01 5.957593638875842423e-02 9.365104919294771069e-01
-3.158329344753614820e-01 1.166680565722011259e-01 9.416146356532207884e-01
-1.976397753437530158e-01 1.264377361449178228e-01 9.720864252115750670e-01
-1.692247250078760812e-01 1.605958397072204669e-01 9.724052492221242350e-01
-1.003800607995001121e-01 1.851769585872787283e-01 9.775650041824605063e-01
2.721795497282899490e-01 8.475672043602945627e-02 9.585064376678092968e-01
2.955313298045846859e-01 8.000044162314613738e-02 9.519775010177685681e-01
-2.212443861872299966e-01 1.443533601401164601e-01 9.644755201646612042e-01
3.543880762306739207e-01 5.761766175143983454e-02 9.333216468505479702e-01
-3.070562410084977101e-01 1.380000894310333959e-01 9.416328584829428694e-01
3.293901294628403531e-01 4.911813213009831591e-02 9.429154531072779788e-01
3.749464131084517815e-01 -2.502768998692694521e-02 9.267085852796577150e-01
3.625914707293324546e-01 3.308488829639362472e-02 9.313607332933652172e-01
-3.392104311323543842e-01 8.184473660227316316e-02 9.371433841742184967e-01
-3.191815052087953464e-01 7.102710081396532149e-02 9.450282099930196189e-01
3.349590926491457510e-01 1.612709487523478896e-02 9.420946465523228897e-01
3.539747352608333397e-01 1.792512060767946502e-02 9.350831924744573698e-01
-3.218604718648451213e-01 6.235975923521908798e-02 9.447312300750222436e-01
3.369562527954987896e-01 6.401427210693310353e-03 9.414985424479860310e-01
-3.192505103079442685e-01 -7.973113808719171913e-03 9.476368192109836386e-01
3.373371018767716834e-01 -3.239987931552225364e-02 9.408261941069243628e-01
3.535251265784553620e-01 -2.930037079095818009e-02 9.349660278048607109e-01
3.217541496085675190e-01 -4.003844183435918691e-02 9.459763159747417438e-01
3.510148169974279808e-01 -4.846567691285458279e-02 9.351147931722826323e-01
-3.104357534392419571e-01 -8.958039012839438819e-02 9.463640930905266035e-01
3.361344090452120237e-01 -5.995652887971438666e-02 9.399036512858762737e-01
3.561615730955021153e-01 -7.600297013451523531e-02 9.313283429493968146e-01
-3.059973767683032975e-01 -1.928119845506906516e-01 9.323031395552313638e-01
3.070341954419184005e-01 -1.083716365814637039e-01 9.455081127171722777e-01
-2.817262690918382328e-01 -2.380499793529273211e-01 9.294958400303166002e-01
-2.360002271336017199e-01 -2.080331504892381500e-01 9.492239467535626973e-01
3.149866733394633966e-01 -1.319148693404737505e-01 9.398839624471863052e-01
2.892297867540922773e-01 -1.120885091193517535e-01 9.506746533791585740e-01
2.383213438082518454e-01 -1.477082660254182001e-01 9.598881212064211965e-01
-2.919363589597053221e-01 -2.979897680110245028e-01 9.088318108858679523e-01
-1.966565072039755946e-01 -2.932027915643941052e-01 9.356058685115110629e-01
-2.331062908460553862e-01 -3.109480598901936954e-01 9.213971788639896410e-01
-1.720650916526899332e-01 -3.016437989710575862e-01 9.377657611455323394e-01
1.806692689944205676e-01 -2.027292620039831406e-01 9.624237432484414878e-01
2.318676107550183829e-01 -1.726532048000377628e-01 9.573026073060888486e-01
-1.261862367582821109e-01 -3.148372404434479632e-01 9.407202271040722152e-01
-1.488114923937999823e-01 -3.132001993076395374e-01 9.379556358832675800e-01
1.066572995936652390e-01 -2.646455248249472425e-01 9.584294270490213430e-01
1.474931230611949140e-01 -2.365058018632736903e-01 9.603701288225623411e-01
-1.052699642233875660e-01 -3.223839606673911673e-01 9.407373791536151053e-01
-5.291429472405317219e-02 -3.278892061882362485e-01 9.432331344260040940e-01
1.133217463069457337e-01 -2.661646813755144669e-01 9.572432001337044527e-01
-3.577429234641193653e-03 -3.365187614267908245e-01 9.416699661812781841e-01
4.318008751746718610e-02 -3.241543186951184596e-01 9.450182314184670807e-01
5.619168544968512757e-02 -3.146607392991166985e-01 9.475395050498195415e-01
-6.057927755306784928e-02 -3.082250522231754775e-01 9.493826774874128960e-01
-4.602924683083872009e-02 -3.174563985683237499e-01 9.471550788779076191e-01
8.364029130851091676e-02 -3.124673808918366213e-01 9.462391016801321442e-01
-2.264826435050543152e-02 -3.238748425648693696e-01 9.458288124578838607e-01
1.412943289731362177e-02 -3.380358693668010228e-01 9.410271569659568458e-01
3.685919941631426999e-02 -3.357574867131280505e-01 9.412270233766516503e-01
6.224738165409638563e-02 -3.380128996644545802e-01 9.390806904295480040e-01
-3.034131937916696026e-02 3.974056919293197376e-01 9.171412761186304996e-01
-1.152220475154786122e-01 3.891721825311107441e-01 9.139304634983520526e-01
5.558297287775047085e-02 4.027622815917137888e-01 9.136153882532344062e-01
2.408765257382913527e-01 4.308176556855661254e-01 8.696980205208261205e-01
2.533095102773768037e-01 4.209543224427413355e-01 8.709946902362885046e-01
-3.933147671814957169e-01 2.867392087111174659e-01 8.735468619969325443e-01
2.685489927698243018e-01 4.337267857575423657e-01 8.600944795769496221e-01
-4.630031793142317526e-02 3.218673176106677247e-01 9.456520028073555073e-01
-4.295218428674874023e-01 2.317035252147970070e-01 8.728255627001041406e-01
6.145582492248197193e-02 4.149007415922361663e-01 9.077888279822073914e-01
-4.054252918202367467e-02 3.679095199785440418e-01 9.289773347271083059e-01
4.700172653267752770e-02 2.529431195026324297e-01 9.663387687551525662e-01
6.829395681686425967e-02 2.526851049337764388e-01 9.651353134182287796e-01
2.264109635638602291e-01 4.119019249597213883e-01 8.826521850607749187e-01
1.554128400002811709e-02 2.874335619228886585e-01 9.576744833041922478e-01
-4.845419553766825982e-01 1.900633435258485548e-01 8.538706101790342062e-01
1.308279441832414791e-01 2.174661256202068127e-01 9.672603234024039764e-01
-4.838008784867109391e-01 1.966110910039165494e-01 8.528075919395512461e-01
2.430099902701845505e-01 1.255370442500663153e-01 9.618662043911521131e-01
-5.442382684427609085e-01 1.688285710442861964e-01 8.217673763064398118e-01
1.790358259259512141e-01 1.785302487694681584e-01 9.675087200172017843e-01
-5.243868930294033337e-01 1.728044658303550252e-01 8.337607588559530214e-01
2.920381520154187172e-01 1.521303319782565944e-01 9.442298871882867095e-01
3.350388765369873290e-01 1.471974802372085778e-01 9.306351879338378152e-01
-5.369978636420366103e-01 1.611422985710271871e-01 8.280497895991125734e-01
-5.592245050321222877e-01 1.763413529609946240e-01 8.100442458331913453e-01
3.436973660305871481e-01 1.109947692217332776e-01 9.324978722705220546e-01
-5.398481910652238591e-01 1.726388152902366413e-01 8.238687820634964520e-01
-5.445461033281552288e-01 2.138485236689683933e-01 8.110106967696077973e-01
3.693042006831778745e-01 6.272141782813460409e-02 9.271895335385249570e-01
-5.154627692187013777e-01 2.140907345192043232e-01 8.297368805485358934e-01
3.808998503024247362e-01 5.269084687168769376e-02 9.231137409309509989e-01
-5.242899933245414035e-01 2.033243241505483523e-01 8.269094400891036090e-01
-5.341630478000839455e-01 1.911579199511635740e-01 8.234855724327353466e-01
3.547749552245206273e-01 1.431891410720230289e-02 9.348420721406529577e-01
-4.914773768471086268e-01 2.288409648790653284e-01 8.402867372752610420e-01
3.536723959879424228e-01 1.417502697816537365e-02 9.352619445515338858e-01
-5.013482325038193244e-01 2.442222911027630006e-01 8.300635049764648610e-01
-4.628233178393644787e-01 2.691855447232557319e-01 8.445908589229502716e-01
3.760925301876459903e-01 5.155768430053964124e-02 9.251465905069425899e-01
4.318812626169897806e-01 4.617730534612967536e-02 9.007475958731863130e-01
-3.830427900046518563e-01 2.949771603702898704e-01 8.753666065628346038e-01
-4.433571114202304875e-01 2.922032701060293114e-01 8.473793251504618818e-01
5.504193801986395629e-01 7.863080193568232346e-02 8.311772993102596319e-01
4.490318184830820458e-01 1.264956075837889438e-01 8.845164143484192110e-01
-3.561251230426054626e-01 4.081884545215077598e-01 8.405694988121042988e-01
4.487314510225075548e-01 1.503247569442933140e-01 8.809327740031439591e-01
-3.246905419497611578e-01 4.319113173521033633e-01 8.414443926437095156e-01
4.862255783207906079e-01 1.503864560420130891e-01 8.607953303926181299e-01
-3.052295120520694405e-01 4.690941299998409586e-01 8.287253116516641871e-01
5.396691653097531738e-01 5.727492830237099208e-02 8.399266483460520183e-01
-2.770084911119888860e-01 6.206146584800542598e-01 7.335555476796182806e-01
5.513688578259564599e-01 -3.090198870531858655e-02 8.336890605698005219e-01
-2.310870989458969904e-01 6.260288913796605570e-01 7.447728377557296664e-01
-3.087230923029430363e-01 7.693774814738401080e-01 5.592390752441028789e-01
-3.154239202934372432e-01 8.467647351059510719e-01 4.283657711438529914e-01
-2.669655023537563232e-01 8.123577501023155900e-01 5.184634089323086892e-01
5.479024981165552255e-01 -1.500142758224659589e-01 8.229815123118496833e-01
6.608594512766712281e-01 -5.974229866535530897e-01 4.542582532835759968e-01
-7.231447160109972794e-01 1.315613783896192046e-01 6.780511215399598335e-01
5.377322791028402715e-01 -1.714015462447981142e-01 8.255092403818127256e-01
-3.570129280327007382e-01 1.023580607163192130e-01 9.284743381612180491e-01
5.204155463258436365e-01 -7.876854848959750910e-02 8.502724121781298772e-01
4.572957516227871277e-01 3.277257066989319040e-02 8.887106132816446902e-01
3.212705155740286922e-01 1.700781285137188126e-01 9.315893333567473178e-01
3.621386051218975499e-01 2.975622994347753014e-01 8.833528788855875558e-01
2.237378228880409214e-01 3.884593410562927618e-01 8.938907802161460969e-01
1.822337360594838418e-01 4.961371666995313956e-01 8.489044570864047179e-01
2.267119155223686344e-01 7.527198763502822576e-01 6.180732117697661510e-01
3.335739748639660607e-01 6.301224861590658533e-01 7.011947345282707467e-01
7.816951071522011407e-01 5.181810175701732080e-01 3.470463837648343763e-01
6.381703661657767146e-01 7.619884187488618066e-01 1.100555924996441393e-01
3.450227631345818002e-01 9.382670708990270558e-01 2.478298984259904789e-02
2.072987042047906847e-01 9.769345006396416009e-01 5.124674326226681675e-02
3.054454909340729163e-01 8.994263702608560340e-01 3.126263849188434252e-01
3.397341694681744184e-01 8.599918904663048647e-01 3.807816203914793918e-01
3.672815890686677576e-01 8.420768224211921948e-01 3.949821001921761665e-01
3.831019534414796257e-01 8.362337424247138218e-01 3.923595561467563830e-01
4.033818258930098044e-01 8.246045796966635644e-01 3.966237381732343192e-01
4.330691081653867958e-01 8.076493533087758525e-01 4.001920409662749201e-01
4.629807398450205280e-01 7.860675122105923451e-01 4.095689206709996477e-01
4.917620993786070427e-01 7.665637575631092382e-01 4.129770492478629373e-01
7.403726156958185811e-01 4.651469304044699160e-01 4.852697425793522923e-01
8.474793937142776068e-01 -2.409234456821009174e-01 4.730058884943656450e-01
8.838482166283651020e-01 -2.719706986091443013e-01 3.805841156182331875e-01
8.869179994519797994e-01 -2.742558256682929296e-01 3.716990776624296555e-01
8.815032744920263674e-01 -3.162963372423787112e-01 3.505832342067867202e-01
8.560103440021099575e-01 -3.744935627668086742e-01 3.563718036091121921e-01
-2.892729577250213041e-02 9.395609486767187990e-01 3.411574933677908317e-01
-2.880198493751103678e-02 9.344840814914330274e-01 3.548379166644570204e-01
6.540609289144784233e-01 7.223193558085040378e-01 2.246309183792767339e-01
-7.908263426940851382e-01 2.531707412061764417e-01 5.572237176379095658e-01
1.329566418882707490e-01 9.025018467165004665e-01 4.096497870756196091e-01
2.673587282438553703e-01 8.791716825144801906e-01 3.944318231285178777e-01
-2.838532819875157487e-01 6.960264886703126930e-01 6.595259216848046169e-01
-1.482391808462524829e-01 8.314963290350957381e-01 5.353867761377674173e-01
5.527648646655295428e-01 6.340437753062172499e-01 5.407767518918855654e-01
-3.001953018811164275e-01 6.233488336365186067e-01 7.220242463605343053e-01
5.341631920262460698e-01 6.160403116303557747e-01 5.789335184031978443e-01
3.164047417483817903e-01 5.501492184471411528e-01 7.728026118234458952e-01
3.226199310754409091e-03 9.921759442470982071e-01 -1.248057983243825858e-01
-4.225912563413354306e-01 5.150802829802922922e-01 7.457271164097452054e-01
1.182478374949040012e-01 5.278791722177136325e-01 8.410475780040748139e-01
-5.638152893283504552e-01 6.155740034502078517e-01 5.506187118105158040e-01
1.425765167644997833e-01 9.274421093135414296e-01 -3.457210880744064907e-01
-1.429588144607526756e-01 6.342802923080628208e-01 7.597705496777131806e-01
-1.924896867517788268e-01 7.473271443386731994e-01 6.359637252460283996e-01
7.931774899552810343e-01 4.144579675568960120e-01 -4.461995770469163736e-01
-3.072087990111134204e-01 8.264964773240141005e-01 4.717269621095925847e-01
-7.165135309843959632e-01 6.975728787446399126e-01 6.623867367904004433e-04
9.468093806827566628e-01 -2.605223394830285533e-01 -1.888917872259789910e-01
-7.687208816306584369e-01 6.138552367472740467e-01 1.795827231749517194e-01
8.984767115317798813e-01 -4.387164664156333327e-01 -1.635423281048103972e-02
7.608291838625474979e-01 -6.208540498262471452e-01 1.888893903780666239e-01
2.706136091671032529e-01 -7.176869232269137422e-01 6.416336608709366507e-01
6.191227760699377081e-01 -7.083803747727842604e-01 3.389457667359536130e-01
2.358233942744923928e-01 -7.943431039175569142e-01 5.598270804199086959e-01
1.953154595358784773e-01 -8.420551789801742348e-01 5.027871784552143675e-01
2.459930224740126126e-01 -8.340351129356169402e-01 4.938348542626093685e-01
-9.942830329933549649e-01 -1.031955425935294213e-01 -2.742134734767993215e-02
4.231181062226054279e-01 -7.755449449302799225e-01 4.685094519640826127e-01
-9.868469507515766903e-01 -1.367780563616977363e-01 8.616762205278316600e-02
5.790500214381546495e-01 -7.078174301102085897e-01 4.045930774304629107e-01
-9.738626143869837382e-01 -1.204358223533172345e-01 1.925793888073931148e-01
9.535779713915777389e-01 -4.405860183793001289e-02 2.979058443213395968e-01
-8.883724252035624103e-01 2.616062656546337406e-01 3.773017305926094078e-01
-5.298725131664768773e-01 7.119178516411408530e-01 4.608775241919533805e-01
-4.321214308889077538e-01 8.029550937256803023e-01 4.105291541736185712e-01
-4.165846795836453120e-01 8.081101164652327862e-01 4.164315602866087151e-01
7.568885904977356027e-01 -6.771393392424386592e-02 6.500265261717049770e-01
-1.305144994152513949e-01 -7.694696409455907826e-01 6.252059157633186315e-01
-2.080151679349274453e-03 -7.076374043447962725e-01 7.065726975627846240e-01
-4.605254717193612568e-01 7.202072081182374630e-01 5.188620888754483795e-01
6.721470239072816488e-01 -5.325074147883683828e-01 5.144455573216593081e-01
1.002615639418617394e-01 -7.545610245234075641e-01 6.485254652410477050e-01
-5.458968398112108433e-01 5.892009081854832075e-01 5.956835821789410179e-01
6.757961794650354515e-01 -4.878687009509691253e-01 5.525247998532514249e-01
9.288895241948631476e-01 -1.108623857702989851e-01 3.533748480896145017e-01
-7.299663755382744812e-01 3.437482548823788120e-01 5.907505631388207945e-01
8.522937352003711053e-01 -2.833237028444495972e-02 5.222955731501700560e-01
5.694984314433529926e-01 -3.929721507807200642e-01 7.219725931739623404e-01
-7.611580959090519238e-01 2.468734604929915255e-01 5.997431513042242868e-01
5.799907897158250725e-01 8.819579994499637809e-02 8.098346650501420108e-01
-8.162836376875810540e-01 1.825590170148719549e-01 5.480449143547393431e-01
2.810071338879486236e-01 2.578166605041932180e-01 9.244271524952878405e-01
1.012752655059587503e-01 4.186479236826580741e-01 9.024839259471032493e-01
1.705504837975509447e-01 4.486296609544971337e-01 8.772935425433577850e-01
1.183901520949190572e-01 4.549270954212354390e-01 8.826239911414940353e-01
1.001938232732312722e-01 3.991612400616183498e-01 9.113898738796496479e-01
-8.478625559072153761e-01 6.717701852546364982e-02 5.259432806610554456e-01
8.093166098596084324e-02 3.061745088479152499e-01 9.485289855253720148e-01
6.599264380552972986e-02 1.850678408206722081e-01 9.805074529331895272e-01
4.038263509906927368e-02 -3.960751366792717928e-03 9.991764384887514838e-01
1.479013998231327176e-01 -1.294893919562472850e-01 9.804884870824128740e-01
-8.791883184676900775e-01 -2.614261732820190309e-02 4.757567279915093095e-01
1.576985837805591206e-01 1.079662284242745574e-01 9.815673436873515456e-01
3.312694286317741654e-01 -9.416991176944497499e-02 9.388251133045563135e-01
3.470032409654707495e-01 -2.004175445070209838e-01 9.161995189985834287e-01
-8.373409820675666859e-01 -1.343658793061990320e-01 5.299112097591397452e-01
2.467529993560571566e-01 -2.645025659025469489e-01 9.322828701310340582e-01
-3.315540704662608418e-01 -4.615512269460957939e-01 8.228258401762836849e-01
-8.725374207771238178e-01 -2.124946465137375617e-01 4.399141672492556387e-01
-4.580900002746745581e-01 -3.380752540362559899e-01 8.221062426819722990e-01
4.846567943744659601e-01 2.609543889819869733e-01 8.348716060195749966e-01
-8.148091049550671983e-01 -3.159993078652396647e-01 4.860355541634910348e-01
4.022747842013620345e-01 2.381382302333725498e-01 8.840051930260731661e-01
1.495731678033503098e-01 -8.128885052618591012e-02 9.854034657202106473e-01
-4.522966840845099035e-01 -2.736917702053818235e-01 8.488348040037011488e-01
-4.170370190100720631e-01 -2.799956083198391066e-01 8.646864079519209767e-01
5.442233048205640245e-01 2.818105498417666221e-01 7.901922604582157783e-01
5.921951931632341015e-01 5.652508911007720904e-01 5.742789246560793259e-01
5.457825116400693011e-01 3.122757837332034159e-01 7.775636854185457025e-01
6.670401702660968546e-01 5.232406171915472415e-01 5.303552279108647571e-01
-4.746653610973499138e-01 -4.640941359932699295e-01 7.478699271337113652e-01
6.238222880716405294e-01 6.505185962926562926e-02 7.788542921906749239e-01
7.092115522838002839e-01 -1.602465053748375889e-01 6.865420829216184462e-01
-3.705602561684410712e-01 -1.561372284154109724e-01 9.155906631520076555e-01
-4.375299733017935511e-01 -1.213387888772259060e-01 8.909794727020032834e-01
-3.441392553002753374e-01 -4.301091787813223766e-01 8.346102487325616215e-01
-3.573673301977404182e-01 -1.498714483884059645e-01 9.218606946091695287e-01
-3.694860131179112939e-01 -1.225711198647127659e-01 9.211169343168873480e-01
6.615798712330853704e-01 5.615978105834980028e-01 4.969104276698522171e-01
1.522353578082192849e-01 -3.806925709840891514e-01 9.120841859338028046e-01
7.437059858426359193e-01 -4.609852143183165718e-01 4.841425810664960472e-01
7.324925341321594230e-01 4.720634397711382380e-01 4.905209437649816762e-01
9.944380183014091268e-02 -5.934299606032864688e-02 9.932720368036902503e-01
3.240135896751832750e-02 4.904526618133894095e-02 9.982708619419179419e-01
-4.238952523183345256e-01 -1.888752971447176313e-02 9.055142606736021893e-01
8.359098103498424637e-01 -1.500673194091228790e-01 5.279532068339490847e-01
-4.488184754565784917e-01 -6.297804510745487472e-02 8.914009995076717097e-01
8.329533378957084677e-01 3.590396528117387187e-01 4.210454424373024085e-01
2.430555660584010277e-02 2.906799062026074187e-01 9.565115953547680405e-01
7.504348447485272855e-01 4.524368878643623137e-01 4.818178144141874730e-01
5.164642807644005407e-01 6.567283427750291169e-01 5.495202730477504183e-01
-1.427450522199059935e-01 4.397657161264772463e-01 8.866960950554044762e-01
-4.136695441449581012e-01 1.970527810007247915e-01 8.888462801557888149e-01
8.600656214867197225e-01 3.428979128014009725e-01 3.777673200967832656e-01
-1.771918373538133307e-01 2.071354934641249645e-01 9.621319764577794809e-01
8.859660189950168130e-01 3.109201604171605293e-01 3.440826456424220803e-01
-1.300582042283844053e-01 -1.411866207068535051e-01 9.814026704906946286e-01
4.471695945664209970e-02 5.378455099745396151e-01 8.418566391834065854e-01
8.783035757710320190e-01 3.093660635963560446e-01 3.645208738641924628e-01
-6.016574080369923028e-01 -2.652057179058027736e-01 7.534416304825981570e-01
-7.718804599994560922e-01 1.405117748832700360e-02 6.356123975208629595e-01
8.524662139504413094e-01 1.406160304344698797e-01 5.035161229373422698e-01
-6.952744998059585679e-01 1.511853502223502177e-01 7.026637601283557411e-01
8.515787463559907344e-01 1.010064978588412626e-01 5.144038551032166229e-01
-6.384431036917751490e-01 1.994061453646052140e-01 7.433892604411520555e-01
3.618319572728698197e-01 7.941507736043275367e-02 9.288546065902459903e-01
8.798354617212800211e-01 6.224101361697217949e-02 4.711853313948066724e-01
-8.461421778239025526e-01 1.107699058673389525e-01 5.213189454274264056e-01
3.989949077867965266e-01 -8.353842728134656948e-02 9.131398549661300379e-01
-1.511561768744074802e-02 -6.258787816010206173e-01 7.797738575019996787e-01
4.083576916863287942e-01 4.699544443627463874e-02 9.116114434576005898e-01
-4.882603498220375871e-01 -6.512613060273646504e-01 5.809135409535507444e-01
-4.425153190511192935e-01 -4.178398332538938442e-01 7.934671172464831113e-01
8.716264461122679164e-01 1.081187890036895138e-01 4.780979668457852050e-01
-6.119276143649807764e-01 -3.130390720588279718e-01 7.263271536588256083e-01
-3.595099328271122996e-01 4.456384554765279171e-01 8.198530204854647119e-01
4.757382113864610518e-01 -1.114830665209113197e-01 8.724933696630049473e-01
8.525083070470687030e-01 1.680918483421228460e-01 4.949492064208905751e-01
4.549481529500171151e-01 -2.567820000449068663e-01 8.526929005100871706e-01
-6.831144806495980104e-01 1.932238482679102531e-01 7.042862704805264995e-01
7.999493076435175709e-01 2.366276705518246259e-01 5.514421553797588249e-01
-8.287276298728232238e-01 2.628811726465981047e-01 4.940688257250425708e-01
3.447724006487427606e-01 -3.545831283741893158e-01 8.691391124689280545e-01
-3.777461668133480499e-01 2.828923870880920011e-01 8.816346923672091496e-01
-8.137213068988107256e-01 3.281025264606489134e-01 4.797982563839002790e-01
2.501689189747392517e-01 -2.002947338774106467e-01 9.472579012919277730e-01
-2.004717182297170441e-01 3.508619430831142472e-01 9.147168890350536596e-01
5.343860858110994760e-01 1.553057042792800324e-01 8.308499560749876833e-01
-7.881613085444584277e-01 3.847782573115747229e-01 4.803617849223173475e-01
-3.246976407306763623e-01 2.977021742893330436e-01 8.977443163436548135e-01
-6.895357131250303695e-01 4.907197326611877353e-01 5.326674800493157447e-01
1.976515075708456248e-01 5.789927551429464164e-02 9.785609615398991323e-01
-2.467910620982105563e-01 3.278254454816720842e-01 9.119345639700143780e-01
4.418969065573828958e-01 7.527959615190475684e-02 8.939016200780831589e-01
1.853083399274823850e-01 1.226678296512281469e-01 9.749940629162713313e-01
1.084018960018743177e-01 2.034747091551215303e-01 9.730606721461090292e-01
-2.019792190243837604e-01 3.311280422007307211e-01 9.217150398852190785e-01
-1.945688421597531748e-01 3.078665098755554719e-01 9.313222738438383663e-01
4.626055861185457974e-01 -3.336293093375230362e-02 8.859362203519091095e-01
-1.731180661425963108e-01 2.997414652475672292e-01 9.381818529401902973e-01
3.533937546203325120e-01 2.398691445342135409e-02 9.351670878139094478e-01
5.045273079110561276e-02 1.317261483389254029e-01 9.900013857563593200e-01
-2.086376463158890471e-01 2.902941402093547896e-01 9.339162942683233437e-01
3.958926807068114950e-01 2.619409914592056229e-02 9.179231201645963178e-01
-6.505746236420086870e-01 2.339766511834822094e-01 7.225009244104964035e-01
-5.483117936290386046e-02 1.419826016357482457e-01 9.883493727434734533e-01
-1.585426737626151605e-01 2.067220606495428492e-01 9.654689069239918986e-01
3.862999519544959015e-01 8.495823134222620088e-02 9.184522012860304452e-01
-1.192035592795758492e-01 -4.895093610240364851e-02 9.916624008753075481e-01
4.130124917750945257e-01 -4.410117361959723986e-04 9.107252533812685291e-01
-7.255154097781048028e-01 7.730766013628473377e-02 6.838500682596743152e-01
1.900929486434360938e-01 -1.214143659766263317e-01 9.742295533448663836e-01
-1.764173489729318478e-01 -2.246222508408439178e-01 9.583432388286337034e-01
4.623156766423738295e-01 -7.640926147294392623e-02 8.834171381017369429e-01
-7.994974965585307514e-01 -2.891285662018552860e-01 5.265058643573702346e-01
-8.942535624654025794e-02 -2.887728255299780722e-01 9.532121279629274246e-01
