3.595719621330324689e-02 -4.442490703363360383e-01 8.951814584461517121e-01
1.699417306060614918e-01 -9.788771182784657965e-01 -1.136635188152433779e-01
3.649399767308225129e-01 9.293733797675968189e-01 -5.553318254035891077e-02
9.305549169117545427e-02 7.534616218776722940e-01 6.508734591482289167e-01
2.606837295276915323e-01 -9.152718185031555320e-01 -3.071180414978254558e-01
-3.711443873821566042e-01 9.285748430714216850e-01 -7.775150212545290599e-04
6.567332911200243206e-01 7.481402091312302494e-01 9.480301585783411367e-02
-9.745168263938478459e-01 -2.085286465643394205e-01 -8.266050228076313178e-02
-6.698298141435893305e-01 -7.128860432815136150e-01 -2.076571919746400541e-01
8.140421195601150739e-01 -5.593731457857067380e-01 -1.563237389390295107e-01
-4.022181609886470444e-01 9.152452471649438204e-01 -2.338137106526945799e-02
8.175778238700511791e-01 5.633474500091328885e-01 -1.191895653323705867e-01
-6.825452641339081472e-01 7.300662988038204571e-01 3.369216168879787809e-02
2.735858298958227519e-01 3.438293662305061948e-01 -8.982940279205592349e-01
-4.152667127473390618e-01 -9.070824064181652879e-01 6.895698115962783925e-02
7.555526423980856165e-01 -3.036206424148368277e-01 -5.804780013616989143e-01
7.531487910799615493e-02 9.886491895161799714e-01 -1.300017271190977153e-01
7.531487910799615493e-02 9.886491895161799714e-01 -1.300017271190977153e-01
-9.909200519571633725e-01 9.055456201626378709e-03 -1.341471182776324544e-01
6.496677304983807799e-01 7.574863352024467922e-01 6.439170700214222332e-02
-4.256521090218385317e-01 -8.701009936858862259e-01 2.484844922165048431e-01
-4.256521090218385317e-01 -8.701009936858862259e-01 2.484844922165048431e-01
3.053886124234056476e-01 9.201261385803517490e-01 2.451646069548345519e-01
-9.776115344650987415e-01 1.128225110777044682e-01 -1.776141004394530543e-01
-4.735955268288335462e-01 -8.490570264374497356e-01 2.341141662200628693e-01
-3.614067658337887790e-01 -9.172675733369217710e-01 -1.673479862865281109e-01
9.638871777711559563e-01 -9.382255592034564884e-02 -2.492365072153948924e-01
5.851976890826520172e-01 8.099807393252440590e-01 -3.840399216819729428e-02
-6.884723744897177644e-01 -6.835847096774541054e-01 -2.423174245894846590e-01
-2.818298384439688054e-01 9.163442541330557578e-01 -2.844031470992896549e-01
7.553684614121457530e-01 -4.055954625685551096e-01 -5.146948690706438789e-01
-7.073668153393933844e-01 -6.998098282026621320e-01 -9.949066743954050607e-02
9.827991971550240624e-01 -1.558552116396924869e-01 -9.907013210946467863e-02
-2.565415815783728681e-01 9.100460834677916999e-01 -3.255803171050121736e-01
-4.555315552553763636e-01 -8.720317845085003849e-01 -1.790295198383166086e-01
-9.176853501768936217e-02 8.626372505144637159e-01 -4.974288994475024039e-01
9.446332796071250648e-01 1.702856871513203432e-02 -3.276858173711536537e-01
7.932890553668080491e-01 5.353855403065969076e-01 -2.899220548110315043e-01
-8.737142658328941325e-01 -4.651562972888743097e-01 1.423130379571426185e-01
-8.599742084718056123e-01 4.728937439840903978e-01 1.918746144334914638e-01
-8.988544785539913651e-01 4.328978169582268221e-01 -6.826497239605312795e-02
8.977245458051951177e-01 -8.123215807923417353e-02 -4.330034368831802150e-01
3.068397907563970017e-01 -9.516522135218474787e-01 1.440164252919239919e-02
-4.898491124149183529e-01 8.661851014082374567e-01 9.884946719491230493e-02
-3.595524478015471592e-01 -9.290571312154942696e-01 8.703381077231679697e-02
-9.875808281396746269e-01 -1.511755220706661740e-01 4.277931062576902088e-02
9.702560277146846102e-02 8.008538977321454366e-01 -5.909476008023583082e-01
-8.626179555439639213e-01 -4.884633352200462575e-01 -1.315060185651622249e-01
-8.626179555439639213e-01 -4.884633352200462575e-01 -1.315060185651622249e-01
-9.560399468631350928e-01 -2.932349544672600561e-01 9.388719389904779051e-04
-9.560399468631350928e-01 -2.932349544672600561e-01 9.388719389904779051e-04
-4.176040644738254204e-01 9.023518628588309554e-01 -1.066206402632183942e-01
-5.856404607435085063e-01 -7.770135808497456997e-01 -2.308140938400139730e-01
5.851221016067020830e-01 -7.941863970156791686e-01 -1.640124782039778795e-01
4.599878159014920143e-01 -7.563991643265446374e-01 -4.650500117495752206e-01
-1.452365747605750546e-01 2.012923471623126459e-01 -9.687041490185240855e-01
-8.594182146575346515e-01 5.018039152793404289e-01 9.794469319560029918e-02
-8.594182146575346515e-01 5.018039152793404289e-01 9.794469319560029918e-02
4.866149132201969679e-02 -6.657620477501047240e-01 7.445756879175575715e-01
-2.105535816286653039e-01 9.240219085564423951e-01 3.191405674166958861e-01
4.367778703859745981e-01 -8.926528057638967173e-01 -1.113375960892611927e-01
-9.780203058719818543e-01 1.249112140484953115e-01 1.669534962407381862e-01
1.171783607258625320e-01 -7.812680719864467660e-01 6.130982233477599852e-01
-9.791424158611944373e-01 -1.921600843881329512e-01 -6.598963122680295834e-02
8.357412142268505484e-01 -5.486014584124830895e-01 2.393872741660018136e-02
5.702710945061278958e-01 -7.991885819164377125e-01 -1.899697062828074878e-01
-1.604833206389721656e-01 9.729328214323467172e-01 -1.662733555816510167e-01
8.421140048283258794e-01 -2.332145254817327706e-01 -4.862663755353937023e-01
-9.242247780431269710e-01 3.817923447957459748e-01 -6.570015715295736934e-03
9.752767661025976142e-01 -6.504645298445559110e-02 -2.111970370402959929e-01
8.108751237632921827e-01 5.847459485815562630e-01 2.353102801241944639e-02
4.619016789109813698e-02 9.486359544827144274e-01 3.129797026212106092e-01
2.600285362419251789e-01 -9.425010849107411381e-01 -2.099449101120517691e-01
-6.405621751884439385e-01 7.358717931073820440e-01 -2.194830376743852340e-01
-6.137502571915222083e-01 -7.893559318532725744e-01 -1.509419243921183637e-02
3.446286298533941528e-01 9.361326368094975425e-01 -6.990560625207176138e-02
3.654066682878887029e-01 9.279588901381708999e-01 -7.328209183885876776e-02
-7.883153993047983255e-01 -6.141392586348020100e-01 -3.730686562031301778e-02
6.304153423890160313e-02 -9.147515394090262042e-01 3.990681471999763530e-01
6.304153423890160313e-02 -9.147515394090262042e-01 3.990681471999763530e-01
2.921531642539221818e-01 -9.366044835747573405e-01 -1.934388015990662624e-01
-5.151838610602397228e-01 -7.265760294829063382e-01 4.546128712255279591e-01
-9.236568216612318916e-02 9.336313274302322496e-01 -3.461229914334627566e-01
-3.291360831014488175e-01 -6.929704472405235904e-01 6.414525688247768587e-01
3.054274733367057237e-01 8.669021475956452116e-01 3.939476171081811029e-01
9.348655618979917481e-01 2.382621124674330348e-01 -2.631682863486949908e-01
2.823322836858441209e-01 9.528088847459031951e-01 -1.115513816050892754e-01
-4.157903482008702967e-01 9.043918247398672339e-01 -9.588437665591025005e-02
5.874728527179483295e-02 9.846300313219230604e-01 1.644763140764746723e-01
2.250886430065959232e-01 9.743353142914109588e-01 2.407927346622170447e-03
-5.223275280532112957e-02 9.888698368979204067e-01 1.393132628569820342e-01
3.647048396943776694e-01 9.310131798428432637e-01 -1.431219278852539044e-02
7.427382429448274870e-01 3.022505610740054416e-01 -5.974817995534920101e-01
-1.572370014104473857e-02 -9.495264648999853785e-01 3.132926071716526373e-01
-8.218511421307580500e-01 3.754557076473194477e-01 4.284783679177037174e-01
-8.218511421307580500e-01 3.754557076473194477e-01 4.284783679177037174e-01
-9.293999681053242146e-01 -3.469193377939647216e-01 -1.259471013974489684e-01
-8.790444252211702114e-01 -4.388181230068172733e-01 1.863318368083038690e-01
7.513161512813377740e-01 6.524821300552379189e-01 -9.895004185131885122e-02
-1.012462847088628076e-01 -5.867855511518021983e-01 8.033877686348777081e-01
8.854691104680726399e-01 -4.453963482457281575e-01 -1.325388523273461350e-01
-8.249239640059375933e-01 5.648157201490909829e-01 2.199217772742124294e-02
1.883563350299870959e-02 -9.995044897933876848e-01 -2.521891737169776673e-02
-2.027835434880645160e-01 9.701123117132534057e-01 1.332701660267283650e-01
-2.775897111094109415e-01 -9.599787545714361103e-01 -3.721213589231628371e-02
-7.951161549400183048e-01 -6.002700581876369013e-01 -8.640692910184828712e-02
9.423060429604909194e-01 -2.210544129647511180e-01 -2.513847010240493063e-01
9.859526308198928168e-01 8.667958643995879106e-03 -1.668001087298147944e-01
-3.666955994045294487e-01 -9.191848115752929704e-01 -1.436440724382523626e-01
-3.666955994045294487e-01 -9.191848115752929704e-01 -1.436440724382523626e-01
-3.666955994045294487e-01 -9.191848115752929704e-01 -1.436440724382523626e-01
-9.961616038717796551e-01 2.445884947577205495e-02 8.404655646678843572e-02
-3.003312520737547175e-01 -7.397945190667538640e-01 6.020840544198136080e-01
-9.200010262632211111e-01 -3.633975205834493183e-01 1.467663234819945317e-01
-2.174412687239267172e-01 -5.040077364020694173e-01 8.358800729187118028e-01
-5.005220220167001521e-01 -8.656130006690020418e-01 1.385057937849740184e-02
-6.549400596897568538e-02 -9.048132792180831885e-01 -4.207415654921137782e-01
-4.186987968372313795e-01 9.055924867210075613e-01 -6.777584762669189300e-02
-9.285296945589645023e-01 -3.328221779383152001e-01 1.645053318121711683e-01
-5.640462746754656420e-01 7.724678052134452688e-01 2.917966585371598587e-01
-5.640462746754656420e-01 7.724678052134452688e-01 2.917966585371598587e-01
3.837979867909747655e-01 -9.234167980376862817e-01 7.227980502192744589e-04
9.958588177591052304e-01 8.984206433488696464e-02 -1.391468891076147116e-02
-6.883587365021229809e-01 -7.021266776127896847e-01 1.821548200449999433e-01
-9.226837064530575283e-01 -1.143690797863632785e-01 3.682044152843206297e-01
-3.184935282091132525e-01 -9.347697194084422234e-01 -1.573767586588722955e-01
9.118807993880670426e-02 -9.069053861510093517e-01 -4.113482158067083838e-01
5.441883025309256494e-01 8.385467993996785774e-01 -2.642643761585629358e-02
7.795070904285420488e-01 4.064562117786554851e-01 -4.766151947621619089e-01
9.753860689076763180e-01 3.461010793704744765e-02 -2.177708819135742158e-01
-3.444142091717687371e-01 -9.364567705022586175e-01 -6.653998422802129276e-02
9.779887221416970755e-01 -1.598838697991200875e-01 -1.340716507756516129e-01
9.815012210628408784e-01 3.043479104665106419e-02 -1.890213653164611041e-01
4.463715220901049441e-01 8.925266106144348344e-01 -6.441050855312549506e-02
1.634043785699075850e-03 9.720597110962538867e-01 -2.347280297799432536e-01
2.361442851644808827e-01 9.419727466644601810e-01 2.385858778837693095e-01
2.361442851644808827e-01 9.419727466644601810e-01 2.385858778837693095e-01
-5.333725255883420280e-01 8.247320183511509528e-01 1.879650149733988473e-01
-2.168374574466610527e-01 9.285580302680300768e-01 3.012664957688185319e-01
7.779500597677444507e-01 4.147023463819907718e-01 -4.720335458552009089e-01
-5.368217460430900756e-01 -8.414159561701928247e-01 -6.198065567133135417e-02
5.835432109517489918e-01 -7.965254522511616697e-01 -1.581914184404613621e-01
-9.780423894402656693e-01 -1.903611572106222449e-01 8.482755615605398758e-02
1.220142929076648702e-01 9.925167317693263103e-01 4.800987833533907310e-03
3.669131417454237210e-01 9.262645674295444387e-01 -8.607379124368547130e-02
3.967200216502580479e-01 9.013021252915788262e-01 1.739761574661941035e-01
4.387861270326710861e-02 9.703586573706657337e-01 2.376525687070008275e-01
5.546495715444734742e-01 -3.846819200918351611e-01 -7.378236057080246324e-01
8.363171954088992610e-01 5.225424726063241376e-01 -1.659003103850687222e-01
-5.989672925035569584e-01 8.007715771773310509e-01 1.750341648995565715e-03
-6.617486569688484088e-02 9.230449814661878527e-01 3.789575825077048932e-01
-6.617486569688484088e-02 9.230449814661878527e-01 3.789575825077048932e-01
-4.463779094228428335e-01 8.912228405228467265e-01 -8.042767253676348649e-02
6.163326518374357965e-01 -7.324777990651676340e-01 -2.891545195145361347e-01
1.954479474384646087e-01 -9.798022816887171915e-01 -4.227988457499402136e-02
4.256831890061485435e-01 -8.500326670431077591e-01 -3.102229642646346930e-01
4.256831890061485435e-01 -8.500326670431077591e-01 -3.102229642646346930e-01
-1.414019785857652473e-04 8.944589555711386364e-01 4.471500383585677585e-01
1.481826823838744978e-01 9.872569075118156068e-01 -5.801457757948642879e-02
-3.007964725552722540e-01 9.460637552072769241e-01 1.203530356136096741e-01
-4.890337092255289120e-01 8.048871177043570579e-01 3.361588300114892180e-01
-4.890337092255289120e-01 8.048871177043570579e-01 3.361588300114892180e-01
5.675835776900394203e-01 -7.023120111939056276e-01 -4.296588428850807162e-01
-2.024816420982224474e-01 8.289713418890746199e-01 5.213517995939346283e-01
3.306663761350099318e-01 -7.400857347219801374e-01 -5.856046900040732250e-01
5.309258825311222729e-01 8.100180528712987993e-01 2.489748205765769939e-01
1.077046516752366845e-01 9.884991289545620452e-01 -1.061563943603385657e-01
-3.813740539516701222e-01 -9.233456736174704416e-01 4.457126859725270285e-02
8.311654545571994790e-01 -5.558286871327775547e-01 1.478031498232771149e-02
-1.986611657777744566e-01 -7.667270604989286920e-01 6.104615924941453331e-01
-8.851982194243006585e-01 -4.541180889115793984e-01 -1.009993745096597617e-01
9.951760673670025925e-01 -9.635674430917898214e-02 -1.843835041652568812e-02
-3.391761375072713247e-01 -6.974602500756523771e-01 6.312754924041145133e-01
8.174870953474260016e-02 9.694199964149627924e-01 2.313914843727348791e-01
-5.082605466520315751e-01 -7.857456895131260666e-01 3.525264928037605827e-01
-7.224899076711614743e-02 -9.971777959608243425e-01 -2.040898272441619629e-02
-4.500691507170772598e-01 -8.919213802531069657e-01 -4.374941165548883876e-02
8.784633821915451835e-01 4.709975176493428339e-01 -8.039542596907035821e-02
4.340561908079428322e-01 9.008690934044057963e-01 5.486325730636052757e-03
9.003353536885133623e-01 -1.134596112685515301e-01 -4.201466024013149614e-01
-5.508368598702106933e-01 -8.182191469163243580e-01 1.646091778360132540e-01
7.888667383204552852e-01 -5.967897301034563728e-01 -1.467354327171527806e-01
8.912651612842757975e-01 -4.512503278790989669e-01 4.493944670241920014e-02
9.305450080067571017e-01 1.380750120239768453e-01 -3.391478720680449199e-01
7.060430041619153441e-01 1.023408279907069146e-01 -7.007350649141186327e-01
-2.929712949883649942e-01 -9.537715588086735918e-01 -6.698980460124587255e-02
7.758547329847567120e-01 6.135517166941136802e-01 -1.469820541660036006e-01
-8.083621484728465978e-01 4.404643693170938734e-01 3.905659691760897667e-01
1.153459359253609373e-01 9.666043299685391776e-01 2.288479502892132866e-01
1.617775220646129608e-01 8.877338830770679090e-01 4.309948795421407186e-01
-1.497966097376352869e-02 9.992483514588423876e-01 -3.575390697388050598e-02
-9.723885268112352209e-01 6.520851384036560616e-02 2.240723156675237249e-01
-3.224990427346282607e-01 1.677533384517846948e-01 9.315863807900636173e-01
-6.635910097426563903e-01 -6.821607711065105217e-01 -3.070890003762637988e-01
2.039669190876317872e-01 9.707633142102004564e-01 1.265546668500494021e-01
6.197640052627610974e-01 4.357992813030329149e-01 -6.526649708666922844e-01
-9.468337478381687600e-01 -2.986075824688331770e-01 -1.197470903481415716e-01
-2.044536377297195839e-01 -4.539748828428931127e-01 8.672401719056066494e-01
-2.139097176427979807e-01 9.705657237422072869e-01 -1.106562632422767450e-01
-1.101482688226539941e-01 9.749435163018773665e-01 -1.932679458583433096e-01
7.175884328475884422e-01 6.744105405058975489e-01 1.738886537353294126e-01
-6.947942269205682475e-01 -7.097010929683074121e-01 -1.165561704820471250e-01
2.649822109459363806e-01 -7.126508924878073303e-01 -6.495484072173027812e-01
6.004516914202552291e-01 -7.972821659658808624e-01 -6.163533161513917724e-02
-2.141441765897863780e-01 -8.641967675148205519e-01 4.553089266087561038e-01
3.492879015340316640e-02 9.993686004389004118e-01 6.509998096243571619e-03
-2.909068034724377472e-01 1.010530217497387917e-01 9.513997679675432195e-01
1.537631770409579046e-01 8.416875954973672691e-01 -5.176088068919723062e-01
8.251050354295429434e-01 -3.001794046183083320e-01 -4.786376558021845917e-01
-3.814315508468802407e-01 -8.971134367099719009e-01 -2.229292571489151498e-01
6.030753327552738075e-01 -7.967597963571008135e-01 -3.839231604249406654e-02
4.688929815612060126e-01 3.886413683819337495e-01 -7.931565158434119578e-01
-2.425294965439086792e-01 -9.683799782829374259e-01 -5.847786732513228503e-02
7.249035865114802739e-03 7.955700267258104530e-01 6.058182764282699084e-01
-6.689772872519169633e-01 7.151489175233847195e-01 2.025621260408699831e-01
4.141729717063388216e-01 7.614127895053486306e-01 -4.987096484785751849e-01
-3.952604767556464060e-01 9.185150918729507730e-01 -9.958991742333698355e-03
6.949130957297706690e-01 -6.655503957005897142e-01 -2.722837860873376092e-01
1.832094550138296529e-01 6.447934467593047225e-01 -7.420752701780266580e-01
7.308234151054641137e-01 6.813919719925177754e-01 -4.002644672881112281e-02
7.308234151054641137e-01 6.813919719925177754e-01 -4.002644672881112281e-02
9.042456133229144211e-01 -4.211091199746958003e-01 -7.076001597232499385e-02
-3.224441945046611635e-01 -9.158673535096256701e-01 2.392001927372020276e-01
3.904571812229878924e-01 9.139258126506520918e-01 1.108277880418266220e-01
-7.285747711186659759e-01 -5.497936047966720668e-02 6.827562323484349660e-01
7.993620578149669420e-01 -4.193210529940183950e-01 -4.303372573247742361e-01
-1.219707730617168445e-01 9.852955324280523453e-01 -1.196488374203769633e-01
4.204204741135479928e-01 -9.070264263393469362e-01 -2.344540185649999359e-02
-5.257668945635989299e-01 8.362026755956432078e-01 1.559944162707017634e-01
-8.267907534406234715e-01 5.245412532070814482e-01 2.031588632303070463e-01
3.287540659983405056e-01 9.125119415378768473e-01 2.433982757546424291e-01
9.979287057477054246e-01 -6.398751962425239248e-02 -6.625373728739539572e-03
-8.412656003504243030e-01 -4.720850691643899699e-01 2.634537476277252210e-01
1.027009042435848007e-01 8.706996008237836149e-01 4.809726909013171681e-01
-9.121641265766695650e-01 4.005706172541074195e-01 8.660130933932108643e-02
-9.762062481643888137e-03 9.996989744895286023e-01 2.250916570397855712e-02
-4.244659082467956979e-01 -9.054189861488767255e-01 6.719542943020974032e-03
-2.512330420764689043e-01 9.337591854976666772e-01 2.549033975209773484e-01
-2.512330420764689043e-01 9.337591854976666772e-01 2.549033975209773484e-01
-2.767743911921305422e-01 -9.599160784418276915e-01 4.423865650184465731e-02
1.062469664864497676e-01 -6.980863134251509283e-01 7.080869163604911476e-01
-1.528601418515573573e-01 -8.908058873538055034e-01 4.279002782061737120e-01
7.804809340713217969e-01 -5.908094005689918937e-01 -2.044352311869592487e-01
6.609710959423683585e-01 -2.075925787203974360e-01 -7.211258777695889188e-01
-7.319543851980833127e-01 -6.748687282919354491e-01 -9.378154169622889003e-02
-5.789579837681598784e-01 6.919097984384353639e-01 4.313565623193774679e-01
-3.731720183641453747e-01 -9.275387610275637185e-01 2.035906435674587900e-02
-9.571242541439940466e-01 -1.827848198948818503e-01 2.247284400010344796e-01
-9.958337468132899550e-01 1.315219392963546882e-02 -9.023396534920585799e-02
-2.876996287029149474e-02 -9.819035693746792637e-01 1.871835187341731321e-01
-7.703983300056350958e-02 -9.965951386125109224e-01 2.937675654587649371e-02
-7.703983300056350958e-02 -9.965951386125109224e-01 2.937675654587649371e-02
-3.039559240449656308e-01 -9.121121750397055417e-01 2.750675851173827735e-01
-3.039559240449656308e-01 -9.121121750397055417e-01 2.750675851173827735e-01
9.995839151194458871e-01 -2.382630010508188234e-02 -1.625743084816796274e-02
-2.892724189586305950e-01 -8.965857217712780436e-01 3.353438699986911464e-01
-1.668063797512189805e-01 -7.017760310878849994e-01 6.925937004224250737e-01
-1.835278213352598553e-01 -8.968382277572890526e-01 4.024906607973628425e-01
-8.299776536248386627e-01 4.278592155646154249e-01 3.578737013805841638e-01
-3.497302259214251086e-01 9.112120136062950015e-01 2.176727712335887743e-01
-3.497302259214251086e-01 9.112120136062950015e-01 2.176727712335887743e-01
9.677852818231228449e-01 1.828478229166651328e-02 -2.511121562630633242e-01
-3.372753704103643169e-01 8.980669029238992351e-01 -2.823493622929356128e-01
-5.810409539899257236e-01 -7.201803779737915301e-01 3.791195497043163831e-01
7.660504184459762111e-01 5.734830542885335225e-01 -2.903169696084601514e-01
3.539645487262952361e-01 -7.080759871189573618e-01 6.110134979773397257e-01
9.736098133747395078e-01 -1.972124678119819563e-01 -1.148528355762842984e-01
-1.660332777599212162e-01 -7.021398308832531576e-01 6.924107224498573521e-01
2.537911745658945617e-01 -6.338066512562211541e-01 7.306703555885091239e-01
2.710706047843036703e-01 9.558074621302725671e-01 -1.138104676994138864e-01
-6.104559979025826477e-01 -7.798751020853138538e-01 -1.383412439303023656e-01
5.311550476062212311e-01 2.656183094524193211e-01 -8.045627564622113148e-01
-1.576942653519242676e-01 -9.871273886768729966e-01 -2.668402516665043661e-02
-4.105417730122549735e-01 -9.118377059809830154e-01 -2.729571998057461844e-03
7.027064100236785071e-01 7.055794787643308030e-01 -9.144014686279196280e-02
-2.443866801422899526e-01 8.977725046951070542e-01 -3.664419195213672320e-01
-5.979948995420479672e-04 9.963034893020779048e-01 8.590110364019934441e-02
8.764653635051373737e-01 3.946335185161204406e-01 2.758130755410159729e-01
-5.901066763199595000e-01 -8.070200798730315928e-01 -2.219687465244755617e-02
-9.169276781105805130e-01 2.206906053754198460e-01 3.324744949823523754e-01
9.303852823677196682e-01 3.578175280441629469e-01 7.968590200219423381e-02
4.556393903143645119e-01 -7.548349920504827670e-01 -4.718229337051154104e-01
-8.799353450009018696e-01 1.575178489459157505e-01 4.482208338326049701e-01
-9.581214357007757920e-01 6.877752953195313823e-02 2.779801537559207225e-01
9.839315587190310408e-01 2.802442355164311977e-02 -1.763329788818189525e-01
6.355694178708666264e-01 -7.718215526411852379e-01 -1.852041969929105886e-02
6.355694178708666264e-01 -7.718215526411852379e-01 -1.852041969929105886e-02
4.123925102696456291e-01 9.072782997754439416e-01 8.233167209573709344e-02
-3.780041527349133901e-01 9.253127375792645770e-01 3.015291343680271199e-02
-8.907338774708218471e-03 9.891406804987894485e-01 -1.467016479060280765e-01
2.146060174414679000e-01 -9.766401217027080861e-01 1.087795745680627223e-02
-4.136571161819384557e-01 -8.892747216067773408e-01 -1.951365156582200999e-01
4.217915049846617248e-01 -8.957354602564994162e-01 1.405343785763867592e-01
3.384429708183979146e-01 -9.361305205577918898e-01 -9.547776696076834546e-02
-6.092682690537155610e-01 -7.233359643300319997e-01 3.249265440542403183e-01
-9.582388229300796700e-01 2.032288175456692103e-01 2.011874895428754084e-01
4.075935724176326658e-01 5.100855955818758836e-02 -9.117376851790381931e-01
6.698390639836488969e-01 7.354505910742427099e-01 1.021178556867332193e-01
9.989860925319077323e-01 -4.016456710968117558e-03 4.484032786811000676e-02
9.989860925319077323e-01 -4.016456710968117558e-03 4.484032786811000676e-02
-4.503670497691448366e-02 9.663107580363144988e-01 -2.534072100554868867e-01
-7.757850925176585921e-01 5.001409853227384295e-01 3.847291060314625422e-01
-9.048892974946255441e-01 -3.881034643130049644e-01 1.747886159563230568e-01
9.882490191226221965e-01 -1.476529554801117583e-01 3.952822967403359783e-02
-2.426135117116862694e-01 -9.609745747047186981e-01 1.329155773640107174e-01
-5.180795466154068940e-01 -8.099643187917392462e-01 2.748661231636376767e-01
9.274510838209018004e-01 2.817831489156540359e-01 2.458307224628621668e-01
-1.478524922276037434e-01 9.450229737002736607e-01 -2.916697099816473737e-01
-1.926779060493375717e-01 -6.363099827177709500e-01 7.469838220565104825e-01
-9.810695297138765092e-01 1.901567282571647866e-01 -3.664691754464231149e-02
2.828195337952048027e-01 9.064447298563924615e-01 3.136416155733081634e-01
-4.182226198279622720e-01 8.321878810686583750e-01 3.640785229407144108e-01
-4.182226198279622720e-01 8.321878810686583750e-01 3.640785229407144108e-01
-6.186507347285593594e-01 -7.854479083942488282e-01 -1.851625283132313921e-02
3.738505162877526211e-01 8.971333695186836099e-01 2.353455093419753730e-01
1.740452643041305592e-01 9.711351542225260536e-01 -1.631096508686589175e-01
-3.358451475600336966e-01 8.542351420393632377e-01 -3.968505499118883395e-01
3.592595313258861722e-01 -9.213083885379272919e-01 1.487395117685688661e-01
-6.794092323078240181e-01 6.959998640456640517e-01 2.323516393385477163e-01
-4.520061348615037056e-01 -8.859465287146072177e-01 1.038710850338147862e-01
-3.585594143702275360e-01 7.709024232860638426e-01 5.264452489463209428e-01
-3.053493214722549642e-01 9.440491575671341451e-01 -1.246313763593176749e-01
-3.736557502919602980e-01 -9.118770445242416756e-01 -1.698871270681982792e-01
-9.679320246800633409e-01 5.120012821342035531e-02 2.459393064755660829e-01
-1.189111659944305788e-01 9.885719484650861144e-01 9.265871416001977834e-02
-1.764115216651191143e-01 9.836179130939105564e-01 -3.707797276790668339e-02
-1.764115216651191143e-01 9.836179130939105564e-01 -3.707797276790668339e-02
5.628692407168726097e-01 7.653453429293261001e-01 3.121293384339313137e-01
7.879621676664954055e-01 -5.300970316547978234e-01 3.132295633510508992e-01
8.235406046671982505e-01 -5.574229287015682877e-01 1.051691543284044850e-01
-3.884472840099884583e-01 -9.097924952255644904e-01 -1.462406344915963274e-01
9.882109418840124837e-01 -1.296678793582509703e-01 8.139640903287406748e-02
8.415414744823240811e-01 -4.948949561969844257e-01 -2.165338981704732213e-01
9.801523068561722729e-01 -1.420718890313531491e-01 -1.382643616829255240e-01
4.955876769221469469e-01 6.023307686455757759e-01 6.257719230084869411e-01
-6.294418807910540092e-01 -7.382614284609612110e-01 2.424313963846300990e-01
8.313899230959874709e-01 -5.389751587679291189e-01 -1.352648291520513746e-01
8.711655739638652918e-01 -4.548386748814857716e-01 -1.849116615367006056e-01
-9.701871213019035434e-01 -1.581098154838703473e-01 1.836797101140509869e-01
-9.146198617746260640e-01 -1.393869654213998610e-01 3.795283682651102719e-01
-9.464695644865460666e-01 1.009793611796593049e-01 3.065918004715645906e-01
1.852466777143242094e-01 9.728166240726033864e-01 -1.389657667333514257e-01
-8.025577297161218260e-01 4.576026971165929602e-01 3.827543103147556525e-01
-6.655092792684075276e-01 -7.061429887983924347e-01 2.417839502086902292e-01
7.544623104088260535e-01 5.135185636299496315e-01 -4.087606964716755109e-01
-3.927848046596343901e-01 9.113954984425821637e-01 -1.227939031348472126e-01
1.005884771907115949e-02 -9.993830051842669260e-01 3.365157546724689003e-02
-5.922869942187021230e-01 -7.192524375755304789e-01 -3.631419109949063917e-01
-8.202305928617884545e-01 -5.708155703298204431e-01 -3.730092763780459147e-02
3.172916415063004036e-01 8.239729825826085374e-01 4.694619667280382491e-01
9.787478498430476348e-01 1.596882057194571047e-01 -1.286558330652426418e-01
-1.371831532681533350e-01 -8.190487694404999797e-01 -5.570815880438062528e-01
-2.051456235009835594e-01 9.740357857014260157e-01 9.575782647595197650e-02
5.907659343694625642e-01 -4.636159193332307638e-01 -6.603452809927387035e-01
6.127440733252389471e-01 -7.862744750781203162e-01 7.948050355540453582e-02
8.452797402211961186e-01 -5.325011989491404973e-01 -4.409800323501212455e-02
-8.875684419437207540e-01 3.134736793203813932e-01 3.375744558448381394e-01
1.323824367163836668e-01 7.940130757703057762e-01 5.933111544163074402e-01
7.151992803092211970e-01 6.736285387763092380e-01 1.863184939593131861e-01
-2.784411293947121058e-01 -9.262573839970771328e-01 2.540035355113949289e-01
-7.588569504375676233e-01 5.498634571477900579e-01 3.489789496030891169e-01
1.089299577157073207e-01 -9.843952612163145988e-01 1.382035962155762077e-01
4.804451591662634025e-01 8.479277917789135310e-01 2.240332764627598894e-01
-4.869188220994603578e-01 8.059344776008341427e-01 3.367189904052705907e-01
1.238689811809672026e-01 7.981529185687201711e-01 5.895832376191025848e-01
-3.560580359166717890e-01 8.129012195434104360e-01 4.608842396133742136e-01
-7.097894092315956693e-02 8.905990549511110244e-01 4.492163323673957764e-01
-4.003323946661393462e-01 -9.160753880203437172e-01 -2.323482825955790546e-02
-4.677306751414205266e-01 -8.313099454588321890e-01 3.002528769437262657e-01
1.169863274680209425e-01 9.247183667981984101e-01 3.622294042338603526e-01
8.865980126137037454e-01 4.609785890489158100e-01 3.798294969985069325e-02
4.137040096590940963e-01 8.100197893783482872e-01 4.155922679832295130e-01
-2.154868190462198851e-01 8.277999083794919111e-01 5.179891335773815220e-01
-2.154868190462198851e-01 8.277999083794919111e-01 5.179891335773815220e-01
2.992410931623740722e-01 8.789339637085591406e-01 3.713890892346576322e-01
3.227187864938375061e-01 -9.113989826626637258e-01 2.553516775848681530e-01
-3.835691331082358713e-01 9.234704611161305143e-01 -8.776535339050432066e-03
9.883206381578208966e-01 -9.091375306975681136e-02 1.222988376645039732e-01
9.883206381578208966e-01 -9.091375306975681136e-02 1.222988376645039732e-01
-4.527838695294303939e-01 -8.915372911945144141e-01 -1.216658964144973903e-02
1.170915595829143813e-02 9.600406643940545548e-01 2.796154830773266431e-01
-7.983116711001978505e-01 -5.505726020149543931e-01 2.440661502455682696e-01
-4.756722090227144539e-01 -8.795710692591610647e-01 -9.522798209942742731e-03
-2.320563055118192164e-01 -9.331881124413572426e-01 2.744263432514124079e-01
-1.830325738329587337e-01 9.828156666380322148e-01 -2.392576700803936487e-02
7.251467041836242577e-01 -6.372570283806796576e-01 2.608941110700912502e-01
-3.001254862144257518e-01 -8.395581574050103857e-01 4.528430112735079005e-01
-6.234995689165974131e-01 -7.499259671407355610e-01 2.210414697943568207e-01
2.026649138201480904e-01 9.264193367886347508e-01 3.172918926326013245e-01
6.795324012124582813e-01 6.529543692769519403e-01 3.344941065916831047e-01
2.851370458109179218e-01 -9.078839633663131625e-01 -3.073167326529704924e-01
-4.692341041739990781e-01 -8.135385623969637603e-01 3.434739625839289268e-01
-4.692341041739990781e-01 -8.135385623969637603e-01 3.434739625839289268e-01
1.263581441184074838e-01 9.267357005673557691e-01 3.538284340028147179e-01
1.176838861263327374e-01 -9.905276808155571988e-01 7.074896807981002900e-02
5.826488095752520024e-01 7.708791063377293806e-01 2.574213823917611554e-01
7.855199697892460975e-01 -4.159291066440773954e-01 -4.582154027404160002e-01
2.788458765435879450e-01 -9.602984720439814437e-01 8.474769886709629385e-03
-2.583749074601803808e-01 -9.432221103259306183e-01 2.087449587109618254e-01
7.555879997909679124e-01 5.894447038789585314e-01 2.857301447886294032e-01
-1.741618441632633296e-01 9.583338515888879527e-01 2.264152842377444297e-01
-9.252461101964383136e-03 9.598251851002466140e-01 -2.804460839641625403e-01
1.714978230711874940e-01 9.052816140809130108e-01 3.886562695865081740e-01
7.925507422264939095e-01 -5.923180833238924636e-01 1.449917555026630500e-01
-9.418902448664594473e-01 -4.046984513065918221e-02 3.334740743453702971e-01
-4.777600859287703394e-01 2.171992464985060545e-01 8.512166513959975589e-01
1.765655145883634342e-02 7.678073801828634304e-01 6.404374076576955233e-01
-1.118576211168538781e-01 -6.916331421217629671e-01 7.135344906287681699e-01
6.479114863298129912e-01 5.987873535631440536e-01 -4.708125009966694918e-01
9.330006202198670717e-01 -3.415188167526166385e-01 1.134669135617793756e-01
-8.654597042846262633e-01 -4.244670536462579191e-01 2.660962619587733946e-01
4.855911993244339531e-01 8.479992658830318719e-01 2.123639145441064691e-01
-6.580118225793930575e-01 -7.308035442864204700e-01 1.815120409343444763e-01
-6.427086721335306674e-01 7.082443098219756150e-01 2.920882749600661188e-01
4.366755553944058343e-01 -2.433571183483155820e-01 -8.660783869085934006e-01
-3.786253664417457143e-01 7.877921341186028270e-01 4.858254679488418493e-01
-3.786253664417457143e-01 7.877921341186028270e-01 4.858254679488418493e-01
-3.786253664417457143e-01 7.877921341186028270e-01 4.858254679488418493e-01
9.352157935659851651e-01 3.451358057654118072e-01 7.907398461823181290e-02
1.454495658698737315e-01 9.893209010696634165e-01 9.411614897271713964e-03
9.689306995927207122e-01 2.102000050432350775e-01 1.303428450916460646e-01
9.887041555541600246e-01 -9.245884734635576030e-02 1.179637840072894489e-01
9.887041555541600246e-01 -9.245884734635576030e-02 1.179637840072894489e-01
5.332586469645538285e-01 -8.195451439181228315e-01 2.097164097483946998e-01
-6.239536128180338537e-01 7.025841054321650958e-01 3.421366157624864401e-01
9.194811235020537987e-01 3.916365381324182215e-01 3.428243753083703993e-02
-5.643058250384683783e-01 6.627422251064229997e-01 4.922719562281004380e-01
-8.907761548068503510e-01 1.193700454091634888e-01 4.384844743962281743e-01
-4.545901182671155949e-01 -8.881632549796656395e-01 -6.718524300629769019e-02
-4.545901182671155949e-01 -8.881632549796656395e-01 -6.718524300629769019e-02
2.343498391047639517e-01 9.380034535853828404e-01 -2.554010062107546775e-01
-8.180510220678290922e-01 -5.279480938103930932e-01 2.281739151080866834e-01
-8.180510220678290922e-01 -5.279480938103930932e-01 2.281739151080866834e-01
9.257432984780618046e-01 -3.352644381901206394e-01 1.749202727188041151e-01
-6.077949815747695217e-01 -7.797736706287069497e-01 1.501275556543777978e-01
4.891895224942278686e-01 -5.363862808454753495e-01 -6.877378634353557008e-01
-4.639741396089741010e-01 -8.854431606137301847e-01 -2.680311729035455767e-02
9.728781201107735699e-01 2.013548921951522075e-01 1.138611909247666115e-01
-5.750018176675500969e-01 -7.300270484328088560e-01 3.693689459544412523e-01
-2.575115286892092903e-01 -9.067866361012394405e-01 3.338050466669802430e-01
5.087371744116685468e-01 8.273625256132518535e-01 2.380288608183734334e-01
-2.892133992800499653e-01 -9.406991178083508043e-01 1.773154799544271187e-01
1.811476936032785923e-01 9.670883188571544054e-01 -1.786776332736008666e-01
-8.569717531085612183e-01 -4.859942404033243402e-02 5.130667698818421885e-01
6.564414206570579058e-01 -6.273759500366079545e-01 -4.189081982504128110e-01
5.648298819051691400e-01 -8.161575719733477063e-01 1.218770783107415989e-01
-4.718321693960698948e-02 8.905103599825917593e-01 4.525097157000111947e-01
6.148747369489524633e-02 9.691224566335728818e-01 2.387906083310826488e-01
8.438538746863329942e-01 -5.338735398199780935e-01 5.375575929097203137e-02
4.649264948315731116e-01 -6.683253427367594202e-02 -8.828231797852758023e-01
-7.280609782618264747e-01 -6.146659821074097474e-01 3.035011406442581494e-01
6.664551162534602113e-01 6.636697711483252604e-01 3.396763354776375365e-01
6.415804823292200476e-01 3.954724784427416373e-01 -6.572488139879451019e-01
-6.443552003584849253e-01 -7.300942146556681500e-01 2.275276104065173388e-01
-8.612349080733806561e-01 1.826556676775113464e-01 4.742481841621728478e-01
9.850437722190114043e-01 1.342808632118469292e-01 1.079695169370588487e-01
-8.514613949745257759e-01 -4.387646699646634563e-01 2.872264912204904319e-01
-4.313075170640585099e-01 8.691689521369277971e-01 -2.419073342526675274e-01
9.527992481507470135e-01 -2.803114571262077526e-01 1.166150921928791190e-01
9.818407400478963432e-01 1.855172674500014385e-01 3.964977503194304365e-02
-8.087944725579793159e-01 -4.259768906440314362e-01 4.054567668653499823e-01
-3.266963633752152929e-01 8.557519726672071503e-01 4.011957719537840861e-01
-3.266963633752152929e-01 8.557519726672071503e-01 4.011957719537840861e-01
-1.812360635728403335e-01 -8.368049223238012146e-01 5.166343109349960105e-01
-3.394931995354220078e-01 -8.946157231135534182e-01 2.905289579839089864e-01
2.543553635514815281e-01 9.330184333700070054e-01 2.545190602378758493e-01
-5.645620797573776273e-02 9.959190144578778936e-01 -7.041316085966810301e-02
1.821037206626423821e-01 9.041588454253017826e-01 3.864388918833192021e-01
-8.970451245488951786e-01 2.494198985028352744e-01 3.648283963096791704e-01
-3.712877458065866887e-01 9.283035038295388564e-01 1.995030304693864651e-02
-2.668360057565435373e-01 -9.582726614350055572e-01 1.025283003768473894e-01
-1.974638226523811046e-01 -9.551964493354813124e-01 2.204717258978989014e-01
-6.432929251437214356e-03 9.024184170565315855e-01 4.308127411978778798e-01
6.104323394748939480e-01 4.154309119240426895e-01 -6.743808392452784739e-01
-9.873848081545504307e-01 -1.135695868918090712e-01 1.103321782565065828e-01
5.759222594695826425e-01 7.460310707252416629e-01 3.342920767233352741e-01
5.385668260913197836e-01 7.825365285856985542e-01 3.123817460463499951e-01
9.962995147786858352e-01 4.049425170214364378e-02 7.581221821605457767e-02
6.762562634647491244e-02 -9.590604133865713310e-01 2.750089055576673824e-01
-5.978980771451812837e-01 -7.885193591999655194e-01 -1.440663371956493466e-01
-6.241968015614637322e-01 -7.373222159207539761e-01 -2.583298334109858096e-01
-2.245190268487162466e-01 -9.476089276250507787e-01 2.272191164233468286e-01
-8.726607200519594931e-01 -3.576899807538075904e-01 3.324472068565718641e-01
-5.566589130470255276e-01 6.771040582517218187e-01 4.813116961225366586e-01
-5.566589130470255276e-01 6.771040582517218187e-01 4.813116961225366586e-01
-1.579158955319562296e-01 9.518422056172672896e-01 2.627907638102911503e-01
8.815143436708149371e-01 -4.718188504068451250e-01 -1.787272512448332892e-02
3.616088432934409791e-02 -7.676401703247600627e-01 6.398601092022326853e-01
-9.390420444226430519e-01 -1.635660556311010483e-01 3.024007014737673527e-01
-9.390420444226430519e-01 -1.635660556311010483e-01 3.024007014737673527e-01
6.145253401009226346e-02 9.672178909038015027e-01 2.464003603474239634e-01
-3.644089849204061871e-01 -6.670417755694169060e-01 6.498164058828297396e-01
-6.124678880632378197e-01 6.985354224399791256e-01 3.700423620181300111e-01
3.269531752343595166e-01 -7.352881231812414820e-01 -5.936775194605043993e-01
5.010789305106699842e-02 -9.845749771235262626e-01 1.676344638676389720e-01
-3.952049912338322368e-01 9.044424035162622610e-01 1.606143008128264882e-01
-7.244258057446864019e-01 -3.447205938282411064e-01 5.969714935923378096e-01
5.069668500942919875e-01 5.551528583876573775e-01 -6.593860149635305534e-01
6.006784825521549465e-01 6.922674624468557747e-01 3.999388966282618751e-01
-3.069588238214848164e-01 -6.730210613585112522e-01 6.729182204740733475e-01
9.238082215486752569e-01 -3.806177679589065055e-01 4.133381803141128463e-02
9.238082215486752569e-01 -3.806177679589065055e-01 4.133381803141128463e-02
9.962840742949014006e-01 -2.268050469157674789e-02 8.308813401013759314e-02
6.634412428772098469e-01 3.964813638090057268e-01 -6.345457000104042233e-01
-9.365302558287164070e-01 -1.542864244387345263e-01 3.148122919317316026e-01
-9.554507386676837077e-01 -6.740904326875767072e-02 2.873497987905478945e-01
-9.060995352699593441e-01 -1.747451085875432325e-03 4.230609632172014356e-01
-9.060995352699593441e-01 -1.747451085875432325e-03 4.230609632172014356e-01
-5.487641952706809878e-01 -8.331660476955613515e-01 -6.849959821983916952e-02
-2.441817977027252451e-01 -9.172358138202475475e-01 3.147279960794296394e-01
-7.248388300714133647e-01 5.112093591418741534e-01 4.618156142298127098e-01
8.833885302485975366e-01 -4.660364645258449623e-01 -4.934286531479187971e-02
-1.216312293544160872e-01 7.881462985957149447e-01 6.033500278077457146e-01
-9.262588185058182599e-01 -2.908756684410504501e-01 2.396579784801201318e-01
-6.608423777460280535e-01 -7.408471158200216067e-01 -1.201370165941021695e-01
4.946348337719736477e-01 -8.507563536609139554e-01 1.776232189916559234e-01
9.677517352801805472e-01 -9.684199357848657930e-02 -2.325472148660216176e-01
-5.826503676134335841e-01 6.592417767585307953e-01 4.753091929430634521e-01
-9.499346502803324155e-01 -2.008173527864873797e-01 -2.393669797958984102e-01
-5.164147750613203858e-01 -8.214849418049618990e-01 2.418228080352722853e-01
-8.014046095284860227e-01 4.409327057087278900e-01 4.041398283550823312e-01
-4.679639094606152794e-02 8.775731238743155194e-01 4.771535497592975794e-01
-9.455719429310872892e-02 9.836526275466332958e-01 -1.532528803253609406e-01
-7.771916041602425773e-01 3.551417341470142763e-01 5.194685352260329791e-01
-1.459887551443358467e-01 9.299560831723870935e-01 3.374447610233106687e-01
8.662097449923297776e-02 -9.186107884460756878e-01 3.855528836972726969e-01
-3.651889766336605669e-01 8.876152874684620775e-01 2.806708264097628747e-01
4.656498182673258213e-01 -1.353369923858681600e-01 -8.745594006352876981e-01
8.025579285018227260e-01 5.352315557345483921e-01 2.634918464484968803e-01
-7.154371895509951118e-01 -6.986533683793912930e-01 -5.753143445474037491e-03
6.475479255198423045e-01 -7.538576554443479072e-01 -1.112668840351864474e-01
7.339701332510049081e-01 6.333361166774755802e-01 2.453022764007647127e-01
5.490948466853305954e-01 -7.841402934451334739e-01 2.891692403064222705e-01
7.732644069287278876e-01 6.201177423941467426e-01 1.323485645753269269e-01
-4.616046872532735823e-01 8.864144465837153763e-01 -3.450422573385855674e-02
-5.868203724105939267e-01 -7.906074302201202553e-01 1.748763614804175193e-01
1.283875226587643248e-01 9.275664347343228755e-01 3.509090383273173464e-01
-5.606622509746311822e-01 -7.732871128749575496e-01 -2.961163308457880894e-01
6.835459354460605708e-01 7.102682527634803789e-01 1.681783673707256399e-01
-8.452117202298194965e-01 -3.859941264603581890e-01 3.696291145516740206e-01
-5.447573749027437989e-02 9.971162546741444421e-01 -5.283529776103684100e-02
-8.825816406512538848e-01 -2.528810423006303543e-01 3.963594656751470158e-01
-6.436721697696179412e-01 6.252586306210587974e-01 4.412910408086148650e-01
-7.383552203787910884e-01 4.875562670075211380e-01 4.659618600712698289e-01
-9.341518090578562195e-01 2.236988528478957572e-01 2.780633396700645243e-01
7.364449060440427797e-01 6.709688148609685987e-01 8.631193339190269820e-02
4.308899061621591642e-01 -8.934466792339723629e-01 1.268342230368170453e-01
7.113152348616789133e-01 -7.024437359192576835e-01 2.456490426341170763e-02
-3.174389970255445115e-02 9.993453350670478130e-01 -1.735586677190097821e-02
6.958920550914159120e-02 -9.970328899449337756e-01 3.290530116349209278e-02
-7.007130691862396565e-01 -7.127733662421481542e-01 -3.090830062356629201e-02
4.177497535220139196e-02 9.959922404365832982e-01 -7.908418567854372250e-02
-3.103087163403376869e-01 8.272320414906156882e-01 4.683968937711692204e-01
4.940152648305482508e-01 -8.651477036221854044e-01 8.641972594068311753e-02
-1.127862445534304342e-01 9.829591410537681373e-01 -1.451571219691681902e-01
-5.928921450612592015e-01 -7.598965272790588754e-01 2.665261190838252858e-01
9.955423084574509529e-01 -2.002144458118883946e-02 9.216644632452743180e-02
6.973933325315042620e-01 6.506651219020026522e-01 3.004620423295673026e-01
4.022228237783058713e-01 -9.140848571478240592e-01 -5.163016526070689227e-02
-6.848541861015663423e-01 -7.052370410669543954e-01 1.833451927002403559e-01
7.050531427667473539e-01 -5.883380909752347065e-01 -3.959272112173512492e-01
3.199129297860161536e-01 8.778634725585663379e-01 3.563866452368032456e-01
9.366860874147145966e-01 -3.195455008442274480e-01 1.432125920927529994e-01
3.053318043642133661e-01 -9.319476538641323637e-01 1.955659983249464773e-01
-6.426641806661260725e-01 -7.307811895542464242e-01 -2.300904254470779176e-01
9.246931693187743218e-01 8.181843481983158695e-02 -3.718175444204234181e-01
-8.903014550195880936e-03 9.871004945939870767e-01 1.598541519768099106e-01
-2.204623631958653462e-01 9.535870820141044701e-01 -2.051049083516041094e-01
-4.402047554330087431e-01 -8.536466321585235439e-01 2.784011506775347367e-01
-2.617869670291092521e-01 -9.538706679364279406e-01 1.469637123381583310e-01
-2.617869670291092521e-01 -9.538706679364279406e-01 1.469637123381583310e-01
-8.326674473467585158e-02 8.873619381175362753e-01 4.534924916705678211e-01
-7.651923593223892983e-02 -7.583618793130892932e-01 6.473268622087807733e-01
7.350758306788640617e-01 6.217674605155046885e-01 2.703123160269958469e-01
6.447917692977040982e-01 -7.542837476813120112e-01 -1.236915608672285172e-01
9.338858862000189998e-01 -2.994684098613271117e-01 1.953863430527667533e-01
9.338858862000189998e-01 -2.994684098613271117e-01 1.953863430527667533e-01
1.643383614938454251e-01 9.139594217449025226e-01 3.710405346390625025e-01
-3.959885352966983074e-01 8.476606802862232115e-01 3.530785337715577898e-01
-4.382439493577637846e-01 8.985975844995540696e-01 2.155509180858365681e-02
-1.190961284634280970e-01 9.908548803058712107e-01 -6.342490330351678585e-02
9.113609299824908527e-01 -4.002306521116813509e-01 -9.610765012062091883e-02
9.883084132486550377e-01 -1.392626694894561201e-01 6.206761787434906391e-02
7.597172504214473321e-01 -6.309763359626783252e-01 1.571577642599603641e-01
5.168782396380695587e-01 8.158679334637214398e-01 2.592226852231245826e-01
7.006489147124066175e-02 -9.916000962062593294e-01 -1.087205600926540866e-01
8.877434809287304551e-01 4.286066545492668300e-01 1.679519209316351624e-01
-3.423397689263745214e-01 -9.387495803921895865e-01 3.940441504355515073e-02
6.329941345377944062e-01 7.741543118990955596e-01 -1.878033222919568311e-03
-6.555044245762677857e-01 -6.897024211910582903e-01 3.076109873917508564e-01
5.241729133230655507e-02 9.217159360199644880e-01 -3.843073780923609850e-01
-4.296435931419173015e-01 7.770145167490568605e-01 4.600595870464307402e-01
3.975701518557452352e-01 8.419733155966304672e-01 3.647175759085602986e-01
6.242650115611441120e-01 6.859525114586177974e-01 -3.738480270968130847e-01
-3.496519283706553405e-01 8.464041942523985451e-01 4.016758256836352459e-01
-3.593133882404624946e-01 -9.237633419396079626e-01 -1.324959513333353323e-01
-5.340995136903496920e-01 -8.242161417934860124e-01 -1.881633893263828516e-01
6.389767346910687484e-01 7.180338405118469325e-01 -2.759277738890145160e-01
-2.082000896660977651e-01 -6.776253949221472395e-01 7.053201732685893122e-01
2.155814710237652643e-01 9.224451345572316496e-01 3.203429460483251390e-01
-5.834289720151594194e-01 7.633699215275856487e-01 2.772670148436376936e-01
-1.108241881661851079e-02 -7.287793572316241253e-01 6.846589139609838837e-01
6.962343339666134945e-01 6.953518883157921993e-01 1.781670666024673111e-01
-2.592718815908264252e-01 -9.187821422739992361e-01 2.976868597280591944e-01
-5.450972319956594037e-01 7.715971996152299894e-01 3.278822490111428789e-01
6.547368720437862777e-02 -8.786779396459649671e-01 4.729040861140714758e-01
-6.478846911538461706e-01 -7.188033414311090219e-01 2.521253325549775992e-01
-4.966895809174939336e-01 -8.641434262176205250e-01 8.096665445031012154e-02
-4.966895809174939336e-01 -8.641434262176205250e-01 8.096665445031012154e-02
9.863432282710736798e-01 2.036167508532924636e-02 1.634394023224388925e-01
8.854729974643373858e-01 2.374256528114729869e-01 -3.994579203728066963e-01
1.171276155513834571e-01 -9.684393983147412399e-01 2.200142119660206952e-01
-7.135235110865645325e-01 -6.691860198462635800e-01 -2.075434170698203518e-01
-4.670894445299778042e-01 7.356235255460162881e-01 4.905970642716142027e-01
-4.670894445299778042e-01 7.356235255460162881e-01 4.905970642716142027e-01
-9.379454050562250345e-01 5.633403260209841196e-02 3.421766998272962601e-01
-2.195297957988210646e-01 5.655564846304632354e-02 9.739651571711650524e-01
-9.718171392191997660e-01 -2.045537010279626366e-01 1.171718025617664583e-01
6.220716265700135805e-01 -7.058847547429444313e-01 -3.387530139172648114e-01
-7.429572880449684114e-01 -6.272422018967066526e-01 2.336272422056917819e-01
5.732388344214505160e-01 7.548625252946841169e-01 3.187158712974132446e-01
4.400956920346152379e-01 -8.932558681346502993e-01 9.170461218273230630e-02
5.750234172921613318e-01 -7.747703983991225396e-01 2.628286501318112256e-01
-5.823195098636381184e-01 -7.545902176466789957e-01 -3.024856886930514244e-01
-9.630565570490184912e-02 -8.321387693079842496e-01 -5.461412722856993085e-01
9.728665030505176947e-01 -1.791424390568312486e-01 -1.464197861322936445e-01
2.767943620669398030e-01 8.684295686691381189e-01 4.113574666747772945e-01
