-2.266225616739470095e-01 -2.402482755300399120e-01 9.438871652084162012e-01
5.972625936045562467e-01 -2.506964598593023827e-02 -8.016538574290644759e-01
5.486604447853400401e-01 -3.954026853120039264e-02 -8.351097433825289684e-01
-1.860159617449067826e-01 -1.476694019664608060e-01 -9.713865397971011006e-01
7.854697007161193234e-01 -2.560305432424948568e-01 -5.634587031752043007e-01
-7.942129338902924607e-01 2.825106626275358246e-01 5.379716917674429721e-01
-9.061689404039083851e-01 2.954893815001574664e-01 3.025621867780445839e-01
6.699958646226292780e-01 -1.822615268003749955e-01 7.196431596541242870e-01
9.888168201380477251e-01 8.457929959183514701e-02 1.228317479018937730e-01
-9.735205290858875982e-01 1.856179806641935770e-01 1.334306737691174360e-01
7.600648623928630832e-01 -6.254710834790264684e-01 1.763159910141189890e-01
-5.955122044055258801e-01 -2.098396014566985546e-01 -7.754563534233021027e-01
-4.086709237276101581e-01 1.821636489105189494e-01 -8.943178859416973658e-01
4.538165531806865327e-01 -1.384001859015659974e-01 8.802817302441379166e-01
-8.380677329194793357e-01 -5.283295582963109388e-02 -5.430019832537527069e-01
5.453596739638573165e-01 -1.012080548554107617e-01 8.320695617834000801e-01
-3.428701946205117146e-01 -2.041618225385623264e-01 -9.169285576633685597e-01
-3.428701946205117146e-01 -2.041618225385623264e-01 -9.169285576633685597e-01
-3.146927683343866411e-01 -1.303060043241249522e-01 9.402067893794008313e-01
-3.806212786301982898e-01 -1.392108595113559222e-01 9.141924189403577428e-01
-9.707582360532949206e-01 1.920951313658089687e-01 -1.439718987866997202e-01
-5.427338504786450857e-01 -1.914141047327888590e-01 8.178023037714975407e-01
8.184461916300656004e-01 -4.643597783909494403e-01 -3.384018729542587756e-01
-3.948054135176446988e-01 3.352906593926033296e-01 8.553998241648375078e-01
-6.918129443162369663e-01 -2.070076227905556232e-01 -6.917678036618228887e-01
8.534872680678654566e-01 -4.813070180954541200e-01 1.997574468652266455e-01
-6.669618451829206762e-01 -3.176259089605985853e-02 -7.444145584885906164e-01
8.564661755325732040e-01 -3.759262356932515647e-01 3.537586118896745013e-01
5.681847566121367432e-01 -5.908462530165072696e-02 8.207771252944190410e-01
-5.341763267686646666e-01 -1.260660344595787574e-01 -8.359204548732931395e-01
-4.678179216278285923e-01 -1.858223838329908784e-01 -8.640696927160699259e-01
-4.678179216278285923e-01 -1.858223838329908784e-01 -8.640696927160699259e-01
-2.400409690798026296e-02 5.292584342170240097e-01 8.481210486373842450e-01
-3.240373476745425640e-01 -1.405653299851332139e-01 9.355432567862472792e-01
-7.389854472436021560e-01 1.906027091875971136e-01 6.461974280454245712e-01
5.156299193228381927e-01 -8.441653886562977549e-01 -1.466648659150689149e-01
7.196852900171943901e-01 -1.480322668888517379e-01 -6.783358543469559798e-01
4.829800069172944799e-01 -2.843895543233166401e-01 -8.281623598727217983e-01
5.581960750604478827e-01 -3.505412005927309171e-01 -7.520226116774133551e-01
8.610596777792043355e-01 -4.502047106325999248e-01 -2.364147834357868128e-01
9.973011826392486068e-01 7.045125916154985901e-02 -2.066328117477972751e-02
9.973011826392486068e-01 7.045125916154985901e-02 -2.066328117477972751e-02
-9.665831793991064291e-01 2.307055773619296202e-01 -1.117671413109134065e-01
-4.836206662517811283e-01 2.446757300094110632e-01 -8.403837446777185916e-01
-6.997549930129985940e-01 8.584210453796317641e-02 -7.092066573586797151e-01
-9.012749408164448806e-01 2.052212752181131403e-02 4.327612775402766010e-01
-1.055266995247422374e-01 3.879666108698027194e-01 9.156123767935937519e-01
-5.848329680384218854e-01 -1.614547511482100628e-01 -7.949231175573143737e-01
7.465026950714536147e-01 -3.747613710897405026e-01 -5.498069124610877045e-01
6.283505822497333915e-01 -2.827063485017518030e-01 -7.247431726503031912e-01
-8.771235198392072219e-01 1.202577850841011764e-01 4.649649406907427895e-01
-2.274832568066544325e-01 -1.451163320979996507e-01 -9.629084162219482268e-01
-2.274832568066544325e-01 -1.451163320979996507e-01 -9.629084162219482268e-01
-4.669265095778928343e-01 -1.809492689614990435e-01 8.655847715363903516e-01
-2.346271359717296556e-01 -1.357334638721608977e-01 -9.625624830892633987e-01
-2.346271359717296556e-01 -1.357334638721608977e-01 -9.625624830892633987e-01
-3.585143419159533829e-01 5.743282293645184389e-01 7.359446661234714249e-01
8.979831094398815772e-01 -4.189223663455314828e-01 1.346491222999316451e-01
6.924514362739705442e-01 -2.358638584233693769e-02 7.210788381342302378e-01
-6.395338756458344154e-01 -2.155762301853126062e-01 -7.379182277735842899e-01
-5.792803357020287480e-01 -1.692906792969620378e-01 -7.973549765142988743e-01
-9.181638090312485012e-01 3.753576433414548830e-01 -1.268142711621142726e-01
-5.291535308584105479e-01 -1.223735869661517622e-01 -8.396554328968013348e-01
8.065263076794163544e-01 -5.835480724197626978e-01 -9.479958964144781508e-02
-9.238079090744691912e-01 1.737293873600241623e-01 -3.411701146040900801e-01
-8.502447282832167885e-02 -1.162378047852540286e-01 9.895754704715407080e-01
-8.502447282832167885e-02 -1.162378047852540286e-01 9.895754704715407080e-01
-4.576046330899682379e-01 1.066581602531194578e-01 8.827355417258417880e-01
-3.575978860826952155e-01 -3.762757564328120252e-02 9.331173117140185713e-01
-3.575978860826952155e-01 -3.762757564328120252e-02 9.331173117140185713e-01
-2.883317840752060990e-01 -1.456452540672188434e-01 9.463890543849838854e-01
-2.883317840752060990e-01 -1.456452540672188434e-01 9.463890543849838854e-01
8.589775884685544316e-01 -3.318814076038408278e-01 -3.898874629885395460e-01
9.799643045924940621e-01 -8.278302662369155587e-03 -1.990010839909672480e-01
-9.833384812411659626e-01 -1.002298324455887235e-01 1.516555702842672659e-01
-9.193549753101842859e-01 2.072344629825488005e-01 3.344253380423576893e-01
-2.358115417081110554e-01 1.401653558331193150e-01 -9.616374523807913466e-01
-2.437508292008596644e-01 3.086045802209311240e-01 -9.194284889704887886e-01
-3.372644853449221613e-03 -2.351872217046298286e-01 -9.719442350328282298e-01
3.726692797196028417e-01 1.436904277266480290e-01 9.167718739866561606e-01
-9.616368925256097988e-01 2.641478815658566681e-01 7.402961297993521095e-02
7.705831079377754023e-01 -4.101996607786685400e-01 4.877887986188533254e-01
-4.065985506264275795e-01 -1.642172270295950698e-01 -8.987270558824846933e-01
8.748139244343441367e-01 -3.000455276093237922e-01 -3.803594076362830645e-01
-4.781262029902059174e-01 3.130311641722764437e-01 -8.206136875967386946e-01
-3.100123139613455425e-01 -1.536664535510451624e-01 9.382318403493757897e-01
-2.358985492381910631e-01 1.304505029693782681e-01 -9.629821082150763489e-01
2.775526130795682306e-02 3.083692089212263787e-01 -9.508617546515498731e-01
-4.884221890243903297e-01 2.744195981730223055e-01 8.283342618817476355e-01
-4.195522616262143956e-01 6.734386788367839882e-01 6.086511690705074251e-01
8.011068096024975826e-01 -1.954376291159140577e-01 -5.657137197682745589e-01
8.011068096024975826e-01 -1.954376291159140577e-01 -5.657137197682745589e-01
4.065257789102961206e-01 -5.375415242695247287e-02 9.120566222435078085e-01
-2.578263286338756122e-01 2.403838287422225828e-01 9.358104504344920693e-01
8.698600749599402215e-01 -4.417712753199395936e-01 2.195030530377224121e-01
-7.367253802641448024e-01 5.843614261762347661e-01 3.402314472119356004e-01
6.333015971784465847e-01 -1.475927796003375925e-01 7.597009006320020186e-01
-5.154895869229176864e-01 -1.398160914796946486e-01 -8.454122936989865167e-01
3.304554669479135010e-01 -1.015433995271802226e-01 9.383432859975606721e-01
-3.068351178113780664e-01 -1.548292076523800909e-01 9.390847283048606720e-01
-1.644770663050647286e-01 -1.327313249348313351e-01 9.774096838279859867e-01
-3.225607584162277219e-01 -1.249273182282032851e-01 9.382684702633127261e-01
-3.945099706139359452e-01 1.943628793629909035e-01 8.981007483639676936e-01
-2.785152081374100974e-01 1.986415556752173239e-01 -9.396652655042138091e-01
-1.747554525049702379e-01 -1.749015609778713232e-01 -9.689530307436409196e-01
-4.272052573844522527e-01 -1.882573046117874335e-02 -9.039586605236363814e-01
8.447834272559033852e-01 -3.229283462468179877e-01 -4.266828379769511126e-01
8.177084336571631695e-01 -4.367186145877283709e-01 -3.750063588774512069e-01
-6.520986696699738738e-01 2.460175843633184423e-01 7.171071560085617858e-01
-8.614944563262220134e-01 2.444374714959929029e-01 4.450591244405990854e-01
7.014553426523216784e-01 -6.237908836427651371e-01 -3.447395186930159450e-01
-4.103303042768052800e-01 3.278893037079340655e-01 -8.509510243874383040e-01
7.631920901088967701e-01 -1.315509070801870461e-01 6.326390696452389717e-01
7.631920901088967701e-01 -1.315509070801870461e-01 6.326390696452389717e-01
3.918550103964160702e-02 3.710027195818338952e-01 9.278046553942028707e-01
6.215446865331808457e-01 -4.568782547191652110e-01 6.363524675894166593e-01
7.955833846105997420e-01 -3.285331579067538588e-01 5.090314747511773819e-01
-2.465193175688187577e-01 -6.736406643542987294e-02 9.667938294272915289e-01
-2.655200332606391100e-01 -4.555249175992108490e-02 9.630285989687592529e-01
-4.270398232738461530e-01 -1.372632648993439841e-01 8.937537610815491362e-01
2.774227149375829704e-01 -9.572295106616661442e-03 9.607002698048191514e-01
-1.334973283591026905e-01 -1.138925484119283488e-01 9.844830880910135917e-01
-1.988668115161236483e-01 -1.031480658482572671e-01 -9.745832277384903763e-01
-1.988668115161236483e-01 -1.031480658482572671e-01 -9.745832277384903763e-01
-6.723030528533840977e-02 -9.909738506190035601e-02 9.928040059977264464e-01
-1.572675998063060021e-01 -1.527826319272334588e-01 -9.756661157550523544e-01
-1.572675998063060021e-01 -1.527826319272334588e-01 -9.756661157550523544e-01
9.006896568443475415e-01 -2.384084446120522949e-01 3.632073176455470342e-01
9.006896568443475415e-01 -2.384084446120522949e-01 3.632073176455470342e-01
3.796712614559392684e-01 -4.159330605802625397e-02 9.241859824275734381e-01
9.273024781994175791e-01 -2.975502120009384521e-01 2.270990648668884115e-01
-6.959552678620380961e-01 -2.500657502445912672e-01 -6.731369739434081012e-01
-3.082622725518851525e-01 -1.668266705072172229e-01 -9.365592524387464923e-01
4.413600712649680680e-01 -1.452632298733502469e-01 -8.854941454011677759e-01
3.205113797494330008e-01 -4.459102847057824087e-02 -9.461945337144211932e-01
-5.202238435396975280e-01 -5.650188600079872336e-02 8.521588405286523171e-01
6.910479396471557179e-01 -1.860836349399185019e-02 7.225693557835791703e-01
-8.338514555764945380e-01 9.680971037190419515e-02 -5.434331881755743998e-01
-2.139516268117238051e-01 -2.040787629658278590e-01 -9.552887311650620772e-01
3.056739960786077903e-01 -1.631860632952213466e-02 9.519963819305182762e-01
3.056739960786077903e-01 -1.631860632952213466e-02 9.519963819305182762e-01
9.747955789654126901e-01 2.318642940434219660e-02 -2.218917950735526390e-01
-7.582818491684899520e-01 3.244951770525846824e-01 5.654303823559776454e-01
5.582462823907108351e-01 -5.986641171258502703e-02 8.275125986627696051e-01
8.254176865492567350e-01 -1.007788471500300903e-01 5.554541085443367443e-01
9.920720975174964762e-01 4.290081286064588439e-02 1.181205891584136830e-01
8.403028055614953917e-01 -4.115352875911090780e-01 3.528879454342167543e-01
-6.332989790108013439e-01 -1.660099337224576477e-01 -7.558922575931981136e-01
-6.096212412909330913e-01 -1.535152472487051056e-01 -7.776856762401315182e-01
-7.319701337330017932e-01 -1.034256558914211643e-01 -6.734410568314949108e-01
-8.505678983748690136e-01 5.242121959423969857e-01 -4.166321974366229974e-02
9.105562850255396468e-01 -4.117711440824288194e-01 -3.649351588345660369e-02
-6.773661249411293550e-01 -1.182302950491282978e-01 -7.260831427011885664e-01
-5.328954983303707538e-01 -1.340639784406555401e-01 -8.354934096352221173e-01
-7.845873700064732725e-01 5.662592711228722209e-01 2.525333575861191671e-01
-5.313061242412271401e-01 -1.183851518912171358e-01 -8.388675450602791628e-01
-5.313061242412271401e-01 -1.183851518912171358e-01 -8.388675450602791628e-01
-2.897695704870965061e-01 -1.244642908948212917e-01 -9.489690386476120620e-01
-5.295344296065714884e-01 -7.374217439827301934e-02 -8.450771441568264430e-01
-5.295344296065714884e-01 -7.374217439827301934e-02 -8.450771441568264430e-01
-5.295344296065714884e-01 -7.374217439827301934e-02 -8.450771441568264430e-01
-3.796747566141686625e-02 3.573950619338091550e-01 -9.331812473990400703e-01
8.354044541831124882e-01 -2.160089641668336280e-01 -5.054102544770807670e-01
-3.177900367325270925e-01 1.353203490624781957e-01 9.384550578920378694e-01
3.134166892571367824e-01 1.494645831549138992e-01 -9.377794608954832523e-01
3.134166892571367824e-01 1.494645831549138992e-01 -9.377794608954832523e-01
-3.442194466861839275e-01 -8.246456030020089811e-02 -9.352606956445629338e-01
-4.592861364214293474e-01 8.746877428053280445e-02 8.839714126695146224e-01
-3.404567329162340727e-01 4.398767747553999907e-01 -8.310220430546900738e-01
4.902426474679746349e-01 -4.874928419902169879e-02 8.702216119435749464e-01
6.928783472018001932e-01 -4.207079861451896302e-02 7.198261205894365133e-01
-4.176644871919882318e-01 4.854695452385819898e-01 7.680336560232877696e-01
-2.736906323850630818e-01 3.164978020846161422e-01 -9.082524863826531014e-01
-3.376614551475203285e-01 -9.922943796786028170e-02 -9.360225747001199581e-01
4.098032296164568766e-01 6.147520457889694978e-03 9.121532332827315681e-01
4.098032296164568766e-01 6.147520457889694978e-03 9.121532332827315681e-01
4.098032296164568766e-01 6.147520457889694978e-03 9.121532332827315681e-01
2.591140726320807497e-01 -1.372381880681778910e-01 -9.560468487996705012e-01
-7.744259617808667562e-01 2.816175914376755629e-01 5.665297537752292945e-01
-5.550649669888686466e-01 -1.106869670646516146e-01 -8.244096540820436969e-01
6.954518683669824730e-01 5.384783644776896389e-02 -7.165522376594517517e-01
6.954518683669824730e-01 5.384783644776896389e-02 -7.165522376594517517e-01
4.000182097502897466e-02 4.318722174733580221e-01 -9.010473029166262693e-01
-2.533979770914239205e-01 2.715585937648736792e-01 9.284639978795184989e-01
-1.632776230493985792e-01 4.666112879143972103e-01 -8.692607915937574647e-01
1.082434648780049996e-02 -1.471877851159372752e-01 9.890493361990476684e-01
6.865501587225271152e-01 -4.610732417027648550e-02 7.256190420709270894e-01
-9.964308814737216080e-01 4.082979711676992113e-02 -7.388116209769252096e-02
-8.017870221039986589e-01 5.395086982060225411e-01 2.570368373320155442e-01
9.341271596836957514e-01 -3.398185183388780506e-01 1.092237343036798203e-01
8.794780210315960023e-01 -4.031219940293220283e-01 2.530040878171159191e-01
8.794780210315960023e-01 -4.031219940293220283e-01 2.530040878171159191e-01
-2.721903086559095963e-01 2.782246620783855873e-01 -9.211424826188231441e-01
-5.131569163819506008e-01 -1.794756836885841589e-01 -8.393202357466922336e-01
-5.131569163819506008e-01 -1.794756836885841589e-01 -8.393202357466922336e-01
-8.400646988720030794e-01 4.836492081326896897e-01 2.457127289777905343e-01
-5.705275521018948748e-01 -1.085590068639385036e-01 -8.140720203528277743e-01
-5.705275521018948748e-01 -1.085590068639385036e-01 -8.140720203528277743e-01
-3.848110854982605966e-01 -9.687209653106980400e-02 -9.178977205502394376e-01
-4.855825527984337642e-01 9.377087554267324321e-02 8.691470573600975635e-01
-3.766063706295471603e-01 -9.232035287260675904e-02 9.217616796367255061e-01
-3.766063706295471603e-01 -9.232035287260675904e-02 9.217616796367255061e-01
-8.470900054720691130e-02 -5.077324649443810956e-02 -9.951112815493090569e-01
9.333148607333210944e-02 4.091711044714989032e-01 9.076718795759386449e-01
9.149912866230963671e-01 -1.188086583068989760e-01 -3.855845537818198276e-01
7.823731897485679543e-01 0.000000000000000000e+00 -6.228099163971713148e-01
-3.697059449068450521e-01 5.009484280387779265e-01 7.825395751947720191e-01
6.564751616497385145e-01 -4.185741580834674291e-01 -6.275635715381081559e-01
-2.155832716801611704e-01 -1.487561725339412166e-01 -9.650883141478452387e-01
-8.729324313133051128e-01 2.626546842034337970e-01 -4.110979046741010112e-01
-9.314780367919389681e-02 -9.649454442660741760e-02 9.909653321714357865e-01
-9.335687252147121251e-01 1.721573565487160562e-01 3.143426154487096724e-01
9.965601052320192110e-01 8.286561405931179569e-02 1.116542216013916488e-03
-9.973199374284340557e-01 5.114999969373840161e-02 -5.231271297758421923e-02
7.530858948881998804e-01 -5.478834140908037664e-01 3.642600712192375356e-01
-6.429491202827993801e-01 -4.110634937192571281e-02 -7.648050057164161863e-01
-6.429491202827993801e-01 -4.110634937192571281e-02 -7.648050057164161863e-01
-3.273781223798060691e-01 -1.593237896068110115e-01 -9.313643191857831072e-01
-3.273781223798060691e-01 -1.593237896068110115e-01 -9.313643191857831072e-01
-5.937353831310082652e-01 -8.800368120154819507e-02 -7.998335119968724705e-01
-2.706307397118384306e-01 5.383613197263295014e-01 7.980764951717022049e-01
-4.345434534661078013e-02 -8.516140520153599180e-02 9.954191353066290660e-01
9.421453122407528191e-01 -1.644070250251625578e-02 -3.348013051408221807e-01
9.421453122407528191e-01 -1.644070250251625578e-02 -3.348013051408221807e-01
9.391778351261206303e-01 -1.547349570279196208e-02 -3.430824462699154087e-01
9.109141163228253735e-01 -7.204479857835988099e-02 -4.062573318496660035e-01
2.521380274275519806e-01 1.614418299424772996e-01 -9.541294202935821644e-01
-5.998558088603501703e-01 -1.128382016188207160e-01 7.921114497543420008e-01
-2.814371645413412115e-01 -1.023804929097421879e-01 9.541023829162613712e-01
-3.787083654498695773e-01 -9.984884876740880710e-02 9.201142218975375542e-01
-8.776219392727747648e-01 2.138631670675781027e-01 -4.290014889005855925e-01
4.558221011937604872e-01 1.657799336422545802e-02 8.899165029368322211e-01
9.938301692688519262e-01 6.954628135957648116e-02 8.639970717600739536e-02
6.149201010575507942e-01 8.932306592754013508e-03 7.885388279687338686e-01
6.149201010575507942e-01 8.932306592754013508e-03 7.885388279687338686e-01
8.840198930414708833e-01 -2.151710995946707616e-01 4.149822003486012267e-01
-6.111428062136203820e-01 -4.791831728383623423e-02 -7.900685446731990913e-01
6.458406948712556161e-01 -2.723694319464105562e-01 7.132353674555148570e-01
-5.127302732007172357e-04 -2.360008893124714568e-01 -9.717527038045169485e-01
-5.127302732007172357e-04 -2.360008893124714568e-01 -9.717527038045169485e-01
6.134165738864696404e-01 -1.924838976648994004e-01 -7.659438987426648859e-01
7.569856201277619379e-01 -2.954882702640679870e-01 -5.828030997310643668e-01
6.282704415544190235e-01 2.594116214145706922e-01 -7.334724691111988992e-01
-8.955307064248059501e-02 -4.797674706498759878e-02 -9.948258537450487271e-01
4.245539101790472558e-01 1.103872184465443974e-02 -9.053353654705630360e-01
1.687428235573618929e-01 4.515197691873484298e-01 8.761596644053482041e-01
-5.529990422187274213e-01 4.792923058151672966e-01 6.815210524199164510e-01
9.703589537447591118e-01 -3.852081630906236797e-03 2.416374605777944218e-01
-6.148281755555347061e-01 4.266704345859227976e-01 6.632787157698581959e-01
-3.223083640646925985e-01 -7.335710774482079310e-02 9.437881399960779127e-01
-3.223083640646925985e-01 -7.335710774482079310e-02 9.437881399960779127e-01
9.910476652844135703e-01 9.355786750565463217e-02 -9.524416287682488380e-02
9.910476652844135703e-01 9.355786750565463217e-02 -9.524416287682488380e-02
-2.649023227585306506e-01 -1.766739339102011419e-01 -9.479520454505223626e-01
-2.649023227585306506e-01 -1.766739339102011419e-01 -9.479520454505223626e-01
-2.014457897723337942e-01 -1.163295889265465871e-01 -9.725672318781779513e-01
-4.886912290859731223e-01 1.644688902449721324e-01 -8.568143712357002562e-01
8.378822720388077183e-01 -3.916257765814780134e-01 3.802401206080699980e-01
7.049687694805701899e-01 -2.763103182761598164e-01 6.532010732318020985e-01
7.066832670887039924e-01 -1.486996253538739043e-01 6.917276786687468482e-01
-8.764066487788390036e-01 3.041503588910634548e-01 -3.733683772933670264e-01
-2.621319990278210277e-01 -8.340243043541888113e-02 9.614212654623067733e-01
-3.080014280262997617e-01 -8.546632473560983323e-02 9.475392486171468898e-01
-5.971086257390769703e-01 4.623675600868371593e-01 6.554979240602794022e-01
-2.530270140594478856e-01 -1.033867291355771989e-01 9.619191828811850531e-01
8.833686931062281200e-01 -2.111192709364512754e-01 4.184356646834204163e-01
8.833686931062281200e-01 -2.111192709364512754e-01 4.184356646834204163e-01
8.218304561271649877e-01 -5.012010058142439828e-01 2.709100462378723484e-01
-3.372046899970911338e-01 -1.119084107903196706e-01 -9.347563878564032480e-01
-5.872945500663498963e-01 4.566152776270673841e-01 6.682721000460216665e-01
-6.042940446479979633e-01 -4.476285833085472815e-02 -7.955029818404300013e-01
-1.571854372928577770e-01 8.129038935784768660e-02 9.842177659954642888e-01
-6.397465108250537102e-02 -9.503713722984477585e-02 9.934159182165479551e-01
-6.397465108250537102e-02 -9.503713722984477585e-02 9.934159182165479551e-01
-6.683178471719093405e-01 -1.286423673534911327e-01 7.326679988051844061e-01
-6.683178471719093405e-01 -1.286423673534911327e-01 7.326679988051844061e-01
-3.044297534254374327e-01 4.247847045320687909e-01 8.525728590712529087e-01
-3.300912330724814492e-01 -5.283413658481727476e-02 9.424692736954483063e-01
8.452542844432270330e-01 1.045249571129445165e-01 -5.240417235019606546e-01
9.295095921258583055e-03 5.430360210575007063e-01 -8.396579547803094679e-01
8.419561999777709360e-01 -3.944835138593755230e-01 -3.680930787343761335e-01
7.653185980835508495e-01 -1.981225759810502085e-01 -6.124009212224140741e-01
4.507930674214638556e-01 2.455774712399669268e-01 -8.581825656491343102e-01
4.507930674214638556e-01 2.455774712399669268e-01 -8.581825656491343102e-01
4.507930674214638556e-01 2.455774712399669268e-01 -8.581825656491343102e-01
-2.028856843286001577e-01 -1.169672031885061469e-01 -9.721913764649294798e-01
-1.782555623685019019e-01 -1.109098048860576446e-01 -9.777136440005456119e-01
9.813521510342763099e-01 -2.898182393126796930e-02 1.900210765731422669e-01
-2.920687336806138679e-01 1.448274853872339452e-01 -9.453681051752345077e-01
7.996000197590480418e-01 -1.793219286892031861e-01 5.731347610226712463e-01
2.855333025689193657e-02 4.952843863449921114e-01 8.682615297098595919e-01
-5.369266540237681573e-01 -1.092945522702910705e-01 -8.365192580227172048e-01
-2.261712524442647254e-01 -1.326777040365248461e-01 -9.650094255598694604e-01
5.744102478062330236e-03 4.899188277506874023e-01 8.717491310589954301e-01
5.744102478062330236e-03 4.899188277506874023e-01 8.717491310589954301e-01
4.688099194620061194e-01 -2.944814827189679018e-01 -8.327652224664917613e-01
9.312221865370803320e-01 -2.519984570506792476e-01 -2.632907460302701397e-01
2.151890485349316207e-01 5.676421399544803181e-01 -7.946546887412977433e-01
-3.082930960729767245e-01 -6.287816585286613857e-02 -9.492110951588786927e-01
-1.175359438724150607e-01 -2.013188928344208650e-01 -9.724484589354561725e-01
-5.494804038914133937e-01 4.120111325714189143e-01 7.268549458981110600e-01
5.141346918726628079e-01 2.730965647871910207e-01 -8.130705903637380771e-01
-5.164695993103973759e-01 -9.768753433751158066e-02 8.507151689156688956e-01
-3.367282755951946371e-01 -6.141188443563691535e-02 9.395970672925445522e-01
-9.471464395996529451e-01 2.242775388109170820e-01 -2.293756908188362698e-01
8.917753777610112342e-01 -3.728485642708286862e-01 2.563603396400995216e-01
-3.116723920954840854e-01 1.551971509882190126e-01 -9.374295516627469960e-01
-7.677156941981030380e-01 6.400111141521950264e-01 3.159725689977692376e-02
6.396851671139388573e-01 -2.826376441971652498e-01 7.147858763693424322e-01
7.857466651016705717e-01 -5.453922352935886009e-01 2.918038518646833279e-01
-9.769763273660916347e-01 2.099808794031738923e-01 3.775296082869710607e-02
-3.092319121735730980e-01 -8.148406669547615666e-02 -9.474892988146317307e-01
-9.885550196741393902e-01 7.981303291304815695e-02 1.280189550585476288e-01
-1.053389330920847383e-01 -9.223869882729229808e-02 9.901493481357594995e-01
-2.997304372669951089e-01 3.543466210123840110e-01 8.857765729306922298e-01
-2.997304372669951089e-01 3.543466210123840110e-01 8.857765729306922298e-01
-9.110746647644689389e-02 -5.466447988586813772e-02 9.943395919860832377e-01
-1.686482399639014362e-01 2.356025481042928194e-01 9.571045974624941000e-01
-6.093111430105133675e-01 2.335373520914564016e-01 7.577600122606977795e-01
-4.264228206845765978e-01 -1.638517825075515300e-02 9.043755325820688196e-01
-5.444447000303033191e-01 -4.396225935254478162e-02 8.376438911384315178e-01
-5.444447000303033191e-01 -4.396225935254478162e-02 8.376438911384315178e-01
-5.453566956100177610e-01 -4.122864952885155199e-02 8.371895084216891547e-01
-5.453566956100177610e-01 -4.122864952885155199e-02 8.371895084216891547e-01
3.512289373776973367e-01 2.531773111332365489e-01 -9.014097196479956553e-01
9.592445807969339766e-01 1.018409499673905150e-01 -2.635872817900247744e-01
-1.287339300682698029e-01 4.891513017755675929e-01 -8.626462654068847158e-01
-3.361092343648634517e-01 3.852235634290327448e-01 -8.594378329778735726e-01
2.016381820621976351e-02 -3.117847063884741574e-02 -9.993104239444162706e-01
8.128286670752247201e-01 1.327306999144961253e-01 -5.671790892486440194e-01
5.529635356150732761e-01 -2.785423539253962799e-01 -7.852677793910666226e-01
5.529635356150732761e-01 -2.785423539253962799e-01 -7.852677793910666226e-01
4.288629143802616395e-01 2.534720814814024337e-01 -8.670804487351526646e-01
9.621261044858052669e-01 -7.744418778016845528e-02 2.613728311168538876e-01
-6.962133187537949963e-01 1.491144739764263816e-01 -7.021765365209523546e-01
-3.732536117675306908e-01 4.541808141190808307e-02 -9.266169322774945316e-01
3.748104474574137090e-01 -2.396458462297761938e-01 8.955930978193096248e-01
4.122149789251162155e-01 1.388006495877870672e-01 9.004516593486706633e-01
4.914187752054672287e-01 2.899140272437942256e-01 -8.212535809254308816e-01
4.817589728248129477e-01 -1.782449565325137930e-01 -8.579842816587628374e-01
8.881581010370067641e-01 1.250717339127667138e-01 -4.421902858932931224e-01
-7.167222030612512007e-02 2.064569646514770596e-01 -9.758271438032910527e-01
-4.166129976795855949e-01 3.068565938031231899e-01 8.557293035791019298e-01
-3.479149385257385152e-01 -6.403336216135721570e-02 9.353367971383057533e-01
-3.479149385257385152e-01 -6.403336216135721570e-02 9.353367971383057533e-01
-9.652126983648633418e-01 6.500071867547245474e-02 2.532574845624341320e-01
-5.743198287704369687e-01 -4.928225587443691574e-02 8.171462497845919382e-01
6.690529003300548228e-01 -1.254998349240037947e-01 7.325421544143310149e-01
-5.473735729551876261e-01 2.930006270551591130e-02 -8.363753212258984160e-01
-8.891444861856727666e-01 4.350919630182428777e-01 -1.418346445779311571e-01
-9.911873538763996683e-01 -1.314400305701454719e-01 -1.646656853203268961e-02
-1.972412412275520166e-01 -1.145313568051892494e-01 9.736418546197452839e-01
-4.875676101549134556e-01 -6.938548944709432842e-02 8.703237784767307028e-01
-5.722427918885654441e-02 -1.049312780812640261e-01 9.928317122007880302e-01
-3.310741470426050159e-01 3.718246540365580666e-01 8.672579407596135992e-01
-3.310741470426050159e-01 3.718246540365580666e-01 8.672579407596135992e-01
-1.120770790967110520e-01 -1.188210344316710659e-01 9.865699620998691355e-01
6.536732530052036250e-01 -3.633837889721224790e-01 -6.638249017759569881e-01
6.016366082871140719e-01 -2.513952194345243085e-01 -7.581779706732746371e-01
-1.522078762170155641e-01 3.562912547468047308e-01 -9.218944105527774324e-01
-1.522078762170155641e-01 3.562912547468047308e-01 -9.218944105527774324e-01
9.615437325690182613e-01 1.289269759822950501e-01 -2.425107940304944143e-01
9.615437325690182613e-01 1.289269759822950501e-01 -2.425107940304944143e-01
9.239173747576467921e-01 1.067850063907127001e-01 -3.673875978188068658e-01
9.239173747576467921e-01 1.067850063907127001e-01 -3.673875978188068658e-01
-2.068869607199141369e-01 -1.212292363382804633e-01 -9.708250397166906520e-01
-2.068869607199141369e-01 -1.212292363382804633e-01 -9.708250397166906520e-01
-6.104113563552133748e-01 -4.850916422351010671e-02 -7.905977719541873450e-01
-4.887283550528151999e-01 -7.197099113071184218e-02 -8.694623461674647613e-01
-4.887283550528151999e-01 -7.197099113071184218e-02 -8.694623461674647613e-01
-5.184493480398997267e-01 8.601605009587766359e-02 -8.507711282377337092e-01
-9.758612651043216957e-01 2.146422336689085553e-01 4.029271391473009112e-02
9.173471906246097873e-01 -2.462913808327990006e-01 3.127533973925926691e-01
9.180776300151125557e-01 -2.632302131993527472e-01 2.963837379561455876e-01
-6.893475312084388351e-01 -3.064357303038476102e-02 -7.237823931602384020e-01
4.458508955017468911e-01 -3.101068535692637074e-01 8.396729829818639912e-01
8.189678809561322659e-01 -4.297391711518058210e-01 3.802839133331585852e-01
-3.166267845611446252e-01 2.395814765195411825e-02 -9.482475871098000608e-01
4.721273762217113035e-01 8.295327134334479213e-02 8.776186503233850411e-01
-6.078481423624067237e-02 -1.035218412894151618e-01 -9.927680669392598967e-01
-1.863676316129320165e-02 3.757736248377411270e-01 -9.265240708881634646e-01
-1.627496103656401738e-01 3.254802276638610325e-01 -9.314371614476810723e-01
5.956609741847376238e-01 -2.529168999642676940e-01 -7.623785447832027717e-01
-6.302014746821864577e-01 1.376311357254264012e-01 7.641359642022660381e-01
-1.499408397291544515e-01 -4.889909364376545525e-02 9.874849989858752730e-01
-2.686661419334879231e-01 -9.414787821954347102e-02 9.586212397007136676e-01
7.418112419904746568e-01 2.363972767431048727e-01 -6.275606813727204747e-01
-6.021593292924853208e-02 -1.051440124953370164e-01 9.926322471378011825e-01
9.911574109671336119e-01 9.388287936331730921e-02 -9.377095311119151844e-02
-7.538381751915522733e-01 6.538278296339797846e-01 -6.509358509092991185e-02
3.427472122377048791e-01 -4.627156927084269400e-01 8.175686737055439801e-01
1.992917181187414399e-01 -3.676303221705320978e-01 9.083670829076045949e-01
-7.852144449067296472e-01 2.826297255244734075e-01 -5.509616263949580484e-01
-8.924210060888578822e-01 2.515456696923433766e-01 -3.745791290907451443e-01
5.117969178746397674e-01 1.644800192393078564e-01 8.432142302671701284e-01
-3.658024276520651097e-01 -9.930049821181290148e-02 -9.253799192649154737e-01
-3.189662666396925195e-01 -7.139462480945625578e-02 9.450731867396585661e-01
-5.704450649374460947e-02 -6.079408930964144003e-02 9.965189426116778382e-01
-1.867108334165500094e-01 5.060294165712922454e-02 9.811108026010837424e-01
-1.084091580013701178e-01 -5.917873902379888751e-02 9.923433535369636793e-01
-1.862320861747492340e-01 -1.018256088477040300e-01 -9.772149996095000901e-01
-1.683251795712558674e-01 5.228360234660843764e-01 -8.356489253798372596e-01
5.161898649694622865e-01 -2.300365170824247574e-01 -8.250037721801006807e-01
7.574546776977491014e-01 -7.765877929885114939e-02 6.482526708248963487e-01
6.088262766625843758e-01 -1.921149313549840587e-01 -7.696898193400014687e-01
9.740233807435767499e-01 1.402417456976344790e-01 -1.777940002602265146e-01
9.740233807435767499e-01 1.402417456976344790e-01 -1.777940002602265146e-01
-5.954410972577727224e-01 -5.835529467380093371e-02 -8.012768306147342035e-01
-5.954410972577727224e-01 -5.835529467380093371e-02 -8.012768306147342035e-01
9.036288770128974024e-01 -4.233377993231940417e-02 4.262190794709361241e-01
-5.889152552384229189e-01 5.778627365902244684e-01 -5.650252028077333843e-01
5.226002321481822976e-01 -4.335167854163729517e-01 7.341336350562616131e-01
4.003975445470834837e-01 -3.558522407654550745e-01 8.444234654856951350e-01
6.159608646096483842e-01 -2.699847423077197939e-01 7.400678699892115908e-01
4.984032286584758747e-02 -3.022753203711112668e-01 9.519167888587585225e-01
-4.100601202194907868e-01 -7.446225072448928173e-02 -9.090137903368792349e-01
6.540234946299634533e-01 1.602573874753591976e-02 7.563044652582753269e-01
6.540234946299634533e-01 1.602573874753591976e-02 7.563044652582753269e-01
5.379424756954530595e-01 -2.185433647229461374e-01 -8.141601136006481054e-01
1.365578495324599149e-02 -5.039165538080314644e-02 -9.986361702869033241e-01
4.859281104092917913e-01 7.920720760806282401e-02 8.704022574516844246e-01
4.859281104092917913e-01 7.920720760806282401e-02 8.704022574516844246e-01
6.989167477967753728e-01 -5.066503908383513943e-01 -5.047977427767723624e-01
-2.116404438548156741e-01 9.664382665895832059e-01 1.456207382080529078e-01
-4.151917652892700983e-01 -3.802946374296752030e-02 9.089386986609174768e-01
-3.213650845986721905e-01 4.163731773122444912e-03 9.469462211438459676e-01
-7.438998102054344974e-01 -4.859559462477718722e-02 6.665219730506884988e-01
-2.525421707358289636e-01 -6.475994307723240140e-02 -9.654162841866036349e-01
-9.273128917896248380e-01 3.452039608671100268e-01 1.446548517071671036e-01
-9.518345542214510235e-01 7.260405081027222762e-02 -2.978919824298582042e-01
9.139092706014785294e-01 1.541061078989571509e-01 -3.755278320136986592e-01
9.139092706014785294e-01 1.541061078989571509e-01 -3.755278320136986592e-01
-6.731838013856620284e-01 4.645826301227886507e-02 7.380143625633797111e-01
-8.791013413474192406e-01 3.496438532088642082e-01 3.239290162279793717e-01
3.006276519299376157e-02 -6.957305091473606207e-02 9.971237740297673735e-01
-2.312108132600316779e-01 -7.259981066728884991e-02 9.701911292743861104e-01
-2.312108132600316779e-01 -7.259981066728884991e-02 9.701911292743861104e-01
-4.199526385794537520e-01 -1.121598162866350584e-01 9.005886724585774328e-01
-4.199526385794537520e-01 -1.121598162866350584e-01 9.005886724585774328e-01
4.094659895032352614e-01 -3.591060009579365164e-02 -9.116183588766170187e-01
-3.374510313275710383e-01 -7.405738088056471047e-02 -9.384254396557405453e-01
9.395316584848798502e-01 -2.101827855946634405e-01 -2.703765140398085576e-01
7.369827958111043742e-01 -5.421818914361548059e-01 -4.036027196107101478e-01
7.369827958111043742e-01 -5.421818914361548059e-01 -4.036027196107101478e-01
6.316581735644722917e-01 2.814276563982875401e-01 -7.223617002467408454e-01
6.316581735644722917e-01 2.814276563982875401e-01 -7.223617002467408454e-01
9.341948541287976582e-01 -8.031139863779135357e-02 3.476061762513955600e-01
5.954414001122843025e-01 1.830438648170486793e-01 7.822688045583566785e-01
-9.101600291761585693e-01 3.718604598901061875e-01 -1.825610025727646968e-01
7.590266288434879272e-01 -4.386467167707136516e-01 4.811108339798254030e-01
-4.662996365356212314e-01 2.947124701370666400e-01 -8.340918468085252169e-01
8.242358592708104448e-01 -3.070291534577890974e-02 5.654136355637161548e-01
-2.620444989610534736e-01 2.107406124982388624e-03 9.650534904365015709e-01
-2.685630278227286727e-01 -2.058455988771037970e-03 -9.632599144808374758e-01
-1.828168972706385176e-01 3.080630410921899598e-01 -9.336354453347239790e-01
-2.906500649016588445e-01 -7.419864260122845112e-02 9.539481648437700967e-01
-4.849459816797346279e-01 -7.563176211077490829e-02 8.712676003460118057e-01
-2.303395059290524738e-01 -4.642870184234851316e-02 9.720021027001919389e-01
-6.400981383238893985e-01 6.528699763123807509e-02 7.655141940255515420e-01
-2.510460474868592140e-01 -7.625926392801417320e-02 9.649665313918317500e-01
-2.510460474868592140e-01 -7.625926392801417320e-02 9.649665313918317500e-01
-4.808945507611774306e-01 -2.092519791916032726e-02 8.765287029756922976e-01
8.390657505168211960e-01 -3.392484860466284391e-01 -4.252988725881062804e-01
-2.225547806405259177e-01 -7.211516539432613615e-02 -9.722493366077430421e-01
-2.225547806405259177e-01 -7.211516539432613615e-02 -9.722493366077430421e-01
-2.225547806405259177e-01 -7.211516539432613615e-02 -9.722493366077430421e-01
9.338736299059050561e-01 -8.228908725562011917e-02 3.480065365549983580e-01
-3.123445195471863944e-01 -1.153477825949338065e-01 -9.429399716627082650e-01
-6.245082174233638206e-01 -2.148622434930643268e-02 -7.807226322669937879e-01
-7.315066590290558723e-01 6.750396154602108512e-01 -9.601835947088049883e-02
-6.403703433760352670e-01 5.034082324243595030e-01 -5.800913504370158735e-01
-5.765626550608095036e-01 4.649492422600313701e-01 -6.718613747723949370e-01
-7.840005915537413550e-01 4.307683970130209983e-01 4.469694179451386140e-01
-1.360797358482571662e-01 3.977506029732029713e-01 9.073459997850444880e-01
-5.191922312401679035e-02 -1.077719616774521355e-01 9.928190160076468818e-01
-5.170363619535273125e-01 3.346769652512416870e-01 7.878227778809651083e-01
-6.079771739333207359e-01 -4.159067471332144467e-02 -7.928644094376687823e-01
-1.098543993512472311e-01 -1.454780486613327373e-01 9.832436871401043499e-01
-7.949546678821785006e-01 3.638760069368271455e-01 4.854290139536834858e-01
-7.007809820376136312e-01 5.103995140332820979e-01 -4.983957777599922756e-01
-4.988109019016517820e-01 2.337792737091677897e-01 -8.345866853287767784e-01
6.159090077246411887e-01 1.693840472780782647e-01 7.693927077451054863e-01
7.199481224169698157e-01 -2.668295580819297075e-01 6.406845463737064206e-01
8.926317545206772230e-01 2.072849819368943053e-02 4.503097602583934211e-01
-3.484345894018034406e-01 2.161238215284885800e-01 -9.120766583332338140e-01
-6.221895914490583879e-01 1.867005845607998815e-01 7.602782411835218301e-01
4.406055218457129996e-01 1.587246198545897158e-01 -8.835571680265419392e-01
6.971887037429966849e-01 2.963108051344607308e-01 -6.527846644443536794e-01
6.971887037429966849e-01 2.963108051344607308e-01 -6.527846644443536794e-01
7.696545177323335096e-01 3.038443207052878292e-01 -5.615252016689467052e-01
8.357392485227186363e-01 2.357547124565406160e-01 -4.959431661321845874e-01
8.357392485227186363e-01 2.357547124565406160e-01 -4.959431661321845874e-01
8.259118970745378263e-01 -1.960918223576189612e-01 -5.285995984440453599e-01
9.476712244044617206e-01 -6.503047677190902653e-02 3.125544552978994362e-01
-4.970236534071542644e-01 -2.308228500940555025e-02 8.674299372701805844e-01
-5.610541747853097228e-01 -2.605427891265844897e-02 8.273689548842866337e-01
-6.772746765424519921e-02 -1.272310890607414591e-01 9.895581034489895345e-01
-5.775008552115482724e-02 -6.737537544847017890e-02 -9.960549615385072553e-01
-5.775008552115482724e-02 -6.737537544847017890e-02 -9.960549615385072553e-01
-5.775008552115482724e-02 -6.737537544847017890e-02 -9.960549615385072553e-01
-3.316324972675726429e-02 -2.878423077231479499e-01 -9.571034451678529509e-01
-2.137124774477023315e-01 -5.196026162629788225e-02 -9.755137662764641338e-01
-7.196289835974425397e-01 2.004522911818287789e-01 6.647954609701144379e-01
-7.196289835974425397e-01 2.004522911818287789e-01 6.647954609701144379e-01
-7.729055833431590361e-02 3.122219819873174318e-01 -9.468598647932441326e-01
-1.444907710033763171e-01 -9.581878019927402013e-02 9.848559176123039549e-01
6.336536832175130307e-01 -2.503294055396630968e-01 7.319960371935346766e-01
7.832672713593277214e-01 1.223144866569573219e-01 6.095338776238431455e-01
1.877388118430773079e-01 1.001974911519659499e-02 9.821678793136223717e-01
-9.021818968389429261e-02 -3.930661260801263795e-02 9.951460538310166193e-01
-2.523061820464017058e-01 3.811847681553313244e-02 9.668963606439067160e-01
-1.854256713694379943e-01 2.192885999214197121e-02 9.824135816939005839e-01
4.085298058861394077e-01 -6.983393168896732117e-01 -5.877291860956863623e-01
-1.981696512308115388e-01 3.583062859598833416e-01 -9.123296524681704378e-01
5.834203725072902857e-01 -2.007436151405120328e-01 -7.869705648394815789e-01
-1.887821858147956944e-01 -5.401798490209541725e-02 -9.805321736822841805e-01
9.364607627080034913e-01 4.606825739362890165e-02 3.477340299266937218e-01
-5.534751014606805741e-01 8.928442303122710588e-02 -8.280661832650035858e-01
9.900017858795036041e-01 1.129827968358154827e-01 8.444733018011946202e-02
9.900017858795036041e-01 1.129827968358154827e-01 8.444733018011946202e-02
9.914385024196652463e-01 1.049259324478014899e-01 7.771901067184745771e-02
6.950749634361106377e-01 -4.210647709939793759e-01 5.827308588294232150e-01
7.190143036774574448e-01 2.584706187087423279e-01 6.451444569796294104e-01
-5.415303179529855626e-01 -9.051525392150634730e-02 -8.357941753477727831e-01
8.926605890001261256e-01 6.563843176138996205e-02 4.459245105641237994e-01
-6.531438223781433905e-01 1.233346385366821396e-01 -7.471222886691939458e-01
-2.484633720540194435e-01 2.885477171986874922e-01 9.246654355208548948e-01
1.953984488510410455e-01 -1.717196746570648913e-01 9.655733009576636938e-01
-2.839195313425507683e-01 -8.121507201424145450e-02 -9.554024344745767339e-01
9.685427485878760068e-02 -4.254632298389336709e-02 9.943887870657677208e-01
9.685427485878760068e-02 -4.254632298389336709e-02 9.943887870657677208e-01
8.913734906901430444e-01 1.690205064953716751e-01 -4.205774226927991299e-01
-2.766758208665728302e-01 -1.342776234996819196e-01 -9.515356062571098672e-01
-5.662191818826040057e-01 -5.532843915151264280e-02 8.223956480242657907e-01
-1.084720526735317575e-01 -6.725997395649453703e-02 9.918215110049601879e-01
-1.084720526735317575e-01 -6.725997395649453703e-02 9.918215110049601879e-01
-4.541083601702123329e-01 -1.686177047870935156e-02 -8.907868869262974831e-01
-3.057577040389039547e-01 -3.623160464157736821e-02 -9.514197271688002999e-01
-6.027563809477309853e-01 1.504110599406058291e-02 -7.977834984237698324e-01
-2.570085356637227814e-01 3.588149466829067963e-02 9.657427871521269136e-01
-1.294631718440811541e-01 5.601050440935900765e-02 9.900010659246175626e-01
-1.555033585945594932e-01 1.832677280592222291e-01 9.706861724150719350e-01
1.053732507537812751e-02 -9.784752148458972232e-02 -9.951456312116223613e-01
-9.736225938415312697e-01 2.481596620226310737e-02 2.268109622190612462e-01
-9.566837992070570396e-01 2.722600465569708916e-01 1.031046816761844870e-01
-5.801073324763874606e-01 5.974962072358296072e-02 -8.123456564976007099e-01
-5.589768682507461062e-01 -1.152136540430627742e-01 -8.211398630456527847e-01
-7.487014572818808666e-01 -5.656917147460523848e-02 6.604892555542933863e-01
-8.894966561324144649e-01 2.102625076948007321e-01 -4.056912330666598843e-01
-5.359736188206254415e-01 -2.790833273988661475e-02 -8.437733136879849161e-01
-7.977006619393045561e-02 -2.528204843008853564e-02 9.964926264486830831e-01
-7.977006619393045561e-02 -2.528204843008853564e-02 9.964926264486830831e-01
-1.251017690655630010e-01 -3.345354082955290242e-02 9.915797537175877752e-01
6.683869673176102699e-01 -2.414370221904569569e-01 -7.035389301494072711e-01
5.701840904706675373e-01 1.691753320954824114e-01 -8.039090806705201375e-01
5.293399006787620209e-01 -3.956521986457141316e-02 8.474867921840826268e-01
7.881820159812283899e-01 -4.888085252681887982e-01 -3.739456314879275878e-01
-1.829550987649429805e-01 4.127360273989975070e-01 -8.922871754781662723e-01
-1.829550987649429805e-01 4.127360273989975070e-01 -8.922871754781662723e-01
8.170737310066337189e-01 2.113739646220931245e-01 -5.363875140034833899e-01
5.046417260958998563e-01 2.130408287193956696e-01 -8.366303446454137482e-01
-7.827238074580479266e-01 5.462081938347226329e-01 2.983287619827943438e-01
-7.634158797021951548e-01 -3.376426809358623604e-02 -6.450241614223670705e-01
-7.227413954261431295e-01 6.421593680348977040e-01 -2.554921160867633656e-01
5.774033948725454390e-01 2.579572394612677511e-01 7.746375811947040502e-01
-9.385636227957492306e-01 3.054224030418066782e-01 -1.606719691940275141e-01
-8.009881585254147174e-01 -6.137149098752738702e-02 5.955262462696608861e-01
6.208961464183078149e-01 2.900708052321207542e-01 -7.282492041292489837e-01
-3.173985909296543340e-01 2.117126093301430374e-03 9.482898566646039695e-01
1.130454275561105643e-01 -5.809668743787905348e-02 -9.918898659717224620e-01
1.130454275561105643e-01 -5.809668743787905348e-02 -9.918898659717224620e-01
9.757298158645951736e-01 5.903486980977526444e-02 2.108701272807173288e-01
9.865506762775568816e-01 1.117287334512866714e-01 1.193082279545994717e-01
9.865506762775568816e-01 1.117287334512866714e-01 1.193082279545994717e-01
-5.201608295817625738e-01 7.797850893670608130e-01 3.483789973141570573e-01
-5.201608295817625738e-01 7.797850893670608130e-01 3.483789973141570573e-01
-7.501571143375888040e-01 6.226522818265320947e-01 -2.226397083741228355e-01
6.248619859739230620e-01 -1.854890293741924545e-01 7.583807213178250795e-01
-4.826658695724976300e-01 3.510944090981920618e-01 -8.023505307842803136e-01
5.114086827255568402e-01 2.545397169666801518e-01 8.207744463124039269e-01
-1.264785351031179061e-01 1.774012064034166669e-02 9.918107018367141592e-01
-1.279608507507670467e-01 6.801494828217245769e-02 9.894442821530242682e-01
-7.375731314534811345e-01 -1.783627276943385367e-02 -6.750316608364382853e-01
-6.142093327451097345e-02 -8.003890516513574582e-02 9.948976040857946401e-01
-5.156914696509025120e-01 -1.981054448517656844e-02 8.565452997107001476e-01
-5.314953514611906460e-01 -1.549396728667531108e-02 8.469194934306712996e-01
6.262039895243037835e-01 -6.969476210355134427e-01 -3.494747158762472883e-01
5.231049159246921043e-01 9.149860476821618238e-02 -8.473424645684237699e-01
5.231049159246921043e-01 9.149860476821618238e-02 -8.473424645684237699e-01
-2.383648979390232403e-01 6.747666623708573064e-02 -9.688287129023623878e-01
7.585523096549960133e-03 -1.523667426491843169e-01 -9.882949132591086761e-01
9.523941405225083701e-01 1.771346569550460992e-01 2.481304382856136248e-01
9.892019835636126635e-01 1.344915122070422797e-01 -5.823631906359928723e-02
9.892019835636126635e-01 1.344915122070422797e-01 -5.823631906359928723e-02
-8.917747699587801058e-02 -3.800000300458591940e-01 -9.206776606184141620e-01
9.894159168873103427e-01 1.343024473583064038e-01 -5.494539146836902033e-02
9.894159168873103427e-01 1.343024473583064038e-01 -5.494539146836902033e-02
-6.048384335906680231e-01 3.696670736539548474e-01 -7.053486541475135763e-01
-9.218310362376973544e-01 3.775942197885920892e-01 8.746511196572910596e-02
-1.647235104058565602e-02 6.433137598881737140e-02 9.977926316197074375e-01
9.107035921479479657e-02 1.040397055872661347e-01 9.903948350702377335e-01
-7.077026724671958875e-03 -2.709372556126736775e-01 -9.625709943759009901e-01
9.413115989384459592e-01 1.946898134070881581e-01 2.757323888473377504e-01
5.053352176997641942e-01 2.146856865223361333e-01 -8.357908672357966529e-01
5.053352176997641942e-01 2.146856865223361333e-01 -8.357908672357966529e-01
-4.961230377246512169e-01 2.778651995193011093e-01 8.225891212111690054e-01
-6.045136404203743652e-01 2.592833180499834467e-01 7.532167148481885288e-01
-5.465816740399065399e-01 3.097908783651299180e-01 7.779961987603117857e-01
-5.465816740399065399e-01 3.097908783651299180e-01 7.779961987603117857e-01
-4.914847909248287738e-01 1.447892766374152262e-02 8.707657899477250218e-01
-6.475425862435260083e-01 3.459280986828970617e-02 -7.612436774820937613e-01
-6.475425862435260083e-01 3.459280986828970617e-02 -7.612436774820937613e-01
-6.095110845494319252e-01 -4.208731599652903999e-02 -7.916595831818014073e-01
-2.785489772511546280e-01 6.416081566944848618e-04 -9.604218112950732023e-01
-2.785489772511546280e-01 6.416081566944848618e-04 -9.604218112950732023e-01
8.979524024189350362e-01 -6.739965997827683866e-03 4.400409706475194582e-01
-6.277644906832540173e-01 3.861623868192527453e-01 -6.758626748410156981e-01
6.494131370455009655e-01 -1.861940318100946956e-01 7.372885187977787913e-01
8.255796561645165621e-01 2.912058515534912684e-01 4.833398218109951072e-01
7.499778487275604588e-01 -3.963489587255872304e-01 5.295665485424123631e-01
5.768228911758073174e-01 1.714712675477245429e-01 7.986694914801487633e-01
-8.323181475700361931e-01 1.939338721293963341e-01 -5.192650137131160637e-01
-4.531438511192757979e-01 1.994654139562831302e-02 -8.912142198591448405e-01
-2.710105924190785998e-01 -9.973522036141611868e-02 -9.573955006245432608e-01
-7.510082006164897628e-02 -2.283507171609693367e-02 9.969144528623248291e-01
-8.643903514072660832e-02 -2.135593465699654400e-02 9.960282211156802346e-01
