6.784373292182276360e-01 -4.952577777467223608e-01 5.426255835330806576e-01
5.700329888202153583e-01 -5.654261479870948959e-01 5.961171552884281244e-01
5.700329888202153583e-01 -5.654261479870948959e-01 5.961171552884281244e-01
7.274179169941250578e-01 -4.444454893529518613e-01 5.228110375936445564e-01
7.827159442012597834e-01 -4.747942106498074244e-01 4.024005569411610028e-01
9.271018883480423023e-01 -3.346543227913572616e-01 1.687855824961135009e-01
6.105819163392438575e-01 -2.547430356095790049e-01 7.498637937971891487e-01
5.730625816155484609e-01 -3.868570790488193301e-01 7.224547584049387794e-01
9.984683446362964121e-01 5.135058179167065195e-02 2.059326367798978638e-02
4.555969143167202806e-01 -6.067825738421398496e-01 6.513419683596253229e-01
8.454836229952744642e-01 -4.299162687264710403e-01 3.167482361925528234e-01
5.976970275609427841e-01 -4.839699161256363347e-01 6.391645981514919583e-01
8.373255446858304252e-01 -1.937191602057060091e-01 5.112326468309444927e-01
8.799186872503251822e-01 -3.604339990485690981e-01 3.095649142870043891e-01
6.335574831625788716e-01 -4.341522409094953905e-01 6.404035815343022131e-01
8.668773916549985525e-01 -3.434578891166443770e-01 3.613312417172989677e-01
7.112254188803016630e-01 -4.449555522814144792e-01 5.442177505672530780e-01
9.689603858196058628e-01 -2.001445787952992883e-01 1.451134669531837784e-01
9.773713391694460739e-01 -1.517960456731814456e-01 1.473201475973642816e-01
9.960595540733720998e-01 8.863397022562707894e-02 -3.063341508503149117e-03
5.437167942327375547e-01 -5.748617841334133782e-01 6.114785170488198363e-01
6.012273625270861954e-01 -4.472734062969818680e-01 6.621723027794341743e-01
8.880328746479174695e-01 -3.335282376248267511e-01 3.164751621398324000e-01
9.983718513629635805e-01 5.359472005001769679e-02 1.952568536181973485e-02
3.083605261333919878e-01 -6.596589446887407560e-01 6.853932175144969996e-01
6.251137969968215691e-01 -4.408659296104134873e-01 6.441040078379905998e-01
-6.278722392311440748e-03 9.767734351393024816e-01 2.141827118403514807e-01
4.674495416762044497e-01 -5.469906831323193552e-01 6.944725470118634503e-01
9.580101970700701797e-01 -2.062615597327164818e-01 1.991798967928040398e-01
9.921149840294958278e-01 -2.336241998414810214e-02 1.231342998381746573e-01
-2.435604603684575764e-01 9.691836418032996336e-01 -3.689675603625162253e-02
4.189207572184297512e-01 -5.376571342892421113e-01 7.317309649860509468e-01
8.260227218966712526e-01 -3.816740020402599742e-01 4.147425937578466670e-01
9.748405361993414120e-01 -1.420416005221759592e-01 1.717850770692235240e-01
8.879082616328749511e-01 -3.240562620269235583e-01 3.265064439872877311e-01
6.618170197947992328e-01 -2.052062537457486346e-01 7.210330267980556984e-01
1.801826096204046379e-01 -6.944041553529232136e-01 6.966613928006734069e-01
6.478646787144521912e-01 -5.339994404601526856e-01 5.432457599120893432e-01
9.152331841467431506e-01 -2.705317930955796757e-01 2.985980032771556880e-01
-2.544562884609877229e-02 9.842821402569901235e-01 1.747603740661632932e-01
-6.077279676847993119e-03 9.876490301496227975e-01 1.565645551082323617e-01
7.422348867590806698e-01 -4.540023317121449908e-01 4.929191167703583787e-01
9.105855382638697870e-01 -3.551534306683614139e-01 2.114237881346178738e-01
9.242621007748450523e-01 -2.009932243539868657e-01 3.245632339545838629e-01
-4.034894213438511845e-01 9.095322888690697827e-01 -9.973616379325569992e-02
9.342060124543392075e-01 -3.027455310330208135e-02 3.554470111402798782e-01
9.033376840538815955e-01 -1.368714941045341693e-01 4.065061163989568405e-01
-6.470334904553519222e-03 9.878605811391459879e-01 1.552082697463368632e-01
-9.066967866034105969e-03 9.889179090991141452e-01 1.481862313332533987e-01
-1.782832853456651698e-02 9.767631925448971852e-01 2.135785953487929767e-01
5.353865670191753192e-04 9.880836206023067003e-01 1.539170947577313542e-01
-5.930270505324775066e-02 9.419774752106352400e-01 3.303961642773180496e-01
8.607820497462888992e-03 9.864619288992192425e-01 1.637643680985436390e-01
-1.384134611421718522e-02 9.766584461936650419e-01 2.143518057220943351e-01
4.068841672269549181e-03 9.886538131296791487e-01 1.501568590227959354e-01
1.214996225031845026e-03 9.906815005293250209e-01 1.361935692062525294e-01
-7.762871957669290404e-03 9.885644289893552594e-01 1.505991618699087375e-01
5.892959696314570284e-02 9.890467591745722986e-01 1.353285290248761874e-01
1.126947616765753973e-01 9.790521818390766073e-01 1.695780526094211593e-01
-1.336692032510926505e-02 8.885651717660009163e-01 4.585556247234127691e-01
1.307303933060226849e-03 9.882280269404656314e-01 1.529825405913394776e-01
3.640109741599626097e-04 9.883376832176429261e-01 1.522776786925538473e-01
3.640109741599626097e-04 9.883376832176429261e-01 1.522776786925538473e-01
6.782036946587490650e-03 9.895533774255732551e-01 1.440073512029721725e-01
7.433835965343985053e-03 9.901348752035948886e-01 1.399202165107030216e-01
1.665621794131692535e-01 9.854338249377653236e-01 3.431059687124251439e-02
1.055867260202929432e-02 9.892837997242882597e-01 1.456230683509899815e-01
4.128990929631984157e-03 9.897598159349365599e-01 1.426830690528611278e-01
4.933703491303172428e-01 8.696239972746764302e-01 1.843371810141881256e-02
-1.421560643266391206e-03 9.878035602579751107e-01 1.556987652712968906e-01
-4.763706944193905717e-03 9.863360405125322083e-01 1.646770241479065255e-01
1.423762931754867511e-01 9.831859689343871445e-01 1.143430873824828331e-01
1.077742924644230563e-02 9.889924671687496671e-01 1.475728528636194303e-01
2.923910483078729196e-04 9.887429219461116858e-01 1.496240248387277760e-01
2.923910483078729196e-04 9.887429219461116858e-01 1.496240248387277760e-01
6.444300139226253818e-03 9.870233952468603356e-01 1.604471508973456251e-01
2.101553589004950210e-03 9.880780494184437934e-01 1.539394417618680511e-01
1.843525423903704394e-03 9.885673529685066185e-01 1.507686640481089579e-01
1.732241088508796115e-02 9.869411204152356287e-01 1.601473038007419913e-01
1.056508804355602536e-02 9.853455092790267544e-01 1.702427862151205673e-01
4.551229728622299131e-01 8.869769066294692639e-01 7.832653879154709287e-02
1.254408022554850677e-01 8.225352707962974019e-01 5.547074304762482644e-01
2.158561079555261497e-02 9.797424772327465448e-01 1.990948008171587180e-01
-5.621964502770037536e-03 9.883416378510064826e-01 1.521486128925256809e-01
2.386257878667851287e-03 9.891068714983654031e-01 1.471798305748877045e-01
2.386257878667851287e-03 9.891068714983654031e-01 1.471798305748877045e-01
8.694802299429336967e-02 9.832095433037341126e-01 1.604338968355706885e-01
4.197429369631475171e-01 8.969161341160998280e-01 1.391305690054544242e-01
3.719824440522480624e-01 9.212765497742692045e-01 1.134838321212963269e-01
4.878409319633923713e-03 9.885897714492110078e-01 1.505538604902141031e-01
4.852896400174460667e-01 8.614211067228367824e-01 1.498253722976879698e-01
6.816491801989611049e-03 9.898385805414686711e-01 1.420321087330738419e-01
5.355629125394306689e-03 9.891880868246425429e-01 1.465545841005151118e-01
3.243665171160204364e-01 9.366244239538942251e-01 1.323671070434729036e-01
5.158986335694107916e-01 8.552257234269844410e-01 -4.937167072326048567e-02
7.777159707208872175e-02 9.847374884721985522e-01 1.557037491081170177e-01
1.126655852054060311e-02 9.871317081138123450e-01 1.595119290066121798e-01
2.560025045657045653e-02 9.838591237185623228e-01 1.771040706824763278e-01
8.722028210747398425e-03 9.857392986195933071e-01 1.680534479885592569e-01
8.898051669066670694e-03 9.868694894785485783e-01 1.612744102852134431e-01
5.246696291714680882e-01 8.388085642742864056e-01 1.453340040224053720e-01
8.885976716766226524e-03 9.823209735978981616e-01 1.869934337014713399e-01
1.733748679945128907e-02 9.766729646232250595e-01 2.140311466248766281e-01
1.935541511727245367e-01 8.183893190209904356e-01 5.410875281099774003e-01
1.617938588837670999e-02 9.824710232604263460e-01 1.857119164886459894e-01
2.553622577186904774e-01 9.558717660055803256e-01 1.452559268539017623e-01
5.029995986579403056e-01 8.622823750790966635e-01 5.882609436213540044e-02
6.165952228208814168e-01 7.838389514260371005e-01 7.353114593013074241e-02
3.526479607899733054e-02 9.802003626106450263e-01 1.948426116009192854e-01
7.809451365450123528e-02 3.911903642333433018e-01 9.169903739233313811e-01
7.249485014931071614e-02 4.182528319898110025e-01 9.054330815882153383e-01
2.881623946482184118e-01 7.598467269004216540e-01 5.827481324974971288e-01
-1.300138354401732949e-02 9.736454683669256704e-01 2.276959945947475417e-01
5.514966731006167716e-02 9.715287375374318524e-01 2.304135984149225103e-01
6.430590689503103141e-02 9.787645937805943275e-01 1.946397192248167374e-01
6.430590689503103141e-02 9.787645937805943275e-01 1.946397192248167374e-01
1.079234415691034399e-01 9.766500719075033032e-01 1.857610502848991152e-01
4.886332109050305350e-01 8.243152536278661735e-01 2.859054875952302122e-01
1.089643215092587492e-01 9.748969499492852187e-01 1.941718661845930616e-01
7.549670890302975779e-02 9.774783611141765194e-01 1.970692784234891193e-01
5.801191034974376715e-01 7.753523402744214588e-01 2.495807969141590754e-01
5.399276728625495014e-01 8.230685152054014742e-01 1.761713011668113171e-01
9.876687663817255991e-02 6.133665589794128348e-01 7.835984739679465738e-01
4.684587255889765545e-01 8.481003662361311646e-01 2.475322023690902096e-01
6.906318781362515979e-01 3.303752067132969539e-01 6.433349296370749482e-01
5.914489052693224780e-01 8.047479665892295353e-01 5.068434399516766331e-02
8.977625970230842523e-01 4.331619380729866964e-01 -7.995658066239028083e-02
7.624746716802471846e-02 9.573198217744371963e-01 2.787921853069428302e-01
3.373758503051546564e-01 6.922659877546351037e-01 6.379226738633556604e-01
4.371674783264488662e-01 8.617671617455905375e-01 2.573751247316705126e-01
8.447411811693051886e-01 5.349834842395817525e-01 -1.431811536355657825e-02
2.885033503689186651e-01 4.605283020077163281e-01 8.394519044446789868e-01
3.427399861541429726e-01 8.871359082538934349e-01 3.090617772834380328e-01
9.290097673057905181e-02 3.091768192801779835e-01 9.464560755483037990e-01
6.506629329831107311e-01 7.480703718080091713e-01 1.304931663530430885e-01
5.117579153173555939e-01 6.546856877030450272e-01 5.563186914232030045e-01
7.423434106573961744e-01 5.043441323537979359e-01 4.410932518343929631e-01
2.119069205652652499e-01 4.762379097963076457e-01 8.534007911230163668e-01
7.936036152776744235e-01 5.668910143093339737e-01 2.209703141001964077e-01
6.203735108626083905e-01 7.340775491549201837e-01 2.761645503077955754e-01
3.343771462055441512e-01 2.900493339223116918e-01 8.966957722587184376e-01
2.786843809679131478e-01 7.704860043722087104e-01 5.733117239958379630e-01
8.424575639694654727e-01 4.992973840139967034e-01 2.024039901469672498e-01
5.094686598662259147e-01 8.045715270554550935e-01 3.051333191668275102e-01
3.168347693267997700e-01 2.581887217637534593e-01 9.126633075234440451e-01
3.777124729554945937e-01 6.438986008459984811e-01 6.653779975340411434e-01
5.514672183842581621e-01 6.640514316266494799e-01 5.048956359507635883e-01
8.132079202112114658e-01 3.991116936255160730e-01 4.235595997225515830e-01
9.239995619207873601e-01 3.047172724027128465e-01 2.310242270188215541e-01
6.268430670069682353e-01 5.260596185611725595e-01 5.747425920049524795e-01
4.513569765639589004e-01 6.344501543638363383e-01 6.274949253458120824e-01
9.816383868537420510e-01 1.389708694424744151e-01 1.306643597220980557e-01
3.921818181125533709e-01 6.319996357655065511e-01 6.684084693764728025e-01
4.030860136479841871e-01 8.303685051714089216e-01 3.847204325491134225e-01
7.559793315296211569e-01 5.651780632284144623e-01 3.302559721570608731e-01
4.514878990305331574e-01 1.770190437739670442e-01 8.745415571431385260e-01
5.300538341442078138e-01 6.154789812360603740e-01 5.832911421971416210e-01
7.641680491856062130e-01 4.326569116166942286e-01 4.783881158998087302e-01
5.646377258607416794e-01 5.909802369186490933e-01 5.761307126914754217e-01
7.189281508976795854e-01 5.125797554454012417e-01 4.694723720884711460e-01
7.627218921399618878e-01 3.342894001771619661e-01 5.536297609229743344e-01
4.896344552233906633e-01 7.806624854064600494e-02 8.684260251149107379e-01
6.508750868363540887e-01 1.942583872194298955e-01 7.339109621273376405e-01
7.999965005928156847e-01 2.571117912275103223e-01 5.421246405127054802e-01
8.437037948473502524e-01 1.579980550740407719e-01 5.130307214514551184e-01
9.833971808891251998e-01 6.790082648642595253e-02 -1.682838743961570516e-01
6.683564065833426104e-01 7.003970057297923546e-01 2.504870219068098258e-01
9.561760032439944323e-01 1.117967387434613824e-01 -2.706084625924822795e-01
9.955148493899055318e-01 6.058056269593251747e-02 -7.266484753743022995e-02
4.341581132412569155e-01 1.447589066550445669e-01 8.891296821335051836e-01
9.969228554576848866e-01 7.806712825324572946e-02 7.095333141385599084e-03
9.896360078534721660e-01 8.644255128634484309e-02 -1.146658505700364206e-01
4.687110368436768759e-01 2.797206459510224175e-01 8.378939814616572779e-01
9.977518607520752258e-01 5.283039893129653358e-02 -4.123315795002063106e-02
9.733691117452438757e-01 1.094191819682029110e-01 -2.014448185426583326e-01
5.252057202292660376e-01 1.889807016401574835e-01 8.297260064901255117e-01
9.735281320017898921e-01 1.113511543307452029e-01 -1.996093600769161258e-01
5.712549135154945112e-01 3.749326643580091489e-01 7.301323996247595094e-01
8.593700553992634772e-01 1.495624501053974542e-01 4.889930279682289105e-01
3.102078060849643437e-01 -9.743610605796539093e-02 9.456623722450916425e-01
9.951062029365940198e-01 7.906162606633530820e-02 -5.926975755696137910e-02
3.268522798149285369e-01 -9.008783350050250660e-02 9.407719008532139382e-01
2.925714522432469322e-01 -5.740158673087853575e-02 9.545192523847043642e-01
9.897435439486103048e-01 1.183998335094572502e-01 -7.993245046273800281e-02
3.297615289809529004e-01 -3.213386899856571916e-02 9.435172221360493827e-01
4.631003613014601505e-01 -4.909087366004380448e-02 8.849452759836343718e-01
9.906333887409404237e-01 4.216168355798974310e-02 1.298764087553880564e-01
9.906333887409404237e-01 4.216168355798974310e-02 1.298764087553880564e-01
9.972948191679154029e-01 4.962058585581082676e-02 5.422952258835610911e-02
9.820915949054490612e-01 1.399911498254391984e-01 -1.260895601809395306e-01
9.821398096018434387e-01 4.646192623099774238e-02 1.823257628700898358e-01
4.233263382227675509e-01 -7.107252318268618418e-02 9.031852012823003983e-01
9.210578655749674937e-01 -7.741921602004345204e-02 3.816525556750891557e-01
9.641349702361119434e-01 -7.495546018032320928e-03 2.653065697597843386e-01
9.215723304914915648e-01 3.101139550762539443e-01 -2.335246765107369393e-01
6.551320353858660628e-01 -7.450220502727804284e-02 7.518320541565421955e-01
9.952150046227122848e-01 9.577450360209285862e-02 -1.934784312494234465e-02
5.317577552546852715e-01 -5.959890308527644037e-02 8.447968160910230839e-01
9.691983273605538907e-01 1.362252597028707456e-02 2.459045120116619965e-01
9.452684034611730235e-01 2.739615450492644544e-01 -1.772363316371250719e-01
5.437787835370965217e-01 8.327795774028462494e-01 -1.038403102636565323e-01
3.413892385268365581e-01 -3.284922079828961339e-02 9.393478144494784576e-01
8.058935417793362532e-01 5.644405949309737602e-01 -1.787244082724173955e-01
4.942662643776834508e-01 -5.910774251494011616e-02 8.672987574491949347e-01
9.190806094906085466e-01 2.902673908905128997e-02 3.929990861010081438e-01
9.822193081068464338e-01 1.625949165321832479e-01 -9.385160574012586798e-02
7.565598737859422496e-01 -1.995782828395680289e-02 6.536197996291016610e-01
8.012208947462291508e-01 -2.640347555187129436e-02 5.977858599037233489e-01
9.927976775881315330e-01 1.034777069730978688e-01 6.037495784845035851e-02
9.878571501885385908e-01 1.464187542394508323e-01 -5.195959226501383615e-02
9.590727531231304503e-01 2.633501421131810849e-01 -1.040488196270681620e-01
9.181323338609482798e-01 3.599747649737552457e-01 -1.656839947041887640e-01
2.466982667255589456e-01 2.374066986628203119e-02 9.688014996834518611e-01
3.961333764603481300e-01 -4.920454126274126892e-04 9.181928479058393266e-01
9.619825582761861726e-01 4.456710393186578967e-02 2.694500525506172695e-01
7.081004193106135158e-01 -5.658894166410833454e-02 7.038405272882981567e-01
9.149317977349780140e-01 -8.432829110022880756e-03 4.035203748098010745e-01
9.921822179862206381e-01 1.210684563238191985e-01 3.027994708237338739e-02
8.903179095265388865e-01 -3.883305594982241083e-03 4.553228963207863744e-01
9.906402054155497572e-01 6.976004375601013718e-02 1.173265515959496796e-01
5.087700215543828897e-01 3.901513336841858342e-03 8.608936306892014390e-01
6.431433436257482095e-01 -3.951304631186632749e-02 7.647256754686931890e-01
7.816653756505839157e-01 -2.436774912786198247e-02 6.232218331472938466e-01
9.750294554916152379e-01 7.204578391017794903e-02 2.100641948178993690e-01
8.975635605823908403e-01 4.313038799416161750e-01 -9.141453857001584360e-02
5.999234288459491804e-01 -5.121634892177485271e-02 7.984164108564165696e-01
8.176538572886703493e-01 -2.163564009619769329e-02 5.753034579581340902e-01
1.485492777214368065e-01 9.485187605210176898e-02 9.843455865181883757e-01
9.492343593301134641e-01 7.743089292279979607e-02 3.048911082473985679e-01
5.623163308784503434e-01 8.269007008967413919e-01 5.964468448651135887e-03
6.574378091014291270e-01 3.064160227529488106e-02 7.528855287319019540e-01
9.748739717683897466e-01 8.168504627703128407e-02 2.072396978941154488e-01
9.769863313978376373e-01 1.649593967166651798e-01 1.352261280103383978e-01
2.911468282325756496e-01 9.460954850559110119e-01 1.419043958689501506e-01
8.550677089695783994e-01 -2.796847758380452062e-03 5.185088145057255016e-01
9.575560478989592061e-01 9.116127256906526866e-02 2.734520753545580662e-01
9.777893536001737163e-01 1.642589050670681117e-01 1.301806133505382101e-01
2.387817331013805389e-01 9.610424354163398242e-01 1.392146589484438146e-01
-1.528133030524809512e-02 9.420574167914272934e-01 3.351034234566472314e-01
4.408469485745261096e-01 -3.017020232757744100e-03 8.975772198097745624e-01
7.144755236379090046e-01 4.459342003241539149e-02 6.982378914182101326e-01
7.510486292088306426e-01 -9.907124213800566452e-04 6.602461473211596044e-01
3.046451350041219919e-01 2.167722994102233916e-02 9.522192181532592725e-01
4.060687348512191930e-01 6.081202240140980153e-02 9.118169117250352063e-01
2.530180636186403764e-01 9.583674988722360455e-01 1.323389458475780212e-01
9.633335468076636987e-01 1.236762548443411935e-01 2.381022082691472697e-01
8.744608842504185686e-01 6.102252890933715368e-02 4.812425717675911652e-01
8.896197144068150875e-01 4.559505094173436218e-02 4.544203506318321706e-01
9.656362687593790239e-01 2.116585312539690789e-01 1.508219566372113740e-01
5.811868515642308886e-01 1.021625756959986669e-02 8.137060105776091623e-01
7.279278596934947165e-01 1.923202961240868050e-02 6.853839508764669741e-01
5.358175566999000550e-01 8.442080438149029975e-01 -1.457136542552141256e-02
7.702112566985117592e-01 4.706919670318261001e-02 6.360496134552842129e-01
9.382964192005454063e-01 8.013896181610669078e-02 3.364187517283644402e-01
9.505804505387585035e-01 3.094540887727811329e-01 2.519869034966621194e-02
8.687483265969798696e-01 4.887929590040664407e-01 7.973574018591755852e-02
3.645790422464026959e-01 9.080402068463526710e-01 2.062646472499073402e-01
2.603551160243123830e-01 3.692024719065297722e-01 8.921349383910904818e-01
5.649142119776755511e-01 1.406270976417404138e-02 8.250298014615777831e-01
6.290831609675359148e-01 3.328870840207163312e-02 7.766249020473237064e-01
9.472978756530895383e-01 8.768618391466506679e-02 3.081198921420481018e-01
3.667656504378128401e-01 9.592917223258359827e-02 9.253542843547541974e-01
8.149291566591324587e-01 4.656898406058972845e-02 5.776865926697621889e-01
4.892053863793512924e-01 7.500195208883220221e-02 8.689377406467589937e-01
1.923771411780014484e-01 9.716973323573085963e-01 1.370960606358520850e-01
-1.757987315008756671e-02 9.085437010550868608e-01 4.174198022772181993e-01
5.689508950667773735e-02 9.194853185670145423e-01 3.889854723890637245e-01
6.051044483175053168e-01 5.845281631373658998e-02 7.939974023202845954e-01
7.059525748169868109e-01 2.188640082467154316e-02 7.079208625038596603e-01
8.288904429711477784e-01 5.167263068113585600e-01 -2.143234877473493838e-01
3.182762232793248103e-01 3.612192111119501003e-01 8.764821317167337256e-01
4.991583019684286970e-01 8.650898346223785396e-01 4.960410879171819193e-02
8.790367502312198544e-01 9.597409372475389222e-02 4.669939668525152077e-01
2.118694601027669433e-01 9.646177503699685518e-01 1.569201311079717609e-01
7.420356310144232692e-02 9.498389050817477308e-01 3.038089623697050046e-01
4.557090794822501456e-01 2.676003810444934627e-01 8.489518660927026783e-01
9.048459112439229957e-01 1.724669048044832342e-01 3.892416263098230078e-01
8.475014518342876002e-01 5.050761489623963874e-01 1.632157250024953987e-01
1.869897795151363451e-01 9.725881465178930485e-01 1.382285050551088912e-01
5.049596069806197018e-01 7.554973829222846882e-02 8.598302346172492783e-01
7.892548688934002410e-01 5.884473218228351149e-02 6.112397642680462706e-01
8.173181476812996227e-01 1.059743600891740328e-01 5.663572021917786525e-01
2.092670640494701806e-01 9.726216548280703922e-01 1.010663765236549105e-01
8.311069093642248218e-01 1.354890186036451227e-01 5.393551993305222281e-01
8.713634163772412400e-01 3.760666455120604823e-01 3.151185090290459789e-01
8.113578746588376855e-01 4.880547209915156448e-01 3.217156952139379467e-01
5.617577859986556954e-02 9.416931676581014043e-01 3.317502974900698454e-01
6.043144372507417428e-01 1.378495278374357869e-01 7.847302521282808474e-01
6.371914064383291665e-01 7.617847041558452048e-01 1.169238045709058149e-01
6.376559717549347417e-02 9.422082235381974424e-01 3.289036517186256225e-01
7.235610658127882289e-01 1.101992649115564465e-01 6.814070046989644247e-01
2.175152545968361273e-01 9.648106955042997646e-01 1.477411109278080614e-01
7.242364572009593604e-02 6.856906817689421008e-01 7.242810949319701264e-01
2.898838153917898675e-01 6.966044126686851135e-01 6.562847444702756272e-01
7.380177471951863133e-01 2.337316353232158639e-01 6.330081575098991387e-01
2.048778646542342707e-01 9.682392709363664141e-01 1.433100652129318253e-01
2.306352999598468845e-01 9.662773984556727314e-01 1.145222583001590244e-01
9.487091081628322708e-01 2.605645372856267294e-01 -1.790451060431720309e-01
5.749802069964279200e-02 9.249035010190324035e-01 3.758290720771347293e-01
1.298485471927168788e-01 7.614291499483946124e-01 6.351102301182103282e-01
5.730013575293591011e-01 3.760875561637517239e-01 7.281672846044984215e-01
7.570074400401257675e-01 5.083309192703742152e-01 4.105355188502352037e-01
2.312402118195530931e-01 9.630503293791188302e-01 1.380653016525846544e-01
3.600054819252078153e-01 6.567204745877197603e-01 6.626569785651389433e-01
2.422217151171178195e-01 9.454733055158378585e-01 2.177357786002951101e-01
2.331513421149504772e-01 9.557016773817701427e-01 1.796517618050773590e-01
5.018076991210004140e-02 9.334826065627036540e-01 3.550945135818480702e-01
4.466567409361102414e-01 5.824530326713932560e-01 6.791511028543127937e-01
5.429611470938406903e-01 7.276963998193349825e-01 4.191075547356779563e-01
7.214329689764068521e-01 6.829621372359567788e-01 -1.144429568648977491e-01
5.143459397759019280e-01 5.685012644080501554e-01 6.420705308628427144e-01
6.214932721282193651e-01 6.426076854054700860e-01 4.481087762554794574e-01
8.308439469488760887e-01 5.485954202955632963e-01 9.349545790650767851e-02
9.737894950829212304e-01 1.974401239443968614e-01 -1.129221710868622275e-01
5.988128434311946330e-02 9.479989776875211716e-01 3.125894593373764740e-01
5.915545313583682185e-01 6.092477535657472298e-01 5.280912905970632787e-01
3.584436035469739656e-01 8.111598072462186115e-01 4.621016665026614900e-01
7.986736618122297626e-01 5.835422601851522062e-01 -1.469653445729569852e-01
9.365507746542899026e-02 9.453417050117173259e-01 3.123424198383623618e-01
3.599473136262129613e-01 7.945109033944844912e-01 4.890709108100305125e-01
2.769646666853898820e-01 9.435377279385862570e-01 1.817336770231135767e-01
2.119888256887439149e-01 4.844891565398536937e-01 8.487231556746926975e-01
1.771956904995470802e-02 9.806853458263089518e-01 1.947877546310775310e-01
3.324143925614644890e-01 9.401251314405587589e-01 7.526891026090877512e-02
2.049792406746845652e-01 7.647194676135055103e-01 6.108908632033600572e-01
2.750381654422044964e-01 9.400674233193648810e-01 2.015620181578779979e-01
7.473766325447033232e-01 6.583648712999634611e-01 8.935247822149157415e-02
1.405618308171931174e-01 9.121217526764757721e-01 3.850665916587840965e-01
2.674639278854140101e-01 8.928658018387213291e-01 3.622895350227538502e-01
2.255516894582608456e-01 9.510020290661375109e-01 2.114747646756310329e-01
9.999697719613026559e-01 7.050707081695150452e-03 -3.277604812787152620e-03
4.838668215766022129e-01 8.747720358086990000e-01 -2.543195518360440166e-02
2.188979087156521230e-01 7.219366866395267035e-01 6.564229779980707002e-01
2.794086899501475874e-02 9.766434533684368313e-01 2.130419508744162693e-01
1.270750385017967998e-01 9.666834242929169818e-01 2.222050669698761860e-01
1.684424787296854020e-01 9.530944242600396521e-01 2.514719662384320431e-01
1.773856416357995347e-01 -1.014412055187025041e-01 9.788993901133905551e-01
1.661486975150398837e-01 9.377744861682903998e-01 3.049157644429927871e-01
1.425704538955437362e-01 9.397176195128859044e-01 3.108125821987484105e-01
9.506067591444326004e-01 3.069433770558711583e-01 -4.617957070454135893e-02
5.961028209128856892e-01 8.029067244540272208e-01 -1.489538923602444845e-03
2.503863698812443528e-01 9.448144800005594535e-01 2.112634946197878838e-01
6.012891663868414893e-01 6.907719382418879839e-01 4.016036201571923092e-01
9.415332551429304031e-01 3.126106803088448127e-01 1.256570412543553394e-01
1.058380813820666289e-01 8.848742672085609939e-01 4.536472547712319670e-01
4.511460606169041543e-01 7.704678771438135954e-01 4.503848157735271251e-01
2.406496340941154111e-01 9.175660349694069184e-01 3.164811607045343589e-01
3.747639478668747248e-01 8.990982786277841310e-01 2.262173042624942843e-01
4.545636602326885156e-01 8.900364731171906962e-01 3.474126245508438876e-02
4.406303024788770784e-01 8.969744922689398825e-01 3.580079267629060480e-02
4.466399168993550051e-01 8.942840544283697790e-01 -2.772750669089910427e-02
2.655100602765571027e-01 3.238069345048156383e-02 9.635641642275852847e-01
3.040906069221445684e-01 5.427878265848823380e-01 7.828858653041204096e-01
2.845435275988232315e-01 8.891922207874618511e-01 3.582906297863223122e-01
5.776703789752365426e-01 7.624212303467057250e-01 2.915661173237077963e-01
9.936671367629595908e-01 2.669791250643235511e-02 1.091459700818155631e-01
2.301469406413745866e-01 -2.426064129120180102e-01 9.424301110041949370e-01
9.861633240671260348e-01 -1.657754919342796507e-01 -6.201119450591925913e-04
2.650097634203760211e-01 -2.180091314003347325e-01 9.392772987344834013e-01
2.405341835730593347e-01 9.283751033378175865e-01 2.833072078774884206e-01
5.230408684520168050e-01 8.518580358727546598e-01 2.767917354208504488e-02
4.564649413671191813e-01 8.893130149670381845e-01 2.760649765814129561e-02
3.131584316345930041e-01 7.897890016406895475e-01 5.274136228649816127e-01
3.755318472653378370e-01 7.817035776795748792e-01 4.979109843460333140e-01
3.010362357117375431e-01 8.274727181392206310e-01 4.739895415763909492e-01
9.648412556581211774e-01 1.368268432743479091e-01 2.244098178325470982e-01
7.729147748432119158e-01 6.288135556416123428e-01 8.483079081571731628e-02
3.452437514370272909e-01 6.385876851064772319e-01 6.877590570279963345e-01
4.051283948488023090e-01 8.361060385366779757e-01 3.698616984897682980e-01
5.789258184867557278e-01 8.145708980638316499e-01 -3.632008696194179848e-02
4.711696931871046101e-01 8.812861160839098318e-01 3.652262065770933014e-02
5.382442434641130369e-01 8.425462376008239218e-01 -2.022305324229400209e-02
2.806744939578362796e-01 -2.287864715862136800e-01 9.321365666363717883e-01
4.823879330463040072e-01 3.303865141854987475e-01 8.112623701957770717e-01
6.346940639093238135e-01 6.785632485172414796e-01 3.697504063554164500e-01
9.614371450492733562e-01 1.714848312579941580e-01 2.150152756618000094e-01
9.792515951860184531e-01 -1.869901813153764525e-01 7.810880499201665328e-02
4.514648057270120307e-01 -4.362491691852354858e-02 8.912218555520972085e-01
4.213144350199957144e-01 6.226010883244285088e-01 6.594406960910277338e-01
9.439886777768594639e-01 1.993218655971974729e-01 2.629756074694947210e-01
9.138175083165833712e-01 4.050653092168459146e-01 -2.931990387317637975e-02
5.095682114936714857e-01 6.201536118682606791e-01 5.964475966268047991e-01
9.610189677787274176e-01 2.286865570073531861e-01 1.553866217331213995e-01
3.916154551988155763e-01 -2.355956098055026482e-01 8.894560381996391429e-01
8.629802770078240925e-01 1.453693772019665764e-01 4.838726957242073246e-01
7.486570622325844360e-01 6.613437044646800489e-01 4.622886256669556104e-02
2.346091283914015779e-01 3.309586523869726959e-01 9.140158244175129454e-01
5.395771401423790081e-01 6.148371779577269658e-01 5.751797583684163939e-01
3.591591917389329591e-01 -2.261223535954912378e-01 9.054685837696809791e-01
5.286467016344483794e-01 8.329988969726284664e-02 8.447448095297434012e-01
7.319364629378489751e-01 4.319503542950876018e-01 5.269610096073326089e-01
8.096560427185790498e-01 3.177303857699080303e-01 4.934617456782193767e-01
9.464573275177881051e-01 1.264051764685406032e-01 2.970526191600462163e-01
5.531666700565723849e-01 8.228321702672538596e-01 1.302069687528434883e-01
4.599775685201791808e-01 8.849080503005385401e-01 7.320094925315905054e-02
1.608044275354569841e-01 6.626611282448974238e-01 7.314520935770119081e-01
5.086937850252543081e-01 -1.970662607879885841e-01 8.380904020066812787e-01
9.850318280711006791e-01 7.788638756330346080e-02 1.537725863710575347e-01
4.708105638946264437e-01 -2.144274754942329941e-01 8.557793352718876534e-01
7.323546542841187224e-01 3.570731007788848221e-01 5.797891522342768500e-01
8.099593218089496949e-01 3.385547900609304217e-01 4.789014002293016103e-01
5.744397551990654271e-01 8.153364962997058374e-01 7.242489522641733235e-02
9.696881367398212381e-01 -1.376490979652745528e-01 2.018852230734086983e-01
6.903528688310723860e-01 7.189632284132810858e-01 -8.065229498446033207e-02
9.847628475658345426e-01 7.933023601707525629e-02 1.547541524725720430e-01
7.922648409464239094e-01 6.004625520092415902e-01 1.084488148145782288e-01
5.879016708038841132e-01 8.089019645712626216e-01 -7.016920888351134249e-03
8.253440264531063109e-02 7.517320878809875540e-01 6.542835321403656090e-01
5.567400193509673967e-01 -2.325870828823519421e-01 7.974608452641184231e-01
6.164160639838921485e-01 -1.480792975422916269e-01 7.733716814714562959e-01
8.988503501900119153e-01 -1.034417498196199409e-01 4.258730472306839765e-01
9.150728915140762254e-01 -7.775020582529000579e-02 3.957227674903135428e-01
5.083971218215060928e-01 8.603426656346221391e-01 3.664511171113393057e-02
5.086695219729329281e-02 7.392073468079165544e-01 6.715542060022845483e-01
7.852835376276257051e-01 4.732609706965625745e-02 6.173248788662213382e-01
7.487188452676665218e-01 6.378834238505903809e-01 1.803464119900919094e-01
9.304819268704809243e-01 -1.540031713292698001e-01 3.323949563214289582e-01
4.644663186957461720e-01 8.784596880981841993e-01 1.121588836591298627e-01
4.929978994974806850e-01 8.649798854114922886e-01 9.361019669135170473e-02
6.088770435210919540e-01 -2.150470195310462407e-01 7.635597718999003192e-01
5.733020338704987173e-01 8.011560405489769332e-01 1.716792842827448429e-01
2.276328969236562361e-01 6.766546477146692107e-01 7.002297851164867026e-01
4.879526826668633688e-01 1.819347839895123775e-01 8.536989597351638537e-01
4.766708842903333299e-01 5.965455674151549231e-02 8.770554155410277275e-01
5.324756435926309983e-01 8.388811570245590099e-01 1.129074548900588087e-01
5.065676180417602037e-01 8.586860940405427467e-01 7.776528951205492757e-02
8.132401995969741615e-02 8.088383107031495989e-01 5.823804520384161520e-01
1.439502326606427463e-01 7.787785391401089718e-01 6.105590204818405198e-01
3.892613692965753436e-01 3.753784223210499538e-01 8.411697964317992326e-01
6.809778080996413685e-01 -2.004832580406771259e-01 7.043264073717550033e-01
7.548710782035523703e-01 -1.791733038416640500e-01 6.309251797814610097e-01
8.228269532020053845e-01 -1.739158033449984264e-01 5.410259683519533791e-01
8.717812279803125453e-01 -1.608638736331677865e-01 4.627313526236043750e-01
9.221402812680067340e-01 -5.215202030280955553e-02 3.833242340907980772e-01
4.782498672790574390e-01 8.720931088667098763e-01 1.035889661825083047e-01
6.950994383519610853e-01 -2.551361375216283367e-01 6.721177888832680081e-01
9.128740645088634365e-01 1.339156583601644815e-02 4.080215782425323789e-01
5.200636256525955625e-01 8.410921588755088107e-01 1.486533065599704995e-01
3.184174513617905600e-01 5.556754797973308957e-01 7.680072185990624023e-01
8.120322632623160342e-01 -1.465650490564764097e-01 5.649090987195668490e-01
8.363682556809496349e-01 5.023478728051040676e-01 2.193963435825502517e-01
5.507988816300648516e-01 8.218549935627964542e-01 1.455161899960464300e-01
5.595593711424015071e-01 8.276274035344057811e-01 4.388839351831134300e-02
6.449444653817192341e-01 -1.938712075383660638e-01 7.392297284749201891e-01
1.670892357306465736e-01 7.509263219194576289e-01 6.388981502175942184e-01
7.459880863350109026e-01 -5.955560785908798477e-02 6.632909652775040854e-01
7.213222947631264814e-01 -9.598597573954699425e-02 6.859160586682487848e-01
8.178002321239913330e-01 5.152766784785943743e-01 -2.563059206378442978e-01
8.502445424368149096e-01 2.480296985411801491e-01 4.642903043333800328e-01
5.401924356576244257e-01 8.375519556177249969e-01 8.184652771625326728e-02
5.287262624117488041e-01 8.442447511870578847e-01 8.774588041159110674e-02
8.311015479480501345e-01 2.187711830088346077e-01 5.112821006873504714e-01
7.108266077165065200e-01 5.819854423837111934e-01 3.949917449968791683e-01
4.809912351664628050e-01 8.661668732144651717e-01 1.356553701071838980e-01
4.783350986471713862e-01 8.691167039899055924e-01 1.258240368448084456e-01
1.363000402476227391e-01 8.085393265762518267e-01 5.724390416525741987e-01
1.273606876276912325e-01 7.985753610653560930e-01 5.882657970223476029e-01
3.016483882520476500e-01 6.676307106222988397e-01 6.806449030874367478e-01
4.409890105657311987e-01 5.072858040247613109e-01 7.403984100436796778e-01
6.689820590787983745e-01 1.319132681274224062e-01 7.314792507806586741e-01
6.465506038284744017e-01 7.145593930345051081e-01 2.671650997327207344e-01
7.172256033621856597e-01 6.965252084458048998e-01 2.097779495744458642e-02
7.504026016573724089e-02 7.647462689615969200e-01 6.399469536325455010e-01
5.675078455889542850e-01 4.241044495710984408e-01 7.057409305467404748e-01
4.796387751318735293e-01 8.567681266627772407e-01 1.894598177048402998e-01
2.018155443239491587e-01 7.784754131283081469e-01 5.943454527662663800e-01
2.707839913177537694e-01 7.197012311715847988e-01 6.393013122903249412e-01
5.194638391032693203e-01 8.199119113887024524e-01 2.406278816492747608e-01
5.252246862994355281e-01 8.233306833725482221e-01 2.150944320965848811e-01
4.875911836121797349e-01 8.645429590040892842e-01 1.217386943421327195e-01
4.970097305938618870e-01 8.567256376559734266e-01 1.378495900537339836e-01
6.193455938687377760e-01 7.839657241042001790e-01 4.252974000811544919e-02
5.431499304925790916e-01 5.731427562808275589e-01 6.135923189942343869e-01
5.798860124211691058e-01 6.233239066824159957e-01 5.245946244067379860e-01
4.941869021441792076e-01 8.201426490709080586e-01 2.883493383451623537e-01
1.503086966599032348e-01 7.970235353290647806e-01 5.849451083990361289e-01
3.072462964743385427e-01 7.166888445404022701e-01 6.260645441279565349e-01
6.290742081273472674e-01 4.977784662847206665e-01 5.970613361893251092e-01
3.005571243404811868e-02 7.195000727325677747e-01 6.938416962736611016e-01
1.292545571625615120e-01 7.879451721674853859e-01 6.020262993513340044e-01
6.270524903773403436e-01 6.217509809335437510e-01 4.692876431568933082e-01
6.052563171859178803e-01 6.851502348933304898e-01 4.052578760889832266e-01
4.628784083489860257e-01 8.735899983427235505e-01 1.502800515034175555e-01
1.121564468689909694e-01 7.551669645032672573e-01 6.458666945652518088e-01
2.436303553142216693e-01 7.745990629467131017e-01 5.836441909687272167e-01
3.586130805505602925e-01 6.882030145177597813e-01 6.306926900374741907e-01
5.713378636427365320e-01 8.168049199011727657e-01 8.001730058801273526e-02
4.560928036931422569e-01 6.905915350604225900e-01 5.613044504742660257e-01
9.973622077226954041e-02 7.081144349391697013e-01 6.990183354511135816e-01
1.515793736226852262e-01 7.873498848247636461e-01 5.975816700322941211e-01
2.063864633095439660e-01 8.201442133458265449e-01 5.336366714141127510e-01
5.070497879853040901e-01 7.758588173527407594e-01 3.754245703734167550e-01
5.871059210420500607e-01 8.023336293211895676e-01 1.075517770083511127e-01
4.672463006277651765e-01 7.157600339200669293e-01 5.190071949331847012e-01
5.014070903270801960e-01 8.108446258307029364e-01 3.018640795642943964e-01
4.620088781576258130e-01 8.629796480015984317e-01 2.044845315386211448e-01
9.639254698302497371e-01 2.394896282545229682e-01 -1.161568188744959984e-01
1.992564778931827096e-01 8.374633250216128033e-01 5.088732998117980744e-01
2.886633909267430353e-01 7.856533408774806215e-01 5.471949147303248884e-01
4.253305830508413710e-01 7.222200254422349586e-01 5.454283912410949897e-01
5.165031854628018282e-01 8.436525602242029853e-01 1.465428846240103278e-01
5.267786759447626865e-01 8.461503225670150563e-01 8.083228432760723725e-02
4.445683129914018150e-01 8.692097889985247461e-01 2.164101610209631654e-01
4.646658160854140185e-01 8.661677370493154893e-01 1.839541536811395150e-01
3.547628416728804135e-01 7.672714391072911200e-01 5.342638532583029454e-01
5.141977597604130423e-01 7.953287665149502139e-01 3.210184060317730070e-01
4.444382496878925837e-01 8.536524088084345152e-01 2.715735759419901640e-01
1.448268243980989911e-01 6.540327664039178313e-01 7.424731183044948057e-01
1.520935996386205968e-01 7.336827256191188473e-01 6.622516100977541287e-01
1.733677210451252670e-01 7.970047988949143791e-01 5.785559470250883907e-01
3.749144248896437714e-01 8.243619784744775636e-01 4.241067111651411481e-01
4.387038256658005175e-01 7.951331579186553533e-01 4.186910728980229868e-01
1.938707848211074225e-01 7.704663770856281513e-01 6.072855016986612453e-01
2.021981446555931317e-01 8.028641585745415199e-01 5.608253321438227967e-01
2.502009330871981518e-01 8.276526515673984230e-01 5.023848937177052276e-01
4.762034324842526201e-01 8.670209260973595899e-01 1.466458475357977076e-01
2.972955452467859749e-01 8.422370066139374112e-01 4.497245640015792301e-01
4.900655526575516396e-01 8.438840731506666026e-01 2.183928230988572972e-01
4.923055504182926589e-01 8.482067208210531950e-01 1.953985767126717732e-01
8.501355721231345086e-01 5.262598865283868443e-01 -1.788968535218966177e-02
3.677852850162893206e-01 8.125616965932271896e-01 4.521918545872128936e-01
3.908621781742375734e-01 8.002157215544080104e-01 4.548423426309919915e-01
4.166981432889323989e-01 8.278680405374782003e-01 3.754958919032173048e-01
4.430180761042611937e-01 8.523958261210891063e-01 2.777703005294576699e-01
4.787674735503912316e-01 8.397810802891014781e-01 2.560262554087865405e-01
2.473781456625904207e-01 8.203240820796857680e-01 5.156282123862688804e-01
3.818910280748915587e-01 8.392475382003884432e-01 3.870695186920432018e-01
2.843755773861122438e-01 7.722912107947106364e-01 5.680640956050251322e-01
6.020803263862778421e-01 7.865103085808212713e-01 1.374802352147192208e-01
8.248845977820447040e-01 5.614872656223873770e-01 6.555494554836263643e-02
2.542308261319012885e-01 7.916863361943717869e-01 5.555172653729343324e-01
4.206799042402202260e-01 8.526601013755519265e-01 3.098373277877805587e-01
2.053188452214345650e-01 6.342472672411169077e-01 7.453687515546326692e-01
3.205173282325762263e-01 8.446183180479036601e-01 4.288222698514867481e-01
-3.687672817982134412e-04 1.580377303150095336e-01 9.874330052249480350e-01
2.872717159110276253e-01 7.676276215194984820e-01 5.729073187853787053e-01
4.267988723286635366e-01 8.239207486317994267e-01 3.728234468927567602e-01
5.997235248097279037e-01 7.839913078334403984e-01 1.602788914093412898e-01
8.164724958495490625e-01 5.696929147238843916e-01 9.392894354038644478e-02
2.145113416732860601e-01 5.543238354416092362e-01 8.041827962315724054e-01
2.417723312111416389e-01 6.829029388775612608e-01 6.893400582681380451e-01
2.099328833619366896e-01 7.240054139835382374e-01 6.570725568807974648e-01
4.360277190307699224e-01 8.467345021942248584e-01 3.048286584800095067e-01
4.776637496045399445e-01 8.387683953722863128e-01 2.613521020354176994e-01
5.579409726211923548e-01 8.035070761988736265e-01 2.075530042395318242e-01
6.832202580793402813e-01 7.017130642732126722e-01 2.020120154305128368e-01
2.214245741903630438e-01 6.199350267174259521e-01 7.527627252949503633e-01
3.170099101330991487e-01 8.240703793199894989e-01 4.694813380793881330e-01
5.235201065490653338e-01 8.193625081990301151e-01 2.336060320211139907e-01
3.037883917243880960e-01 8.406734805784958908e-01 4.483087241015360491e-01
7.818413701912526603e-01 5.964285452039826962e-01 1.816509353769624191e-01
3.495223934232976060e-01 8.041158777586050466e-01 4.808656274180528878e-01
4.256404413948190468e-01 8.403566015357986085e-01 3.356054184670244633e-01
3.045025352211815917e-01 7.263522279201668486e-01 6.161904308241754613e-01
4.388278213133878780e-01 8.062260578000245426e-01 3.967741006738929599e-01
4.602307293835554147e-01 8.124151912851883539e-01 3.580073081658125544e-01
4.913933479120757286e-01 8.117803581109321875e-01 3.155078886700748431e-01
1.468126317739568143e-01 1.101641622616478383e-01 9.830106349906870822e-01
3.311670492417376210e-01 7.952858969759512009e-01 5.077880734791605510e-01
3.498689388911906395e-01 8.215750721217338626e-01 4.501179028513754843e-01
2.562262533705292333e-01 3.127723895132639709e-01 9.146155145425122202e-01
4.017591731577462855e-01 8.002283490243695674e-01 4.452237147786896054e-01
4.753193837091460594e-01 8.008957100152360731e-01 3.641943782508845762e-01
5.811873422890764251e-01 7.703638542313580029e-01 2.622228160491890114e-01
2.900776531909258771e-01 4.568441625963840513e-01 8.409211414995186873e-01
2.859937027176585600e-01 5.709983049729806526e-01 7.695248779109267190e-01
3.702138328967973790e-01 7.853231867480560124e-01 4.961947302095620627e-01
3.502608166451143812e-01 6.679790918683955470e-01 6.565982737943888425e-01
5.689088382179923187e-01 7.648609772050020128e-01 3.022092310742073296e-01
7.234689289615982011e-01 6.164546363704606069e-01 3.107674212727604690e-01
8.285209046442759684e-01 4.775292804560734572e-01 2.924361415327030311e-01
3.394214562762176701e-01 7.699957867115710952e-01 5.402773023788436380e-01
3.981017299982220758e-01 8.104642840252564984e-01 4.297239310206621976e-01
4.513449626466335407e-01 8.090216506755715242e-01 3.765258204050320745e-01
3.833106764850638948e-01 7.149809590740532350e-01 5.847009094007888930e-01
4.043972688245358049e-01 7.812019658907859432e-01 4.755905144718798883e-01
9.940763927514819631e-01 7.463415519861023306e-02 7.900549507465376431e-02
3.920019202949703852e-01 7.372841309527089493e-01 5.502241404467496100e-01
3.709199280244968588e-01 1.013511075559094671e-01 9.231177389648042020e-01
4.130881762858305550e-01 5.035128684898840801e-01 7.588365765287906628e-01
4.012668098173668429e-01 6.769919137118833863e-01 6.169820873475297951e-01
4.100069905630053246e-01 7.521746732046943329e-01 5.158754972654534532e-01
4.687065421237293084e-01 7.593210860126676787e-01 4.513819510203743723e-01
5.927097049566839582e-01 7.254225679401626881e-01 3.499389997889070791e-01
9.854295527642076280e-01 9.197552453279422835e-02 1.430702604521678079e-01
5.073048601685773429e-01 7.665405407453895759e-01 3.937732573996180485e-01
4.562920267400336627e-01 6.978002985642810518e-01 5.521524514634273961e-01
4.291220177290162030e-01 5.223699178867882154e-01 7.368744552412764826e-01
5.980865206866677886e-01 7.162151160153799045e-01 3.596226096395939709e-01
3.880318117061399286e-01 2.802942946721680498e-02 9.212196612034466714e-01
5.501952264695137984e-01 6.661899486552317340e-01 5.034641646442178375e-01
9.571950817111049004e-01 1.276291987184028920e-01 2.597852251044494021e-01
4.642407297551990886e-01 1.190243296821850150e-01 8.776751983393780154e-01
9.547781705941043029e-01 8.178962214482771165e-02 2.858480412148764471e-01
5.765552490249382656e-01 5.985342502712692747e-01 5.561841386393548969e-01
8.768284618480854942e-01 3.516815209456080615e-01 3.278596594863485425e-01
6.704576014012415541e-01 6.277114285386431458e-01 3.955565284574000251e-01
5.093166703396397876e-01 7.049034495445907766e-02 8.576873792835849608e-01
5.037151647230169171e-01 6.084189513814509676e-01 6.132678146030161592e-01
6.160052946559329001e-01 6.360082346404996034e-01 4.647913536473463614e-01
9.370325593919254237e-01 1.384635759041272229e-01 3.206209924307200088e-01
5.750969292176073555e-01 3.754241327380122284e-01 7.268564112411678435e-01
6.483361060909521578e-01 4.929340700638498718e-01 5.802381374135184844e-01
9.214448463915939636e-01 1.587324438399536630e-01 3.546031674012060653e-01
5.512197893055587050e-01 -4.794991010145660537e-03 8.343463021666411850e-01
7.504119927229022657e-01 4.983272804295660885e-01 4.342254745605277910e-01
5.737422547780242077e-01 2.822786670558134481e-01 7.688553694989858078e-01
8.389629986185631605e-01 3.493687273212289224e-01 4.172320449329048886e-01
5.868878652210535174e-01 4.299361551724015934e-02 8.085259319780844223e-01
5.180566261319045074e-01 -3.630801368048005018e-01 -7.744611974648152319e-01
8.665117723570042729e-02 -4.806131735265096738e-01 -8.726411352419987111e-01
6.447364223373187875e-02 -4.422443087877316881e-01 -8.945742679073538373e-01
-2.307613110695873326e-01 -3.249340874424159753e-01 -9.171515993179151227e-01
-4.298347391910589677e-01 3.811298607159359086e-01 -8.185243589870770942e-01
4.821802098055474328e-01 -2.430396582824573271e-01 -8.416851963613383170e-01
3.756985465995135165e-01 -1.628624513438421406e-01 -9.123192555379328050e-01
-1.947591305044990562e-01 -2.432634249763831191e-01 -9.502061813911184540e-01
1.497711836537488628e-01 -3.968719512875795163e-01 -9.055723310857858310e-01
-3.782163071459502812e-01 -2.347295872575837564e-02 -9.254196049455292172e-01
6.219719497150293375e-01 -2.038981066269362485e-01 -7.560267560620032024e-01
2.066203680316941460e-01 5.421603746005086988e-01 -8.144753843594557674e-01
3.584739690455766015e-01 -2.859709048510561957e-01 -8.886602585326853765e-01
2.587971926619467844e-01 -2.874007441806015750e-01 -9.221848108241272879e-01
-3.698890318349271622e-01 -9.413902477574211114e-02 -9.242942973655590144e-01
3.703297101692856752e-01 -3.878687008244205980e-01 -8.440460749785577699e-01
2.315099767777625828e-01 -1.430874934192474524e-01 -9.622520978825438442e-01
-2.250972413516033332e-01 1.821257139181382545e-01 -9.571632338664637363e-01
4.261667852713649229e-01 -3.466204075973941534e-01 -8.356052681550580896e-01
1.595326623990314108e-01 -1.861355948291962825e-01 -9.694858791985874191e-01
4.292413720198660076e-01 -2.479911484060264570e-01 -8.684769627680188897e-01
3.032457672335699475e-02 -2.921240264592037117e-01 -9.558995623033894606e-01
-3.596281096645784908e-02 -1.767347317869430098e-02 -9.991968397534056745e-01
-6.382579805497286263e-02 3.503012094640688412e-01 -9.344599136135568473e-01
5.948909118148535402e-01 4.607160009557023476e-03 -8.037932427662840551e-01
-1.854508909516426329e-01 -2.254474542909164214e-01 -9.564420590913947917e-01
5.520019807602382089e-01 -4.499239518447627484e-01 -7.020414879429600630e-01
7.533377854033326826e-02 1.581654702411173508e-01 -9.845346646178804173e-01
