-6.557268056611221807e-01 3.832705980144122115e-01 6.504813640951871978e-01
-3.494920774977552935e-01 -4.865211868994760436e-01 8.007199400940557821e-01
-3.287713598421965755e-01 -3.104017686425005751e-01 8.919417777922057367e-01
-4.483656272269427312e-01 1.129125652522200707e-01 8.866899215224866015e-01
-2.544336227139393225e-01 2.670536694007206169e-01 9.294868849490407481e-01
-5.902605504446318818e-01 4.255583091207820745e-01 6.859246373524290341e-01
1.392704343574403814e-01 5.361855705814071449e-01 8.325315489602665986e-01
-6.955478876998022475e-01 -5.574703175347525130e-01 4.532548741977803219e-01
4.463835080033493052e-01 -8.948095282231771641e-01 7.594207242301107517e-03
5.209005255693919256e-01 -7.419030149868941493e-01 4.221878240959676676e-01
5.901188331008462296e-01 -8.065293635650719883e-01 3.563914318576685836e-02
2.493906942380371417e-01 -8.426124162934923723e-01 -4.772929891958524462e-01
7.079121786512718728e-01 -6.634716144090684331e-01 -2.422101653329897242e-01
7.323736677619793189e-01 -3.176992972491097245e-01 -6.022424489325606256e-01
6.814827256125763899e-01 -3.923136894326101354e-01 -6.177954870144548583e-01
6.124774115353915915e-01 -3.496906306193196534e-01 -7.089343292689169740e-01
6.782100339097467678e-01 -4.380041995518293985e-01 -5.900707339625490544e-01
8.969429527315723183e-01 -3.677952904240261445e-01 2.453975629199991459e-01
3.537064315183248153e-01 -2.876304544801970842e-01 -8.900339779795419792e-01
3.837935540503259468e-01 -8.070449775935670811e-01 -4.487548462249942860e-01
9.869176837022552995e-01 -4.047015343193919451e-02 1.560629753560096589e-01
8.699790339382358351e-01 3.411208934004907878e-01 3.560519858019963180e-01
7.889105184923100866e-01 4.268100065203527249e-01 4.421011333917738151e-01
1.654070912461182707e-01 4.255946808556167194e-02 9.853066455889619712e-01
7.814706154738577659e-01 -5.938696341913379806e-01 1.913701511112858855e-01
7.409925348082438967e-01 7.821095656079946057e-02 -6.669431082425982815e-01
9.150592604883991399e-01 -6.976547414340196485e-02 3.972396360032197649e-01
9.170730067108759931e-01 3.985057561537618254e-01 -1.304847403308913648e-02
4.149251050543864561e-01 2.423945939899090907e-01 -8.769732139581422059e-01
9.178746421961293533e-01 -3.799943338704346307e-01 -1.145008621788160125e-01
9.895457220015770883e-01 -1.104544960365335116e-01 9.273116182650269212e-02
9.552379073817329758e-01 -2.772744830450698528e-01 -1.031474738084117437e-01
9.118892335974267960e-01 -2.518722963197587150e-01 3.240653822852868626e-01
5.544605637222629335e-01 -5.983479074578913481e-01 5.784057960615132110e-01
7.342731263230163341e-01 -7.982961885917352896e-02 6.741440557570931302e-01
4.054334988749486723e-01 -5.943709326416736216e-01 6.945119670824140279e-01
-5.997100243196967773e-02 9.714654663313696537e-01 2.294740216078484663e-01
-1.513867336728197677e-01 -6.661564680876794764e-01 7.302859829497093669e-01
1.466707720703780971e-01 -7.436940790345494268e-01 6.522321683489956667e-01
7.577929796899205428e-01 2.721613269152513559e-01 5.930244616071088659e-01
3.609664912802308945e-01 1.952842701361096056e-01 9.119030902515057324e-01
3.058677431553553649e-01 -4.452182267785366188e-01 8.415614381857245974e-01
-1.448418544296436183e-01 9.616300417133626377e-01 2.329989272072694739e-01
-4.907786839365865794e-01 6.168419629157210204e-01 6.153391554092363380e-01
-2.535935150189957965e-01 -7.980833372704027040e-02 9.640129454566592759e-01
-3.360610044224695558e-01 -8.473786372387253074e-01 4.111112336801342471e-01
2.126675056760538862e-01 2.666252126521856392e-01 9.400444287413771693e-01
-9.875259344699061081e-02 5.817964994303081311e-02 9.934098115178848776e-01
-4.749210058671542445e-01 -8.115597658776275702e-01 3.403245283472537408e-01
1.345995607103514513e-01 -5.864573602505400718e-01 7.987181748680498572e-01
2.835074130500185863e-01 4.650868848525577942e-02 9.578415780498712451e-01
2.142151771963763662e-01 -4.160041620759707404e-01 8.837716871422135467e-01
-2.976952105578676844e-01 -7.498087261109861457e-01 5.909013757461787364e-01
4.856626985012733877e-02 -4.566791765417313465e-01 8.883048165725607737e-01
3.669711657589843634e-01 -2.169865481204548974e-01 9.045711699121643523e-01
3.967701738031381153e-01 -6.911801642621735742e-02 9.153120391350332286e-01
2.783461199294762212e-01 4.872557792166991031e-01 8.277108451265652311e-01
4.725207852217372384e-01 2.279566791148017191e-01 8.513282915423311392e-01
1.002634145186385578e-01 -4.791015689307004943e-01 8.720142971059620107e-01
4.700689059030700445e-01 -5.662356728913598980e-01 6.770615824637812308e-01
2.988046754307980835e-01 4.059426980232876125e-02 9.534505079970910790e-01
2.870653501707241539e-01 -2.134534428480488188e-01 9.338260611418350843e-01
9.317028045133517455e-01 3.872975859253239162e-03 3.632008867279220010e-01
5.631371764653800849e-01 -7.036716031273764216e-01 4.332698875236394853e-01
9.912793100415585590e-01 -1.037455111863422458e-01 8.125391308863930129e-02
9.864356273552531418e-01 -1.816034124534047361e-02 1.631409056309946204e-01
9.765236078573960032e-01 8.692945176442913591e-02 1.970911304780370576e-01
6.409657508768680234e-01 -7.109807364457800816e-01 2.892564581921532874e-01
5.322545232757200928e-01 -6.230672651686093300e-01 5.731424827456483850e-01
5.001899032568369874e-01 -3.125558580462408642e-01 8.075387893351589907e-01
6.709431746337802815e-01 8.968823074893779446e-02 7.360647238371569312e-01
5.213772127568095938e-01 -2.649331378736035636e-01 8.111573426126319486e-01
-8.230648920988650058e-03 5.843248189344856236e-01 8.114781342682746423e-01
1.279102691058280616e-01 2.720334289051730137e-01 9.537488016324681128e-01
5.782813331860672257e-01 -6.894719944627852870e-01 4.361411108116891033e-01
9.819673137635899496e-02 4.795479833512228396e-01 8.720040903635570828e-01
1.470107694475639992e-01 4.027070240030924952e-01 9.034461170900053295e-01
2.610102973599422865e-02 6.397653492880256421e-01 7.681269648287915031e-01
7.753633796942217549e-01 -1.977819843834373037e-01 5.997448758284673609e-01
5.006144928111208037e-01 3.932030947221922812e-01 7.712175152888808283e-01
5.546239240486556810e-01 4.364452436964880166e-01 -7.084545519139420211e-01
5.402998679658055359e-01 3.526604570441067565e-01 -7.640069729482676930e-01
6.657597069485750030e-01 4.391143586702005441e-01 -6.032765473755846708e-01
1.933120879264037806e-01 8.643541352573393954e-01 -4.642438642837095064e-01
8.479348790560334859e-01 4.255385148472060064e-01 -3.161066485568817530e-01
1.235653842106706479e-01 9.886634670084952781e-01 8.530032138046844681e-02
5.847224611002891370e-01 5.695942016662653984e-01 5.776349097076721728e-01
6.966435107947954730e-01 4.787153228775062330e-01 5.343402085841816307e-01
3.746833455030888493e-01 5.362708008992025377e-01 7.563240170096020565e-01
6.113589419423044458e-01 5.401242320953224541e-01 5.783649868470812638e-01
6.849497172176093329e-01 5.744996303646932034e-01 4.481005016671461560e-01
-8.433087881920396656e-02 9.890170575428585131e-01 1.213818881334724070e-01
-1.527750621362257977e-01 9.796180018193083594e-01 1.304160684149692773e-01
-1.939628111387297904e-01 9.725220184294615100e-01 1.287608308650094180e-01
-5.812200917667604827e-01 8.063520769052580084e-01 1.094510529744486815e-01
-5.836876314920363962e-01 7.945590410586379493e-01 -1.672862191431039591e-01
-5.613166463474636991e-01 8.275019971955456244e-01 -1.280887077847219814e-02
-6.602132746718041290e-01 3.517139915883372159e-01 -6.636382298120957479e-01
-3.547797405509929836e-01 5.472938864218498400e-01 -7.580242328447274192e-01
-6.680964319491941028e-01 2.803748231503594979e-01 -6.892293639712113729e-01
-5.486457647653213143e-02 9.502549057138739430e-01 -3.066031513451342727e-01
4.323565355449378311e-02 7.720418504674774196e-01 -6.340994081281490224e-01
-6.036711573029569511e-01 5.874279408850073825e-01 -5.389893766189728375e-01
-5.212663794942329343e-01 5.090873623688191296e-01 -6.849170892052064419e-01
-6.309239643375379458e-01 6.022600556537446304e-01 -4.890989435569795818e-01
1.945665394305336471e-01 8.866087707096123038e-01 -4.196054687856398679e-01
-6.231295619107289907e-01 6.365902730312691382e-01 4.543813083247563722e-01
-8.778136931845300639e-01 4.668289299802705905e-01 -1.073027035596563622e-01
-7.725518014656737043e-01 6.165807405739949232e-01 1.516308161468714333e-01
6.966087303673339504e-01 2.455173671133268343e-01 -6.741346298935777526e-01
-5.499008326348269193e-01 8.048376112754725142e-02 -8.313431532539905522e-01
-5.370980596688902375e-01 -3.980454849861128075e-01 -7.436971602622154398e-01
-7.244895336103008843e-01 -1.837105361782642443e-01 -6.643533356476982732e-01
-5.510916536940629884e-01 9.901946779593251424e-02 -8.285488122169708536e-01
-7.829951932517335011e-01 2.253451157190748400e-01 -5.797741854948676998e-01
3.190867382636714544e-01 -7.764330977691772384e-01 -5.434476038707048984e-01
4.581352203960315506e-01 -5.926325342491254311e-01 -6.624943767173717690e-01
7.739784558771142242e-01 8.871902809293912007e-02 -6.269659351929116609e-01
3.110226288896817959e-01 4.214678138144205555e-01 -8.518390729692106866e-01
2.683976548898416858e-01 -5.469515973881151627e-01 -7.929732965013531754e-01
4.982340501222293772e-01 5.794724140659391898e-01 -6.449608923302192487e-01
5.831453106210847670e-01 5.132421594815373966e-01 -6.297015423447578364e-01
3.385018117074473087e-01 -2.397736505060519274e-01 -9.099039070109423699e-01
5.435600039253835059e-01 3.335129633802843552e-01 -7.702672428384437220e-01
7.477204443237797094e-01 4.311763702790021857e-01 -5.049763111803108329e-01
-3.402347515655428922e-01 -5.675626911952791342e-01 -7.497418925138874535e-01
-4.490368465867793923e-01 -4.868296117652957666e-01 -7.492415094719809820e-01
6.986337626760074082e-01 1.628973414331055525e-01 -6.966888270980023945e-01
-2.571604633696077287e-03 -1.207706023438121223e-01 -9.926771118843834563e-01
2.790511631390179548e-01 2.926412380927180257e-01 -9.145991220848194159e-01
1.012925717259583053e-01 3.342850860697628435e-02 -9.942949007841963560e-01
2.620687096141585126e-01 9.175248117296123107e-01 -2.991123723648178023e-01
5.880849839228620146e-01 4.201962016542877265e-01 -6.910797376567746619e-01
6.678455917064382019e-01 3.987957665576823407e-01 -6.284458625959343792e-01
7.181441610620312721e-01 4.143567504019752823e-01 -5.590862610803690735e-01
2.591927755072831463e-01 -7.239713973925521184e-02 -9.631083839747247577e-01
2.862237982045060525e-01 8.174930830458827513e-01 -4.997809485299772314e-01
4.706604577552758739e-01 -8.385430522250932051e-02 -8.783206641092102807e-01
8.301767044620083080e-01 -1.926015649449651923e-01 -5.231742315417968747e-01
9.805892156939588489e-01 1.530236405125715016e-01 -1.225910090870689084e-01
6.043810459495855270e-01 -3.529860931858879725e-01 -7.142299134832204022e-01
7.521011513209978627e-01 -3.316675008342596653e-01 -5.695090228187660308e-01
7.091736107766491992e-01 -3.342368096357382079e-01 -6.207725387471105805e-01
5.733333531738945554e-01 -3.860432860373614883e-01 -7.226752019018324313e-01
9.944039704301199656e-01 -1.034355106493196896e-01 -2.149043344205868455e-02
3.932920355867254858e-01 -1.194659979931391586e-01 -9.116190268240089711e-01
2.254605132629659003e-01 9.088317888510787368e-01 -3.509876586618797534e-01
-1.423855945951494339e-01 7.701289466306909803e-01 -6.217939755363411924e-01
5.603269333133201746e-01 -1.331592871449857433e-02 -8.281644847771245654e-01
7.229950249979248955e-01 3.738793091447955574e-01 -5.809410090720574793e-01
-6.243067315056852890e-02 4.386121300064437477e-03 -9.980396650383730472e-01
7.161271113405042188e-01 -6.930777091512081434e-01 -8.249393602452496921e-02
5.618715520461294854e-01 2.551901319944491209e-01 -7.868788696705035779e-01
4.121288276858197652e-01 -2.599034422524547083e-01 -8.732697350164133621e-01
3.710037255536956513e-01 1.618301803155311747e-01 -9.144218000268370394e-01
-6.293404070405016482e-01 -1.794595853873292290e-01 -7.561249296767721395e-01
-8.057321056775533785e-01 -1.301851957919323011e-01 -5.777954557428018889e-01
-6.900131039968434576e-01 2.394966382351187972e-01 -6.830250922087107712e-01
4.359042419278566505e-02 -5.360105916872961451e-01 -8.430851205647788005e-01
6.130722560344659122e-01 3.585028870544351709e-01 -7.040014835598326082e-01
2.296024040081438289e-01 9.031367859357612993e-01 -3.628039166868294862e-01
-2.801889985339924283e-01 -3.326294270048316126e-01 -9.004730919860713945e-01
7.800016118083223926e-01 3.819653085351184529e-01 -4.956813378089707789e-01
-5.076083954090773176e-01 -2.475904183818232462e-01 -8.252470549088530838e-01
-5.772418997896642257e-01 -5.014675471920899685e-01 -6.444548768070333944e-01
6.219700974660996584e-01 5.080973799438571747e-01 -5.958105826117878756e-01
-3.696334173975188708e-01 1.294287854802079196e-01 -9.201191913182495963e-01
-6.264563122107849047e-01 2.336896988693212551e-01 -7.436004394388355809e-01
-7.300973642006265418e-01 -3.168995114691565140e-01 -6.054193079328636928e-01
-7.551490787361833101e-01 -4.433959311827605498e-01 4.828560003711939719e-01
-7.293990720917515880e-01 -3.303825505338015001e-01 -5.990195021320022795e-01
-6.145203252980000475e-01 -6.168508209019237798e-01 -4.917924710162437374e-01
-9.344014929222262955e-01 -2.405122800184901211e-01 2.627692774755487903e-01
-8.458424322851361143e-01 3.369932911920073271e-02 -5.323672932880839648e-01
-7.143141763119869037e-01 3.541144419051941994e-01 -6.036209237210888867e-01
-6.544148680427371856e-01 -7.544390973779229181e-01 5.062438969698078439e-02
-3.422108858176833857e-01 -7.358861939607170832e-01 -5.842629709008489991e-01
-3.973311202379785634e-01 -7.033030666909717565e-01 -5.894851798590931002e-01
-2.178799200631345301e-01 -7.446374945851499394e-01 -6.309067618049697401e-01
-2.810747813653675653e-01 -7.839791623314782409e-01 5.535102892543594111e-01
-3.297926968894753230e-01 -6.976998189897835045e-01 -6.359652031833108454e-01
-3.034537917682774144e-01 -7.134279016978166688e-01 -6.316141427647938844e-01
2.713760136349737118e-01 7.805226513157468293e-01 5.631513562148522389e-01
-3.724790405263594950e-01 -2.729866128465178732e-01 8.869823411856339046e-01
-5.897662361994696623e-01 -4.481166917418601403e-01 6.718386839275050093e-01
-6.557003541843309247e-01 -3.436213903623046573e-01 6.722956087972161709e-01
-6.511245626060165881e-01 1.148127495468125314e-01 7.502365203804893801e-01
-6.704147840240316514e-01 1.323272958881262784e-01 7.300914354551401031e-01
-6.032269177737719090e-01 2.943886810069537563e-01 7.412506931990965331e-01
-7.004926626091514397e-01 1.110718003435403195e-01 7.049631797471314076e-01
-7.120342442380068748e-01 9.051992452696264180e-02 6.962854143927211803e-01
-7.327112916199403081e-01 -1.805403356573247187e-02 6.803000918746417991e-01
-9.002572952933861339e-02 9.958982258932312925e-01 -9.060446204513355681e-03
-8.623298587484621303e-01 -2.583687010296317199e-01 4.354685167025488801e-01
-7.984509669662803732e-01 -3.477155730090316643e-01 4.914976435727974047e-01
-8.503273018602023336e-01 -1.952677109937822272e-02 5.258917996333283273e-01
-9.162575376567522190e-01 -1.501164371499749683e-02 4.003083502003912941e-01
-9.182229634835417098e-01 -3.378134173451392552e-01 2.067575497850109301e-01
-9.090197071008349061e-01 -2.637023353263376335e-01 3.227138832553508863e-01
-9.082219990466705584e-01 -2.101450460985809787e-01 3.619003454652879870e-01
-9.554718005876386977e-01 -2.249527258809652097e-01 1.909709648102003166e-01
-9.547494004761645225e-01 -2.970186825044224266e-01 1.528020071012245809e-02
-9.970287136910745973e-01 -7.546575806618298354e-02 -1.544873570934860579e-02
-8.784015925393517943e-01 2.044291384705649306e-01 4.319946406710541975e-01
-5.212787643250729186e-01 2.484049387537598241e-01 8.164333630287691213e-01
-8.271084242231258044e-01 2.094161769170316545e-01 5.215712026412042679e-01
-7.956722618830087690e-01 4.191762108188364366e-01 4.372607413815458588e-01
-7.901884726781158719e-01 4.116962147631442748e-01 4.539916347206471303e-01
-8.937386751441962485e-01 -3.372023695283310474e-01 -2.958474987826933411e-01
-9.415931968776929395e-01 -3.367510883596000482e-01 -9.777945956474191208e-04
-9.765764032826934615e-01 -1.803660030056475627e-01 1.173312980888084611e-01
-9.968796084981857986e-01 -7.885702751635019492e-02 -3.551812465384658873e-03
-9.968796084981857986e-01 -7.885702751635019492e-02 -3.551812465384658873e-03
-8.685932640616401690e-01 -2.082938962307733233e-01 -4.496213900825334342e-01
-9.142805284983269720e-01 5.054455404210992514e-02 -4.019158659041770498e-01
-9.336641066381304865e-01 -7.030684199436540438e-02 -3.511812693530235174e-01
-7.267857416458952668e-01 -3.069393492229125497e-01 -6.144678361304526382e-01
-7.839560862886173487e-01 1.039416625378276060e-01 -6.120530904749249546e-01
-8.162524934771823171e-01 1.416412798973462443e-02 -5.775216397422460179e-01
-7.613773478993260957e-01 8.630862351807609689e-02 -6.425382133478161339e-01
-4.212878206370915257e-01 -1.962952632032694544e-01 -8.854291286301853026e-01
-8.368339641316869804e-01 2.968242560422859611e-01 -4.600046494336658132e-01
-6.979574010070855872e-01 3.526464615901936939e-01 -6.232944244154204894e-01
-8.324553807422129248e-01 1.538876525144385610e-01 5.322937436011555556e-01
-8.021044965935527626e-01 1.448865787056176080e-01 5.793412257516153963e-01
-8.425481457798662532e-01 1.332369153332209344e-01 5.218817360622973744e-01
-8.760712607292260312e-01 1.056458352731726863e-01 4.704658368189321704e-01
4.741416712689104362e-01 6.066386314665124235e-01 6.381059836569169530e-01
-3.919578749570964415e-01 5.030356991791032906e-01 7.702753466199654397e-01
-3.465386609019612818e-01 1.581236613337507479e-01 9.246122777827929795e-01
-3.661414493578306062e-01 1.641204906693718990e-01 9.159721085298349053e-01
-7.255727016162519805e-01 -2.956874369656728452e-02 6.875099592482278865e-01
2.514438519822462803e-01 8.809226719018664609e-01 4.009379446118894186e-01
-2.915655111549029233e-01 -3.506029614133299166e-02 9.559081171009388145e-01
5.921918727345021338e-02 9.353900104450163511e-01 3.486238893397066718e-01
2.142599590442631485e-01 8.599628086587635112e-01 4.632025881556379732e-01
-2.663143362579962203e-01 2.342703910702968462e-01 9.349834534210929027e-01
-5.270710777666720581e-01 -7.278561068705663439e-01 4.386588271915902726e-01
-1.956050534656846862e-01 2.182331927431525320e-01 9.560925356072060843e-01
6.886822030980583875e-01 4.028747448693617006e-01 6.028339432069592663e-01
1.666295422739459686e-01 -3.044674577779399316e-01 9.378348270328915603e-01
6.397997124620200537e-01 4.429819723849660051e-01 6.280312890895177746e-01
-7.157093514843922977e-01 7.590445637452547523e-02 6.942612171944203547e-01
-3.593670802183418500e-01 -4.536686356912906781e-01 8.154998900339269774e-01
-5.755994391131451504e-01 1.008744049062390985e-01 8.114860689669570748e-01
-6.051804429404216146e-01 -3.063238540549916844e-01 7.347940717774817942e-01
-5.643967959237319310e-01 -2.343962388047159118e-01 7.915267904406192434e-01
-6.443926344825041674e-01 -5.576171794898158174e-01 5.232792884899232222e-01
-6.139547341031212913e-01 -5.902629799304039970e-01 5.240698417158202727e-01
-4.504223092022470731e-01 3.291668820025566156e-01 8.299210246557380266e-01
7.324109639739414535e-01 -4.024189606680776965e-01 5.492113982298493235e-01
6.892255090633956360e-01 -6.911039750778579238e-01 2.175855999092925486e-01
2.294774031718383733e-01 -9.161705006273997975e-01 3.285905281861440930e-01
3.996485163458632361e-01 -8.828993599412318094e-01 -2.465152806580424294e-01
5.399253016344738310e-01 -8.271763314767142106e-01 -1.557561725892341598e-01
4.274810439327799139e-01 -8.486681138218633569e-01 -3.114841724071731321e-01
4.051918355216539425e-01 -8.612046209357511195e-01 -3.068324906288480980e-01
4.805531545106749292e-01 -8.498551334155868275e-01 2.163675527823301359e-01
6.000848515076260270e-01 -7.995538516236359028e-01 2.473478006530847526e-02
6.810186676262778294e-01 -5.422696589019343483e-01 -4.920946975724377337e-01
5.084278400254983454e-01 -5.190598824709780068e-01 -6.870793039353032539e-01
6.951796162652241762e-01 -3.768994039635066851e-01 -6.121046809339796280e-01
6.853041184732353575e-01 -4.198161259234639564e-01 -5.950736808314043280e-01
2.976525470443163179e-01 -9.310129905500655889e-01 -2.112291946324050540e-01
4.434563302714424893e-01 -8.894654852817475144e-01 -1.104428976199488682e-01
9.192913035997963833e-01 -1.674317479814703691e-01 3.561883053858679871e-01
9.326182681407270136e-01 -1.536445027264024821e-01 3.265218717209421029e-01
8.778261924081397494e-01 3.436378671279216590e-01 3.336677871746091539e-01
8.229519357210668407e-01 -2.408277265413807586e-02 5.676003273027934171e-01
8.172603184051492331e-01 -5.095595347494399352e-01 -2.691368657509565221e-01
9.904623761109928592e-01 -1.305421595767820298e-01 -4.407976952748655225e-02
8.446135513811516837e-01 -5.052633688161813907e-01 -1.770222498892217167e-01
3.886453488285427360e-01 8.973111140922100937e-01 2.092547666375533799e-01
6.043312182467128757e-01 5.964792168713800580e-01 -5.282010246988819713e-01
2.821802391375268781e-01 7.636471288192558937e-01 5.807042063618921279e-01
9.453560255017993130e-01 -6.902064647429757838e-02 -3.186504909892838300e-01
8.071771942911158959e-01 1.107826837589075825e-01 -5.798208119716783404e-01
4.904939564489935178e-01 3.782181422303830809e-01 7.850902595083004698e-01
9.409534341345701103e-01 -3.352747038225387666e-01 -4.687758277757277103e-02
4.381635218587872499e-02 6.460737477286994102e-01 7.620162988919043645e-01
3.598420352061326710e-01 -9.222331101953454846e-01 1.414206496878313291e-01
4.271209533566260319e-01 -4.320918617416987795e-01 7.942696734864800323e-01
8.061617396247942047e-01 7.296598733385097069e-02 5.871790308394210234e-01
4.914298594913769636e-01 -5.284052408496123787e-01 6.923038311629864383e-01
9.088827845333491418e-01 2.096947778610744051e-01 3.604999086223187321e-01
5.308519527936563787e-01 -4.394751406064988375e-01 7.246087254539924638e-01
3.508691713738019136e-01 -5.963376214731848091e-01 7.219918737736361614e-01
-5.512784356329298863e-01 2.517621026071390489e-01 7.954293998193315840e-01
-4.609736515106590549e-01 -2.326593800161025627e-01 8.563719434354749582e-01
-2.720742834224891826e-01 6.296531197560460980e-01 7.276761182570287145e-01
5.744159132563116943e-01 -9.221634833328581915e-02 8.133526318258222920e-01
6.312642955417395729e-01 6.133668557753167994e-01 4.746435393118640378e-01
5.491565966922324904e-01 2.595794203206668871e-01 7.943837591840553491e-01
-3.435154117943507446e-01 -5.968229938977995808e-01 7.251203181642510431e-01
9.997057547860029036e-02 -1.571774694813255213e-01 9.824973929359427371e-01
4.618167241561083047e-02 -5.434825113003799446e-02 9.974535180809196433e-01
-1.472424407895768228e-01 2.737364310264812084e-01 9.504672692729677630e-01
3.179487784340988554e-01 1.062838800335011574e-01 9.421317907476047804e-01
-2.533670949482259571e-01 -6.204833780575699231e-01 7.421627131241256281e-01
-3.129958095588966649e-01 -6.821595819561323548e-01 6.608267003867244194e-01
-4.065459810217544323e-01 -6.124386742526434224e-01 6.779669870979881940e-01
-4.664016708895130092e-01 -6.688826808512853273e-01 5.788483744890952076e-01
2.061919350766158732e-01 -4.705941202387310396e-01 8.579196115639828868e-01
2.101769068159173304e-01 -5.127988005774757330e-01 8.323839606621425968e-01
6.895101916250620522e-02 1.149363495287593351e-01 9.909769888919995884e-01
5.110535950435676211e-01 -1.420748271120656492e-01 8.477257613722271046e-01
1.536098928668154784e-01 -4.282458806216510316e-01 8.905107896842305859e-01
7.254198365836849183e-01 3.136370746782887187e-01 6.126971895464720097e-01
6.800576558225963630e-01 3.114919667470532616e-01 6.636974758194635893e-01
7.217056344700796267e-01 -4.143241871342262517e-01 5.545055862024318438e-01
-2.106327907037217340e-01 -2.698965779581328772e-01 9.395688717102389509e-01
-4.473944850653404637e-01 5.492910003846210865e-01 7.057744481274318415e-01
3.811480028301970080e-01 -1.613080183803319023e-01 9.103328639265763078e-01
4.852287299179812718e-01 1.137387170800341768e-01 8.669582365368995180e-01
4.893154649119939303e-02 3.900979696748153036e-01 9.194722822432258580e-01
7.367157554170238321e-01 -6.626872228173531498e-01 1.345196656067343677e-01
9.957433338422598812e-01 -8.624184231607943951e-02 3.252011289387447129e-02
9.858760190431583581e-01 5.243821589408019512e-02 1.590556776398122651e-01
-2.436932440491550722e-01 -5.355245145041568344e-01 8.085957563392761616e-01
7.603262691737845413e-01 -6.337047601714103084e-01 1.425560989237887599e-01
3.328581941501115860e-01 -8.358373184177458892e-01 4.365562961719347546e-01
2.533083180049688909e-01 -1.924331743820957563e-01 9.480529359833888003e-01
3.638710421968683884e-01 -8.880102329512495896e-01 2.811328704090505504e-01
4.054216586112640575e-01 4.204685021707450510e-01 8.116892985688439754e-01
6.470394363035614216e-01 4.624610340758844237e-03 7.624425098636392617e-01
6.715471762204123785e-01 -5.905171868417113945e-01 4.475643441505832154e-01
7.008322113634620765e-01 -6.551445836498995812e-01 2.821697822758481577e-01
5.911957709951616291e-01 5.150042253500437539e-01 6.206917175450609170e-01
7.050309569407772203e-01 -3.142780244594889361e-01 6.357363235626956044e-01
9.560987073698854477e-01 -5.539291522973872894e-02 2.877618576322880650e-01
9.856146937338201575e-01 -1.689123048525295046e-01 5.684079995397835205e-03
4.647745478042514811e-01 -1.494752286541083386e-01 8.727209036869436609e-01
9.697970180475368185e-01 -2.438878574815690203e-01 -3.529413429373951232e-03
-4.158692827432823869e-01 5.373200799404859174e-01 7.337164788686006967e-01
9.513874772645464217e-01 -3.074699872518540378e-01 -1.800208442228433403e-02
-1.044663150943503926e-01 6.864310756007405701e-01 7.196521155810065018e-01
7.826928385298555224e-02 6.233334701678554524e-01 7.780291152480349748e-01
7.453370328717957571e-01 5.587902356606982979e-01 -3.636291791923865202e-01
8.402586339120623471e-01 3.792731624584090300e-01 -3.874497339978851262e-01
5.747722640206456290e-01 4.446507318618805327e-01 -6.869662081698598710e-01
6.936042085761356946e-01 5.019924065906810062e-01 5.166399380330261026e-01
-2.711302703229229727e-01 9.507880179819276911e-01 -1.499684012604536598e-01
-5.153688915423813022e-01 3.687099737899554031e-01 -7.735941189397625983e-01
-4.651514221951379424e-01 4.294121639535344870e-01 -7.741055146933027986e-01
-7.681752721051582355e-01 4.131421035022591060e-01 -4.891015780386471778e-01
-6.613019536824668032e-01 2.958791434286012559e-02 -7.495360440836665861e-01
2.752393150353077966e-01 9.345950184956249851e-01 -2.253341315958522773e-01
-6.973415669126478145e-01 1.991512604261110042e-01 -6.885154424749705404e-01
-2.726462818508091357e-01 8.357501207902798823e-01 -4.766400534910612552e-01
-5.732821471338893637e-01 2.825879887163164073e-01 -7.690849162549119322e-01
-4.413370704987466808e-02 9.894429510970854658e-01 -1.380393510066111051e-01
-5.827157200049383201e-01 8.054686363913600156e-01 1.079938213462678515e-01
-5.618291160049446731e-01 8.174614843706791145e-01 1.269045546053749196e-01
1.948318064652574955e-01 9.613121331359871791e-01 -1.947294273473390014e-01
-9.100084815963396245e-01 3.586510185901505832e-01 -2.079759848803988398e-01
-8.648741032298780107e-01 4.868732587368876374e-01 -1.222588053648409334e-01
-7.888799700349848898e-01 6.024512623806246303e-01 -1.213295896869066998e-01
-5.419592203096823546e-01 7.997293016433084656e-01 2.582890776134896260e-01
-5.275102261492304878e-01 8.312185630784403312e-01 1.755239633263807886e-01
-6.207423725119145530e-01 -1.282779265161970994e-01 -7.734492100564746009e-01
2.113809729280751587e-02 5.782390129888893560e-01 -8.155935413552971580e-01
-2.751826407289478804e-01 -1.365813248736552354e-01 -9.516407178852741566e-01
-9.109100351918390792e-02 -4.350565380282184202e-01 -8.957835887069874881e-01
2.143481839032768954e-01 4.159243228924051627e-01 -8.837770158155626721e-01
7.911629944714965168e-01 1.671937260193208930e-01 -5.883089104872294417e-01
8.316520591959497555e-01 2.692962746620413683e-01 -4.856278090145609294e-01
2.736603176876554189e-01 -9.241865811487356419e-01 -2.664379735467582444e-01
6.099317321821341453e-01 5.783600667033006459e-01 -5.417406347323920901e-01
3.955074890316482294e-01 3.562897786910727560e-01 -8.465408553165919558e-01
1.376333588202947322e-01 -2.882330419104793817e-01 -9.476174186299426427e-01
2.774304917737915877e-01 1.902335334317309737e-02 -9.605573560499826025e-01
4.727275646218508792e-02 4.174328130954358396e-01 -9.074773457490263873e-01
1.614070312170644561e-01 -7.425691776369239272e-02 -9.840902806338094333e-01
-1.354723068736110314e-01 7.142738061535572336e-02 -9.882031083581812592e-01
1.107444762963110535e-01 -3.978530334662979118e-01 -9.107407011501795768e-01
-7.511101700582352436e-02 -9.879537696659967949e-01 -1.352985000918244529e-01
-1.504688758562466033e-01 -9.330852324754003169e-01 -3.266665981316203560e-01
2.050970322911796762e-01 -5.849180584404689576e-01 -7.847331216761420647e-01
7.746219362356899785e-01 8.681851019388985014e-02 -6.264370696168803931e-01
2.264870382284194794e-01 -4.558720617899135186e-01 -8.607463533433828973e-01
4.595831884777308862e-01 -1.607162971956488384e-01 -8.734721316014394388e-01
1.707814183963559107e-01 -2.172278318439198053e-01 -9.610649177880329352e-01
3.536479360086993706e-01 -2.953688832129449660e-01 -8.875192167983319003e-01
5.007155821575567378e-01 -9.599666582287091909e-02 -8.602723672974224023e-01
5.446620445579786196e-01 -3.632870942159044381e-01 -7.558873886989296853e-01
7.239774427573562043e-01 -3.089194306206397567e-01 -6.167863874661458912e-01
5.847122702701040842e-01 -3.493284509754862599e-02 -8.104882832767981160e-01
9.897959212292063436e-01 6.855679535491163157e-02 -1.249159722721298049e-01
9.880674159254214661e-01 1.528468307157721806e-01 1.899020607060658908e-02
-3.214112743830576102e-01 -4.247517530797086382e-01 -8.463337054349029387e-01
6.807355915585794337e-01 -4.115110976466767045e-01 -6.060178800159434775e-01
6.968263701611991934e-01 -4.420056134282674964e-01 -5.648575462414116011e-01
6.821849431676482167e-01 -3.438097635405784058e-01 -6.453050052568352069e-01
9.674069754887161254e-01 -2.516926393012397511e-01 -2.783090184220946006e-02
2.121036252862796012e-01 -3.039564969802368566e-01 -9.287747305369160600e-01
7.413196261126576703e-01 -5.152371778029334326e-01 -4.300882032209878414e-01
6.791714514510736045e-01 5.573457128333346722e-01 -4.775896731715880139e-01
-1.562457831759767601e-01 6.043679466407431145e-01 -7.812340496374805543e-01
-3.263595490356788198e-01 3.857976878954411104e-01 -8.629308134304627398e-01
-1.674027617479366958e-01 1.562060856348783111e-01 -9.734351412240019874e-01
4.879425742225344531e-01 2.495002797614376266e-02 -8.725190773645445930e-01
5.104668515185942779e-01 -2.526073979273857351e-01 -8.219568699226552644e-01
6.033667011375768441e-01 1.386955422200216725e-01 -7.853102383941344966e-01
5.082690649846428599e-01 -1.714104956514979072e-01 -8.439674161720609469e-01
2.612586641401054566e-01 8.753667243831017020e-01 -4.067886530552766722e-01
-9.966800566003757023e-02 2.100925487849711337e-01 -9.725879958095232647e-01
-6.460605307929091490e-01 -6.572013594811861037e-02 -7.604516120586143346e-01
-7.591578058520177530e-01 -4.206116704427898534e-01 -4.967547166371709677e-01
-7.816028378284725076e-01 -1.665788375021675094e-01 -6.011226952918223843e-01
-7.967265726776828760e-01 1.420054796485571980e-01 -5.874191111455737691e-01
-1.990484402923316798e-01 3.284047560786495512e-01 -9.233255301366429801e-01
7.163052396922864329e-02 2.873753521883489204e-01 -9.551358411192180098e-01
-3.907211748535932561e-01 -5.323015481123092307e-01 -7.509940248752093872e-01
2.648008793034294373e-01 5.522403400491310982e-02 -9.627205203943430822e-01
-5.487088089148357550e-01 -1.204900137315172010e-01 -8.272851984716280693e-01
-2.109712924331794415e-01 2.433408485029974200e-01 -9.467187255034703597e-01
-5.580659224582426026e-01 -5.065968788965652392e-01 -6.572077513869488685e-01
-7.819133835875563543e-01 1.913473098569457237e-03 -6.233841505743951128e-01
-7.019891413429094618e-01 -5.366284548076653005e-01 4.682319371074363246e-01
-7.513783726275626851e-01 -4.820484810579126478e-01 4.506215741143724252e-01
-6.993674753260874510e-01 -3.556743408796433914e-01 -6.199845947246153122e-01
-4.949323348453380511e-01 -3.026255817870178721e-01 8.145303807548317510e-01
-7.098381528366483062e-01 -6.726243025254187158e-01 2.090606238143594975e-01
-8.080335057389674835e-01 -2.847197256135152593e-02 -5.884481288793937948e-01
-6.635317101851799793e-01 7.155239998326844431e-01 -2.185201941289794114e-01
9.432809210599626404e-01 -1.802444781723934186e-01 -2.788064419137950001e-01
7.561403785185100146e-01 -5.132006814618007562e-01 -4.060502290616614385e-01
-6.995209665458766990e-01 -3.550398285773836426e-01 -6.201750861542767446e-01
-7.349952869896176910e-01 -4.546121174906924689e-01 5.031001398664864954e-01
-3.170113819766150476e-01 -8.126733714963382260e-01 4.889435294162825518e-01
-4.505401637599044662e-01 -6.852350175447461389e-01 -5.722469148625005664e-01
-5.010751646142431737e-01 -6.637068779626794646e-01 -5.553529144173474652e-01
-2.842210971039554335e-01 -6.819620296467894249e-01 -6.739036712179683475e-01
-3.101926922358464456e-01 -7.416559805889485490e-01 -5.947494431608345566e-01
-2.421183594674082284e-01 -7.918809507671722425e-01 -5.606275589202607268e-01
-6.976291855049803203e-01 8.137874279071291572e-02 7.118223231632040404e-01
-6.993758767389065545e-01 1.334814881880562465e-01 7.021795178918190938e-01
-7.229972392178426466e-01 4.195866579083548653e-02 6.895755668876548672e-01
-8.711787689226735409e-01 -2.624839880175455775e-01 4.149092775689402490e-01
-8.394006794321373643e-01 -2.943013440722741514e-01 4.569389655589895516e-01
-3.096775947441000598e-01 8.244184108148831791e-02 9.472608564448355972e-01
-3.495532657550595168e-01 -1.990342461721839318e-01 9.155314758382930851e-01
-8.767694644670247506e-01 -3.828572545344904876e-02 4.793845110187746617e-01
-8.948776674230819461e-01 -6.083087495538538891e-02 4.421465424489782192e-01
-9.023452877979906139e-01 -2.796050769335741149e-01 3.280152169362447467e-01
-9.028739294677600169e-01 -1.587202390691881682e-01 3.995329187905122814e-01
-9.574883284465893762e-01 -1.833255732057866849e-01 2.227281641313593186e-01
-9.574883284465893762e-01 -1.833255732057866849e-01 2.227281641313593186e-01
-8.865561062719897745e-01 2.961152709674273464e-01 3.554349683581166097e-01
-8.702928268087011254e-01 3.108928615919393512e-01 3.820157381790643125e-01
-8.520307310299456427e-01 3.027812194822335212e-01 4.270446891244850662e-01
-5.100138896939599986e-01 2.955076675934319441e-01 8.078125096287670504e-01
-7.403879694303464598e-01 4.740959040016028969e-01 4.765067979910794782e-01
-8.103995096713957347e-01 3.961846777862054192e-01 4.316136418277368159e-01
-9.473285091839616090e-01 8.367321690372502008e-02 -3.091399172871001633e-01
-7.651568159121192592e-01 5.600418970284927189e-01 -3.176289039680655346e-01
-9.694798594361468957e-01 -4.682705428969795303e-02 -2.406574934096550045e-01
-8.463914555524920669e-01 -3.261232339193358420e-01 -4.210286691731667252e-01
-8.928691380243245490e-01 -2.375752432737678332e-01 -3.825476521259929541e-01
-9.384036713630597992e-01 -1.183219631050670823e-01 -3.246512938820571015e-01
-6.889349671438149691e-01 4.034490049918257326e-01 6.021607023192866448e-01
-9.906622382220116041e-01 -1.347331190384087884e-01 -2.086423722872247921e-02
-9.774903195092420338e-01 -6.068226985209319163e-02 -2.020651810464081377e-01
-1.786193556296018781e-01 9.483199609109054240e-01 2.622677592316768891e-01
-9.035024435343601557e-01 -5.570339177403245412e-02 -4.249476046200387769e-01
-7.831793525955422774e-01 1.329094433516477547e-01 -6.074250419072153573e-01
-6.410244839750726120e-01 -5.232434201610939306e-01 -5.615193088421919221e-01
-7.976219113501790137e-01 1.624747096981780659e-01 -5.808625097581872065e-01
-7.795741697720851571e-01 -1.964814655370752394e-01 -5.946924814764072975e-01
-6.675184280207278054e-01 -2.738024234469794149e-01 -6.924242782913504479e-01
-7.790924357850518289e-01 1.371607961051675151e-01 6.117204365674824285e-01
-7.578995769736799337e-01 1.568544935122385131e-01 6.332336844231647444e-01
-8.404746668503737528e-01 2.372565748364716398e-01 4.871464380241519732e-01
-1.857863053913998974e-01 4.744878590438688093e-01 8.604328680082944381e-01
2.223031850279428567e-01 -1.263534756781811430e-01 9.667554463826285582e-01
6.537249699783761470e-01 5.290848045366770558e-01 5.410295123513663151e-01
-3.075821642376542764e-01 -6.807361867746594131e-01 6.648243800120274827e-01
-4.517450845958250749e-01 -4.614437597585044348e-01 7.635417703855149618e-01
-6.360304398175161689e-01 4.148175034489908763e-01 6.506855757260056050e-01
-7.309966327297369171e-01 -3.942581919733698093e-01 5.569599635518478475e-01
2.496738671518822228e-01 5.443443777644255688e-01 8.008446531367269250e-01
5.747211847242702509e-01 -8.140274383196278718e-01 8.399338957272643735e-02
-1.696278016385393272e-01 -6.922386226621241034e-01 -7.014499969392841150e-01
3.344296028112026531e-01 -8.911249943724066647e-01 3.066807544798328955e-01
1.063279413234746590e-01 -8.748606277213925031e-01 4.725603146232689178e-01
4.061768991039240717e-01 -8.787456040766709053e-01 -2.506521293551036145e-01
7.212216631783774368e-01 -1.486382112796051647e-01 -6.765692830078930964e-01
9.523429188749981122e-01 -2.176766106384772359e-01 -2.136816745759769764e-01
7.074024755089126648e-01 -3.369673696595013035e-01 -6.213169315483195732e-01
8.647627014011834978e-01 -2.177896622890244382e-01 -4.524965560812150844e-01
6.784283826239533299e-01 -4.382035961298865190e-01 -5.896715509409302669e-01
5.969302506529255981e-01 -4.390582063358227649e-01 -6.714924923665233081e-01
3.574543066611043374e-01 -1.261311690053580070e-01 -9.253741658673916293e-01
5.155726507359885691e-01 2.120262349007552213e-02 -8.565834988897488289e-01
7.168849360808393634e-01 5.045700425159912461e-01 -4.811289438557834752e-01
4.681526192339373615e-01 -6.060024050881038793e-01 -6.431129062084182113e-01
4.624210224049344897e-01 -5.965974262323923138e-01 -6.559255362088446395e-01
5.284058359664247639e-01 -7.042636629323072439e-01 -4.741307473575127052e-01
4.315376408443127310e-01 -6.847083319231507259e-01 -5.873242415646925396e-01
2.606770171207498654e-01 -8.360782530893294817e-01 4.827221224018256596e-01
7.904356858431754729e-01 -2.657445468183790571e-01 5.518978731449534214e-01
5.224124679256970660e-01 -3.620564644988026326e-01 7.720105762684924544e-01
7.657662914953432542e-01 4.336144758159572454e-01 4.749531273423951983e-01
8.162351252557540349e-01 -5.243872468715990998e-01 -2.424422315050490662e-01
9.369850135683971404e-01 2.929680103495991839e-01 1.903387224398327415e-01
9.473611746758207053e-01 -2.847064223886779932e-01 -1.464549683946872460e-01
6.390597787924989781e-01 -6.765757526488175300e-01 3.658522243438848687e-01
9.121531881721011148e-01 -1.313837885910920655e-01 3.882201197811914195e-01
2.506665802421643718e-01 7.137197917413655099e-03 9.680471713483729257e-01
1.496965031064035299e-02 3.429703107848596222e-01 9.392269563261662624e-01
5.797459600140038305e-02 4.628704695544758052e-01 8.845280519197191715e-01
-7.029122479997365613e-02 4.463836523493774910e-01 8.920766663417161180e-01
3.052520766866615998e-01 -1.776586630752253482e-01 9.355525474888110038e-01
2.672309298144106560e-01 -4.873091522785151231e-01 8.313347221523471609e-01
-2.414947262224695357e-01 4.863451954229011109e-01 8.397312951747093468e-01
-4.263889693951775084e-01 -4.592259147573201084e-01 7.792971230496239521e-01
1.227039370710688027e-01 9.419152339604806023e-01 3.126330690448981264e-01
5.998582260102833796e-01 6.472556440812968770e-01 4.703511878295847937e-01
5.037213150927060124e-01 6.874334021682780849e-01 5.231636018537805244e-01
-1.771854854711592264e-01 2.904578763560852761e-01 9.403401117686422950e-01
-1.907791290532866169e-01 2.481976732893599880e-01 9.497374578752897367e-01
2.720235518698637667e-01 2.052256128307231309e-01 9.401519212693009164e-01
3.144711573878400945e-01 9.686051659596940644e-02 9.443124120204680061e-01
3.196067386965298907e-01 2.311035479013533456e-01 9.189356249091527040e-01
-4.690802720977598761e-01 -7.329067550686600985e-01 4.927589539556015974e-01
-3.858306197687265127e-01 -8.124507696620746344e-01 4.371023675575125278e-01
5.310281353047163755e-01 6.342216527422365191e-01 5.619359524961025087e-01
-5.452267625586056932e-01 6.629977588163399327e-01 5.129929328893061413e-01
1.740189379082830723e-01 -5.244833395664655340e-01 8.334474403143132815e-01
-1.377354167318219358e-01 9.108406586358911428e-01 3.890992798161508337e-01
1.272864509087626161e-01 -4.788448068982902872e-01 8.686229390947433071e-01
3.987962887741752782e-01 3.081770428858758848e-01 8.637062175867797897e-01
4.765760924280932898e-01 -9.810207295462978344e-03 8.790784879399503593e-01
-5.870231134324038758e-01 -1.270294893641441547e-01 7.995419770893907874e-01
5.048260224953522446e-01 3.553066480502516389e-01 7.867069803064015154e-01
3.993968863168715910e-01 -2.656453175002695399e-01 8.774478289280617238e-01
4.551884310064370776e-01 4.229931995385253218e-01 7.835051023586634411e-01
3.617206295505534519e-01 -5.101037489662895580e-02 9.308899654687746716e-01
4.429380766792052060e-01 -7.851787475504702352e-01 4.327819250185960254e-01
-2.652286384236859362e-01 -8.140861489899127446e-02 9.607426329564777712e-01
7.933669015016945325e-01 -5.466278313475523287e-01 -2.678935863320964783e-01
-1.942578637800281838e-01 1.743269475001374691e-01 9.653362096880570009e-01
3.397601229296136061e-01 -4.956458208027322843e-01 7.993111279017950377e-01
9.313811146497578131e-01 1.998868280513035056e-01 3.042605384294247428e-01
5.246776960791736943e-01 -1.290456931096638400e-02 8.512031410468060555e-01
7.557797528807420617e-01 -4.411776005611572210e-02 6.533380353103250826e-01
-4.315232760267947443e-01 3.874637384520960293e-01 8.146530019780374721e-01
-4.119276098210081782e-01 4.248627931760907694e-01 8.061062282613634666e-01
9.280982937924622256e-01 1.672163384019278720e-01 3.326743952139573635e-01
5.011015863065895193e-01 -3.296290765608408252e-02 8.647604563807692601e-01
7.431218396112444502e-01 6.642365611259861691e-01 8.099211292665361994e-02
-1.523073518980149962e-02 9.485595188331261696e-01 -3.162322942658551406e-01
8.065948247843761354e-02 2.765333315042359796e-01 -9.576133689822208250e-01
7.960911832825585677e-01 -1.390177632496432947e-01 -5.889931149010501077e-01
8.212679127660903466e-01 3.478089840282306833e-01 -4.522697492537828823e-01
-3.381237849412441210e-02 7.485341912463739922e-01 6.622335597020939657e-01
-2.161250146482789625e-01 7.879933366116227411e-01 5.765036682441520011e-01
-3.516554623288720149e-01 7.134276521249557357e-01 6.061018239518344286e-01
-6.204185504758954472e-01 5.754552185779268081e-01 -5.328528067269788782e-01
-4.148462392192882597e-01 2.733664917700106001e-01 -8.678556095244012170e-01
9.500574691573482333e-02 9.687160991390050269e-01 -2.292662803856963527e-01
-7.540144470594140058e-01 3.264585775602620865e-01 -5.699886058185866800e-01
-5.041582524926011555e-01 7.209337288911248365e-01 -4.754776703387284531e-01
3.405152807900174716e-02 8.704546715164742654e-01 -4.910694027025424568e-01
-7.496061742541536566e-01 2.108978852707964480e-01 -6.273855796146078356e-01
-7.427757953385292211e-01 1.281764824797854974e-01 -6.571566839029521212e-01
-7.849425246259317257e-01 5.289067871651166319e-01 -3.226807145221767814e-01
-8.140319482371252136e-01 4.848827131949968172e-01 -3.197510620684921867e-01
-4.455047032895165238e-01 7.508281931654322561e-01 4.876295558052775592e-01
-6.107226901625290028e-01 -1.615193692833040429e-01 -7.751962906689938704e-01
-7.987943624469615589e-01 -8.204567292118267186e-02 -5.959832833879340486e-01
-4.323843943861662570e-02 -7.264223003911871590e-01 -6.858870744147969045e-01
-3.866983106215288735e-01 -6.512613127208930486e-01 -6.529342379715697975e-01
-6.138079352438833292e-01 9.539999991908505728e-02 -7.836699934583939431e-01
-3.792703205402546129e-01 2.006595177011543940e-01 -9.032661744542592741e-01
3.923728845837363144e-01 -8.269469282927660592e-01 -4.027434632996500508e-01
2.900912757794610886e-01 4.746333145259051811e-01 -8.310055766712987069e-01
-1.759243173917650338e-01 -8.097297117632685781e-01 -5.598110649478229561e-01
3.143710928743461142e-01 -9.351134051404687009e-01 -1.635045427246201999e-01
1.774290501160198097e-01 4.731242293845108748e-01 -8.629440281641908017e-01
1.604016223706203337e-01 3.246815321632811058e-01 -9.321229651784024295e-01
5.378298910219050377e-01 6.596053441842686382e-01 -5.250331401415705423e-01
7.648564754373339269e-01 5.105988712245415062e-01 -3.927892115191088385e-01
-6.285425664630761577e-02 1.479498678598794859e-01 -9.869955314091773957e-01
-2.419204278812434328e-01 -8.653863324166113369e-01 -4.388405202807532657e-01
2.617139130648000189e-01 4.025043906459199183e-01 -8.772092357123625339e-01
2.433390885904253287e-01 -9.446197180334817700e-01 -2.201810079601020931e-01
1.684093777292297867e-01 -9.681001479445348057e-01 -1.855273161629396594e-01
2.502423582905094479e-01 9.075103212355081217e-01 -3.373481569065248098e-01
5.202553830495032505e-01 6.518341536572135331e-01 -5.517667736770663911e-01
5.406063803839997739e-01 -4.730265559714793011e-01 -6.956943429652644451e-01
4.510426322007308753e-01 -4.206311107985177822e-01 -7.871658100844072248e-01
3.001666146658012457e-01 -7.740150793084281666e-01 -5.574949869220707788e-01
6.296105249884035304e-01 -4.527370715853184513e-01 -6.313633904782388617e-01
9.989259963115469931e-01 3.593906472187752277e-02 2.924444425698378980e-02
-1.727338903787690449e-01 -8.999146336600414298e-01 -4.003956234015663695e-01
6.891020707980591853e-01 2.407141260505485728e-02 -7.242643875802701192e-01
5.774588461903052972e-01 -2.357691002958973159e-01 -7.816356007131612937e-01
6.346959496695836478e-01 -5.628659714323855923e-01 -5.294742200301182367e-01
7.359091495551259854e-01 -2.529211761253349344e-01 -6.280673548819654117e-01
-1.358937820787067818e-01 -3.508386450568594661e-01 -9.265231379339708973e-01
3.890750561976365901e-02 3.361585460520874480e-01 -9.410014016581456087e-01
5.121983186572721947e-02 5.550866539076276807e-01 -8.302140299207669827e-01
3.698256602290725947e-01 -1.465804449171053681e-01 -9.174656147257149730e-01
2.127266666930748562e-01 -2.177627008221922900e-01 -9.525370183926070711e-01
3.440069319151140004e-01 -1.242007607512159301e-01 -9.307166066118994774e-01
3.327153965236970268e-01 7.452422310639047476e-01 -5.778533394858703653e-01
9.290296461327604005e-01 -1.167990376228692506e-01 -3.510867434364469131e-01
1.163257527000239114e-02 4.513784441598963082e-01 -8.922567922635158411e-01
7.240633522442299075e-01 -5.460857754984485002e-01 -4.213342945157756980e-01
2.332756387494885619e-01 8.758499045730865074e-02 -9.684582313205929438e-01
1.552976650417403903e-01 -3.376383737112688688e-01 -9.283765205078126082e-01
7.923635930735003496e-01 -6.086329319280634476e-01 4.154383882480959522e-02
6.323276361761632769e-01 -1.271453247513230633e-01 -7.641961966155983443e-01
5.713477739480175011e-01 -7.812427281571411412e-03 -8.206708762863559325e-01
3.814747561270517284e-01 6.920132507672364930e-02 -9.217853259004680222e-01
6.065208744136656449e-01 4.486929765876506160e-01 -6.563589274637744442e-01
-7.517926577722437997e-01 2.313577866702773711e-01 -6.174798573773693233e-01
-8.299497567865122827e-01 -3.022265995580148412e-01 -4.688736330074538272e-01
-1.949331309126494383e-01 6.917823533955639315e-01 -6.952972385987787884e-01
-5.727880824509594682e-01 -8.110136849607414433e-01 -1.190403940204836919e-01
1.966481296740118512e-01 -6.926267785768663865e-02 -9.780246390309884630e-01
2.111599800952720651e-01 -8.329781589415647498e-05 -9.774515107500925115e-01
-6.887788023190064557e-01 -2.599176608370635244e-01 -6.767766035118119028e-01
-5.884548098131879845e-01 -5.790253662453471728e-01 -5.643142405186728494e-01
-7.063974643942164677e-01 1.426917017361435114e-01 -6.932832758354011693e-01
-8.057847299807675556e-01 -2.769332081485666522e-03 -5.922020767691074106e-01
