-5.938997764672465651e-02 9.180346004566484197e-01 3.920271711495562084e-01
-5.186045793126625725e-01 6.429435269756954563e-01 5.636247966830321143e-01
5.408915884041393118e-01 7.478437407601536968e-01 3.849234066661927356e-01
-4.809898788555177496e-01 6.810053322458062830e-01 5.521598264011365886e-01
-4.584077749392161949e-01 7.203874671756551606e-01 5.204845905610666623e-01
-4.515180493439447384e-01 7.141676163756602858e-01 5.348794881437751725e-01
5.174682412700601919e-01 7.493761867207993088e-01 4.131125150036785154e-01
-3.959868446910582152e-01 7.102712066812568725e-01 5.819873123970755735e-01
5.034685780160549351e-01 7.448771405202155860e-01 4.378098177073219133e-01
4.669155360839780111e-01 7.726055292350300086e-01 4.301983012040732079e-01
-3.751709174969289351e-01 7.313578719076397894e-01 5.695282660792534424e-01
-3.149635058492430417e-01 7.171853383915299807e-01 6.216455423948444858e-01
7.744636157545259358e-01 3.190900046898793585e-01 5.462487316044208896e-01
2.574538521942494954e-02 -7.360696347199086054e-01 6.764160465151635160e-01
9.921225333332280016e-02 -6.976482025947382537e-01 7.095378173183269910e-01
4.356196657272362605e-01 -2.432420173611628267e-01 8.666422721179498634e-01
-5.399220207278699890e-01 2.047071410361104571e-01 8.164430157346902472e-01
4.533373773093897774e-01 -8.072708782405907391e-02 8.876758189934490506e-01
-5.626392438642452420e-01 2.037080997477226929e-01 8.012116395566418747e-01
-6.359998492339470344e-01 5.835866873460123783e-01 5.049066944762213849e-01
-6.376267611344949016e-01 5.880097994666106942e-01 4.976711657473938955e-01
-6.873236872414509868e-01 5.343146819685388182e-01 4.920304559574287251e-01
6.808696955923678740e-01 6.161739161922917818e-01 3.959118116805951937e-01
-6.878805176989675196e-01 5.008152196450629257e-01 5.253613129476397692e-01
6.754281271703317380e-01 6.437010982635937850e-01 3.597856877662330422e-01
-7.176654381949674200e-01 4.723576291560148688e-01 5.116977516059008080e-01
6.823687378366464218e-01 6.541355862645632513e-01 3.263120292075334938e-01
-7.271648808855610824e-01 4.852781433331423977e-01 4.855268886579054421e-01
3.795288336165303922e-01 9.053684376683356350e-01 1.904359643756219078e-01
-7.464619835941943560e-01 4.667879671546655840e-01 4.742399189948433014e-01
1.975917973535794570e-01 9.778811888969476396e-01 -6.859928585687946612e-02
3.530365167019448025e-01 8.581652631277740806e-01 3.727165129636672569e-01
-2.848684387656031380e-01 6.158263052010399807e-01 7.345801075564757365e-01
2.424867040581655253e-01 9.019809124942066436e-01 3.572542957770080130e-01
2.316693446492356090e-01 9.005692028254822512e-01 3.678374990020309432e-01
1.733276440729916434e-01 8.979669044740107298e-01 4.044909965246063499e-01
-7.485351279166650718e-02 7.551287822777615899e-01 6.512890861963317457e-01
-5.233305375057579339e-02 7.420789388853509250e-01 6.682664887213265459e-01
-6.056977634287263879e-02 7.335069068995552222e-01 6.769777837746386862e-01
3.090272944977823788e-01 1.669423809008384607e-01 9.362864800447245894e-01
3.265120949055023702e-01 1.717255356716701209e-01 9.294623135333126562e-01
1.021516556097599726e-01 1.720794853051995921e-01 9.797722643519169994e-01
3.978692860692884525e-01 1.739716155726557245e-01 9.007962634124072610e-01
4.228268070610733953e-01 1.564004597920655715e-01 8.926121147549860302e-01
-7.145355373836311808e-01 1.464091971815137116e-01 6.841076763175150122e-01
-7.234044808771293578e-02 2.721896599650155957e-01 9.595205305664897821e-01
4.460632674222693161e-01 1.558190866729185775e-01 8.813330662609831778e-01
-7.519264843651832786e-01 1.269670982661645076e-01 6.469048755946162910e-01
4.635463066350606898e-01 1.566012402162025308e-01 8.721243450149418486e-01
-8.336994261209251800e-01 1.259155997748578060e-01 5.376713946445152992e-01
4.604536984605904215e-01 1.520118972659159351e-01 8.745711947369294581e-01
4.614765576906983968e-01 1.513703808116380889e-01 8.741432345530584236e-01
4.620362661697734463e-01 1.502207157041383634e-01 8.740458942854378854e-01
-8.472696655826190693e-01 1.211158054109822274e-01 5.171702577132271106e-01
4.636762951356146467e-01 1.494371671687111380e-01 8.733114143293336795e-01
-8.437655510107042733e-01 1.216721007586994696e-01 5.227385530306403183e-01
4.660177402216609255e-01 1.477870107276697820e-01 8.723453818636721646e-01
-8.361907142598922205e-01 1.260471604054996253e-01 5.337576254623829231e-01
4.686189633980413771e-01 1.490113809455033411e-01 8.707421406435198463e-01
4.699104377298443658e-01 1.490958630778520255e-01 8.700313811154265498e-01
4.703443165447111496e-01 1.511299874273829280e-01 8.694457721987540744e-01
4.713791995676006596e-01 1.516935689927289554e-01 8.687869194119212102e-01
4.725130574111365278e-01 1.556151941111321435e-01 8.674764100180100135e-01
-8.229064665773631049e-01 1.389249685996912231e-01 5.509308489862718705e-01
4.751375961120564706e-01 1.560431891963177109e-01 8.659646574002303199e-01
4.763528799554002657e-01 1.590341997606029290e-01 8.647520205612130306e-01
4.785680201820951551e-01 1.603647957811646652e-01 8.632819830930419380e-01
4.788990545444600788e-01 1.589414037804856294e-01 8.633616424886565444e-01
-8.157861117858105082e-01 1.486587391390574719e-01 5.589218184102090481e-01
4.795134332251196341e-01 1.624472673782647314e-01 8.623675276110489563e-01
-8.131935038619889644e-01 1.543506984139703941e-01 5.611525524986772373e-01
5.701523392348403219e-01 7.098151499732281433e-01 -4.136287743055642729e-01
-5.624737058335871343e-01 2.138243727993604515e-01 7.986879665068152834e-01
5.995826613179512377e-01 7.049847449753493533e-02 7.972017293887434519e-01
-5.636404514420821910e-01 2.298569252931772500e-01 7.933947538224163099e-01
6.076352840035754710e-01 1.073175040220951393e-01 7.869322175158176558e-01
-5.744358288022261005e-01 2.366486524603512442e-01 7.835948531460625865e-01
6.446825034962787582e-01 1.390878027260362138e-01 7.516907960182920290e-01
-5.793006248126034707e-01 2.628658643366073022e-01 7.715648536955888037e-01
-4.592478528302970653e-01 6.917810305929322778e-02 8.856104108059477120e-01
1.453950336755836237e-01 9.853697415176184693e-01 -8.891994536648036018e-02
-3.468377791606800931e-01 2.079403781796949624e-01 9.145842520344272808e-01
4.129720916056073832e-01 8.288159750593800945e-01 3.775157361505063203e-01
-7.608570450717757616e-01 5.051060237771104466e-01 4.073873607621167903e-01
-1.270355179237082910e-01 5.873317208772311782e-01 7.993143479490690817e-01
-1.967113330344830713e-01 5.991718106455429238e-01 7.760784707640964175e-01
5.445586809343644363e-01 3.846826873237865207e-01 7.453020012668523098e-01
1.836675725538640669e-01 8.581268575936713550e-01 4.794627400211428081e-01
2.714586522967129059e-02 7.905058543509211333e-01 6.118525935532614923e-01
-8.596105922334921698e-03 7.876098410797625071e-01 6.161143117939099634e-01
5.389404827623930361e-01 7.033894210813629311e-01 -4.634506212647297452e-01
5.439100072903715333e-01 5.117445940422628015e-01 6.650408817793892480e-01
3.938433911291014389e-01 8.324352992925384553e-01 3.897933500659954698e-01
4.541374376114353240e-01 6.726983921197619010e-01 5.841541414722716263e-01
-8.086539326606217992e-01 4.588935794044239347e-01 3.680971338843946894e-01
-5.486707752415836969e-01 7.047915188481174154e-01 4.496991164718507905e-01
-7.898225988988507584e-01 3.264085013976251726e-01 5.192665524410575717e-01
5.198131685778605293e-01 1.767131769873773461e-01 8.358030407052084998e-01
5.297285621250016341e-01 1.665082379934982315e-01 8.316625861184804291e-01
5.240229385320931410e-01 1.612633768988834537e-01 8.362978435721084569e-01
-8.368239172868505715e-01 1.346657075875439258e-01 5.306513720481992324e-01
5.251546625703048532e-01 1.646811461755580408e-01 8.349207749690827907e-01
-8.372809587313697621e-01 1.378762067535754254e-01 5.291037211711172583e-01
5.224645526121307615e-01 1.730088174462798833e-01 8.349243919958536653e-01
5.231426915915550202e-01 1.756708113722421361e-01 8.339433375632671064e-01
5.229836028006989990e-01 1.762645965640345092e-01 8.339178276063650141e-01
5.215063895736453681e-01 1.756092838860244254e-01 8.349805177648750298e-01
-8.320088649593865293e-01 1.381278805864398496e-01 5.372912964432715599e-01
5.211143664745131465e-01 1.770856499060453060e-01 8.349134623727302307e-01
5.211100647605041436e-01 1.762756319870955601e-01 8.350875415025980075e-01
-8.313280533798393934e-01 1.386021203286998404e-01 5.382221845149782746e-01
-8.296501850868268635e-01 1.389287987471309604e-01 5.407211474171069732e-01
-8.286162393271847559e-01 1.403416428221903323e-01 5.419403576162623581e-01
-8.253780292241474914e-01 1.449202921308249681e-01 5.456640154919311092e-01
5.158985578141476180e-01 1.696106749478533959e-01 8.396909532613866523e-01
5.189836612800247106e-01 1.673416163275073532e-01 8.382438444565386559e-01
5.237925016175538628e-01 1.641729053336774546e-01 8.358759910438415819e-01
5.200328263642094440e-01 1.646033830560666156e-01 8.381357800441104899e-01
-8.219986586450758193e-01 1.443121531671968660e-01 5.509012684991239084e-01
5.264596910076154712e-01 1.596228812738070546e-01 8.350812712053924391e-01
-8.218316522272643976e-01 1.423883312776779153e-01 5.516505220820178135e-01
5.307107056392429412e-01 1.570950197122155390e-01 8.328669171611484678e-01
-8.211387555554482409e-01 1.407671683112836636e-01 5.530965091649671095e-01
5.362585903153075373e-01 1.560275747386306866e-01 8.295071550229209389e-01
5.309463531346333420e-01 1.573761686124123538e-01 8.326636245482990084e-01
-8.205201134541084684e-01 1.412389996731019948e-01 5.538937518952514738e-01
5.355023108733811821e-01 1.578904123496739642e-01 8.296432322012387006e-01
-8.210619833159158443e-01 1.421072687439620952e-01 5.528677452370196477e-01
5.347815783669902512e-01 1.597375240438431154e-01 8.297545340952668935e-01
5.332324836374139343e-01 1.634833499289188030e-01 8.300218748261358748e-01
5.322425730817922362e-01 1.642511603773423590e-01 8.305055085392086811e-01
5.309311098015102592e-01 1.652244831955989590e-01 8.311516268393414064e-01
5.281763636676927165e-01 1.611039719827752625e-01 8.337117242033642572e-01
5.281153421452802199e-01 1.678827310487487623e-01 8.324119016486892786e-01
5.235781577144500432e-01 1.626696667135090202e-01 8.363040668893451102e-01
-7.200008313027032036e-01 4.114105813115186833e-02 6.927526371362765500e-01
6.214347837723412926e-01 7.551767866132199636e-01 2.086308473796593954e-01
5.487272184019278409e-01 8.307208721999971290e-01 9.381509620609526645e-02
7.532041641234235030e-01 9.280625877671774479e-03 6.577213369888904593e-01
-7.013629287498243103e-01 -6.757599315898847603e-02 7.095939171977485582e-01
5.098136799931828333e-01 8.589876161388404485e-01 4.722591462238436011e-02
-6.382022178236670396e-01 -1.859371561062179989e-01 7.470778427607690508e-01
4.838966996379118757e-01 8.740201321596814399e-01 4.396353783659320835e-02
7.519688029027229437e-01 -1.663486309305684530e-01 6.378644467663732165e-01
3.799145662888568920e-01 7.728838544680439737e-01 5.082474494025219780e-01
8.205151453716393872e-01 -1.721183866080774061e-01 -5.450964659646858612e-01
8.226085532952187584e-01 -1.613740596233658176e-01 -5.452280082004424822e-01
8.245671556665810087e-01 -1.294121176437982301e-01 -5.507644774337503435e-01
-6.916208994097813867e-02 7.783501011683191528e-01 6.240093952227510066e-01
-4.778786947704273536e-02 7.162275210359113631e-01 6.962287394539228291e-01
8.302879703493947217e-01 4.409011168168193440e-02 -5.555879303449448026e-01
-7.834101766059137217e-01 5.227421875988916833e-01 3.361682621762742129e-01
5.702788932206724441e-03 6.595062285917960843e-01 7.516774658369242967e-01
4.486352939526266348e-01 7.602554675481946189e-01 4.698276248616254924e-01
7.721263836978055350e-03 6.046536193393116099e-01 7.964511175864031900e-01
5.764655308400794265e-02 9.943421352288412951e-01 -8.922215546646142248e-02
1.937310551384130719e-01 9.769161760095058655e-01 9.001701686859660267e-02
4.493143385907304443e-01 5.965620196581372658e-01 6.650040464825599518e-01
-1.245755292352315607e-01 9.880769036673207051e-01 -9.047082377740479908e-02
4.883164842891259960e-01 3.474206993421515843e-01 8.005284934592385993e-01
-7.544879398821054961e-01 5.192876130965095038e-01 4.013580987808592626e-01
4.598445122516949257e-01 4.798309336254151236e-01 7.471983001105951816e-01
-7.370523027732229782e-01 5.353810013492988906e-01 4.124573752170173080e-01
3.821374965835755977e-01 6.764056126356059462e-01 6.296398819165509586e-01
4.215260291488213129e-01 7.448061815020700083e-01 5.172809282646448903e-01
5.036233919312771423e-01 5.272725806542399862e-01 6.843589005703463179e-01
-7.077613800079510797e-01 6.441340658566987454e-01 2.901122785615231070e-01
5.221161561875323764e-01 4.199236606007710759e-01 7.423333743781189709e-01
-7.700594034983221370e-01 3.125998355059073086e-01 5.561383442323393211e-01
-8.413536152964660175e-01 1.661992383381387939e-01 5.142974890113588549e-01
5.362065393678677738e-01 1.636230190655799943e-01 8.280761165321700590e-01
-8.444399575945753522e-01 1.508384005546265783e-01 5.139736714422189490e-01
5.526342944877601360e-01 1.363549635544585026e-01 8.221938095547046688e-01
5.389661480417009543e-01 1.475129266786073534e-01 8.293102120001917266e-01
-8.415381389568918902e-01 1.597807966355029585e-01 5.160267994082234910e-01
5.416716875574459911e-01 1.621773991351398436e-01 8.247971108754141856e-01
-8.387756882690138305e-01 1.595570762326412317e-01 5.205736107342875396e-01
5.468854950168974272e-01 1.739018470897312763e-01 8.189471307226753316e-01
-8.386127979479244265e-01 1.546867701840705933e-01 5.223031478442132780e-01
5.411777568442350805e-01 1.779488812495530481e-01 8.218642413191332707e-01
-8.387073322745514092e-01 1.548489225773864719e-01 5.221032675300236736e-01
5.429950210372851416e-01 1.806827064227189417e-01 8.200671720831652634e-01
-8.372397078571539586e-01 1.536143903743667494e-01 5.248164352010892264e-01
5.438267323833763101e-01 1.809276584040721558e-01 8.194618158093999183e-01
-8.359865044176952864e-01 1.535260784992408256e-01 5.268361297900208129e-01
-8.344226174681743657e-01 1.528761243004954085e-01 5.294976733437269933e-01
5.445060161707310220e-01 1.713286392965766569e-01 8.210722840960246183e-01
-8.347698221404674657e-01 1.523557530952443784e-01 5.291002443227116325e-01
5.444035582516177918e-01 1.676507769702647865e-01 8.218990100640369834e-01
5.435108990065018464e-01 1.664549690095594725e-01 8.227324267057734009e-01
-8.341863665089791491e-01 1.507974845642922335e-01 5.304651021317321469e-01
5.423818423445320169e-01 1.631456455207326850e-01 8.241392087763903529e-01
-8.343937021637353180e-01 1.480957318954055357e-01 5.308999943340174665e-01
5.409691954132022085e-01 1.615286595419407611e-01 8.253852565684564047e-01
5.406311254715761017e-01 1.611894771007887361e-01 8.256730216273941991e-01
-8.354630850532887010e-01 1.446179194275774016e-01 5.301764714636815201e-01
5.374106697477724071e-01 1.627471960736544820e-01 8.274678979944866120e-01
-8.366571741349461133e-01 1.468816195706005023e-01 5.276651995355045033e-01
5.329701785881921783e-01 1.748075552874862326e-01 8.278798870307714219e-01
-8.366301607029706933e-01 1.483766769882015057e-01 5.272896129529390796e-01
5.317062046777842887e-01 1.774208388433454187e-01 8.281366782429514517e-01
5.316980080627726757e-01 1.810420670063456194e-01 8.273578416840864369e-01
5.307234123624648969e-01 1.830651581888038115e-01 8.275384023884626572e-01
5.317713097441948422e-01 1.864134608791571668e-01 8.261169988179630774e-01
-8.375964005501271847e-01 1.472551242223698043e-01 5.260686249680027737e-01
5.343797446972886611e-01 1.870444209599324559e-01 8.242891926047702933e-01
-8.375870595042781419e-01 1.472654468567633768e-01 5.260806078093495097e-01
-8.397257739029172496e-01 1.471677624796108030e-01 5.226875494307200443e-01
5.406140650479643872e-01 1.905987897005196052e-01 8.193952245632215581e-01
-8.399445594025571893e-01 1.463396227054180321e-01 5.225685141265977718e-01
1.651719488005556069e-01 9.113871606021546612e-02 9.820447860277666807e-01
-7.261736079065814753e-01 -3.960008758078008562e-01 5.620099621353638053e-01
5.263843210254084415e-01 -7.259006259257413940e-02 -8.471423902694432684e-01
5.017722212360926637e-01 -8.235894393608893249e-02 -8.610700565862976497e-01
7.860773437433408173e-01 -2.093172391035520719e-01 5.816087199032352606e-01
4.488851762480158825e-01 8.522622534497451552e-01 -2.686096608269147312e-01
7.621612525927242698e-01 6.432963821482424738e-01 -7.266353804537581396e-02
6.702197824741521481e-01 4.786465590015839822e-01 5.671886059647561762e-01
8.313309809118315519e-01 2.329445945077158742e-01 5.046044154244074820e-01
7.805677218616304813e-01 2.274874389415140474e-01 -5.822057168317530396e-01
8.673784382336607868e-01 1.562463895558882376e-01 4.724846141813350830e-01
-8.461348474698897615e-01 1.375578505455383460e-01 5.149113104704513555e-01
7.295141153793338606e-01 6.792837384487119268e-01 7.989216570759700986e-02
-2.229350206967307610e-02 5.970089366686771593e-01 8.019247653634378192e-01
7.112436530566953463e-01 7.970213470235643083e-02 6.984125111353998161e-01
-7.242889897734530735e-02 5.967933177944363399e-01 7.991193843405616226e-01
-6.586593900914244903e-01 2.287105711406070552e-01 7.168397885810539050e-01
3.093004753088197164e-03 6.969859943367006094e-01 7.170780689855731360e-01
9.419501859227449869e-03 6.343685787913696528e-01 7.729733366856466059e-01
5.160821727072450321e-03 6.281856197438310252e-01 7.780463951887189866e-01
4.126847424838463452e-01 2.029067967556183461e-01 8.879865624835859839e-01
4.104809609349106547e-01 2.553638602935355828e-01 8.753825903945862130e-01
-4.442363554580394669e-01 5.407988477167368080e-01 7.142763238394563841e-01
-4.542647683536101821e-01 5.784793314202441028e-01 6.774992128056152030e-01
5.165782645785863547e-01 -1.517149376198130561e-01 -8.426918026585948907e-01
5.647377111226367097e-01 8.031382054449147656e-01 1.898429366362817394e-01
5.075312755748602189e-01 -2.098215429633078222e-01 -8.356954734960886366e-01
8.282746856358191856e-01 -1.855454061371014374e-01 -5.287097004938560163e-01
5.289950163813846862e-01 -2.266655709639763538e-01 -8.177939786909862452e-01
-3.905631639784638148e-02 2.673498508253523975e-01 9.628076970055302608e-01
1.479358585748335314e-02 2.817703742343421469e-01 9.593678158148292168e-01
5.667041961314673443e-02 2.825299917981710096e-01 9.575830341413715807e-01
-1.889957902266696521e-01 2.187099910824887583e-01 9.573121387913633429e-01
-1.000104939082900740e-01 2.395688378775393812e-01 9.657145919091338904e-01
-8.155119114113049128e-02 2.559598259671201914e-01 9.632413875630264632e-01
5.600244680118749568e-02 2.668725770493105554e-01 9.621032967261571311e-01
9.115603527524993033e-02 2.329593982807571795e-01 9.682047799848775282e-01
1.298947551209072848e-01 1.247938293200563237e-01 9.836431531585609900e-01
-1.424710665709197910e-01 1.910994246928877649e-01 9.711760937503516322e-01
-2.212460940563975090e-02 2.712050348418049150e-01 9.622672865348292914e-01
2.234776024656279503e-01 8.967607127695625957e-02 9.705750684189990984e-01
-5.790689598143586997e-02 6.016529481169842208e-01 7.966558362429390083e-01
-1.737971581040108626e-01 1.541819410923185030e-01 9.726368679399184369e-01
-1.413798445712217411e-01 1.583303871165757659e-01 9.772119668037902995e-01
-2.055834171543747257e-01 2.257782193435979301e-01 9.522392841408952036e-01
-1.527818776968766779e-01 3.762461304011203711e-01 9.138361708783472315e-01
1.609244607319722242e-01 3.726932072874173940e-01 9.138944639179854557e-01
-2.182778671705433715e-01 1.332598784088291077e-01 9.667453529807851220e-01
-1.404575309758156476e-01 9.901382746651804512e-02 9.851233140894638529e-01
4.382486224814055586e-01 -1.448269280690418215e-01 8.871095230010975774e-01
4.127556139261307488e-01 -3.281278378456422562e-01 8.496851918229521017e-01
-1.047561848654742500e-01 9.137342275998003305e-02 9.902913911296798988e-01
-2.367392974521639604e-01 1.117749731824967258e-01 9.651221997301212552e-01
-4.686557292561178978e-02 -1.880872886057645965e-01 9.810335315060775274e-01
1.012443735175952153e-01 -1.010334743428071835e-01 9.897180476748167477e-01
-1.242757199911793120e-01 -5.855490938516780264e-02 9.905184844350803930e-01
4.525901139353348257e-01 -2.055318498290393814e-01 8.677089647306024389e-01
1.186427327542350849e-02 -1.505143681938621303e-01 9.885366275393383528e-01
-1.023900771726801995e-01 -1.897103163195775766e-01 9.764866962629334957e-01
7.980632614288296622e-02 -1.972519224058734144e-01 9.770990888414352593e-01
-1.644743667533905274e-01 -2.052329441720695744e-02 9.861678239870411700e-01
-7.181537727602238519e-02 -1.520750183214557849e-01 9.857564305594113119e-01
-3.126362195907259750e-02 -2.019535348130705177e-01 9.788959882022738590e-01
4.726037232625038831e-01 -4.946716879075494649e-02 8.798856289144887377e-01
-2.661309549161185520e-02 -1.850502237392191163e-01 9.823686466100285397e-01
-1.811726260530012456e-01 -1.756898088823586057e-01 9.676309061950945090e-01
-5.888555468427052880e-02 -2.662407128350038343e-01 9.621062177736066090e-01
-1.415747361750574560e-03 -2.565223469764617015e-01 9.665372632035950096e-01
-1.542726028851161002e-01 -3.334788334991946601e-01 9.300493705213006557e-01
6.646482420515932299e-01 9.884126332179098140e-02 7.405897103002978543e-01
6.670551206371443109e-02 -1.981417240343583963e-01 9.779009315145423820e-01
-9.432961450684207438e-02 -1.809637597875582149e-01 9.789555870776475155e-01
-1.735901322008570891e-01 -6.339322324080655380e-02 9.827755416419510226e-01
2.035206310052830800e-02 -3.745065752063488906e-01 9.270008730604106795e-01
5.117047609348273074e-01 1.765009153432481326e-01 8.408362887742338865e-01
7.474817303990510808e-02 -3.812206600161555103e-01 9.214572800754483595e-01
6.920461438520124631e-01 9.343879414529615568e-02 7.157802222248339508e-01
5.696348703959749210e-02 -3.485139870995179745e-01 9.355710352187516232e-01
-3.488819831047332842e-01 -1.685578354783544563e-01 9.218837334305017839e-01
-4.849150468003816106e-01 4.409030845755423922e-02 8.734491639967957299e-01
-5.514262219076532245e-01 4.261195337529242316e-02 8.331346489146836953e-01
8.751173553501917501e-01 3.243249344426780700e-01 3.591419653335413131e-01
-5.414712632562503902e-01 1.567458828217553057e-01 8.259779653756563755e-01
-5.164580219332572941e-01 6.161515425947068636e-02 8.540929014728835256e-01
-1.403640475935634402e-01 1.338645411174943789e-01 9.810087760945640500e-01
9.378075889583114000e-01 -2.121517470230855906e-01 2.747882135886678956e-01
-1.337145006087772092e-01 9.055496520093894719e-02 9.868739689567265216e-01
1.266310150637166287e-01 -9.605114543592190302e-01 2.477545803182472361e-01
-1.090349486714024957e-01 -2.534975154134989639e-01 9.611713633101057752e-01
3.843494180030127667e-04 -3.765386107964754925e-01 9.264008456683235915e-01
-1.406102704870886289e-01 6.731314101639729319e-01 7.260322695887619915e-01
7.640258288667638002e-03 7.010290511436775285e-01 7.130917864524015659e-01
5.115206616106716259e-02 6.756694224404401483e-01 7.354279690808990244e-01
1.098735012271649519e-01 6.908410490030265638e-01 7.146093049635459105e-01
-2.508787365219877219e-01 8.353933691593480315e-01 4.890580521019200488e-01
2.967668486688108120e-01 7.240926993460857775e-01 6.225907165103590213e-01
2.763083937435292237e-01 8.318206935023669812e-01 4.813813513298079716e-01
3.636130190378027982e-01 7.939520627658791518e-01 4.872634753560129983e-01
3.867426351785286376e-01 7.681641792130069479e-01 5.102488881998420434e-01
4.206728227282305888e-01 6.995538756251908907e-01 5.776320206806733193e-01
4.409830706785330956e-01 6.592929780902859749e-01 6.089882596699000006e-01
5.008552949146074518e-01 4.987427188000594924e-01 7.073893369283469346e-01
-6.302498194179604329e-01 7.728071875768001142e-01 -7.452661238285725187e-02
-7.223379359641859399e-01 5.392216822848400204e-01 4.329756155038140264e-01
-6.033819199228248609e-01 7.174511432067408601e-01 -3.481294526775725595e-01
9.552936604464043469e-02 9.853531077682144979e-01 1.412564803279145464e-01
4.875232500520956247e-01 4.997623999767326630e-01 7.159319969299725583e-01
-7.465857505704521779e-01 5.197650026723390493e-01 4.152758830490615449e-01
4.624621338033720885e-01 6.066117003279986042e-01 6.466459771955643809e-01
4.479033225279624442e-01 6.917842849865890598e-01 5.664072004432902929e-01
4.410693816647927035e-01 7.350181380489937411e-01 5.149816863703288172e-01
5.825567519103111991e-01 4.023210556317728948e-01 7.062332468802668961e-01
5.346903206795599051e-01 2.590844693244453434e-01 8.043516014321473451e-01
-8.415671591279534347e-01 1.471030565889975550e-01 5.197359016072299331e-01
5.293823415620051431e-01 1.385384711572930638e-01 8.369954769601377631e-01
-8.469236282540337779e-01 1.418149825368731354e-01 5.124537819482746226e-01
5.378238035792435312e-01 1.398935825317700610e-01 8.313695579403794778e-01
-8.405850486421733159e-01 1.581546497779743321e-01 5.180771011662661518e-01
5.353596708608879817e-01 1.438847356438874570e-01 8.322783222362638567e-01
-8.409209391210223927e-01 1.636874807326290648e-01 5.158084749199290941e-01
-8.409531961406864209e-01 1.639742918349574585e-01 5.156647685444376572e-01
5.354110256905355580e-01 1.596798831307298661e-01 8.293596134924614560e-01
5.364332543582004398e-01 1.624277848610832242e-01 8.281645840796331148e-01
-8.409269017664852131e-01 1.627881615120492786e-01 5.160832881976969988e-01
5.379835685548303159e-01 1.664538758607392588e-01 8.263575419731751248e-01
-8.399770908334840414e-01 1.623399971721573576e-01 5.177684928547320320e-01
5.394073699750141504e-01 1.701259148355918072e-01 8.246798544392796027e-01
-8.394142665052046759e-01 1.611561982974314966e-01 5.190494860202137239e-01
5.430176783037091726e-01 1.724724251793604002e-01 8.218181450919658237e-01
5.449276292759277496e-01 1.683212908748932535e-01 8.214145250054484260e-01
-8.375032276669864828e-01 1.619103870058293537e-01 5.218940220265053664e-01
5.465287798314611978e-01 1.694484146475047359e-01 8.201179961379834182e-01
5.504887607276193195e-01 1.698733324323742355e-01 8.173770092441369206e-01
-8.369027518339374749e-01 1.568147257553155483e-01 5.244072136794725170e-01
5.527320978983082389e-01 1.701564362973896904e-01 8.158026814981103048e-01
5.520145583149077551e-01 1.711949527032705642e-01 8.160712074183981146e-01
-8.374278595004611692e-01 1.531088356406295203e-01 5.246639539564793564e-01
5.530738785582411943e-01 1.714597792726551828e-01 8.152980000885052814e-01
5.546156197978073799e-01 1.699098786323443577e-01 8.145748261635857856e-01
5.570455007510316525e-01 1.682409582183925778e-01 8.132621287572595614e-01
-8.387183975423878612e-01 1.432829757916267432e-01 5.253774247835790723e-01
5.584952284876640860e-01 1.686421217179377985e-01 8.121840398203994393e-01
-8.387417331745330440e-01 1.420046276820384756e-01 5.256871605320659890e-01
5.635809511347468215e-01 1.675337817588887779e-01 8.088936540037999778e-01
-8.378372111195873106e-01 1.450462341934709576e-01 5.262987721908962691e-01
5.728905615644357407e-01 1.671851686148276006e-01 8.023998528574249889e-01
5.728721571118234879e-01 1.693523435695427071e-01 8.019584000018641357e-01
-8.384075472648460092e-01 1.437212940962135643e-01 5.257537202080976302e-01
5.748375878953846385e-01 1.701897315388261889e-01 8.003731647309012542e-01
5.781492700454913258e-01 1.686624969718505118e-01 7.983084514528741016e-01
5.755761780617345558e-01 1.770793621163874454e-01 7.983451401244325840e-01
-8.406486867705256216e-01 1.395339470494798284e-01 5.232972989150465049e-01
5.743148355060679888e-01 1.910271229685013283e-01 7.960346148302944735e-01
5.764198161638240947e-01 1.958678746519613989e-01 7.933321947412614872e-01
-8.427441641404683770e-01 1.383472944478435496e-01 5.202329285292742744e-01
5.254909350133800672e-01 -2.660714225548276857e-01 -8.081245419602192115e-01
5.041662816575254169e-01 -2.883644066652262805e-01 -8.140407418601582901e-01
7.596179744854524296e-01 6.498652434154680302e-01 -2.560660538168165259e-02
5.138442759640506896e-01 -3.455180360161808628e-01 -7.852269397101079296e-01
6.859591567977185722e-01 6.833118598225469409e-01 -2.500898587132528994e-01
-1.635723175613589264e-01 -5.599859350908223954e-01 8.121944652779058416e-01
8.269094407570551919e-01 -4.770852741466472535e-01 2.976750207512758872e-01
-6.810662138207375371e-02 -4.579308742981520464e-01 8.863750913064111225e-01
-8.450790875589938578e-01 1.517095220854235982e-01 5.126651506383779200e-01
9.636098482519388497e-01 -1.176429036293146213e-01 -2.400337634116065655e-01
4.976822422826308601e-01 8.421685186290531755e-01 2.075200519146975231e-01
-2.432682094996895250e-01 -4.188075020849281183e-01 8.748833376194782296e-01
1.012211754135602798e-01 1.556815418995199096e-01 9.826075163358386488e-01
9.514751294053713782e-02 7.366393178875844938e-02 9.927338897885231717e-01
-6.233428527980284795e-01 -3.492115812983435652e-01 6.996391636784821122e-01
1.242612428534465713e-01 9.454155818431671243e-02 9.877353073068706468e-01
3.673545664045786419e-01 -4.987033362278960325e-01 -7.850768146983261309e-01
3.342934691492200350e-01 -5.156851577576955226e-01 -7.888705182427597773e-01
1.262458344906496888e-01 6.074145198874197904e-02 9.901375991669334464e-01
-8.466241749909020342e-01 1.607249252944629725e-01 5.073411127733132853e-01
9.372270895255756518e-01 -2.343211042796140321e-03 -3.487117606583229334e-01
8.283678478386442556e-01 -1.832968135102965301e-01 -5.293476993660634067e-01
8.342059437862494597e-01 -1.700392986612705160e-01 -5.245827677902467068e-01
8.365948682430323080e-01 -1.701534943080265094e-01 -5.207271980645831189e-01
-2.840215206634704934e-02 5.428617151584148592e-01 8.393416920261164149e-01
3.638858271302688324e-02 5.633999170222403485e-01 8.253825807148283955e-01
-1.536643154840161285e-01 5.339957429219863716e-01 8.314059325552257684e-01
3.746897296929991433e-02 6.377502731479718356e-01 7.693313104016455961e-01
-1.971186332699258192e-01 5.072737445112670551e-01 8.389383723178445162e-01
-4.866063948821173872e-03 5.971469963210517262e-01 8.021170651509614835e-01
2.643966659576202013e-02 6.244259539754505317e-01 7.806363891288655710e-01
2.413874461931471080e-02 6.593733981692958546e-01 7.514280024026777083e-01
4.460674890384574293e-02 5.634817467603494556e-01 8.249233655438150681e-01
1.215853933277938476e-01 4.003001716298699719e-01 9.082823155398447312e-01
-2.327856698524405910e-01 4.934823243578265184e-01 8.380250756736026263e-01
2.181057495498031906e-01 1.961728002721760400e-01 9.560052899679433169e-01
2.572028564323388111e-01 8.652535591783892810e-02 9.624760014807313135e-01
-3.360419905903904714e-01 4.669451791924152939e-01 8.179474189634753367e-01
-3.036804943284295843e-01 4.742691058916981839e-01 8.263455527569140147e-01
2.914672611587322271e-01 1.005349739365348632e-01 9.512831096409771758e-01
-3.637698602748897225e-01 4.548418920024235867e-01 8.128901168271410738e-01
-4.200730563226699465e-01 4.373471114363804424e-01 7.951516405503953333e-01
2.813116410358297848e-01 1.710137424636330450e-01 9.442552941372956976e-01
2.831545603624244234e-01 2.059378886779132944e-01 9.367033046556660913e-01
-4.721803301696083088e-01 3.981319324220897737e-01 7.864710421794131046e-01
2.636934605386427322e-01 2.788821340286322115e-01 9.234124290850711514e-01
2.289588755269559850e-01 3.358571718100125669e-01 9.136617500263495284e-01
1.939165994961024320e-01 3.744089853353086972e-01 9.067603123979638413e-01
1.915783252616068411e-01 3.808211902645758373e-01 9.045844163677759786e-01
7.995219033412548360e-02 4.628942191515867388e-01 8.828004242957853132e-01
-4.959632654857768497e-01 3.348314793658224708e-01 8.011918120614934802e-01
-4.939783099139061773e-01 3.359480114915825433e-01 8.019503494041587688e-01
1.701266293664919493e-01 3.508717564272906819e-01 9.208398017690289095e-01
1.474627842872446581e-01 3.981508047899587344e-01 9.053897856146611023e-01
1.206325598565870238e-01 4.233149160445898174e-01 8.979155123710742537e-01
8.524804211832860690e-02 4.432349027473758141e-01 8.923427549442622952e-01
3.539522354102007246e-02 4.831743136450413201e-01 8.748084137593352683e-01
1.044953687790455554e-01 4.892930938762535820e-01 8.658365816877541254e-01
1.881346660388150127e-01 4.828824268589578805e-01 8.552367562641742804e-01
-5.129223155896205366e-01 2.778615140059784161e-01 8.122214459151438914e-01
1.219021485287258150e-01 4.046856230098787588e-01 9.062943300678796277e-01
-5.226126840414181407e-01 2.506168396477525540e-01 8.149031734899536694e-01
-5.182156121257128767e-01 1.910128340083758203e-01 8.336466137358572448e-01
9.674530675156469695e-01 2.021667849302452025e-01 1.521944585900978919e-01
-5.481896922188853605e-01 1.521952324198545814e-01 8.223896111780778506e-01
-4.969792155518663046e-01 1.423806998113952282e-01 8.560019834268310923e-01
-4.464158790067256910e-01 6.467374579593473949e-02 8.924853889982597988e-01
-4.537259316306538892e-01 3.780117601078401141e-02 8.903391769758853824e-01
8.500786378282808586e-01 -5.266497915019171527e-01 -2.511298270188485216e-03
-4.942940855806353118e-01 3.764848040624712427e-02 8.684791010053747318e-01
-5.066879705058481287e-01 2.179134702470029300e-02 8.618540698630563490e-01
4.843728260955010301e-01 -8.695945287327286888e-01 9.585572981497191003e-02
4.600821382013886018e-01 -8.558190709102455607e-01 2.364278832421476129e-01
3.187001215999988868e-01 -7.455298548294950756e-01 5.853336382355434075e-01
6.536587118431346211e-01 -5.060546781010706319e-01 5.627068074971154354e-01
-5.504895211218880924e-01 7.277976582135393946e-02 8.316636296135494488e-01
2.618354637389402884e-01 -6.071293283081511394e-01 7.502240789502209184e-01
2.522614650405070047e-01 -3.742317788058131534e-01 8.923646838526578806e-01
3.104353443204733720e-01 -2.119261437678070514e-01 9.266699555852321302e-01
-5.925298082988413872e-01 4.294631164158472375e-02 8.044029093642826034e-01
2.460837405032160197e-01 -5.986799387563639385e-01 7.622500400725618075e-01
2.146813305776506253e-01 -5.037948594221515197e-01 8.367213789077126984e-01
6.040569796204892788e-02 -3.190185143826800851e-01 9.458215154746616449e-01
1.545637014187447311e-01 -3.063931946378556925e-01 9.392727359416679356e-01
-6.250695593427730845e-01 5.948499557505940866e-02 7.782991592469226116e-01
6.596220571413070888e-02 -1.738463458584068450e-02 9.976706680551671313e-01
2.625210409886953866e-01 -3.212661587463790380e-01 9.098740342940653258e-01
-6.181771003201675940e-01 -2.419406554418626967e-02 7.856664176558605384e-01
1.551247912792862449e-01 -5.248171600922183627e-02 9.864998573822933992e-01
1.908030524492307645e-01 -3.943493424143048459e-02 9.808359093841488852e-01
-5.495793748966673054e-01 -1.861157309909217961e-01 8.144467111885854704e-01
1.422596023430456880e-01 1.567083975532260476e-01 9.773457339537010569e-01
-5.224184137241354442e-01 -2.278765052132934454e-01 8.216759089651671788e-01
1.450146028524779140e-01 1.685897476843100651e-01 9.749606463520866795e-01
1.640188835558121505e-01 1.523943413780404210e-01 9.746146779897469914e-01
1.479668168785733540e-01 1.066986373006122979e-01 9.832198237937511687e-01
-4.492627403857442636e-01 -1.412800942235398205e-01 8.821581066210744115e-01
1.386982862652702264e-01 -2.746620054848742387e-01 9.514849279574029151e-01
-1.553204739601731291e-02 -4.065124834483375138e-01 9.135131943789061015e-01
-3.452690682813555068e-01 -4.212016690046085365e-01 8.386765911338273094e-01
1.680707148522593009e-01 1.592570073640011408e-01 9.728254933000641813e-01
1.532694253607385093e-01 5.993498914949170475e-02 9.863651860874041999e-01
-3.663063230399160597e-01 -6.177427986539087840e-02 9.284414984521582870e-01
5.676040979266739478e-02 -3.786600757640685155e-01 9.237937014845459816e-01
-5.918822621443451532e-02 -4.406269859483945006e-01 8.957369106672016246e-01
-5.160981325503454231e-01 -4.568849993513610097e-01 7.244990096237213795e-01
1.787474593373681864e-01 1.669681366474281559e-01 9.696241473503645070e-01
2.239656145892708894e-01 5.195265140245632074e-02 9.732113467761793757e-01
2.766224516787067489e-01 -8.127930703123684153e-02 9.575352178775377032e-01
1.440520956484979131e-01 -1.523981663398265574e-01 9.777646918535842779e-01
-3.875860220413325230e-01 -4.768837278560719151e-01 7.888973226119301296e-01
2.202691474762073776e-01 1.464229271787620967e-01 9.643867632161422510e-01
-3.511578361445528151e-01 -2.176656746373295537e-02 9.360632407348994377e-01
2.292024617230762895e-01 5.057719811510864166e-03 9.733656306909496125e-01
-5.567996516326124690e-01 -3.969148691693853981e-01 7.296798850003001213e-01
-7.105367227227973315e-01 -3.581940492718475588e-01 6.056687120271143643e-01
2.750851806800889143e-01 1.581768665471779967e-01 9.483186290796564721e-01
-5.996909525701271670e-01 -1.836665811877070953e-02 8.000208917741347125e-01
2.892919426158306329e-01 1.794359748881402539e-01 9.402727810872234526e-01
-7.355907440546066711e-01 -3.261740524497186433e-01 5.937312058244188506e-01
2.842464679252054705e-01 2.935863066205450789e-01 9.126943771257453042e-01
3.363597456787185136e-01 2.430105280951318225e-01 9.098395488886340532e-01
-1.516826857061458755e-01 6.562302387072463383e-02 9.862484380697557063e-01
-7.686533265962178230e-02 6.883071717920977162e-02 9.946627835642195548e-01
-7.357464090953541591e-01 -2.533397422557736034e-01 6.280893220689792722e-01
5.036433453722980458e-01 2.121616576942543797e-01 8.374549609779777803e-01
-6.179438117606896874e-01 -2.570459777039498794e-01 7.430160232813892707e-01
4.675555172051442110e-01 2.687854875656938702e-01 8.421081878268981136e-01
-1.699971660426909670e-01 -9.262196682531244341e-02 9.810821243906469036e-01
-5.543597081602780197e-01 -1.399321667949581516e-01 8.204293404459150896e-01
-9.522240979850631060e-02 -1.291752035074153759e-01 9.870392390735959198e-01
-2.113640950717134495e-02 -1.183999068286559070e-01 9.927410106649723343e-01
3.393170188984432900e-01 1.577404663084988612e-01 9.273520938535970703e-01
-4.510088815366402049e-01 -2.587490879590192364e-03 8.925157105989883766e-01
5.514132483925689998e-01 2.844090183137836236e-01 7.842543846220718651e-01
2.328159005634984902e-01 4.363389587415703041e-01 8.691404199144862064e-01
6.187789861557396742e-01 2.906341956598935128e-01 7.298248629672750010e-01
-1.355998816231532844e-01 -1.626088924687132398e-01 9.773285119108545693e-01
7.470793571581249570e-02 -8.649658350316030697e-02 9.934470621947416591e-01
-3.049805501356257498e-01 3.677802810339894646e-01 8.784785307117816133e-01
-3.726283558914403882e-01 7.237511510447890151e-02 9.251540147992957097e-01
6.370140868696236858e-01 2.915238680354139134e-01 7.136013505419748215e-01
-4.178847218919098244e-02 3.252904047938633414e-01 9.446903599281288866e-01
-1.074640672589082385e-01 2.902268628146081886e-01 9.509047493566131770e-01
6.560297856771686309e-01 2.793733680792903629e-01 7.011244122924273903e-01
-6.536369474486861120e-02 2.610315608054545322e-01 9.631147967261057818e-01
-5.516597266668958610e-02 2.569266809362005799e-01 9.648551166278001023e-01
6.951481832231353186e-01 2.133378886282685238e-01 6.864808436054183893e-01
-1.438308779368750456e-01 -7.666240483256057947e-02 9.866283769673342974e-01
6.685069326319251770e-01 1.462036056693258035e-01 7.291933808752949497e-01
-1.113387167730453403e-01 -3.331601988994190577e-01 9.362734493814459658e-01
-1.316532934652688835e-01 -3.771023595339554335e-01 9.167667210112238063e-01
6.686930860399835641e-01 6.406896730605966817e-02 7.407730584400719076e-01
-2.457878525481634047e-01 -4.038158551906225746e-01 8.812043387526121707e-01
-3.280293446739862562e-01 -3.159792974410723931e-01 8.902549256372588316e-01
-3.269216111343488107e-01 -2.575384676465382050e-01 9.092833429990866412e-01
-3.673778387309502014e-01 -1.890259761361383073e-01 9.106605865827047674e-01
6.530729966022569277e-01 -4.948015380311542727e-02 7.556767665401448175e-01
-3.633852429665438422e-01 -5.864843361788335541e-02 9.297911197835321273e-01
-3.403065231247414113e-01 1.994129660465173912e-02 9.401030874369443735e-01
-4.034045765134252060e-01 -6.134544179095780675e-02 9.129630246726841980e-01
6.463663265857729767e-01 -1.091703346678207925e-01 7.551770718742260025e-01
-3.953403853007029234e-01 -3.300825574668705964e-02 9.179414114216947196e-01
6.223200817001609542e-01 -1.506817035094487611e-01 7.681228678669809184e-01
-4.343812441823628467e-01 -4.840068177711766978e-02 8.994277673643906734e-01
6.421780437861162039e-01 -2.293687689383974992e-01 7.314351153142163442e-01
-4.362929872949247723e-01 -8.150015571043199569e-02 8.961061063604275345e-01
6.343701436028245100e-01 -3.431416468767332084e-01 6.926964205797913054e-01
-4.459852841875401874e-01 -1.022827108726828832e-01 8.891767953251447087e-01
6.142627569727646675e-01 -3.368870715904864754e-01 7.135743593987978750e-01
-4.153444706205358661e-01 -1.428363450907411680e-01 8.983800694839938483e-01
-3.944120515236090307e-01 -1.550981443163589324e-01 9.057503515001029681e-01
-4.034783452426183303e-01 -1.831408740677127334e-01 8.964734492253479958e-01
-3.894384772770966840e-01 -2.179811350777345613e-01 8.948865275364908944e-01
6.001589930026069997e-01 -3.101601510045255417e-01 7.372990328536628279e-01
-3.610555164785538285e-01 -2.360163332503532885e-01 9.021835758089720159e-01
5.180693345543307959e-01 -3.221461628429597157e-01 7.923547276062599121e-01
-3.683695586119938858e-01 -2.391835614917297848e-01 8.983847128041175800e-01
-3.458736735488550651e-01 -2.873044661459667748e-01 8.932119265204653269e-01
5.096019713404579266e-01 -3.183538675339506185e-01 7.993476376596698740e-01
-3.000539423005170181e-01 -3.178890500125704510e-01 8.993965663665964838e-01
-3.036233094992553116e-01 -3.551947254167513446e-01 8.841094915025161649e-01
-2.641035481188204748e-01 -3.776193928726874205e-01 8.874981183064630796e-01
-1.872150415801148438e-01 -4.269565417787297146e-01 8.846799645287010128e-01
-1.558337635633495477e-01 -4.418764387984810416e-01 8.834370667843037817e-01
3.077071698826131518e-01 -3.727787329071405309e-01 8.754155092840081309e-01
4.495593572183464309e-02 -4.566262126279542755e-01 8.885220682596602915e-01
2.312182564158403453e-01 -4.072469877970677499e-01 8.835655090768502751e-01
-9.474701600274997026e-02 -4.957013626398221739e-01 8.633094242712737731e-01
-2.584881222778593560e-03 -4.943655809825040492e-01 8.692502463208713337e-01
1.152118149279973275e-01 -4.522753616614730854e-01 8.844055828266694785e-01
-5.684028795912290238e-02 -5.018548912487112990e-01 8.630821802090854478e-01
1.989098433195509580e-02 -5.012211876918327702e-01 8.650905558096761983e-01
-7.915112005905845793e-02 1.528965087204866291e-01 9.850673874484338066e-01
-1.554335428140108666e-01 1.834244088207271917e-01 9.706677598524903194e-01
-2.101114170737478776e-02 1.774126036217232583e-01 9.839122420217738529e-01
-8.184496481825638547e-02 1.819389431579803151e-01 9.798977613488335514e-01
8.518198369903784428e-02 1.851389576890642152e-01 9.790135831534229061e-01
2.566618310900818933e-01 1.651031234743710885e-01 9.522949454242066736e-01
-2.053736406803242376e-01 1.760103225287399098e-01 9.627263547223781082e-01
5.069985408799230521e-03 1.920324959417788191e-01 9.813754713412828901e-01
2.745338942220945100e-01 1.556323252885376818e-01 9.488992150110223678e-01
-1.748137223593569656e-01 1.844465892683976871e-01 9.671709353481009463e-01
-2.243201858189952658e-01 1.843226990408743660e-01 9.569250737923103989e-01
-1.156404704247674109e-01 1.845584184685840901e-01 9.759946064258313569e-01
-1.738742662228475178e-01 1.596101200001564246e-01 9.717470602677437119e-01
3.459631622722146860e-01 1.755171232722535779e-01 9.216849948810286186e-01
-2.914382589786492228e-01 1.934541740885195871e-01 9.368240089425668993e-01
-3.422194555239899683e-01 1.993693984561401289e-01 9.182252921914646482e-01
-2.829927438870837308e-01 1.964384410227889843e-01 9.387902032913399974e-01
-2.049719287566685866e-01 1.937440926217794679e-01 9.594007165913179813e-01
-3.811321868096227417e-01 2.099546610809197855e-01 9.003650906538473997e-01
-2.364485189265222997e-01 2.038648810488617735e-01 9.500164252118946662e-01
4.655533763199384278e-01 2.163821859481874221e-01 8.581601269002131493e-01
-3.268934114359628995e-01 2.210859735744462318e-01 9.188371400027306457e-01
-2.345618963222166065e-01 2.147499563982820103e-01 9.480839482981775479e-01
-3.984795364708714205e-01 2.504576632526012703e-01 8.823179800570801756e-01
4.874649847207603859e-01 2.622287665938791701e-01 8.328348951874205985e-01
-3.998164952414594575e-01 2.603476948676280989e-01 8.788434717911650651e-01
-3.806369748240401307e-01 2.478646583264795533e-01 8.908864150661972570e-01
4.983536325426222713e-01 2.739092364375410593e-01 8.225675577882805012e-01
5.313633343724323277e-01 2.688271657715558538e-01 8.033585512259411310e-01
-3.737009479047611049e-01 2.859723064555571570e-01 8.823646873462082096e-01
5.519045524111547696e-01 3.226410007304364447e-01 7.689630353115196604e-01
-3.733235225179803995e-01 3.541539792726762226e-01 8.574406722917311541e-01
-4.031869442938055825e-01 4.167881599590975150e-01 8.146949844383072348e-01
5.762526851782580062e-01 3.618294773961864830e-01 7.328112117810765547e-01
-4.012060815710301598e-01 4.744467864579908212e-01 7.835393588902255235e-01
5.717201554675729325e-01 3.907820991288771806e-01 7.214051669017645940e-01
5.940349524561813199e-01 4.368476773819311432e-01 6.754898829933684290e-01
-3.994060710909740353e-01 5.732727316999404188e-01 7.154251641261718531e-01
-4.045869309434158567e-01 6.057445922200240807e-01 6.851152489223869546e-01
-4.138332139705809265e-01 6.115274308014765348e-01 6.743710198341302808e-01
5.754831701807411326e-01 5.745030305540450577e-01 5.820355562359934565e-01
-4.493225217789614812e-01 6.051446639379763903e-01 6.571979969001642274e-01
-4.431231082796360243e-01 7.107809205596915536e-01 5.462896611477390252e-01
-4.006842181058891672e-01 6.761625359640179855e-01 6.182688592510385828e-01
4.714535647479904390e-01 7.834451112761743330e-01 4.049015854548798088e-01
3.261957178602598595e-01 9.026771260052768309e-01 2.806605776315644896e-01
3.679214287000387440e-01 7.466501752282564963e-01 5.542087496015705161e-01
-6.761126660882604833e-01 6.293188336238508818e-01 3.831833352343763655e-01
5.471106909161481680e-01 3.043824572996297051e-01 7.797571491005991229e-01
-7.293468378051954915e-01 5.537751513804204384e-01 4.017291026265763509e-01
-7.594185306746612518e-01 5.056109245159249310e-01 4.094399690773856126e-01
-6.885833508717763563e-01 6.502860880803580379e-01 3.209064856797712029e-01
4.807348677310868124e-01 6.276589231102183142e-01 6.123220257247777853e-01
-6.068851673583903761e-01 7.435770961992909101e-01 2.806839782534957806e-01
4.298695716650499099e-01 7.850533612942173223e-01 4.459858420142477908e-01
4.612921962818637422e-01 7.524705336384397425e-01 4.701038243360038948e-01
-8.026456724283421718e-01 5.126808850429557252e-01 3.048249245774136695e-01
5.867840717221497471e-01 3.134895405673504554e-01 7.465981255856770638e-01
-8.456136939140443953e-01 1.419104217328553408e-01 5.145861568956633381e-01
5.420135024905650134e-01 1.637069509167651538e-01 8.242702210679737629e-01
5.525687497693163586e-01 1.458785285950176813e-01 8.206017497381584702e-01
-8.428927444939051661e-01 1.582194378582099659e-01 5.142941092053886498e-01
5.514497868577827866e-01 1.488493740711540891e-01 8.208209283474267037e-01
-8.416439876284576016e-01 1.647761033160784483e-01 5.142803067052421628e-01
5.518954135309143139e-01 1.490537167651792283e-01 8.204842728791496009e-01
-8.411902428842475965e-01 1.673447401845712945e-01 5.141932644530642360e-01
5.542953794391846101e-01 1.506718921783157250e-01 8.185686368532429924e-01
5.556881936592489302e-01 1.496133543898163498e-01 8.178181189090567571e-01
-8.402773719885582304e-01 1.690032603072280093e-01 5.151425396232865994e-01
5.570697868675612563e-01 1.509636692219388510e-01 8.166291833717300719e-01
-8.410218829888047587e-01 1.661477939586250840e-01 5.148563905562862919e-01
5.590980725387519890e-01 1.549353776142419203e-01 8.144963928999222613e-01
5.590901921963069565e-01 1.553489456733868623e-01 8.144230240287068101e-01
-8.407615450080510033e-01 1.624645561623691004e-01 5.164545405228221364e-01
5.580847605200129902e-01 1.564399457920518655e-01 8.149036405832899010e-01
