9.167157822289608848e-01 3.292478394259548691e-02 3.981810307067351062e-01
9.873649476594906771e-01 9.269477140199298970e-02 1.285229142530754654e-01
8.686526504765554879e-01 1.629522288325794543e-01 4.678559008268999841e-01
9.671705006068747057e-01 -1.714057159554013485e-02 2.535496471329147794e-01
9.675728517499466719e-01 1.801758501088380950e-03 2.525856888716769277e-01
9.142882856879421816e-01 -2.305119302688877700e-02 4.044076818679893104e-01
9.897360983984713201e-01 5.754382574742770984e-02 1.308096466065156727e-01
9.173238945567571134e-01 1.043715191839588718e-01 3.842179829972250382e-01
9.664236628174297516e-01 -7.419846206665750565e-02 2.460079107945222776e-01
9.996825244875212624e-01 2.424914882801587276e-02 -6.843172902474815161e-03
9.159931368950510189e-01 7.987311380842890274e-02 3.931626366425350350e-01
9.826161723270468995e-01 1.181903595418062614e-01 1.431659763795913587e-01
9.929655187695154428e-01 9.821864539026710361e-02 -6.612545827809430954e-02
9.174899228509375559e-01 2.587671176043020993e-01 3.020791623295821515e-01
9.051490718441949079e-01 3.022534574269106211e-01 2.989113668181108130e-01
9.881177922293147287e-01 1.528464831049361206e-01 1.616110399438037970e-02
9.596383626082248819e-01 1.361764509531540879e-01 -2.460694764012970048e-01
9.143258239942255727e-01 2.138614873687305351e-01 3.439063125296116241e-01
9.845325023615546511e-01 1.322350151319746231e-02 1.747022919180667988e-01
9.688319920807100250e-01 1.079071466330406709e-01 -2.229812073391805316e-01
9.383698850803672276e-01 2.280555330487102350e-02 3.448794941899516187e-01
9.652944892516341913e-01 1.363342522979484606e-01 2.227543954017200123e-01
9.170062404359882180e-01 1.149607874232139448e-01 3.819470805707111394e-01
9.855295510569496154e-01 1.694285023122168443e-01 5.048425271913511286e-03
9.011629159378016229e-01 6.028411663062899911e-02 4.292682427347069285e-01
8.522207717754310963e-01 2.870336286187373798e-01 4.374145084430207664e-01
9.405948061244440161e-01 8.829569608810938774e-02 -3.278494787917710651e-01
9.276015841729156053e-01 3.654400968030876440e-01 7.751668651617744932e-02
8.833355922698545859e-01 4.450904609565273784e-01 -1.470126286914536506e-01
-8.823468135499505927e-01 -1.437847944869229122e-01 4.480960092353000745e-01
-8.576862366192953280e-01 -4.742875924373995966e-01 -1.985588053292156596e-01
-8.484200429176020908e-01 -4.410812972296822565e-01 -2.926272714732429669e-01
-9.130762955394349234e-01 -2.830514691468052901e-01 2.935533074891467642e-01
-8.416408855141411793e-01 -1.161340321693709182e-01 5.274026037128141109e-01
-9.555561857302584672e-01 1.244700610739172264e-01 2.672444196029076791e-01
-5.759603982421066526e-01 8.097744920579118544e-01 1.119593304246890436e-01
-8.817974593181282517e-01 -2.004492944384418662e-01 4.269113738227464649e-01
-9.247674663546782137e-01 -3.238928284103763655e-01 1.997462612322829789e-01
-9.342755375775194659e-01 -3.364990111820775898e-01 1.178882324819620769e-01
-8.847654265418954944e-01 -4.421727226181393910e-01 1.472189640250189946e-01
-5.268828693510815286e-01 8.495359923262753021e-01 2.613502872739811161e-02
-7.618113994693781477e-01 -3.599219886692535120e-01 5.386089060820267171e-01
-7.304162502428607207e-01 6.265665003448396275e-01 -2.718575399483686428e-01
-6.534142706968456560e-01 -7.569976456058776781e-01 -2.086958760346145723e-03
-8.717751633484860374e-01 2.478980825397014143e-01 4.225572212634161606e-01
-6.117773496814606915e-01 -7.909722948744746240e-01 -9.555268585192851216e-03
-6.769883173985862257e-01 -6.391237846815617241e-01 3.649761717703607355e-01
-5.763561855816018431e-01 8.132683692944618903e-01 8.005065175845256509e-02
-9.176029876716433886e-01 -3.670168532731283295e-01 -1.526544674405734547e-01
-6.964210917838363768e-01 -7.174871696456341930e-01 -1.448531368338721800e-02
-8.980905140504378270e-01 -2.870205619396219987e-01 -3.332455935139786440e-01
-9.540301205664878381e-01 -2.324675709150824943e-01 -1.891701813836778046e-01
-8.402657444214658433e-01 -3.368860492322185984e-01 -4.248073311332410951e-01
-8.484164827929991937e-01 -4.711247420415121678e-01 -2.413108973119016953e-01
-8.073649330498013921e-01 -4.222861909316085738e-01 -4.121119239114086619e-01
-8.068521383529785318e-01 -4.568545451627867848e-01 -3.745311087203959111e-01
-9.980323899325150849e-01 6.142456180548520189e-02 1.258458789934506321e-02
-9.950334358731122153e-01 2.773836003001577122e-02 9.559835185500988042e-02
-9.793006734634737143e-01 8.430676011719016871e-02 1.840178283551057725e-01
-9.995874389941059590e-01 -2.461105126618978733e-02 -1.480702403515017467e-02
-9.958915777676889958e-01 3.451741703318117645e-03 9.048784896656880683e-02
-9.769884136745037306e-01 -3.100647240656781087e-02 2.110266291601077260e-01
-9.914267391016700071e-01 7.801480243915955015e-02 1.048175156861103768e-01
-9.717803600228357430e-01 2.734192834849997686e-02 2.342975689760213309e-01
-9.808329110730562572e-01 2.755457617494058709e-02 1.928925760307367288e-01
-9.773913199510120275e-01 1.437620843504508195e-01 1.550440930433414632e-01
-9.416975383046927162e-01 2.125807476126577791e-02 3.357883866489818625e-01
-9.900202021838021560e-01 9.183658589227065849e-02 1.068926599893316592e-01
-9.816718796363884669e-01 5.660253846611008888e-02 1.819793212712716157e-01
-6.117335997977747519e-01 -5.068159488367906390e-02 7.894386479128714385e-01
-9.874808442654700036e-01 5.712315136331104493e-02 1.470324038675795419e-01
-8.817255214731123392e-01 4.345692942889668731e-02 4.697569585089506061e-01
-6.033950089861590538e-01 1.099058882203195753e-01 7.898323612419888562e-01
-6.766203536374302274e-01 1.476689725162827760e-01 7.213728381354153063e-01
-7.062974398682945187e-01 3.380608277890866098e-02 7.071075414692158390e-01
-8.299542759954472437e-01 -2.611118959916525987e-03 5.578253147847005433e-01
-9.118363575786996300e-01 5.271255556854166635e-02 4.071557975554853659e-01
-9.409494404389963096e-01 -8.794651431357809745e-02 3.269243966999577089e-01
-9.834770380314473703e-01 1.050154547247449111e-01 1.474607403136374839e-01
-5.781831772277374881e-01 1.097771637325336141e-01 8.084882113510866164e-01
-7.110539005313984973e-01 -1.712635214444869353e-02 7.029289001039212836e-01
-9.867896887264365757e-01 3.338104965406670649e-02 1.585301729866436526e-01
-6.011638383816925169e-01 -3.120618827059645425e-02 7.985162573397053265e-01
-7.972477117282030790e-01 -5.079013279065297537e-02 6.015118025070262942e-01
-8.932638613091429258e-01 -4.778840773876141118e-02 4.469853936818005136e-01
-9.947613261561554232e-01 1.011053700518555198e-01 -1.508668720177861605e-02
-5.326840736489308892e-01 8.488923153773580976e-02 8.420460177743928076e-01
-5.622427482387006847e-01 6.319339446598638832e-02 8.245542352986001688e-01
-8.113835107763592847e-01 -4.176716137533313666e-02 5.830199847954410375e-01
-8.394486729419575743e-01 -5.588873147755649140e-02 5.405574670558310757e-01
-9.974577495256454762e-01 6.855082145260357751e-02 1.946337045344426545e-02
-9.572574350039683155e-01 -2.148272274575192559e-03 2.892293001337482572e-01
-4.836247805116287712e-01 -1.757440164675711305e-02 8.750989727349914871e-01
-9.779255474865413689e-01 -6.298240080203802715e-02 1.992356412953256439e-01
-8.217448712439686664e-01 -1.308151762050364583e-02 5.697053979742316976e-01
-8.817150004849187983e-01 -5.744923463345793374e-02 4.682715487405887389e-01
-9.980268579520502614e-01 4.787915536365646568e-02 4.061991245708247017e-02
-4.446152472142050338e-01 4.821766892973475271e-02 8.944229079957836115e-01
-9.675563577111440106e-01 9.893028140732925638e-04 2.526533513189301305e-01
-9.991027852089143790e-01 1.162633589853731379e-02 -4.072410712789224091e-02
-9.971168147104029211e-01 1.759824897605656580e-02 7.381300329045548114e-02
-9.332711255771406478e-01 -1.029528516434136259e-01 3.441013172053639102e-01
-9.813644580492562053e-01 1.814700345825834560e-01 -6.318565522557696712e-02
-9.894890430328581177e-01 9.344663297253093248e-02 -1.103592338865023031e-01
-9.709533345575424024e-01 -4.503544619308270935e-02 2.349924056172436881e-01
-9.943920168120691239e-01 -7.979168228377031546e-02 6.941040511876787888e-02
-9.887966228513476175e-01 1.223271233538817393e-01 -8.554129721797425201e-02
-9.932585425028038761e-01 3.839333621975936361e-02 -1.093774175921272268e-01
-9.761264399420277460e-01 2.335764620030156627e-02 -2.159434963366216320e-01
-9.640862376106330567e-01 -1.779459302832573919e-01 -1.971622995032265568e-01
-8.870536339191521513e-01 -2.809732174360518031e-01 -3.663193983867905068e-01
-9.308862461350282391e-01 -2.245365021130012462e-01 -2.881564782813219039e-01
-8.836860878291945554e-01 -3.860741422404130874e-01 -2.646613966381619054e-01
-9.176034532392841614e-01 -2.346699600136956110e-01 -3.208331536336471723e-01
-8.866643247028136443e-01 -3.397594330201557655e-01 -3.136716483412643197e-01
-7.860553095231375131e-01 -5.874086769230585370e-01 -1.925307680501649465e-01
-9.389570978402206336e-01 -3.365630750116249126e-01 7.130823903441789458e-02
-9.605601377294966658e-01 -2.753449768795904196e-01 3.885055356450171915e-02
-9.094610099749775856e-01 -3.741307338919021563e-01 -1.814024952772158583e-01
-9.645812706829988148e-01 -2.346871017924650749e-01 -1.204364417434538592e-01
-8.738269582186491968e-01 -3.643463375174968988e-01 -3.219909834575017116e-01
-7.445083549910018750e-01 -6.492056593688423360e-01 1.556898236624963405e-01
-7.249352714824063293e-01 -6.674820620923189729e-01 -1.701074629336281063e-01
-8.661270186594999254e-01 -3.815963682192424211e-01 -3.228129478659285123e-01
-7.907936928591771109e-01 -5.510890649549836651e-01 -2.663572372232207996e-01
-5.111951448151899058e-01 -8.253235515604778749e-01 2.398344411400835652e-01
-5.641539898820264742e-01 -8.189748265915749448e-01 1.049309730703486265e-01
-8.219607787390229570e-01 -4.604086058758955491e-01 -3.352676450988869017e-01
-6.428203453053569216e-01 -7.452241923375702015e-01 1.772650750044068579e-01
-5.597475440886521270e-01 -8.031313557534112135e-01 2.041144588029228102e-01
-8.899050111009103592e-01 -4.560265072740968817e-01 1.043531891590557779e-02
-5.191216865474380660e-01 -7.415647775709959255e-01 4.249639457909608065e-01
-8.989711198194408892e-01 -4.372723256958507831e-01 -2.537398098687393758e-02
-8.366120628254964942e-01 -5.267453541979848497e-01 -1.503980989431279169e-01
-8.149949210160235546e-01 -5.601072301549734345e-01 1.485367612620159539e-01
-8.720041925661393689e-01 -4.889842944861219065e-01 2.242872918791388726e-02
-7.566192128831092933e-01 -6.491036603415690776e-01 -7.868802213374702370e-02
-8.316034786774860743e-01 -4.441468673563226943e-01 -3.334204769792478706e-01
-9.002853745258601048e-01 -4.255901401059462019e-01 9.142908213163288000e-02
-8.713041155523669756e-01 -4.305560756062587480e-01 2.354795192369074641e-01
-8.946707758907749275e-01 -4.265624220459254823e-01 1.326977877182301813e-01
-7.320118036085252466e-01 -6.283436423584446429e-01 2.633305650423378719e-01
-6.640895363452037348e-01 -7.301710161855663461e-01 1.607338633871216727e-01
-7.842579153537615477e-01 -6.201805879136145228e-01 -1.776402488445946379e-02
-8.957672257905813229e-01 -4.443897999341590022e-01 1.089875744862472615e-02
-8.228200388663505782e-01 -5.405743581309047086e-01 1.753469331677563747e-01
-7.851455515802047147e-01 -5.854953676873306812e-01 2.018455777333094392e-01
-7.116644732908199433e-01 -5.703168255229196237e-01 4.102101851260637200e-01
-7.123664097736913670e-01 -6.492377638274833274e-01 2.665040792303753348e-01
-8.212438901636998079e-01 -5.603000489341175561e-01 1.078069016029054167e-01
-8.881660370910926527e-01 -4.527918766946378293e-01 -7.836202496906059800e-02
-8.518182994722692802e-01 -5.225782789804822581e-01 -3.629775505411757253e-02
-8.774451955079165533e-01 -4.620461482976650491e-01 -1.288537377159317543e-01
-8.218497238829454155e-01 -5.576883462298233285e-01 1.163904628093328092e-01
-8.312688480923211554e-01 -5.497447746463839380e-01 8.229693153612722967e-02
-8.996818816667228047e-01 -4.365456360103456834e-01 -6.476734885620118957e-04
-8.381476240444786230e-01 -4.767974854983351718e-01 2.649013365973456602e-01
-8.899963210227099797e-01 -4.481145943702050105e-01 -8.426066032537408990e-02
-8.708584601508905232e-01 -4.877251907113749896e-01 6.107111206759485711e-02
-9.126688320924072340e-01 -3.781172003947609883e-01 -1.551224860963408281e-01
-9.095613649407998658e-01 -3.695594248940094473e-01 1.900630287011076947e-01
-8.685221508309574068e-01 -4.947275267268613774e-01 3.023156983502971185e-02
-8.378393465967063358e-01 -4.821878436025585080e-01 2.559689683854640130e-01
-8.935606099749774378e-01 -4.485175535646295786e-01 -1.953050039158635981e-02
-8.063105036240311163e-01 -4.419456497287720942e-01 3.931251892608442766e-01
-8.829962611183916898e-01 -4.276734828769955254e-01 1.934243906408943947e-01
-9.258884991813212118e-01 -3.695103280913528687e-01 -7.869310336733117972e-02
-9.539594787584299018e-01 -2.900488943596676861e-01 -7.637376360818563803e-02
-4.919377803171378627e-01 -3.450522508854186876e-01 7.993348262496471346e-01
-8.382010344881465347e-01 -5.162641058953363338e-01 1.757566463809839830e-01
-9.154296413463011151e-01 -3.888743981555268792e-01 1.037558393718602395e-01
-8.855052633518671890e-01 -4.613892169464074988e-01 -5.477608110955996257e-02
-5.045135866771406352e-01 -3.183898031633249359e-01 8.025546548988339302e-01
-9.073429738663140176e-01 -4.084067820038255192e-01 9.966257165412348296e-02
-8.536825356106921836e-01 -4.802202296781822310e-01 2.015307902061946876e-01
-9.351680071752020984e-01 -3.537209173739614965e-01 -1.850164771268414735e-02
-5.696903574034583029e-01 -4.520858145050393184e-01 6.863463506166803674e-01
-6.490752955353112919e-01 -5.210579658495967381e-01 5.542561293756061991e-01
-9.333370441875421530e-01 -2.960155636978509808e-01 -2.031175718541006203e-01
-5.297747976128375225e-01 -4.164436153317520595e-01 7.388595123998179526e-01
-7.916762045293159744e-01 -4.202241339165456724e-01 4.434641636661813546e-01
-6.153693752998097288e-01 -4.400381793485469983e-01 6.539777768844581285e-01
-4.462555274018191742e-01 -4.493409470787426141e-01 7.739177718218538393e-01
-5.493140300816361510e-01 -4.711102621393084000e-01 6.901515900601138398e-01
-6.843855587021709930e-01 -4.925787396622087200e-01 5.375710113768294995e-01
-7.244650323850408968e-01 -3.701717447675687001e-01 5.814837024604178062e-01
-9.072990576539838870e-01 -3.507506414287736018e-01 2.319103437052706662e-01
-9.448718952468250221e-01 -3.212309814463960023e-01 -6.346462110229719733e-02
-9.431609447016515713e-01 -2.950303950825570731e-01 -1.529852880734565712e-01
-7.082791614281592762e-01 -4.221604376313599083e-01 5.657925365233463788e-01
-9.087032288300969096e-01 -3.972181770226612674e-01 1.283595020111489571e-01
-8.355970399199471599e-01 -4.069594596350787907e-01 3.690007928047675523e-01
-5.412275625370202015e-01 -5.640466049063272980e-01 6.236378380469559390e-01
-8.832100031187368749e-01 -4.249509857524483847e-01 1.983853575721330198e-01
-9.100392163924567734e-01 -4.049498439048498377e-01 8.856776247168521299e-02
-3.093354196625244801e-01 -3.423916807762704684e-01 8.871750306886518889e-01
-7.747992500221092538e-01 -4.680314139905175086e-01 4.250090795303244073e-01
-8.773210880070924089e-01 -4.536101019182039451e-01 1.566703034266804795e-01
-5.081275836089341746e-01 -9.352620553086209154e-02 8.561887687039257955e-01
-4.708807723014962199e-01 -1.184323159390287261e-01 8.742111214220879001e-01
-3.121351438022936242e-01 -2.728047269745632608e-01 9.100270506659984271e-01
-7.354768069357949800e-01 -4.365343114689222981e-01 5.181811086578526071e-01
-9.359002792689925521e-01 -3.405740882596363095e-01 -8.999976483491112234e-02
-5.780595698872649235e-01 -1.701961634139829149e-01 7.980478680009809311e-01
-5.231695160050087168e-01 -4.051694757983093087e-01 7.497541953229792666e-01
-8.376059538168882934e-01 -3.405623850568999522e-01 4.271223806063742523e-01
-6.981972374341038901e-01 -3.742469954263386023e-01 6.102948500960365674e-01
-7.453796576446407585e-01 -6.140990981894404177e-01 2.594059821447343150e-01
-8.160827475177266921e-01 -5.766517300214515362e-01 -3.849326521854713051e-02
-7.945214718447592972e-01 -2.591234444023572947e-01 5.491727153989861554e-01
-6.809126248133016146e-01 -5.971141608061847350e-01 4.240432481888912197e-01
-7.873464587417975391e-01 -5.217110701488714142e-01 3.284860928424072068e-01
-8.373725936102218714e-01 -5.427914809164582355e-01 -6.468808016171262443e-02
-8.213590333915938846e-01 -5.375371742758596749e-01 -1.908484334165478913e-01
-4.246780963621355487e-01 -2.740830383976264883e-01 8.628597815015819350e-01
-8.978561593400691265e-01 -3.799485539430914049e-01 2.224711520437065437e-01
-7.724838949338548311e-01 -5.122424038135625635e-01 3.753349861165679591e-01
-8.534022386027610985e-01 -5.093803834447807599e-01 -1.106175578714522351e-01
-5.439490399476571980e-01 -5.313116637201701353e-01 6.494823769240603006e-01
-9.047088978664319381e-01 -4.147085226578326456e-01 -9.756357597107599700e-02
-6.369442342969572346e-01 -4.563874087122525847e-01 6.212991031417786081e-01
-7.516814734185783831e-01 -4.373904294278268545e-01 4.936239203728040592e-01
-7.979199952405487961e-01 -4.558182769497176046e-01 3.944025603288004445e-01
-8.392295928144751782e-01 -5.226520336199628192e-01 1.500951108376527010e-01
-4.453078925064626881e-01 -2.703802189227872965e-01 8.535780093739050445e-01
-4.229162967532668627e-01 -2.935474689051690289e-01 8.573048987611534555e-01
-2.120390808295449236e-01 -2.184622667031213550e-01 9.525301392753386942e-01
-7.098932252931046127e-01 -3.605343853868311355e-01 6.050343507906749130e-01
-7.093477017726486089e-01 -5.282190859663102867e-01 4.667016554617920421e-01
-6.758995791331738889e-01 -3.110408184847515134e-01 6.681417276027101781e-01
-4.186641423287371100e-01 -2.804969380585943250e-01 8.637371149070162124e-01
-8.022524835855759928e-01 -5.969343236776639694e-01 7.769542860767867515e-03
-8.737017811116872812e-01 -4.035037596736507637e-01 2.717166053289601368e-01
-8.340080067700091915e-01 -3.785118161323077768e-01 4.014466959531965418e-01
-6.211678398162159276e-01 -1.576596627778329429e-01 7.676548348775221742e-01
-8.426817507826757092e-01 -4.794776755173347227e-01 2.449257552368429847e-01
-3.324075244995667866e-01 -1.344026811300011726e-01 9.335101268658723139e-01
-7.486419694294706995e-01 -3.155196115713091998e-01 5.830802486130477469e-01
-6.620785127956103633e-01 -1.845998480596230951e-01 7.263435406133360583e-01
-8.999118661457397028e-01 -3.317005905553800371e-01 2.830783485102748021e-01
-2.373343313375708696e-01 -1.521413861895947253e-02 9.713088824646006758e-01
-3.725298892454633748e-01 -4.928068527739262045e-02 9.267107939790887317e-01
-7.849911679902833450e-01 -3.946572062949747495e-01 4.775296385531442311e-01
-7.721749062295072408e-01 -1.009060531747588696e-01 6.273467004951444048e-01
-6.675317097356527896e-01 -9.986542627779607106e-02 7.378538562152739955e-01
-3.175445368080799802e-01 3.322099187050856633e-02 9.476612437165938818e-01
-5.387772157692878316e-01 -1.341478746001787681e-01 8.316991400188825656e-01
-9.664152764580647981e-01 -1.844616827712308449e-01 1.789284801748674270e-01
-4.811327912122885797e-01 -1.319695664797682910e-01 8.666575279448129887e-01
-5.305934404670727966e-01 1.138557438340805084e-01 8.399449211283458450e-01
-7.491037996500680141e-01 -1.918743717280116945e-01 6.340565612181704447e-01
-9.679423825962917283e-01 1.161973722072758425e-01 -2.226785006818976231e-01
-6.373182254463669594e-01 -1.111572773881112086e-01 7.625414999838081576e-01
-4.278488751601025597e-01 -3.083486240217911400e-01 8.496272512626363849e-01
-5.450930194044718569e-01 -6.477594639108716357e-02 8.358694138235081006e-01
-6.805148627580556164e-01 9.214733835024613295e-02 7.269170445108229517e-01
-7.298356141074620052e-01 -2.241024053006086120e-02 6.832552652557961625e-01
-9.633948222952581908e-01 -5.115208970235175789e-02 2.631613195242993863e-01
-3.888950484769709837e-01 -4.548001380251563419e-01 8.011975260336199334e-01
-5.425376159464240233e-01 -1.944001103738196568e-01 8.172279561846971241e-01
-3.705525458777346182e-01 1.856641628771593944e-01 9.100657280475147326e-01
-5.852252992297658496e-01 3.313942026774702870e-02 8.101932658111573593e-01
-7.613813088035132903e-01 -6.093603655154757881e-01 2.213107488205104112e-01
-7.451605693918593731e-01 -3.434906397906240666e-02 6.659999006211354544e-01
-9.040478629447702419e-01 -4.840042219439961296e-02 4.246820700670067006e-01
-6.051718148447332579e-01 -1.864166533907647694e-02 7.958766002534046757e-01
-4.875414497711019757e-01 -5.950952904019670697e-01 6.388778679031622554e-01
-8.352494590341336123e-01 -5.423232077207840174e-01 9.079581240688588961e-02
-7.527673860611113765e-01 -1.947765275914711824e-01 6.288110739976915387e-01
-7.829602093143898101e-01 1.727874444034731005e-01 5.975933480945745391e-01
-2.240949996745051631e-01 1.792103838013610617e-01 9.579483647142221781e-01
-4.607150252348968245e-01 6.501961189208110836e-02 8.851633270714571733e-01
-7.007362377019077382e-01 1.673390742211414706e-01 6.935173821975818553e-01
-2.964625544775408295e-01 1.712493886338836979e-01 9.395656446918289051e-01
-4.701315886097789387e-01 -3.344709254784084540e-01 8.167652596682001276e-01
-7.701248258193805762e-01 1.269909323933831047e-01 6.251248321307736333e-01
-3.435870144388016856e-01 1.387822211069571487e-01 9.288096998920986058e-01
-5.617776649811029310e-01 1.363983053799144030e-01 8.159665173387123938e-01
-4.813064175094279862e-01 -2.670789359849889966e-01 8.348730289195875898e-01
-4.932993325531378481e-01 8.697684491649092520e-01 -1.259417880996973813e-02
-2.401411422161295051e-01 1.594425437335366402e-01 9.575543363501165528e-01
-4.459192216760722305e-01 1.404824909435899993e-01 8.839800435971900683e-01
-6.085449727689565824e-01 -7.580893324896703644e-01 2.344644537728395595e-01
-5.343598210693438766e-01 -1.665899938886528098e-01 8.286780771583845961e-01
-6.428802618903313171e-01 -1.163747067296729693e-02 7.658782789374266597e-01
-6.083955385590124054e-01 -7.214115570180353876e-01 3.307872942878898881e-01
-1.592732240590062076e-01 -2.158083874308362182e-01 9.633580746598595645e-01
-6.882765321276864690e-01 -7.253415757637118322e-01 -1.245045344159595793e-02
-6.069765809386419297e-01 -6.844026937822212941e-01 4.039460148778240556e-01
-8.109971967402267445e-01 -5.657414910983415979e-02 5.823082624624108528e-01
-7.349666628854054640e-01 6.776671770348177137e-01 2.431463791117828913e-02
-4.523171493393269293e-01 -5.886439049463764173e-01 6.700056339934961080e-01
-8.558735208981811393e-01 2.376662836959610725e-01 4.593421968636255404e-01
-3.439306849280376888e-01 -3.024102157933799551e-01 8.889655478975166947e-01
-5.249346543654330732e-01 -5.449269486174445065e-01 6.538334874543551001e-01
-5.879942111838362129e-01 -7.740080729268455917e-01 2.348921255776127426e-01
-6.292640387075588704e-01 5.709449738723115786e-01 -5.273031446894635987e-01
-5.321522686469521979e-01 -7.409796973091345995e-01 4.095888806468815924e-01
-6.413292373709921224e-01 -7.614662465262612701e-01 9.415925177245609845e-02
-8.367288483075256966e-01 2.882408306962455091e-01 4.656200789586937838e-01
-9.177637705936299295e-02 -1.049983688114125846e-01 9.902284782618606673e-01
-6.368662997033276429e-01 -6.383508130142330206e-01 4.323303780978833277e-01
-7.197640464299690510e-01 2.504456436393702745e-01 6.474694564601629621e-01
-3.505409891016320612e-01 -3.262371985951273423e-01 8.778896885215436985e-01
-5.070112362497014580e-01 -6.030950407216444376e-01 6.158051462707238022e-01
-4.486342679454342619e-01 -4.528577759055086860e-01 7.704849955884801593e-01
-6.444118907965395993e-01 -7.280650377403413698e-01 2.337832667668586772e-01
-6.407334457336697486e-01 -7.503872549837818928e-01 1.624180380258396783e-01
-8.736071243393966901e-01 8.099154103345979072e-02 4.798447275780732824e-01
-5.595335473022927664e-01 -5.433225573126029273e-01 6.258776303388755569e-01
-5.958193264186666394e-01 1.259657594141298798e-01 7.931783895954478414e-01
-6.459523046256978596e-01 1.884535516053953697e-01 7.397505518998023222e-01
-7.949867109392524389e-01 1.659244542175970782e-01 5.834939630558161339e-01
-2.771259207787840628e-01 -2.206322350132595145e-01 9.351591527144269556e-01
-4.157294364827249233e-01 -3.315944692920866910e-01 8.468849647836801386e-01
-3.794179420953562865e-01 1.957602306231554790e-01 9.042786944977161401e-01
-4.834219070760513715e-01 2.249205602625282963e-01 8.459988187522154979e-01
-6.897634645582032542e-01 4.144216671317086376e-01 5.937011409559862507e-01
-8.156020691847996051e-01 2.310695105797012927e-01 5.304716260290748275e-01
-8.737537697567592243e-01 3.237705055821948341e-01 3.629421573073348117e-01
-4.378934145173613568e-01 -5.997006025845893484e-01 6.697824607900737526e-01
-8.230005156668578348e-01 1.741339343649712934e-01 5.406917089383395103e-01
-6.168241822810410779e-01 6.951694862354276250e-01 3.691440282064666345e-01
-1.453876215334951039e-01 -4.379881673277336192e-03 9.893650772800509641e-01
-8.517774414100280911e-01 3.191507433623726464e-01 4.154732161237728039e-01
-6.272007052769815738e-01 -4.964291594357387316e-01 6.001477859344168664e-01
-3.836067649343530284e-01 2.964636270147734121e-01 8.746171549620126440e-01
-6.908827048237794477e-01 4.589010744827620725e-01 5.586509572299548365e-01
-3.291386215445954444e-01 -2.130748318642564365e-01 9.199276514127306958e-01
-4.457517904739043413e-01 -2.873421989547107480e-01 8.477852334106674714e-01
-7.713057055045201560e-01 4.303735498907532708e-01 4.688988336630897091e-01
-4.598237601556801057e-01 -1.982729995326436290e-01 8.655922407534738516e-01
-3.819278391859532995e-01 -2.088087134632235220e-01 9.002944223067150809e-01
-5.629093492316189495e-01 5.173268847816986371e-01 6.445975169279650752e-01
-8.212149861904167736e-01 4.974699861515803345e-01 2.795166530541961514e-01
-4.369295415939578042e-01 -2.614095666841627641e-01 8.606727683205110946e-01
-7.182644845721989357e-01 -5.675219546781937741e-01 4.025108211718980700e-01
-2.957278769354169667e-01 -6.008065795052502933e-03 9.552533307707818944e-01
-5.493312819479585496e-01 -4.234549494649552659e-01 7.203617483230524421e-01
-6.280617544451874146e-01 6.697513541151378647e-01 3.961963607406969734e-01
-4.009889035122533585e-01 -1.903241759346795403e-01 8.960940839637464572e-01
-6.509521566664301373e-01 -6.660695943808171426e-01 3.641601092551150498e-01
-3.616362703412979718e-01 -4.182304785223417420e-02 9.313807173449456522e-01
-8.722661964361976272e-01 2.666158590338273404e-01 4.099605667212192772e-01
-6.713900287543147494e-01 6.714867040515848373e-01 3.135937428763841961e-01
-5.483132385214231075e-01 7.641183045494590598e-01 3.398173172671001829e-01
-3.712767552111269076e-01 2.323044010967074968e-02 9.282316077855828906e-01
-3.785820616014919926e-01 2.551620979610108933e-02 9.252159454263667593e-01
-5.684926223568727011e-01 -4.766592521398737570e-01 6.705312041025847103e-01
-6.479530907532176087e-01 6.955471873211483969e-01 3.104366318477760900e-01
-2.911171268723085626e-01 -3.431386322198980154e-02 9.560718473171326837e-01
-4.500289704682631786e-01 -1.866380292118096640e-01 8.732927182744664174e-01
-3.268891527109713535e-01 -9.570548975439620298e-02 9.402042017938307961e-01
-2.822916071681991768e-01 2.407986626615481185e-02 9.590263857491091448e-01
-6.583711884358985911e-01 4.621493649110576529e-02 7.512732910749760906e-01
-9.362464079059421573e-01 3.513181934136013762e-01 -4.265050975472905841e-03
-6.043074031033477400e-01 -5.435179287198923515e-01 5.825811734981882761e-01
-6.232075154779974646e-01 7.619405045864651171e-01 1.762358082861270603e-01
-3.631865101514399896e-01 1.813055325176031185e-01 9.139058281478055212e-01
-3.247336488876312877e-01 9.280240173168058382e-02 9.412416116560914370e-01
-9.473993658354860070e-01 -2.820677470533808004e-02 -3.188084369574323840e-01
-4.058281404438334183e-01 8.982941765581893279e-01 1.684372072481158111e-01
-3.066725181419820978e-01 6.273996128038504712e-03 9.517944124594559518e-01
-3.927125270852439565e-01 -1.370386437064252672e-01 9.093939087114147890e-01
-9.371929967669290207e-01 9.022876777177307739e-02 3.369392471609837791e-01
-3.209633636127126599e-01 -7.671920368835374870e-02 9.439791750901279643e-01
-4.030582456082961729e-01 8.635876772191795059e-01 3.029197491124419606e-01
-9.143269148119773648e-01 -2.576503039879379786e-01 -3.124461772935208659e-01
-2.562116584035019073e-01 4.127009626115881596e-02 9.657392843064436239e-01
-2.053868296278053840e-01 -1.316321211993300433e-01 9.697882422900391264e-01
-9.808626087185149389e-01 -1.782580679970399151e-01 7.831094439394960249e-02
-7.311762467892770623e-01 9.224223907159830038e-03 6.821262418529702165e-01
-6.679771997259517091e-01 -4.579235009661604683e-01 5.866110533472503885e-01
-7.084284203482614783e-01 -5.195439943700560503e-01 4.777061975282235196e-01
-8.898109426725692161e-01 -3.936148671516168096e-01 -2.308762063474038007e-01
-5.841869828103078977e-01 -5.048964186352898897e-01 6.354566669445267380e-01
-1.304093495192470975e-01 -2.836794707386296466e-01 9.500101891239997043e-01
-7.765266369545581471e-01 -4.020471224550088429e-01 4.851437863414218565e-01
-1.544359277266707797e-01 -2.311532725909739294e-01 9.605819636021101227e-01
-3.772049458501472996e-01 -3.742514684394243618e-01 8.471435930213495613e-01
-5.275747980960997507e-01 -2.640779562994943208e-01 8.074203771335858315e-01
-6.861728599090202163e-01 -5.124556408662888085e-01 5.162906375953348892e-01
-2.682117705465266178e-01 -3.775718843053599283e-01 8.862854609675131501e-01
-8.176786681931751399e-01 -4.795697053287220624e-01 3.184564229415980940e-01
-8.326483224927443416e-01 -4.812329555535837522e-01 -2.740649805049548693e-01
-5.410343134863057069e-01 -4.752945722261260331e-01 6.938133331399632953e-01
-8.498691012000941791e-01 -5.205007475150886798e-01 -8.247110197868044723e-02
-3.612971807668842739e-01 6.987815268182218098e-02 9.298286890323815834e-01
-3.071229131885776509e-01 -1.667683711643192790e-01 9.369438758931941669e-01
-7.176036856554462995e-01 -5.174652992341287616e-01 4.661272513190501954e-01
-4.377939066747887908e-01 -1.087240474136565854e-01 8.924772135984310184e-01
-7.088964518564311312e-01 -3.790843091961803024e-01 5.947780317619483226e-01
-8.703644188878695287e-01 -4.675863005868737821e-01 1.543658959662494723e-01
-8.558357451201902277e-01 -4.961400825778009560e-01 -1.462538745957238651e-01
-5.294308631242268248e-01 -4.037307190677184576e-01 7.461263081091559224e-01
-5.346609382379204911e-01 -1.528031745259030016e-01 8.311370951758518810e-01
-7.094890043450364780e-01 -2.567723369539314238e-01 6.562722908128193477e-01
-7.357361653980297733e-01 -3.039543530560933071e-01 6.052305727436898541e-01
-7.979584741012391014e-01 -5.402435723053422567e-01 -2.672062053785140279e-01
-6.102532006530566600e-01 -1.203625577516718170e-01 7.830095055516091973e-01
-2.809095404157895826e-01 -2.488491263887914751e-01 9.269109678922378137e-01
-5.984947679435239642e-01 -4.330635360406847600e-01 6.739881204414257532e-01
-9.136438598956387880e-01 -3.890571958848364487e-01 1.178532799934993297e-01
-8.659168514084990553e-01 -4.937338229845515403e-01 -8.009318627605355179e-02
-4.337286039015760819e-01 -1.987055485456215853e-01 8.788604002540866267e-01
-8.511158051324839713e-01 -4.868810150308098827e-01 -1.963383901743411264e-01
-4.605353323775052132e-01 -3.755090018579412270e-01 8.043010612672306658e-01
-7.369503580106202545e-01 -4.095406408065945247e-01 5.377551797572410752e-01
-4.084520561069980849e-01 1.376212648247733539e-01 9.023454467829907788e-01
-6.168153350850055228e-01 -2.112267513466555557e-01 7.582361781921980182e-01
-8.540252119086070293e-01 -4.831242184304662679e-01 1.929557643357927010e-01
-6.918505667133908466e-01 -1.939824185626270181e-01 6.954952297657789329e-01
-2.689445345778102014e-01 6.423560274357889566e-02 9.610112510584327694e-01
-7.779053633057417816e-01 -3.944428683143426095e-01 4.891605762693024273e-01
-8.538525940730291586e-01 -4.753464589280015917e-01 -2.120884051035523965e-01
-5.371097011586796199e-01 -4.834516279675704631e-01 6.912218835777264037e-01
-8.622556767348567019e-01 -4.647277649335719851e-01 2.013535508461696544e-01
-8.810812923950354092e-01 -4.719417145228255173e-01 -3.109299414256999627e-02
-8.191250320066465473e-01 -5.568410647903366817e-01 1.377033423823628422e-01
-5.603060601909001237e-01 -1.631753910183649653e-02 8.281249041243785580e-01
-6.891033287074173064e-01 -6.311399905321873546e-03 7.246356109077114471e-01
-8.073323749983147835e-01 -1.175463498792227029e-01 5.782709502557187298e-01
-4.868721973542750048e-01 -1.867790126896363423e-01 8.532696313956710243e-01
-8.539756772007564001e-01 -5.202433603003235874e-01 -8.508161548617984571e-03
-8.843890456003216105e-01 -4.054952074796079886e-01 -2.311485512245793905e-01
-2.996085122004487622e-01 -2.806403316444103790e-01 9.118529177841945277e-01
-4.274819645735175033e-01 -9.903549606410627648e-02 8.985828512072231433e-01
-4.856439564776514062e-01 7.749426403038345290e-01 -4.044920911163217281e-01
-6.727421470375294366e-01 -2.819052853396454839e-01 6.840668196140696766e-01
-7.743151988481590253e-01 -3.976207766661077336e-01 4.922739997157856151e-01
-8.950737718103315421e-01 -4.423883844166058843e-01 -5.599518149351502549e-02
-7.284895674333722315e-01 1.107275381115592344e-01 6.760490828663930918e-01
-7.823945875703024466e-01 4.703538841186525876e-01 4.081983991090523678e-01
-8.541730663709354854e-01 -4.847662186708152077e-01 1.881225290125371763e-01
-6.107096078389563365e-01 2.771103133971882237e-01 7.417840987120850604e-01
-8.372242078512623920e-01 1.864155545506122336e-01 5.141058906581541521e-01
-6.299984305261675521e-01 3.889555248574279034e-01 -6.721722823930249557e-01
-8.979635739636784297e-01 -4.332632143550320114e-01 7.709998003321992532e-02
-9.007060348998132682e-01 -3.545055894510059091e-01 -2.511064032298880866e-01
-7.288536136297697476e-01 -4.026336267074013819e-01 5.537676160116907775e-01
-9.052440442238430807e-01 -4.097733028246450804e-01 -1.123345925770092013e-01
-4.760435122514815043e-01 -2.034671868621283630e-01 8.555604469081569130e-01
-6.452026813134088545e-01 -1.169957592818652997e-01 7.550003260502923252e-01
-8.255789225326375380e-01 3.225609387882101275e-01 -4.630052736610220099e-01
-8.164295581647796896e-01 -4.661225761470402795e-01 3.408409021243040682e-01
-5.001875454523864173e-01 -1.549855022400466187e-01 8.519342189803843501e-01
-7.768479183907580632e-01 1.160652137688047425e-01 6.188991661367366781e-01
-5.397681196611233689e-01 -1.674252048408871596e-01 8.249964713751702927e-01
-9.817557118490424228e-01 4.735120211412324753e-02 1.841564169670101281e-01
-9.443674749729313866e-01 -3.267820324650713149e-01 -3.719644433607870865e-02
-9.411564780999824853e-01 -3.193865829289226858e-03 3.379560370099962130e-01
-3.761862949011586243e-01 -3.599825361699410947e-02 9.258444779038567107e-01
-8.030571843979277258e-01 -1.970785601246233532e-01 5.623692734547985905e-01
-3.222224650720887373e-01 -2.427818421757343692e-01 9.150025465060867003e-01
-8.968419812489135667e-01 -3.798716359459670122e-01 2.266539231367022955e-01
-4.262230394524208488e-01 -1.581592527539890658e-01 8.906848889524509039e-01
-5.938541309009524038e-01 -1.156623777245332496e-01 7.962157280479844612e-01
-8.418096200497051651e-01 -3.185849909597944229e-01 4.357294655252485494e-01
-3.285191156434232318e-01 -2.224682496624738048e-01 9.179232367409478899e-01
-8.979848267486717495e-01 -3.977226155414528286e-01 1.882550716873880592e-01
-6.554162246974017947e-01 -2.702205424279407325e-02 7.547843274657366486e-01
-7.092880525113998136e-01 -8.836535722613629920e-03 7.048633727191451204e-01
-3.806580688347232511e-01 -2.111827113697958558e-01 9.002784552845418675e-01
-3.304969295960002995e-01 -2.209516662107555984e-01 9.175795010386333939e-01
-2.979866073065886023e-01 7.818193606657099226e-02 9.513630047141792279e-01
-5.634352557192285893e-01 -1.773708185772787382e-01 8.068954736084678059e-01
-4.275081399847575070e-01 -1.808167435461073835e-01 8.857438091796940860e-01
-8.547489275492630156e-01 -2.560800403454726593e-01 4.514723510803799744e-01
-4.532831154350880909e-01 -1.836841420995052876e-01 8.722353771790211097e-01
-7.313068270526823511e-01 -2.576136297997541624e-01 6.315263592658136860e-01
-7.862987566577973597e-01 -4.190985338467144161e-01 4.539721183133786919e-01
-1.350744242531990991e-01 1.541066184957965400e-02 9.907156057184245412e-01
-3.692798583700017678e-01 -9.854578043295630918e-02 9.240785222918509456e-01
-7.172845490023600501e-01 -4.801449908896086166e-02 6.951240778736678116e-01
-6.111889156543190982e-01 -1.996809694273047053e-01 7.658822493241824736e-01
-6.396688646486798913e-01 -1.685291286486023388e-01 7.499477824462257303e-01
-3.838726027796958151e-01 -1.004996106235144376e-01 9.179006771430467948e-01
-5.647790944006998437e-01 -4.494049305929368604e-02 8.240175523685845382e-01
-4.883297390432639329e-01 -2.461489657546605259e-01 8.372244338430698818e-01
-5.248910616363106074e-01 -1.583293888443536579e-01 8.363140427151037892e-01
-6.364959278151802735e-01 -3.074342203984552491e-01 7.073592679838772712e-01
-8.455520350212432090e-01 -4.052692906865321687e-01 3.475608696298668199e-01
-3.276904838418674970e-01 -2.386976677329618601e-01 9.141347658952303501e-01
-8.803160888284533581e-01 -4.200311136095505882e-01 2.204936446923022042e-01
-5.288280838856720401e-01 -2.602816040415256715e-01 8.078331166097234561e-01
-8.800589977393301622e-01 -3.885918616909220247e-01 2.729331887580347948e-01
-5.310347715988957829e-01 -1.694565703658126865e-01 8.302328240395973058e-01
-7.469941498299647042e-01 -2.339220055595025993e-01 6.223184357182648396e-01
-4.614629048117300236e-01 -1.144035019718987745e-01 8.797521390819610376e-01
-2.971794432021477861e-01 -1.387453214556325642e-01 9.446873103372536162e-01
-5.829362839407489227e-01 -4.403920202600301176e-02 8.113235097975797228e-01
-8.103361633008957510e-01 -3.765891095607391548e-01 4.489275498418797139e-01
-2.171167748418004750e-01 6.818960358442045788e-02 9.737609994476542630e-01
-5.663015098071587650e-01 -7.007859385617842829e-02 8.212134866606083383e-01
-8.122230102422653975e-01 -1.060159795324022158e-01 5.736326295781807305e-01
-3.419445065734249556e-01 -1.644977340393951049e-01 9.252104895212555080e-01
-5.485364756962759492e-01 -1.573003505883090458e-01 8.211968914550906717e-01
-8.574277179751444988e-01 -3.015396488026310107e-01 4.170030559215629484e-01
-5.710485537795191302e-01 3.424722920638495482e-02 8.202016072393452095e-01
-7.323835531775469976e-01 -1.064252339407787823e-01 6.725236059914043718e-01
-7.074729265565954384e-01 5.712753045751999686e-02 7.044277844131868749e-01
-1.751984853839064771e-01 -2.477377247650378381e-02 9.842213932426320255e-01
-4.859955707305914641e-01 -1.536251199766328068e-01 8.603531994142940009e-01
-3.909588823655424372e-01 -6.022038134522244429e-02 9.184359846881665623e-01
-4.862915816098463129e-01 -3.252819990980864578e-02 8.731909378057136628e-01
-5.775029661194411856e-01 5.089813772486982690e-02 8.148004072773820106e-01
-8.797183352730528760e-01 8.906478014663694875e-02 4.670793460664257601e-01
-6.559321802844597649e-01 -3.835704921338522339e-02 7.538446203581458116e-01
-5.096823224561729537e-01 -1.074552300867891302e-01 8.536259741260669998e-01
-9.898975561275727975e-01 1.349428856832587398e-01 -4.351144649553395638e-02
-9.895288475667513017e-01 -1.327064275238726831e-01 -5.675970337367905461e-02
-4.842439903136577239e-01 2.000581070849397625e-01 8.517537858059082145e-01
-1.709903277104843911e-01 -7.693488948924810666e-02 9.822643893620180977e-01
-7.066489372852778894e-01 -4.998514699827403263e-01 5.007951551180193084e-01
-4.203152494069608003e-01 7.071222397296843265e-02 9.046186337328901983e-01
-9.640177771775860771e-01 3.313636958004712030e-02 2.637644902117049495e-01
-9.333794256529146516e-01 3.687509431999061449e-02 -3.569917018457532953e-01
-7.418468201724682798e-01 -6.581985248109539777e-02 6.673312838608457254e-01
-8.753921901067144296e-01 -3.065576365117328450e-01 3.737792516934428932e-01
-9.035884887675962318e-01 3.831268436513585868e-02 4.266848733942056326e-01
-3.102893489487595913e-01 1.602177172398468741e-01 9.370436505368400226e-01
-4.102748394181902070e-01 5.833852441734965755e-02 9.100940460794062492e-01
-4.703006066452635192e-01 -3.016059475394505113e-02 8.819907470677826877e-01
-6.177982580905291288e-01 -3.325456301756536670e-02 7.856331499744768632e-01
-9.874167216014397841e-01 1.516639069482022262e-01 -4.479148614493449337e-02
-3.465423554054315458e-01 2.239500531651071324e-01 9.109087603033584335e-01
-5.197116418104250624e-01 6.765363091218491720e-02 8.516588493000646354e-01
-8.374158364889927597e-01 -1.933725843564788049e-01 5.112159625996993695e-01
-9.225678474752999625e-01 -2.516049211771978489e-02 3.850136574735834039e-01
-7.072595958281951978e-01 -1.291698157451848239e-01 6.950532517795259269e-01
-8.590800333310597559e-01 6.633957965506694088e-02 5.075239467287177009e-01
-9.743348905521360681e-01 1.360715420360446293e-01 -1.793210988720790877e-01
-9.666247925218756087e-01 -1.127739361788720474e-01 2.300403221193290937e-01
-9.944000867976684477e-01 8.591888772365761928e-02 -6.153382898145468710e-02
-4.868330085377827188e-01 -5.422906746218254109e-02 8.718100882877148905e-01
-7.906119938056328511e-01 -1.798302713274166006e-02 6.120533358995969841e-01
-9.201012529759230452e-01 -9.735829349550267908e-02 3.793877264221655610e-01
-9.520261663597706647e-01 -1.018079232323501199e-01 2.885850400374799229e-01
-6.684787625636083863e-01 -2.707124576821555162e-01 6.927127176955206744e-01
-7.009962269684090197e-01 5.674645668620484362e-02 7.109037413248123771e-01
-8.117754077864416384e-01 1.055136138866999834e-01 5.743583938602488947e-01
-9.917303628194972243e-01 8.240458464284441953e-02 9.838888093554426506e-02
-9.800105034703724405e-01 1.405953951401362756e-01 -1.407563424970112442e-01
-8.603833701951071333e-01 1.177744809165306994e-01 -4.958524255628392052e-01
-4.079650281288597635e-01 -1.098617868778099110e-02 9.129314539995095901e-01
-6.632520316084550283e-01 -6.655367176505461169e-02 7.454309836207817508e-01
-1.933339904433407641e-01 -1.955548100462279129e-02 9.809380975892068033e-01
-2.251957653695054740e-01 -5.016234009750174944e-02 9.730213804925281762e-01
-6.104678948528204918e-01 7.089489489789754795e-02 7.888617516595551882e-01
-7.744928962036503606e-01 -8.662472192386019842e-02 6.266234206297237597e-01
-8.183888808902035628e-01 -3.174616923570701132e-01 4.790174459464551782e-01
-4.624591613189010242e-01 2.823642420873545555e-02 8.861908532929705373e-01
-5.778055862816151578e-01 -1.986506372628003558e-01 7.916303612020211267e-01
-3.275505450725117451e-01 -4.365263618055371941e-02 9.438247124213205996e-01
-6.902206148593776902e-01 2.703730419836198468e-02 7.230936917197022806e-01
-3.802281233304282693e-01 3.663296318447355898e-02 9.241669763830266948e-01
-9.425274831600943815e-01 3.782757778958049932e-02 3.319804479882377257e-01
-9.747740448826907045e-01 3.538316962795408360e-02 2.203714880153908595e-01
-9.411041326754983061e-01 1.606861273668901413e-01 -2.974945040381916095e-01
-9.140277024032749109e-01 1.147012402316320290e-01 -3.890976544888389843e-01
-7.925746483099561646e-01 -2.362535817833141261e-01 5.621473756506419894e-01
-4.283622992026985821e-01 8.552388672068204911e-02 8.995506686240446470e-01
-6.771143709716952452e-01 5.391330568638039861e-02 7.339001867376599986e-01
-3.475575335347034223e-01 1.178520771454052429e-01 9.302229027473937206e-01
-3.721198046454354258e-01 -9.003229477304407202e-02 9.238079004254848847e-01
-8.886218419400091495e-01 3.794847834996409319e-01 2.575704197290054065e-01
-6.703884117206581061e-01 -3.069088408808715723e-02 7.413753752752684223e-01
-7.471896665095492107e-01 -1.388214087575819211e-01 6.499509356343053934e-01
-8.859185140673537795e-01 -1.869570879372674521e-01 4.244943270559794479e-01
-2.003170959579148869e-01 7.715599598804253646e-03 9.797007352195968855e-01
-5.490182833800616446e-01 6.337016458390642287e-03 8.357863164331037487e-01
-9.718784958977703115e-01 1.168766899386906033e-01 -2.044309872804581374e-01
-9.499176913561793167e-01 -5.564584465818548514e-02 3.075059668052374517e-01
-9.956658714177852865e-01 -7.805978731559611028e-02 5.055830394807726141e-02
-5.070871340337274047e-01 -4.218414166046832725e-02 8.608618569142379995e-01
-8.510705270642803244e-01 -3.475093337309721059e-02 5.239001150908697557e-01
-4.367288832017819922e-01 -1.268158627977545305e-01 8.906096897744743002e-01
-4.736234947142788365e-01 6.531658738562212685e-02 8.783020714235677540e-01
-8.458062062794859948e-01 -4.587036618199492183e-02 5.315146008581828063e-01
-7.837722273104135162e-01 1.107522468011000322e-01 6.110933116352866845e-01
-3.215018603473127623e-01 -2.922531729585868890e-02 9.464578356282827842e-01
-6.181456111887282390e-01 -1.168185225964163271e-01 7.773348288520876004e-01
-9.844494072579721422e-01 -1.650730417402197503e-01 6.008540122242131409e-02
-9.586699561216333043e-01 1.671874056978492895e-01 -2.302179111315375559e-01
-9.201322578589823387e-01 7.204120653584887568e-02 3.849242686661757951e-01
-9.981404017873560797e-01 6.088426348128699039e-02 2.974017504427238067e-03
-8.752015673124254880e-01 -1.367036509759634588e-01 4.640413002995701919e-01
-4.730663617490079575e-01 -6.694516095565840319e-02 8.784796883287500080e-01
-7.067017938002202460e-01 2.017927468434155269e-02 7.072237068373520286e-01
-5.052430046743207059e-01 1.410441806240403384e-01 8.513730353609736401e-01
-7.022433285904120526e-01 7.326702903373931430e-02 7.081569387549824235e-01
-7.730363661572171585e-01 -2.313382005984534195e-01 5.906753876219276167e-01
-9.869752906814944771e-01 -2.758559985039997497e-02 -1.584891487297257762e-01
-7.967992646853321315e-01 -1.975059577975839809e-01 5.710537001293074510e-01
-8.111317602532202020e-01 1.017950321430686061e-01 5.759366622637457356e-01
-9.941179649806253238e-01 1.071509248447368029e-01 -1.575280951759824855e-02
-2.977351825552934650e-01 -1.824449384282639600e-02 9.544741481638908676e-01
-4.625140067493489493e-01 4.773170384856860980e-03 8.865991261021749503e-01
-9.214519399751640583e-01 7.309899283638957024e-02 -3.815532198295699118e-01
-8.454577017775602998e-01 -5.415683052285481802e-02 5.312892923941950896e-01
-7.329004457293945007e-01 4.728703613411659734e-02 6.786905575174193572e-01
-9.038468680452822479e-01 -2.970283318534673866e-01 3.079529334185348577e-01
-9.592836755051478148e-01 1.096512322657250266e-01 2.602910624127194872e-01
-3.117154874305185785e-01 -6.894884946146641325e-02 9.476705709548514101e-01
-4.161621316015334804e-01 -8.300198400031350010e-02 9.054942025617168655e-01
-9.917487689388463368e-01 -1.278986770064801382e-01 8.735429484274272877e-03
-4.609505412913958433e-01 2.466350208401864655e-02 8.870830345284035356e-01
-8.737843578875776895e-01 2.312172539209048361e-01 4.278311318736277569e-01
-6.774402953012635953e-01 -7.608795857204828095e-02 7.316319217082283277e-01
-8.186288899670294272e-01 -1.510877440163632401e-01 5.540931637544312949e-01
-4.744639866414865348e-01 1.371099422571870063e-01 8.695313617774220738e-01
-6.404172604914486477e-01 -7.194052158056583879e-02 7.646504389715237382e-01
-3.905166281359644387e-01 -2.818019970916943104e-02 9.201644632855955352e-01
-8.809116812814198338e-01 -1.043777449343723657e-01 4.616274430147728758e-01
-9.893042575007439110e-01 5.891757421046328082e-03 1.457476356082439417e-01
-9.884953869029572404e-01 1.300094267605855780e-01 -7.729436606219594608e-02
-9.768738633840253760e-01 -2.137075620183489233e-01 6.821508142784656059e-03
-2.569521390611015921e-01 1.153783766952070078e-01 9.595120783101707129e-01
-5.232523624570274423e-01 -3.549813983450118837e-02 8.514381053555389878e-01
-4.614986336732639916e-01 7.815908150938818966e-02 8.836912181838854075e-01
-7.903937047816188555e-01 1.663741531630902604e-01 5.895739415890528523e-01
-9.427620545140809050e-01 -2.437845797193301245e-01 2.275275527479228288e-01
-7.337949601315625348e-01 6.871841125317243448e-02 6.758866298724649502e-01
-5.593531393928036222e-01 -1.040915848571167396e-02 8.288641112215162643e-01
