-9.383072283122843027e-01 -2.497098388035224881e-01 2.392165163646473025e-01
-7.619699253832633579e-01 -4.419606260440930301e-01 4.733631141503710782e-01
-8.825795362421570145e-01 -3.452801812157904604e-01 3.191159016190979192e-01
-7.533659487049125802e-01 -2.395168468779130255e-01 6.124307531416179895e-01
-7.533546172670605445e-01 -2.395639327566619070e-01 6.124262753708092921e-01
-7.662444019464017542e-01 -3.234640280774850885e-01 5.551941453452917674e-01
-8.201189213220301255e-01 -2.704886464573574845e-01 5.042230131868798981e-01
-9.386632504322908188e-01 -2.601202254898370980e-01 2.263819131004128349e-01
-8.005299661504542419e-01 -1.931730461871883076e-01 5.673058676956506119e-01
-8.339191525930904625e-01 -2.038886669547962383e-01 5.128433078688050539e-01
-9.264576900066054943e-01 -2.585093367489654792e-01 2.735855833943638404e-01
-8.346241302878049106e-01 -3.351035519976075516e-01 4.371592050728339562e-01
-9.713209521959278447e-01 2.103414567852638639e-01 -1.108696504127664600e-01
-9.713165831511739734e-01 2.103250507220649768e-01 -1.109390298059677177e-01
-9.522234173054928696e-01 2.386504467312824673e-01 -1.905689581490345730e-01
-9.770778188012615439e-01 1.946105926269738329e-01 -8.628819875247788207e-02
-9.770663276796316410e-01 1.946575605961596289e-01 -8.631237117233549194e-02
-9.766114588144843012e-01 1.922146722089772553e-01 -9.635132744202469512e-02
-9.722648570413876534e-01 1.863607696372325540e-01 -1.413177671154919046e-01
-9.722605325424727996e-01 1.863750575841135182e-01 -1.413286763921088873e-01
-9.830156294328195044e-01 1.616377087186061379e-01 -8.691100857196751295e-02
-9.829915785308972476e-01 1.617478272094516611e-01 -8.697814053172410464e-02
-7.795687152090876593e-01 4.026751769856204977e-01 4.797137897818359864e-01
-8.421191101931805312e-01 2.194582869850304208e-01 4.926189851406885256e-01
-7.434024788566980790e-01 2.718341859865331389e-01 6.111128617193026802e-01
-9.034259351583386888e-01 1.919524358246832152e-01 3.833742845630780938e-01
-9.842549773597012441e-01 5.247916184931356726e-02 1.687841139273709157e-01
-9.836329235548668670e-01 1.522043114926649454e-01 9.643712595234998908e-02
-9.002241477657492164e-01 3.007182370574862373e-01 3.149047882780890983e-01
-9.001507587055097570e-01 3.008343177393886236e-01 3.150036902516731296e-01
-9.286379165703889660e-01 1.314004933114380214e-01 3.469373578404577607e-01
-7.631609312439342485e-01 3.417487634464858037e-01 5.484461465865988483e-01
-6.625579402351139402e-01 3.722767495745594180e-01 6.499438418491276792e-01
-6.657273138686053970e-01 3.485601342717205564e-01 6.597825220220457920e-01
-6.657356606372304419e-01 3.486905380117230058e-01 6.597051908671066611e-01
-7.578935758216690521e-01 5.207370439900563808e-01 3.929761554404312407e-01
-7.923767541757540389e-01 5.399412329227744056e-01 2.839058724854613969e-01
-6.617760000774750573e-01 3.973720970228507010e-01 6.357263107887858311e-01
-7.746091405748343206e-01 5.046776560271262202e-01 3.811576351654025752e-01
-6.725520378178632130e-01 3.399081286911471156e-01 6.573706872661132516e-01
-7.952816589977456108e-01 4.087109432383903562e-01 4.477526635755267326e-01
-8.802747275333250299e-01 1.649071527730659181e-01 4.448842939803686058e-01
-8.065249974788633036e-01 2.574216810003479572e-01 5.322137790330824236e-01
-7.407397836021379911e-01 3.053768011457881904e-01 5.983724444783729002e-01
-8.569460785374144463e-01 4.540335983293730671e-01 2.439198845265158899e-01
-7.268020759329886227e-01 3.822051136487832346e-01 5.706820424020881966e-01
-7.215423854801127357e-01 3.956312322902765244e-01 5.682011210761077624e-01
-7.376126510245792911e-01 3.901445132252865378e-01 5.511032896369758571e-01
-9.073117485706070351e-01 2.077971859647899378e-01 3.655211627400827834e-01
-9.247450231182884339e-01 3.262728079485162636e-01 1.959405445826535586e-01
-9.230154568500078538e-01 1.780372220745698730e-01 3.410941423887861590e-01
-7.053076870177067415e-01 4.176563802583546647e-01 5.728038186527923958e-01
-7.052705023868607315e-01 4.176803653357811785e-01 5.728321140403648259e-01
-7.805659139448336559e-01 2.229870223492038950e-01 5.839466087334544975e-01
-6.865055903862692377e-01 3.867834485606677086e-01 6.157179860032655494e-01
-7.987181875999072034e-01 4.542469751999308469e-01 3.945997241748058770e-01
-7.982560154037710021e-01 4.570695504960261557e-01 3.922687342639673003e-01
-6.915124920941001507e-01 3.983182947799395190e-01 6.026217796606824217e-01
-6.358447423494855144e-01 5.062990698399409961e-01 5.825484662289711624e-01
-6.894495882583850932e-01 5.072890393557315525e-01 5.170271712394645114e-01
-6.629101669352606141e-01 4.840420340062503990e-01 5.711859766214127943e-01
-6.628298527072113977e-01 4.840778604910196403e-01 5.712488173664549418e-01
-6.737271519146662557e-01 5.210757576573137317e-01 5.239959728421667018e-01
-6.803787481731934372e-01 3.206549208506414561e-01 6.589879974389118988e-01
-3.255682173759298914e-01 5.194740032782113603e-01 7.900329713073804827e-01
-4.731868423118528177e-01 4.029911291018007380e-01 7.833851939679441490e-01
-4.302154469351933685e-01 2.660623015208424813e-01 8.626271042158274449e-01
-3.135305920303320115e-01 5.703365248720788649e-01 7.592198734608770483e-01
-3.366240117845713531e-01 6.650634446610060868e-01 6.666144982414481390e-01
-3.488463370434424782e-01 6.186619794136147821e-01 7.039627748392671691e-01
-3.948787571969450405e-01 6.270655598846078815e-01 6.714607588840911800e-01
-5.215540886544597354e-01 9.508944702022989470e-02 8.479029010878562644e-01
-7.654325445778933368e-01 2.769023430510902939e-01 5.808942348774238651e-01
-7.556950779058666523e-01 2.137651783243928183e-01 6.190552461329978939e-01
-7.557073114221197763e-01 2.138560276127745852e-01 6.190089328247495581e-01
-7.546000128152462461e-01 1.271095707347603410e-01 6.437561476885911294e-01
-6.360352730774504471e-01 1.119874634384710049e-01 7.634906282554554391e-01
-5.910727855054624946e-01 2.488006134418684623e-01 7.672882228900450574e-01
-7.730170058140003464e-01 1.169276749914021918e-01 6.235163410396419303e-01
-7.593217350899175155e-01 1.348010062681369581e-01 6.365997104375203941e-01
-6.739771637487821376e-01 2.216213367747594809e-01 7.047260218207611615e-01
-6.326354503860860401e-01 3.502736284160849478e-01 6.907103388186864867e-01
-5.986646483294018051e-01 2.760835265555839912e-01 7.519165679816250947e-01
-5.966173454268766108e-01 2.858819645859157488e-01 7.498794872913139287e-01
-5.966750854568865226e-01 2.858341752368304123e-01 7.498517631250180004e-01
-6.125742615017314430e-01 2.971357037685155023e-01 7.324364461791872394e-01
-6.537475321112540261e-01 2.751409477612290488e-01 7.049195862816534097e-01
-6.571683746102126022e-01 1.700478626410301120e-01 7.343115495642081880e-01
-9.827012748911787554e-01 -1.777657366972830166e-01 -5.193791662864571251e-02
-9.823219370556793839e-01 -1.230535479505598107e-01 -1.410724505917342886e-01
-9.843994513415723624e-01 -1.159705388093778128e-01 -1.323198939187666123e-01
-9.437881658494191583e-01 -3.269606477891598972e-01 -4.858634375915098225e-02
-9.649028601087767942e-01 -2.622102331184115176e-01 -1.443136174761945612e-02
-9.116366703831629836e-01 -3.756529234011045659e-01 1.667437025884455915e-01
-9.116417918358830086e-01 -3.756497472152816597e-01 1.667228562475938092e-01
-9.316165439902012180e-01 -3.559877417869143912e-01 7.323484594922392843e-02
-9.492911931311557305e-01 -2.818267653026204633e-01 1.393553192479159708e-01
-8.179175116487445996e-01 -4.373905501485969571e-01 3.737652348453951445e-01
-8.179197291925480728e-01 -4.374160827903824100e-01 3.737305006470655888e-01
-8.381830145137504351e-01 -4.432061172336290711e-01 3.178326160533759270e-01
-8.343740813281134150e-01 -4.292379997917183942e-01 3.457956505548783754e-01
-8.859963888779148755e-01 -4.401601800796474118e-01 1.458403742711432416e-01
-8.017063332633714845e-01 -5.136599658899440035e-01 3.056475006397751937e-01
-8.525948541607863973e-01 -4.101551340428133963e-01 -3.238128791090143510e-01
-9.121642706802752798e-01 -1.665991940043254904e-01 3.744343091270223578e-01
-7.103450366128146731e-01 -6.853228255470774632e-01 1.604448620047050911e-01
-9.904399798562192325e-01 1.379139296275804227e-01 -2.897294788415696355e-03
-9.904823831943077028e-01 1.355759732425352027e-01 -2.374455855693873019e-02
-9.904807060058140600e-01 1.355878415066151255e-01 -2.374675274224303731e-02
-9.068660927841912800e-01 3.920455951356214830e-01 1.545772981168034022e-01
-8.930354547736273352e-01 4.271368462272844835e-01 1.415690330272465214e-01
-7.784814790692976549e-01 -5.110384124197642208e-01 3.644260251101250625e-01
-7.728292302164363470e-01 -5.740145460479971762e-01 2.706331129931852097e-01
-8.007495057004875294e-01 -5.550271048423893738e-01 2.252668240347438511e-01
-9.949416144799868578e-01 7.271697541118500585e-02 6.930674760083924135e-02
-8.000614521417139802e-01 -5.616796540675380589e-01 2.107549264037808512e-01
-1.020399423109565051e-01 -9.871653378452635019e-01 -1.228513163544594639e-01
-9.893165576467213285e-01 -1.827668723750448809e-02 -1.446330234409277937e-01
-9.820323098688462649e-01 4.922469172610523247e-02 -1.821797796082985088e-01
-9.939642418424976533e-01 -2.546750154785522302e-02 -1.067075081865322683e-01
2.328437589258598450e-01 -9.317882524885078288e-01 2.784859717359003950e-01
6.838478046457268852e-03 -9.747942549356056752e-01 2.230008873582021989e-01
-7.348339100067667884e-01 -6.702778971664131724e-01 -1.036661240441551779e-01
-9.500026342774355870e-01 -2.028868744431349680e-01 -2.373434453374022868e-01
-7.768393293004134392e-01 -5.860551723067268792e-01 2.303475449502696837e-01
-5.284437922677043264e-01 -8.060375913086333943e-01 2.665531088002982552e-01
-9.807143523407529928e-01 1.629721466146370201e-01 1.078862296156207073e-01
-9.669549287488264921e-01 -2.879678659970849597e-02 2.533158322132327833e-01
-2.488385925737104376e-01 -8.506256606629853945e-01 4.631580078845604076e-01
-1.802996009495979879e-01 -1.304345916912575676e-01 9.749250592675062776e-01
-5.226408592321478419e-03 -2.398822402803835740e-01 9.707879250646302971e-01
-2.178678656410531767e-01 -3.336960831346713063e-01 9.171589378191713493e-01
-9.591795108010144899e-01 1.476143021104802389e-01 2.412150158509260567e-01
-7.085385727880140205e-01 -3.373514383382184567e-01 6.198121472854976055e-01
-6.540007182534267605e-01 -5.954689011600569071e-01 4.665831633002160417e-01
-8.823931997670768634e-01 -3.867297459815720040e-01 -2.679969115080406694e-01
-8.979134707810171312e-01 -3.418787651061116484e-01 -2.772549529936436108e-01
-8.227706437547691598e-01 -4.959086037270252767e-01 -2.777105048875085358e-01
-8.976895842719992968e-01 -4.347178099001001716e-01 7.192938234981208212e-02
-8.770406539531351298e-01 -4.101601145544684357e-01 2.501367061071255171e-01
-8.722006037822737090e-01 -4.135242979276909092e-01 2.612733468711412321e-01
-9.981091702122997233e-01 -4.901566437658812225e-02 -3.708839419328218562e-02
-9.081161133713308020e-01 -3.461739010314705545e-01 2.355605121407279845e-01
-9.481788568118091343e-01 -2.664084444075356384e-01 1.731571432064177019e-01
-9.561562971196171379e-01 -2.817397576918235780e-01 7.992399148099826878e-02
-7.470713818952657848e-01 -5.620335826975442206e-01 3.549684525042481886e-01
-9.118506826187328107e-01 -3.604535373459321623e-01 1.964728480542689282e-01
-9.390592157812561735e-01 -2.830464263824012394e-01 1.950705251144926600e-01
-9.038606519394289940e-01 -4.268361896208290873e-01 -2.909964098751180450e-02
-9.178605995070999723e-01 -1.297949424241456595e-01 3.750802484716835306e-01
-8.926654716697213221e-01 -2.425404349909008328e-01 3.798980035260763333e-01
-9.127587078377995544e-01 -2.090459247734579862e-01 3.509577504513616275e-01
-8.725264456261346835e-01 -4.128589834115979906e-01 2.612375575972288866e-01
-9.340732625609724504e-01 -3.532327099863502018e-01 5.228568412481261057e-02
-8.785138798281356687e-01 -3.899633748126768440e-01 2.759382707310164551e-01
-6.576417986343827682e-01 -6.704892500611904227e-01 3.434405774530966404e-01
-6.888906390334098573e-01 -6.841169920022012185e-01 2.396114118859961617e-01
-2.594857956670655885e-01 -7.726316119830926032e-01 5.794027217846301481e-01
-8.264679877632404859e-01 -4.825896595658455968e-01 2.899273800155851566e-01
-8.523395856856151864e-01 -3.324533138854467440e-01 4.037227077585041624e-01
-8.522979695608436934e-01 -3.324520345266088195e-01 4.038116093199670131e-01
-9.035871440499231300e-01 -2.530186651841778711e-01 3.457048281064649120e-01
-9.540956541235557919e-01 -2.716840981446777548e-01 1.260525033383207150e-01
-9.197154257981482450e-01 -1.047887790924031948e-01 3.783422357142462999e-01
-5.410579255957513878e-01 -6.028330912609348724e-01 5.863860377181635553e-01
-8.040651732297385834e-01 -5.232009566003461565e-01 2.823826414840566734e-01
-8.666805258099551379e-01 -4.689376069088749266e-01 -1.701833922812593658e-01
-4.076782943702536577e-01 -7.622566815330339418e-01 5.027555666102642151e-01
-4.075198355774152792e-01 -7.622761082216031880e-01 5.028545698763046135e-01
-6.436813083511787603e-01 -7.392417432296591873e-01 1.979798432823134668e-01
-6.355785552465004207e-01 -7.647096052557663670e-01 1.061089993371959750e-01
-8.883428872835505974e-01 -4.204253526335490210e-01 -1.846332512731137521e-01
-8.367118113937033197e-01 -5.474354869598682116e-01 -1.509080154530647103e-02
-9.355037175467780797e-01 -2.772289710033059018e-01 2.190362803112908263e-01
-9.070378362091005009e-01 -3.773361037247622840e-01 1.868149579421520823e-01
-5.952322092725811364e-01 -4.852039324293890843e-01 -6.405277207112419768e-01
-9.017326973558894565e-01 -4.279541289891478639e-01 -6.110160391030387134e-02
-7.398310298288214293e-01 -6.127132245727088256e-01 -2.779074517463301364e-01
-9.096231484003346468e-01 -4.100426488603720054e-01 6.671397162388405244e-02
-9.406277784562405708e-01 -3.389733049077120475e-01 -1.778991164736255445e-02
-9.471804901543514621e-01 -3.122169777975686289e-01 -7.327808571404638427e-02
-7.729900150296802330e-01 -2.033059767918397875e-01 6.009601621281818185e-01
-7.729155374278185997e-01 -1.585331130361019025e-01 6.143849152394196267e-01
-9.022103943738382092e-01 -3.362966464191025628e-01 -2.700388303393950751e-01
-5.315132934552789790e-01 -5.561359839587246556e-01 6.389103115669551025e-01
-4.415191640007314344e-01 -6.277314225501049449e-01 6.411038051386975800e-01
-6.034555588225611888e-01 -7.644722072190360818e-01 2.267677951469418973e-01
-8.501661158802809037e-01 -4.360228580099993478e-01 2.951298742957560450e-01
-4.549686832953445670e-01 -7.898706211374373343e-01 4.112273082912411559e-01
-8.952324972569886130e-01 -3.502263845331574643e-01 2.755000098581643631e-01
-8.783826254423825475e-01 -4.004329851271060670e-01 2.609547618709838201e-01
-8.698189483407101630e-01 -3.886828891235272754e-01 3.038759760330662640e-01
-7.942976336037802509e-01 -5.031021006344952307e-01 3.405576978847977831e-01
-6.698196170710462027e-01 -6.502153348081444184e-01 3.585550152586486905e-01
-8.067414407389112974e-01 -4.826936147600099369e-01 3.408447184047609380e-01
-7.814058737873671445e-01 -5.142885947802661173e-01 3.534290617500777110e-01
-7.720039440465046310e-01 -4.900179055696972097e-01 4.048362170035290641e-01
-8.014577325911315109e-01 -4.580680133760990369e-01 3.844986319761835025e-01
-7.725725591293516326e-01 -4.924249785298518978e-01 4.008107800448976743e-01
-8.051429669911557285e-01 -4.637438858314841261e-01 3.697112536271976446e-01
-7.634058264907335190e-01 -5.183950967192632042e-01 3.853285192889643884e-01
-7.703516317301277727e-01 -5.975027962616240584e-01 2.225955344346998155e-01
-7.421903912219048882e-01 -5.722993352392233835e-01 3.487504753582693628e-01
-7.903012595386181838e-01 -4.703350599809588140e-01 3.926943474566214065e-01
-8.008853754038411932e-01 -4.703252440868211370e-01 3.706437376226944247e-01
-7.850135422170676502e-01 -4.731035605736639282e-01 3.999084389061248745e-01
-7.897354705519947782e-01 -4.759503830957959591e-01 3.870259931619381422e-01
-7.897250234932466917e-01 -4.759779162443185663e-01 3.870134500457411142e-01
-7.579535749424798352e-01 -5.366242174351726346e-01 3.708649720504795244e-01
-9.507807769546926524e-01 1.726792822531388605e-01 -2.572892917592407569e-01
-9.217934436539030330e-01 9.132338039757632864e-02 -3.767716648441574723e-01
-9.993095280623122134e-01 1.881865379622828238e-02 -3.203631366397598212e-02
-7.174965625630289612e-01 -5.771550154181595005e-01 3.899881676255079754e-01
-7.837492912439075754e-01 4.680882342013069630e-01 4.082039361360627616e-01
-6.015108901771940575e-01 5.575224598483826677e-01 5.721480191024418405e-01
-5.965568069606311807e-01 6.267425152315885262e-01 5.013120741315915119e-01
-3.891315389839958283e-01 5.487192818632184999e-01 7.399214789958868943e-01
-1.727025893503942866e-01 7.701750426350871814e-01 6.140066932320124016e-01
-5.730931538636205858e-01 7.662887967664034905e-01 2.904577713626305679e-01
-6.439209563587994234e-01 1.383866681871617488e-01 7.524725456985295047e-01
-8.522325719459187265e-01 3.354272436688651715e-01 4.014825120962958183e-01
-9.343761328807959066e-01 -3.419490512930314363e-01 -1.000604248568079946e-01
-8.914272242335948837e-01 -4.416465991924208856e-01 1.015174138606634302e-01
-9.891061527149973553e-01 3.211736951978242521e-02 1.436575554451146042e-01
-8.788715760575236402e-01 -1.319029582258260391e-01 -4.584608624620431505e-01
-9.047604554439766522e-01 -2.236731650021035467e-01 -3.624621821966395596e-01
-9.630955311005776620e-01 -1.173422733126793516e-01 -2.422349868782555371e-01
-9.258278821799885705e-01 -3.668618970663198309e-01 -9.085747662695761728e-02
-9.258538177102427769e-01 -3.670101721161745378e-01 -8.999023166224555392e-02
-6.584492683082090458e-01 -7.509208131260008967e-01 5.062107741415225459e-02
-8.276280561538045255e-01 -5.612768330578287168e-01 -3.425487544421457740e-04
-8.851685515911208446e-01 -4.652520479041138413e-01 -4.143331401835378437e-03
-8.271847750630670904e-01 -4.697148670529011083e-01 3.084368518405976589e-01
-8.803548250363170125e-01 -3.850906258940381410e-01 2.769126069427202963e-01
-8.419135601903993127e-01 -4.388949071215991760e-01 3.139312307978452399e-01
-8.615286434989856135e-01 -4.066761820039403452e-01 3.039455204826942425e-01
-8.321375167429433395e-01 -4.897072196407405431e-01 2.602575498628680317e-01
-8.011267066344016641e-01 -4.501034975186279929e-01 3.944652601162945138e-01
-8.018353724691841267e-01 -4.618392420014854061e-01 3.791629596950341630e-01
-8.018343092274929917e-01 -4.618380367721560686e-01 3.791666761941370756e-01
-8.210951911177372109e-01 -4.279030101531057784e-01 3.777587868273055149e-01
-7.518992136542460569e-01 -5.096496753717392192e-01 4.182161891888063754e-01
-7.841592970205572000e-01 -5.104732530063698093e-01 3.528615236340173489e-01
-7.589098105887945866e-01 -3.582655207247760765e-01 5.437846228534648496e-01
-7.101914540224019134e-01 -4.275269348724837215e-01 5.593289001938712701e-01
-6.959307126791794973e-01 -4.349039191521904546e-01 5.714359318908061036e-01
-6.958327833843581667e-01 -4.350250117837355934e-01 5.714630142801349066e-01
-8.160476527703134364e-01 -5.689371239801174207e-01 -1.018664683067716931e-01
-8.070208029643306524e-01 -4.729267587987560639e-01 3.536349875152486888e-01
-8.113250374623766081e-01 -4.016693763030505515e-01 4.247509808428835965e-01
-8.228903819771564709e-01 -3.349810347896908236e-01 4.589543828973828288e-01
-7.806525432154796107e-01 -4.457053200278962013e-01 4.380963073001579722e-01
-8.021692786415255405e-01 -4.455188978394138410e-01 3.975391302396387161e-01
-7.925325204399009671e-01 -3.815080063312149550e-01 4.757560773656595021e-01
-7.800253686713716217e-01 -4.032562066466650608e-01 4.784818241375871084e-01
-7.635283785667580370e-01 -4.078911792897648159e-01 5.006487800652493769e-01
-7.635351084939978605e-01 -4.077884508348067483e-01 5.007221958958952834e-01
-3.491455641609870764e-01 -9.369957767625469724e-01 -1.167430322790865595e-02
-5.044419625867165857e-01 -8.634443894647417794e-01 -1.446611046855976555e-03
-5.044934789405728370e-01 -8.634142777516128353e-01 -1.454194312505295962e-03
-5.192177763755059239e-01 -8.525634418296074157e-01 5.956910567843622106e-02
-3.417248158251059431e-01 -9.358063346528595616e-01 -8.654856597817014996e-02
-3.689261580522761874e-01 -9.294305782131492277e-01 -7.231195416954693152e-03
-2.621498698909266456e-01 -9.628301044585572122e-01 -6.508176138131205324e-02
-2.614322068357675666e-01 -9.631497804700192011e-01 -6.321156230891791794e-02
-3.500115247920668748e-01 -9.367452998687405552e-01 -4.191498010272465486e-04
-3.529493858326173128e-01 -9.324805847892589927e-01 -7.685499353626808194e-02
-5.728363704495077480e-01 -8.196652955042296185e-01 -2.701117583238033231e-03
-2.360737739558788628e-01 -9.669938142764479272e-01 -9.587562986137385113e-02
-4.502464429099759524e-01 -8.810372521376081956e-01 -1.450913539557972531e-01
-4.495710805001444377e-01 -8.886706311678000958e-01 -9.027930481431822862e-02
-2.884759484493727433e-01 -9.484195689716612421e-01 -1.314608244224997335e-01
-2.079933738947652155e-01 -9.658363562049052664e-01 -1.545926565160969934e-01
-2.077634321656179062e-01 -9.658742541724369968e-01 -1.546650619293226392e-01
-9.394947546427184770e-01 -2.915733829054567017e-01 -1.798181536438583361e-01
-9.395180131923838163e-01 -2.914526746654012013e-01 -1.798923047754388826e-01
-9.384038960410265862e-01 -2.988578614085488638e-01 -1.734419400529494115e-01
-9.415552557080438811e-01 -3.053452792994738041e-01 -1.422601871856156441e-01
-9.233159650279767483e-01 -3.260092726457399226e-01 -2.029915832576602852e-01
-9.231996488002343071e-01 -3.457726166083275876e-01 -1.677608597347858277e-01
-9.257084135214677101e-01 -3.344699217074560416e-01 -1.766176792073082258e-01
-7.947958890177229119e-01 5.354466304386775732e-01 -2.856508371288164483e-01
-6.510465393029454262e-01 6.447702157506099985e-01 -4.005118881413758936e-01
-7.461860329522236324e-01 6.623868475509618881e-01 -6.670883313716316487e-02
-5.621504195713057372e-01 7.876675856363527517e-01 -2.521243350285804485e-01
-6.507461249733575981e-01 7.393610751551094040e-01 -1.728429384662274471e-01
-4.763070197051570420e-01 8.032022568300641874e-01 -3.577677425407194689e-01
7.235382888394989442e-02 -9.431667450825095278e-01 -3.243476752133377383e-01
1.162822299031008866e-01 -9.297880820420868497e-01 -3.492457093526848966e-01
8.091459443723622580e-02 -9.366380934272809933e-01 -3.408253370099786905e-01
6.651823144128903020e-02 -9.408393948513433802e-01 -3.322597748474546142e-01
7.523521843010501364e-02 -9.422070491739658049e-01 -3.264744069520035263e-01
4.827087824932052573e-02 -9.532569290276760032e-01 -2.982803204600726343e-01
4.722046105047813386e-02 -9.552381615050439256e-01 -2.920450014341007816e-01
9.821815397531831471e-03 4.340182035749998168e-01 -9.008505596977930407e-01
3.827295960113918233e-02 5.148665005586285925e-01 -8.564155925518178725e-01
9.183447553544683839e-02 5.932916357437009180e-01 -7.997321201875620122e-01
1.408128261152002125e-01 4.558101847671519047e-01 -8.788679215126612432e-01
-2.944331704543734496e-01 2.655214138453884654e-01 -9.180454710556181785e-01
-5.383260140221670653e-01 8.725707268129562211e-02 -8.382071974721384544e-01
-2.381403809359856905e-01 1.564544650529696712e-01 -9.585463782898837604e-01
-5.304541729642753278e-01 -1.159295375747603461e-02 -8.476343396818958320e-01
-5.517955918145867056e-01 -8.666559686824049091e-02 -8.294641036075411922e-01
-4.564040715616257127e-01 2.093069268556409235e-01 -8.648039857865005287e-01
-3.182985929076425080e-01 3.712096853560707954e-01 -8.722897312538200332e-01
-2.631737799690147539e-01 3.614601931177551242e-01 -8.944753156616987999e-01
-2.631948764214767644e-01 3.613973860204443556e-01 -8.944944865135130430e-01
-2.631948764214767644e-01 3.613973860204443556e-01 -8.944944865135130430e-01
-2.584766447739695883e-01 3.555155215492766807e-01 -8.982196491081326784e-01
-2.584313856833983514e-01 3.555477451571216196e-01 -8.982199172849849589e-01
-4.169509233369768642e-01 2.580003135433808215e-01 -8.715433240751487842e-01
6.629092890924979109e-01 2.667739817514170331e-01 -6.995590876369011113e-01
7.418559233775213757e-01 1.280642148330753960e-01 -6.582167924239498147e-01
1.864297916118272114e-01 6.118562565437473122e-01 -7.686844958289731355e-01
3.695935146361280232e-02 2.917678884737782696e-01 -9.557748195024505788e-01
-1.269549677144668487e-02 3.927849915302201733e-01 -9.195426987314569978e-01
1.561006962884585458e-01 5.337184761375530773e-01 -8.311300505021259610e-01
1.563566255505135227e-01 5.336035172869310061e-01 -8.311557567540950320e-01
2.160709315623000892e-01 5.021887368529492912e-01 -8.373289826059043817e-01
3.910871619518318382e-02 5.520363796328591199e-01 -8.329023615523074575e-01
3.902586955389308887e-02 5.520277066377491382e-01 -8.329119957173323208e-01
-2.682145986577308960e-01 1.908682563882500294e-01 -9.442617421934352828e-01
2.432332909315571556e-01 2.997290762561333755e-01 -9.224966379501062796e-01
3.977894123250623470e-02 2.536899607697105097e-01 -9.664672987944721294e-01
-1.235009145421937932e-01 3.909427901854085063e-01 -9.120916943538568411e-01
6.424373455388142640e-01 2.385908014641389616e-02 -7.659667103416499812e-01
5.107649150626342172e-01 1.455991272888616968e-02 -8.595971210296060594e-01
5.107242751055413033e-01 1.455634774983616264e-02 -8.596213280032698467e-01
2.073997420350531806e-01 4.790864678145252964e-01 -8.529135380334840200e-01
7.053237147573911958e-01 1.182243246615950344e-01 -6.989574139095628968e-01
6.466760465665051250e-01 5.334202531300029360e-02 -7.608973118185018425e-01
8.249237976266291517e-01 3.509969721049619601e-02 -5.641531169505240584e-01
5.537926204394635343e-01 4.500658222209979464e-01 -7.005387135735819948e-01
7.809563378648203269e-01 1.275937424435315826e-01 -6.114139638886426642e-01
7.906185199672227659e-01 2.118590790142345637e-01 -5.744894137615406127e-01
5.389995719775109162e-01 1.598411679369499683e-01 -8.270007632648304075e-01
7.774742927178353025e-01 2.243547797612176209e-01 -5.875360899223104338e-01
7.984840206370119597e-01 1.459634433122098396e-01 -5.840530301297951477e-01
7.984338590503432531e-01 1.459903428664733605e-01 -5.841148795499958579e-01
7.848950475053980691e-01 2.262348972767306843e-01 -5.768513982436774823e-01
8.171471124061794322e-01 1.940929628136951468e-01 -5.427693050205070202e-01
8.193235580595354950e-01 2.186882658450942651e-01 -5.299852352569157654e-01
7.920030658667119861e-01 2.130852530268041445e-01 -5.721239538773320588e-01
7.700288698228912043e-01 1.701706171707380311e-01 -6.148963332879869848e-01
7.660703800620263237e-01 2.024839139024122436e-01 -6.100298659921358224e-01
7.827811820152076328e-01 1.833805274487785020e-01 -5.946639414286711833e-01
7.847899113902599977e-01 1.825818728345919018e-01 -5.922572538114505569e-01
7.947768761904073775e-01 1.765029427803597728e-01 -5.806689489398334514e-01
7.947205995054081873e-01 1.765618392018006577e-01 -5.807280651556649964e-01
7.971379417210185947e-01 1.845123983354699793e-01 -5.749141472683299003e-01
7.834523378517060932e-01 1.757501721022896035e-01 -5.960824702343725523e-01
8.429662303360857534e-01 3.343601629006656088e-03 -5.379560900678750368e-01
9.300204543039803928e-01 -2.011984504793448425e-01 -3.075404657942246156e-01
9.009432177682922260e-01 -2.687180287769384002e-01 -3.407226722241302741e-01
7.885784723170975452e-01 -2.959496679125189211e-01 -5.390341242078300343e-01
7.839400961409517254e-01 3.931465275284950350e-02 -6.195904161149027312e-01
8.767678315337169570e-01 -2.069381299029015853e-01 -4.341137869037949293e-01
7.630290590626552794e-01 -9.761726114466195980e-02 -6.389503308963646599e-01
8.521963204129915370e-01 -1.590174341134990010e-01 -4.984725540313297287e-01
6.390946695949767387e-01 -3.823935351548092831e-01 -6.673328911173906919e-01
3.772506346473391559e-01 9.052710168743076380e-02 -9.216760832951310656e-01
1.454879663026137750e-03 2.250861710762984413e-02 -9.997455903784063791e-01
1.453067111627204602e-03 2.250999704716531713e-02 -9.997455619450910103e-01
4.686722070193656831e-01 4.016981457113002335e-02 -8.824583550315096003e-01
5.279750542144601849e-02 2.068169963177434734e-01 -9.769540180865109447e-01
1.469748012607253670e-02 1.881433742457777891e-01 -9.820315956247828160e-01
-7.512074711555311035e-02 -1.319974174906266839e-01 -9.883994916675170606e-01
3.132697909296889849e-01 -1.953456784255777345e-01 -9.293557467468094302e-01
6.463114408860617388e-01 -1.949550425157215161e-01 -7.377493156740140279e-01
7.312934559768047293e-01 -2.317310784361456544e-02 -6.816691927308797805e-01
6.499497945032357560e-01 5.164070025152085741e-02 -7.582206161156093138e-01
7.356624476259832068e-01 2.935499338317710261e-01 -6.104336159651682081e-01
6.123353153747924660e-01 5.405569706618696957e-01 -5.769260117326273640e-01
4.544150377895581627e-01 4.754060973559592340e-01 -7.533233144058999464e-01
5.480636779730742036e-01 2.395806636168627268e-01 -8.013908600099766133e-01
7.213753118580836787e-01 1.224392916504031953e-01 -6.816350044575176792e-01
7.762756802630184083e-01 1.265570719804870736e-01 -6.175592083063077276e-01
7.994242096436948719e-01 1.084496737236280151e-01 -5.908972849022008367e-01
7.658436084267985500e-01 1.617968181753469681e-01 -6.223386192902979897e-01
7.500130750967280990e-01 1.705356618582327677e-01 -6.390602281620443303e-01
8.024956395963125377e-01 1.781396768231848227e-01 -5.694444696107220372e-01
8.025021486159096273e-01 1.782648813882222461e-01 -5.693961130272067184e-01
8.029830502324913910e-01 1.392035295570268616e-01 -5.795175565918518901e-01
8.034578822925739772e-01 1.385912672677369617e-01 -5.790059516266263806e-01
8.014782570739322765e-01 1.517313876810273410e-01 -5.784550020789183122e-01
8.009396434619282523e-01 1.738223079498512902e-01 -5.729585436923569919e-01
7.960961243806345955e-01 1.746845815652815770e-01 -5.794102671764590484e-01
2.276956652949508053e-01 5.449363663702443301e-03 -9.737170987723028359e-01
2.277131736365552162e-01 5.422265291472893461e-03 -9.737131557042233432e-01
3.270412152370376080e-01 3.348802178931883228e-02 -9.444165373038104772e-01
4.243717726275355040e-01 -6.643775891756591168e-02 -9.030474089365267965e-01
4.243752710707129894e-01 -6.642765157021336686e-02 -9.030465084426854139e-01
3.573105931810742208e-01 -5.895387134882096140e-03 -9.339670146269185569e-01
4.421791704687776936e-01 -5.510468153560672995e-03 -8.969098148332820264e-01
4.420945159892927245e-01 -5.498211753343468580e-03 -8.969516199883404983e-01
3.673427634143787701e-01 -1.152606574612859563e-01 -9.229161798390360660e-01
3.493476053880169019e-01 -3.051848172596789005e-02 -9.364960613279696977e-01
3.538116382767094170e-01 -1.216320829138066717e-01 -9.273742292224858019e-01
3.042969943574064806e-01 -1.064229381355389498e-01 -9.466137002302722481e-01
9.378819454732176264e-02 2.316046061295649883e-01 -9.682784108835240655e-01
8.608355792424830788e-02 1.072384277302622368e-01 -9.904996419348387482e-01
1.301379311295669527e-01 1.887645094635760079e-01 -9.733612273191755149e-01
2.423171966188346349e-01 1.736965158281736088e-01 -9.545218156815181709e-01
2.307559877956128214e-01 2.449640185626587585e-01 -9.416710167070579951e-01
1.794319920900256660e-01 2.112842526927095343e-01 -9.608137825711536850e-01
2.118086388902237216e-01 2.447301276307042306e-01 -9.461734857420863731e-01
1.800869247216527469e-01 1.848380829529603642e-01 -9.661281398627058481e-01
1.800436816164687204e-01 1.848940374678078036e-01 -9.661254926865558978e-01
1.725749720475920346e-01 1.945196260549094114e-01 -9.655982570936170184e-01
1.042980072436661965e-01 9.943673273106049537e-01 -1.885587606462611060e-02
-1.023068014758956729e-01 9.947498365979272616e-01 -2.465960293435195527e-03
2.964528095986626588e-01 9.528785502841626842e-01 -6.432884337069585956e-02
5.619400986549307753e-01 7.817468203914323954e-01 -2.703613033175649716e-01
5.685296657327346681e-01 7.746230929132832399e-01 -2.770073701317056769e-01
5.624109304130278097e-01 7.687077068439831518e-01 -3.046020465962387958e-01
5.283130131261319917e-01 8.022636411789559885e-01 -2.779539713763246045e-01
4.590221313876366449e-01 8.664027579228563702e-01 -1.965831731354940881e-01
4.270939996461298738e-01 8.824479296150768981e-01 -1.971709080577959405e-01
4.271273949153204796e-01 8.824207689738255977e-01 -1.972201181332532416e-01
4.002759841108675110e-01 9.163499974476998489e-01 -9.045370179095764754e-03
3.611492351464128947e-01 9.317917561189116293e-01 -3.654248461716556873e-02
4.551751331532535305e-01 8.903638622430427585e-01 -8.233527225317822593e-03
5.038243538861689741e-01 8.637702864832061955e-01 -7.868457275996110223e-03
9.342000153208895874e-01 -1.415209295767268782e-01 -3.274784845851536619e-01
9.482726447341524034e-01 -2.412322333768816829e-01 -2.063637585161161581e-01
9.418407501222184619e-01 -1.418974626793662874e-01 -3.046327485586123873e-01
8.318848646599216190e-01 1.890554148320429118e-01 -5.217524528667099037e-01
8.318886988752759448e-01 1.891318516910772685e-01 -5.217186362010705070e-01
8.040515046287706191e-01 -1.665408681348596875e-01 -5.707585453982246815e-01
8.861323145012072189e-01 -5.066526749545233188e-02 -4.606544820864634793e-01
8.861097132777920882e-01 -5.055322376377691801e-02 -4.607102642679439253e-01
9.499325548269625941e-01 -5.730799089057781598e-02 -3.071545790965928835e-01
9.499493254287074695e-01 -5.710343693328856496e-02 -3.071408090891694087e-01
9.409678011388991070e-01 -2.314066508668271571e-01 -2.470436381581669893e-01
7.697534645520749397e-01 6.136278837455488855e-01 1.758989030666102127e-01
7.719495597675782861e-01 6.289099948157507169e-01 9.255320413413248293e-02
7.719068054261929435e-01 6.289699575035789803e-01 9.250230426684395713e-02
7.719717149716410765e-01 6.288833707924166294e-01 9.254932319855685430e-02
3.918618580556657016e-01 5.214030938527800529e-01 7.580125974691385160e-01
3.881893438769636329e-01 8.216127511705355602e-01 4.174464281969075818e-01
3.560339951125264801e-01 8.326194157928737960e-01 4.242460403692024928e-01
3.370031610517582599e-01 8.226158375887873131e-01 4.579651222410069944e-01
5.183820865814220413e-01 7.343997269082821466e-01 4.381062124970743765e-01
4.947403110386778269e-01 8.200790712091612367e-01 2.875801481293029926e-01
4.416713842333567230e-01 8.408276695026697389e-01 3.129460313665913818e-01
4.324615599013207912e-01 8.302753053415403706e-01 3.515962408043184495e-01
3.690810494216445470e-01 7.825452753939291517e-01 5.014001106067460523e-01
5.019174944512654335e-01 7.101406148351188108e-01 4.937399476701914147e-01
5.019029696152886855e-01 7.102151476342538627e-01 4.936474988918810314e-01
4.204389202562424654e-01 7.900132651063085376e-01 4.462176097935115493e-01
3.498097355166817080e-01 4.519608580376013318e-01 8.205879183485852435e-01
5.285681701345132932e-01 6.341595604712331191e-01 5.643202471855714997e-01
3.675540237234080077e-01 7.051454450881688985e-01 6.063612297270831730e-01
4.370437180281649958e-01 6.213288431421365443e-01 6.503408777032028132e-01
4.939366116963990749e-01 6.774660130789006418e-01 5.450380030317699687e-01
4.202455686638053578e-01 5.785204963620613761e-01 6.990763172268309456e-01
4.201830764949631147e-01 5.785241701306965689e-01 6.991108401404005912e-01
2.821176503828507487e-01 6.321315508983722520e-01 7.216781371922514898e-01
1.399884924346303516e-01 7.497413771487346779e-01 6.467542727937701796e-01
3.805701679328984399e-01 7.414819889409259845e-01 5.526036620904116736e-01
4.373970387025181150e-01 6.206553278404958185e-01 6.507463365686160239e-01
5.814926760551069052e-01 5.873134467305219930e-01 5.629646374185369728e-01
5.815789551777003075e-01 5.873525269121877557e-01 5.628347253184387000e-01
5.899825263720626101e-01 5.943996796825929962e-01 5.464518637253141797e-01
3.620802383845904138e-01 7.595247915014360363e-01 5.403887416166793800e-01
3.501467348093265097e-01 7.575884979634350813e-01 5.508692511439293726e-01
3.655292520873894557e-01 6.949188300818383013e-01 6.192545401255633575e-01
4.544036055812804564e-01 6.067403490183195247e-01 6.522143145530155950e-01
9.822281300550698147e-01 -1.186523099757886279e-01 -1.454287793592804745e-01
9.852527821863188429e-01 -1.710557255541220456e-01 -4.110224965977175848e-03
9.811839102317888583e-01 -1.890937911202945354e-01 -3.900862035513658760e-02
9.921927325248970364e-01 -1.247046141315095724e-01 -1.529947413943448563e-03
-2.714149395873085568e-01 -3.053206733313801879e-01 9.127503585347366277e-01
-2.173425905752288112e-01 -3.376668684358204997e-01 9.158292877402396392e-01
-1.903388919956803260e-01 -1.873133336932478743e-01 9.636829464168070736e-01
7.263462095309858313e-01 -3.524653116818944887e-01 5.900757476468204699e-01
-5.375634296368408949e-02 -3.683709788120174133e-01 9.281234172028238749e-01
-1.235291748633803172e-01 -4.131493605360404553e-01 9.022461686514570145e-01
8.784620083802414658e-01 -2.394558170060277769e-01 4.134796385972692168e-01
9.921370586687725535e-01 -5.406864862400485167e-03 -1.250392843407074350e-01
9.989165823086163520e-01 -1.263701939160893559e-02 -4.478802663401811740e-02
9.984770109135978622e-01 -3.075888296486834275e-02 -4.579901522740986719e-02
9.945746664122125935e-01 -1.039515693598090929e-01 -3.912052999256127560e-03
9.945667074609870761e-01 -1.040264163534943415e-01 -3.945771263113505636e-03
9.965138383182458037e-01 -7.671856074815830429e-02 -3.277853683385080485e-02
9.967267377160446973e-01 -7.683017273109356282e-02 -2.515819707453927426e-02
9.967150947610561307e-01 -7.697403074798910005e-02 -2.517972330798343150e-02
9.962974926595927760e-01 -7.649559081303483610e-02 -3.923940247217367477e-02
9.950184479928739778e-01 -9.712398237865976780e-02 -2.247710392292668474e-02
9.921015830666862767e-01 -1.186164182002016204e-01 -4.079943884332185716e-02
9.921142126527539018e-01 -1.185276823292980425e-01 -4.075018495726200757e-02
9.944394967540237662e-01 -1.043252567057799535e-01 -1.436412576097198177e-02
9.944320819847034532e-01 -1.043948965484307462e-01 -1.437149589327728350e-02
-1.479323662783163518e-02 9.702284691570728370e-01 2.417392764678421291e-01
-1.478040285528303688e-02 9.702571637365891011e-01 2.416248660822502836e-01
2.206054440053195273e-02 9.218955032871470889e-01 3.868100482144817831e-01
-9.474814504870478216e-02 8.042970722501657788e-01 5.866251005366559523e-01
3.674264724515294289e-02 9.331172444370623431e-01 3.576900697637577786e-01
1.964991445382134952e-02 9.343716445024116135e-01 3.557576574183839990e-01
-1.579355298903414515e-02 8.384992146883752939e-01 5.446738754988716957e-01
3.429521676499464045e-02 8.708521560605654299e-01 4.903471835258226275e-01
-3.732424403653034767e-02 7.839351584889191482e-01 6.197197496385400406e-01
9.585471341194788664e-02 9.121789650956836359e-01 3.984236558660653738e-01
1.034588960818353109e-01 9.259722491670111522e-01 3.631413644768586857e-01
1.033685173451162065e-01 9.259803589710546845e-01 3.631464228403041283e-01
1.035400308943639630e-01 9.259873929536589499e-01 3.630796194958900713e-01
1.695704535374062960e-01 8.859350566349009082e-01 4.317000541028842009e-01
1.363186948136265730e-01 8.262153013619769615e-01 5.466127415635743114e-01
-7.917501062229723163e-02 8.423919228884630961e-01 5.330170409520103014e-01
-7.909929511667963820e-02 8.424676395708382559e-01 5.329086017207682602e-01
-4.224040583974504603e-02 8.497740191887779293e-01 5.254520572100218612e-01
-8.199035470468707398e-02 8.515147061439918286e-01 5.178805720973811422e-01
1.279829357324933081e-01 8.803436568994373879e-01 4.567443638603745359e-01
2.292520199504661238e-01 9.408624282982063214e-01 2.494421824099396223e-01
2.292106789748391826e-01 9.408631770548222528e-01 2.494773470802496285e-01
2.279612963145964677e-01 9.361331492734068505e-01 2.677468472531879251e-01
7.966728166020174348e-03 8.753182950943660945e-01 4.834815544727852354e-01
1.963337386443623489e-01 9.240824643198917165e-01 3.279095335704702019e-01
1.963807015326011485e-01 9.240381508627082408e-01 3.280062740494307238e-01
2.116204840312337354e-01 8.207399544127933488e-01 5.306625085389697905e-01
2.375407466348941898e-01 7.589508483240898773e-01 6.062738684095507757e-01
2.374310899930000274e-01 7.590520367764357346e-01 6.061901376385797624e-01
3.489295037886888107e-01 6.955047468604637073e-01 6.281093443663624543e-01
3.489484696015467402e-01 6.954712913748503089e-01 6.281358518952220304e-01
2.308385860059029016e-01 7.699828552893952516e-01 5.948444752800394753e-01
3.179053598965322358e-01 6.991986563646918063e-01 6.403572605092143766e-01
3.179251404288183647e-01 6.992258654140711682e-01 6.403177291152098993e-01
5.110500322232155446e-01 -5.786661710632620137e-01 6.355889607534368491e-01
4.613612633105220184e-01 -5.326279249621658218e-01 7.095444159931193484e-01
6.406914821645451896e-01 -7.962750229588100304e-02 7.636582256218533704e-01
4.538343328612336469e-01 -5.613699785296928368e-01 6.920246711801331108e-01
4.732905158103675736e-01 -5.466149224195373524e-01 6.908025870190698248e-01
3.404387884230780648e-01 5.061430749816642205e-01 7.924144237614129116e-01
3.337774543915838499e-01 4.409473338845253942e-01 8.331614847555083303e-01
2.994334269039449770e-01 4.723270043554332887e-01 8.290035125433320440e-01
1.698505671884218693e-01 7.442589042070709704e-01 6.459330215542949949e-01
1.952993485953045949e-01 7.572738071821867312e-01 6.232130818540685402e-01
1.749119926622532406e-01 6.532665163359864247e-01 7.366468987630125920e-01
1.177966568228603350e-01 7.694983438983580282e-01 6.276912030441731405e-01
1.172916789280308292e-01 7.117984094078215751e-01 6.925212534057991753e-01
2.122650931482217007e-01 7.557723298252542188e-01 6.194769694680212213e-01
2.147084891235260529e-01 7.582642705524521576e-01 6.155774205588199210e-01
3.227962338999926240e-01 7.945768144115017417e-01 5.142472920489238319e-01
2.967167307259068187e-01 7.092668369038092058e-01 6.394526845481182109e-01
1.232323190795761997e-01 7.304002776101314875e-01 6.718104122453836258e-01
2.494659599376227166e-01 8.193160780205618332e-01 5.162246595518321657e-01
2.634420865785185861e-01 7.503441903055890760e-01 6.062852984311974947e-01
2.634119977457695660e-01 7.503178892646492626e-01 6.063309199546267347e-01
3.504450660147445662e-01 6.932484402533857226e-01 6.297577754916322545e-01
2.615219906948899609e-01 7.736965844323131503e-01 5.770613863539602040e-01
2.657216265681958123e-01 5.624089291981714256e-01 7.829994977853552696e-01
3.454891328406143880e-01 6.063258053777940138e-01 7.162445649511135493e-01
3.373135809109066852e-01 5.136491228097044281e-01 7.889132568095699183e-01
2.666897797683772109e-01 8.758336380448870084e-01 4.022337626755768114e-01
4.408362156769702889e-01 8.012120828664326400e-01 4.046265305395091438e-01
4.645229920251421896e-01 8.191090554060500573e-01 3.365690794351408610e-01
8.818048659660754351e-02 7.487060621910608393e-01 6.570109848563725485e-01
1.901484034608529050e-01 8.258940177742311040e-01 5.307943632575863324e-01
1.420991392231204797e-01 7.928606939752538274e-01 5.926042141101656169e-01
2.712232533377360588e-01 8.209965852245706408e-01 5.023968092041277700e-01
2.713650723071778237e-01 8.208776460284313847e-01 5.025145647466763288e-01
1.136375677829625230e-01 8.609315815981776199e-01 4.958662269153171764e-01
7.594273820776352435e-02 8.611009436888499291e-01 5.027304101520805313e-01
4.897918419059051065e-02 8.291515486760117071e-01 5.568740870647471697e-01
1.985037201430203679e-01 7.985182564650309400e-01 5.682999799238325211e-01
1.707759781950770883e-01 8.705585024656969928e-01 4.614796409986009484e-01
3.059206231454305591e-01 7.816596181773257657e-01 5.435262768672630695e-01
2.526539471517618152e-01 8.506665888106679230e-01 4.610122966579709991e-01
3.921862381660264352e-01 7.801783899649367138e-01 4.873516537623524547e-01
6.535733466312257933e-01 7.025237001579277551e-01 2.816066961023362403e-01
5.017378755086886466e-01 8.079195376195469347e-01 3.090713914496861503e-01
6.319025739639302364e-01 6.771465742403927068e-01 3.770565660643772077e-01
5.593523450165062139e-01 7.447027346935980452e-01 3.640642677665742455e-01
5.476330230256041265e-01 7.735782086137746871e-01 3.188649043870170341e-01
5.477383080670481519e-01 7.735290036906821154e-01 3.188034289733222004e-01
4.737534530691132062e-01 8.247877747569771767e-01 3.086791089732597304e-01
4.440351081820770873e-01 7.979258876349230034e-01 4.076114578170633718e-01
5.122824611391977312e-01 6.924091665251683736e-01 5.080710837285349335e-01
4.909031801965436648e-01 7.381589551888935175e-01 4.627476899427603318e-01
5.133211902394211323e-01 7.778117705104369284e-01 3.626433582827672808e-01
-6.025556857707965452e-01 7.163583343809257764e-01 3.517916745863534089e-01
-5.085494026801203882e-01 8.304820984926487570e-01 2.273257335123752554e-01
-4.582513845734156877e-01 8.466834818574106025e-01 2.704306751948809540e-01
-5.395790122012119605e-01 8.207696343502884906e-01 1.875945013065628275e-01
-5.658068215723272010e-01 7.651177900414540822e-01 3.073392393175692350e-01
-5.244552474921208018e-01 8.295902272590517379e-01 1.916422401618526894e-01
-6.150842768534245941e-01 7.552961841626664174e-01 2.262719747494489064e-01
-6.149203487716526917e-01 7.554016310865664385e-01 2.263655018290199328e-01
-3.918863808909403001e-01 7.183061309072628076e-01 5.748576926276965926e-01
-3.919145997129799275e-01 7.183176816101353168e-01 5.748240207385694189e-01
-3.918761673988278016e-01 7.183601279894860081e-01 5.747971780895719807e-01
-3.292338367027030643e-01 7.777292229501984178e-01 5.354832738184251983e-01
-2.660409136010018494e-01 8.635045112629734509e-01 4.284649242573276284e-01
-2.659632614528757433e-01 8.635333169822142496e-01 4.284550781809500219e-01
-4.245478520261367072e-01 8.150663504615112132e-01 3.942409994982082888e-01
-3.014241356309034225e-01 9.361103005347698458e-01 1.812208478400476330e-01
-2.526016727515818516e-01 9.593689773726291614e-01 1.257122117301991138e-01
-3.909463763747756948e-01 8.677615382442948055e-01 3.068400944194344948e-01
-3.033525906417545714e-01 9.498329652833077397e-01 7.612190100132017190e-02
-4.255960376189437677e-01 8.240932994292780034e-01 3.738157923347020239e-01
-3.632917255971541137e-01 8.807875332573601446e-01 3.036979475911170678e-01
-3.547356455823537646e-01 8.941879668253694957e-01 2.731126173174404093e-01
-3.547536718317549909e-01 8.941728456450114271e-01 2.731387091442549209e-01
-2.371881461362082277e-01 8.521167229185097058e-01 4.665178172964977721e-01
-2.020121150445353952e-01 9.075279074903750409e-01 3.682176021069266669e-01
-2.019910299694568367e-01 9.075139336742517049e-01 3.682636066718566470e-01
-2.357019491666379751e-01 8.838759347557408885e-01 4.039900037361231488e-01
9.780633719640747792e-01 1.506165883537202987e-01 -1.438981714093338082e-01
9.919187466158104760e-01 1.261320010027039695e-01 -1.370833451494249053e-02
9.763555520104293395e-01 1.632145703233713885e-01 -1.417421606035662307e-01
9.870189083153330101e-01 1.131471441647084047e-01 -1.139798157367303000e-01
9.957350464151908387e-01 7.615229848041313310e-02 -5.208209650818173414e-02
9.871529656571177425e-01 7.357152094168159517e-02 -1.418317795865395026e-01
9.876796447095900211e-01 6.004736706429719684e-02 -1.445103218977236426e-01
9.926183225709720448e-01 3.632482281093338261e-02 -1.157124580334554925e-01
9.926281917148593870e-01 3.625018212574143001e-02 -1.156511880991241414e-01
9.249959588221483564e-01 -9.181011071651916378e-02 -3.687185643996172546e-01
9.737578808248343876e-01 -1.142704999923520315e-01 -1.968193139989711515e-01
9.781747197367962610e-01 -7.797804045853591604e-02 -1.925970998589733030e-01
9.707194553510628543e-01 -5.898640113391456774e-02 -2.328612107763009254e-01
9.658205191906439335e-01 -9.579931915088979455e-02 -2.408593264969013936e-01
9.842083276114355073e-01 -1.365425119415081268e-01 -1.126503896708943436e-01
9.844852783119206752e-01 -1.683101116997267610e-01 -4.960285361474048305e-02
9.902795339276690978e-01 -1.319439052587562111e-01 -4.401420849074676872e-02
9.866847048921825181e-01 -1.438704310142294995e-01 -7.585902854378397120e-02
9.867034198516934085e-01 -1.438172455522877258e-01 -7.571632013460438682e-02
9.801375817720653361e-01 -1.919679888351452646e-01 -4.978566119473964297e-02
9.378299760598854951e-01 -1.704025864813147884e-01 -3.023869946343473170e-01
