-6.460751696150595080e-01 -2.545511864611252340e-01 7.195766593477761486e-01
-6.204993922641551807e-01 -2.450128802681888485e-01 7.449491208817554666e-01
-6.204993922641551807e-01 -2.450128802681888485e-01 7.449491208817554666e-01
-6.246688020896780102e-01 -2.662328336212168578e-01 7.341041928758234025e-01
-6.246688020896780102e-01 -2.662328336212168578e-01 7.341041928758234025e-01
-6.396309675228954994e-01 -2.528149850504391449e-01 7.259179077000861291e-01
-6.348341962385509740e-01 -2.520737318381346403e-01 7.303727657869980572e-01
-5.864315092556152686e-01 -1.352269175372552701e-01 7.986311825401970488e-01
-5.864315092556152686e-01 -1.352269175372552701e-01 7.986311825401970488e-01
-6.286994889965182853e-01 -2.420486985754085607e-01 7.390192014105370077e-01
-6.376232919514358555e-01 -2.381132873719272181e-01 7.326244603737632755e-01
-6.376232919514358555e-01 -2.381132873719272181e-01 7.326244603737632755e-01
7.458501392418536158e-01 2.475632501107668249e-01 -6.184011699435094656e-01
7.796698440239225869e-01 1.528248064162700814e-01 -6.072557227919234135e-01
7.528294477787939032e-01 1.468440993130331329e-01 -6.416265526410360742e-01
7.321710078706098468e-01 2.385191646862544756e-01 -6.379923379721003096e-01
7.812789845631437080e-01 2.106382005474546903e-01 -5.875667593985498538e-01
7.717922791855093001e-01 1.708368050778648339e-01 -6.124960929021705525e-01
7.267979007644178591e-01 1.930096000718007632e-01 -6.591753224481017304e-01
6.561603388490871991e-01 2.581005108190345676e-01 -7.091105245562249193e-01
4.274624503932312747e-01 3.484792014920330416e-01 -8.341691073345316454e-01
5.040941786720344320e-01 4.498595985719033852e-01 -7.372349697360354170e-01
4.271528194292237290e-01 4.931273484892303438e-01 -7.578693073516343803e-01
4.365815485895331305e-01 4.582840848425321356e-01 -7.741913516768369474e-01
4.417287351233011305e-01 4.324101075828357676e-01 -7.860643888553716652e-01
4.852726690936197684e-01 3.609715809601861114e-01 -7.963729995233753689e-01
1.787151778751376319e-01 5.081145500721560015e-01 -8.425440577216294358e-01
1.724180049769128975e-01 5.459987822071519226e-01 -8.198520362773323855e-01
2.646225106398826243e-01 4.284930228588595402e-01 -8.639263025420177433e-01
3.116519610495140924e-01 3.666501328538896431e-01 -8.766075149416738821e-01
1.351193816533156067e-01 4.967931709346350422e-01 -8.572860071261725334e-01
7.341488232337579911e-02 5.406189485461453392e-01 -8.380581170338399222e-01
-2.844589408397457664e-02 5.042593454131926167e-01 -8.630836249594948661e-01
-1.569603268479227015e-02 5.298255742715781702e-01 -8.479613761285064166e-01
1.267722801661200563e-02 5.088731704148176105e-01 -8.607481538300193469e-01
9.064913582713536025e-04 4.539555492035055595e-01 -8.910238703989703524e-01
-3.256305816825220273e-02 4.947348378277869885e-01 -8.684336978044117084e-01
-2.512363898311302801e-01 5.369186591518985141e-01 -8.053562130381486384e-01
-2.847900204941276603e-01 5.196314360862582804e-01 -8.055295245103603063e-01
-8.206554307393121306e-02 4.905069698122842548e-01 -8.675644985852933866e-01
-1.050404639934051643e-01 5.493859961373084300e-01 -8.289400027579002517e-01
1.706108331479090356e-01 4.631352553813014028e-01 -8.697112617618982799e-01
1.243199433726259184e-01 4.474188960129937831e-01 -8.856415093988881937e-01
1.395503865837255109e-01 4.835414364609898485e-01 -8.641257829908648436e-01
3.338672352385868569e-01 4.639822190035917115e-01 -8.205200604998302838e-01
2.495204901797395125e-01 4.452698986601657527e-01 -8.599268819659193763e-01
2.509023553476201762e-01 4.759884853527650006e-01 -8.429015185017745271e-01
2.310271569516966494e-01 3.865090177851690512e-01 -8.928814209745657982e-01
1.757510008124583967e-01 3.682874066788965339e-01 -9.129490521355242416e-01
2.305184015810015086e-01 4.091200395334341211e-01 -8.828828120337950391e-01
3.816131576741411124e-01 3.640877488206420987e-01 -8.495949087940016797e-01
1.553839165699254059e-02 3.847705246886650166e-01 -9.228814667743217015e-01
5.597778803740971650e-03 3.452941016339480806e-01 -9.384778357794439918e-01
-2.983399263561861345e-02 5.078811744083443491e-01 -8.609103586117539120e-01
-1.111514345414241212e-01 4.898277654200174358e-01 -8.647046425358290156e-01
-3.017834292813123889e-02 4.879115950298354432e-01 -8.723712186068232066e-01
3.913763964500692472e-02 4.317572585920183004e-01 -9.011403413542877772e-01
-1.479695577935233597e-01 6.120818751027237159e-01 -7.768273863202318497e-01
1.456546921313448539e-01 3.960421313849825653e-01 -9.066064972346952189e-01
-1.183266205526359166e-01 7.173678875602043092e-01 -6.865727381465146495e-01
-1.448641099315158276e-01 6.533909748811103091e-01 -7.430307016521335850e-01
-5.614402347744906069e-02 6.909193296734029710e-01 -7.207484502317150765e-01
3.340438358346366904e-02 6.897111422118367141e-01 -7.233136853857060622e-01
8.993264048904606872e-03 7.850460548641041703e-01 -6.193721118552664162e-01
4.239430133767600750e-02 7.629322309779140721e-01 -6.450869198403832439e-01
2.374961027805792130e-02 6.043586744005746691e-01 -7.963583042126329836e-01
4.025072997500134947e-02 5.377136806200979446e-01 -8.421661809942659893e-01
9.958233404076119455e-02 4.748989199858943966e-01 -8.743879999995570751e-01
-1.465378081693781143e-01 5.509685801572220543e-01 -8.215596718780988628e-01
-1.320083056317142012e-01 4.573078249418055519e-01 -8.794562868563955416e-01
-3.621012934217129192e-02 4.006626535799546196e-01 -9.155098385922963988e-01
-1.714968451345213196e-01 4.580923707167950942e-01 -8.722042260846781803e-01
-1.785407125696910624e-01 4.886898748293095895e-01 -8.539938057119740300e-01
-2.137728601850339694e-01 4.934645232480545096e-01 -8.430859556082522799e-01
-2.051754869962111594e-01 5.062016306020581391e-01 -8.376532270048776541e-01
-1.668553569467048081e-01 5.333011836980845466e-01 -8.293064194400100453e-01
-6.337003911030792969e-01 5.203715309796211885e-01 -5.723960901873190732e-01
-4.951146898246359118e-01 4.426407567350681971e-01 -7.476166159181194537e-01
-3.708155870187162528e-01 4.553467754723122818e-01 -8.094165271916138327e-01
-2.119397926896545714e-01 3.713264771489145355e-01 -9.039901391292068933e-01
1.181376972321867974e-01 3.996148237488743038e-01 -9.090387654730861522e-01
1.376060440657556581e-02 4.425339391472304373e-01 -8.966461723942176221e-01
7.927982605179667575e-02 3.296194029516651414e-01 -9.407793356462420542e-01
2.773204304760057068e-02 2.932987745853845585e-01 -9.556185235830864100e-01
2.060556579724439619e-01 3.146724503460737177e-01 -9.265647925594523437e-01
-6.658472123305301249e-01 5.899032484322825898e-01 -4.567949729590976005e-01
-7.854063815632237322e-01 4.552210428781675589e-01 -4.194169976535014888e-01
-7.926664573129147406e-01 4.437339179141706613e-01 -4.180670969396339531e-01
-6.500092254920604162e-01 5.689234999775502066e-01 -5.037996208300542511e-01
-7.236203620094543432e-01 1.522891493586914780e-01 -6.731876311051120387e-01
-7.340575551280650313e-01 1.765995305210285582e-01 -6.557225873638636848e-01
-6.917432049031372321e-01 2.695966312262780828e-01 -6.699320823051979623e-01
-7.859361450944614136e-01 2.382461130348237088e-01 -5.705639012922703035e-01
-7.805812723029325051e-01 1.816175589561708770e-01 -5.980868997133584886e-01
-8.299375717490963256e-01 7.226471648302509876e-02 -5.531558891947564449e-01
-8.224005337108445390e-01 1.596060061607170455e-01 -5.460616127778468165e-01
-7.813650004240503266e-01 3.148852473079239433e-01 -5.388098153710190186e-01
-7.706588785336624392e-01 3.944056468367953538e-01 -5.005287990520495001e-01
-8.601740319265619439e-01 2.411198236053486987e-01 -4.494016749676480460e-01
-8.405924740811071549e-01 3.191966896459027536e-01 -4.376274281135728583e-01
-8.947976893115884289e-01 3.011012641097648990e-01 -3.296591026411128666e-01
-8.250134144198865149e-01 3.783074624992113777e-01 -4.198051093598651473e-01
-8.562540607005150184e-01 3.886017906816950918e-01 -3.403198962929712135e-01
-8.629620951007860308e-01 3.610708202327845284e-01 -3.534462974706141791e-01
-1.462714944990254340e-01 4.824572871229805826e-01 -8.636200646111434898e-01
-3.424207624687475859e-01 4.067266754255497996e-01 -8.469483059358469124e-01
-2.069267138834857689e-01 4.526728821438537609e-01 -8.673341898328225108e-01
-2.356763425456402383e-01 3.863323450243019708e-01 -8.917421043958468907e-01
-4.189408776797613476e-01 5.070197738975984469e-01 -7.532725203309487139e-01
-3.622120696135500140e-01 3.951013545330104293e-01 -8.442140346336639567e-01
-3.849715174378735005e-01 3.265271542356821821e-01 -8.632363223986395662e-01
-3.886493199860123204e-01 3.620948677475828159e-01 -8.472538066159812642e-01
-1.687561681861922958e-01 4.135362822237008129e-01 -8.947117407208385886e-01
-4.494618067184867338e-01 1.041752767190245454e-01 -8.872043710565612473e-01
-3.718121754133580925e-01 2.513664678714415401e-02 -9.279675938321794160e-01
-4.416492105918303768e-01 4.571886631497343867e-01 -7.719614634623750415e-01
-2.061440160358327944e-01 2.812732242235502778e-01 -9.372246358197733329e-01
-2.002279515574839630e-01 3.197301426339458352e-01 -9.261109022716288441e-01
-2.721612438415240698e-01 4.989806559885129333e-01 -8.227676235121966775e-01
-2.441338862406637333e-01 3.958240196238064779e-01 -8.852807413910477319e-01
-8.408729769354371386e-02 3.252130952109033579e-01 -9.418947760073529407e-01
-2.145560567234968685e-01 2.836188181766233773e-01 -9.346261629653639380e-01
-1.933480215769848576e-01 5.130890535345701275e-01 -8.362751734299331829e-01
-2.159524179244608211e-02 4.557639569108196120e-01 -8.898386713966293105e-01
-1.818831985853201771e-01 3.312679585026380158e-01 -9.258401815334368345e-01
-6.169457140720317756e-02 3.549951367244936762e-01 -9.328302271907999987e-01
1.140027609995507285e-03 3.389881315959885066e-01 -9.407899590100381459e-01
-7.626858460292232356e-02 3.469991193036752186e-01 -9.347591744428832561e-01
-7.382610178828413749e-02 4.650584711404637250e-01 -8.821963075842249591e-01
-1.735243618201145477e-01 4.051887041917223153e-01 -8.976142879045291290e-01
-6.071211540929518508e-02 3.505447798430524897e-01 -9.345760516765417858e-01
9.380158437001760718e-03 4.169012704938458436e-01 -9.089033740108538595e-01
-2.927333651095394007e-01 5.299659409525410148e-01 -7.958914991265662042e-01
-2.458241026199963208e-01 5.496956209615945221e-01 -7.983766246995965821e-01
-2.429530555710930628e-01 3.925684504108744588e-01 -8.870534507743454977e-01
-3.999497889627469105e-01 4.493265784540746433e-01 -7.988402795324034411e-01
-2.822355146332968245e-01 4.093476045396576835e-01 -8.676276003777899648e-01
-5.602778232691472127e-01 5.084076145607185904e-01 -6.539193055794162435e-01
-5.077655575732128446e-01 5.302076989933154350e-01 -6.790095245801625046e-01
-3.522066172051583344e-01 4.374162973586873115e-01 -8.274161477768703365e-01
-6.807929308138919167e-01 3.546951770548569249e-01 -6.408684082772807544e-01
-5.832871597390812957e-01 3.982708583195034291e-01 -7.079240161888573635e-01
-8.011125964272515221e-01 3.236340775467270170e-01 -5.034675676705170355e-01
-6.266842132046395175e-01 3.665638262099537026e-01 -6.876756926301823558e-01
-7.294015992095109757e-01 3.614134719043016752e-01 -5.808214952949712906e-01
-1.717179759716402632e-01 9.813792655343801519e-01 -8.606784479353234152e-02
-3.900210215751043208e-01 7.905138451469682082e-01 -4.721985423108239766e-01
-5.167934463186033556e-01 5.205903738974408945e-01 -6.796397549050993137e-01
-6.020080838545563973e-01 2.235988362235508675e-01 -7.665440805415165704e-01
-2.819401574486883888e-01 9.536786862385441266e-01 -1.049128735291022657e-01
-2.973705994735669766e-01 9.530867268263054637e-01 -5.653687041436587790e-02
7.420750144149533545e-02 7.613103559995584302e-01 -6.441271524921425851e-01
-1.463580066829876618e-02 9.349356229180546540e-01 -3.545154077577262752e-01
-1.447219900201404397e-01 9.198705034565108907e-01 -3.645460224378747616e-01
-1.239417357567702549e-01 9.825749406754209492e-01 -1.385096823124351839e-01
6.719750483144742992e-02 9.727061608384430791e-01 -2.220973210359917793e-01
-5.449463857447708337e-01 3.582343089641540912e-01 -7.580907706499838694e-01
-7.364645142319869997e-01 4.612484884322806677e-01 -4.948432592205128100e-01
-4.650965993014039568e-01 -4.878782918590088835e-01 -7.386879758402764562e-01
-5.236854611126526837e-01 -4.731680544736505678e-01 -7.084246819845061438e-01
-5.192981009614201504e-01 -4.510701687176342234e-01 -7.258547962443367974e-01
-2.935238797053671411e-01 7.843935863960118660e-01 -5.464159895752606078e-01
-4.166767675549508110e-01 -4.098748275400964647e-01 -8.114080953065070378e-01
-1.861981332445788728e-01 -1.080784518467968192e-01 -9.765496932684141207e-01
1.563180002458485277e-02 -3.813130888036215804e-01 -9.243137860786415638e-01
-1.582133116150342966e-01 -6.760649244246128009e-02 -9.850877677686550316e-01
-1.558232664470017015e-01 -1.547159628733521253e-01 -9.755931941470064039e-01
-2.461626794065181756e-01 -1.159101157998234516e-01 -9.622727161894777392e-01
-3.673426301221549006e-01 -7.050093024309909140e-01 -6.066475711487725464e-01
-7.974941520383425908e-02 -8.129889626332844621e-01 -5.767919706541539959e-01
-4.171420123231712740e-01 -5.350533582963761248e-01 -7.346498794192680704e-01
-2.520823021490185001e-01 -7.464718922630706466e-01 -6.158199631421847897e-01
-2.656136717032574479e-01 -8.028383391603733932e-01 -5.337602257367319858e-01
-1.959879025175222389e-01 -8.141772283501270691e-01 -5.465383636149319102e-01
-1.959879025175222389e-01 -8.141772283501270691e-01 -5.465383636149319102e-01
-1.641491105202544376e-01 -8.203638075725953049e-01 -5.477757686685338356e-01
-1.609260077902363584e-01 -8.326890680683795010e-01 -5.298412365379939759e-01
-4.104577661608539985e-01 -7.958241247196867763e-01 -4.451835404778419214e-01
-6.039542636454439117e-01 -7.537255454141941202e-01 -2.591081812960858155e-01
-9.322240334350708757e-01 -3.389183982503667925e-01 1.268568910759431401e-01
-9.248053624230021530e-01 -3.797450446389241119e-01 -2.299440596843401949e-02
-9.621544134135252557e-01 -2.420437783997635428e-01 1.251946248320648936e-01
-9.121023621401408432e-01 -4.091910321636065828e-01 2.513921588390605200e-02
-7.630752910531977129e-01 -6.435548599519571589e-01 -5.960907998195053709e-02
-8.714990083873850324e-01 -4.897505857129121343e-01 -2.517622238668838774e-02
-2.943884423512505011e-01 -9.494439297679114764e-01 -1.090489304710031415e-01
-9.104978962346099713e-01 -3.978454780106351341e-01 1.127499737420754183e-01
-3.806081852188779036e-01 -9.067144380628390232e-01 -1.816764628475098231e-01
-2.847509558571885147e-01 -9.529080683751286474e-01 -1.043221278732304191e-01
-4.001332970708396108e-01 -8.406901180820596231e-01 -3.648745948053823684e-01
-4.302004726953100877e-01 -8.921991220499361219e-01 -1.375073812784423088e-01
-4.533238730851664178e-01 -8.407964044129585535e-01 -2.959034849698538028e-01
-4.659644615895338626e-01 -8.349692419192559223e-01 -2.927515765702362049e-01
-4.686237175317015113e-01 -7.896749357510723932e-01 -3.959864987765462363e-01
-3.700912422674444979e-01 -8.051608252540626287e-01 -4.634096652780737569e-01
-5.082326878254757041e-01 -7.257834360797630335e-01 -4.636139977804220047e-01
-4.818010987957358493e-01 -7.848702984766708912e-01 -3.896746280788151440e-01
-4.818010987957358493e-01 -7.848702984766708912e-01 -3.896746280788151440e-01
-3.450524752606858869e-01 -8.025556367087062215e-01 -4.866654285066454033e-01
-4.718136388907244183e-01 -8.318974134230535666e-01 -2.921276838930646491e-01
-5.681419034163894821e-01 -7.745193841029458515e-01 -2.780908147192128199e-01
-7.060980713753840510e-01 -7.060821102593930476e-01 -5.360566361500750804e-02
-6.927110126086596376e-01 -7.195804657253248582e-01 -4.853252885653110138e-02
-5.827225964268887282e-01 -8.099850048577006412e-01 -6.602020538574703001e-02
-5.736784689671001747e-01 -7.666612681847330135e-01 -2.883114879933518226e-01
-6.094835775322233751e-01 -7.711213233968936542e-01 -1.841240704556190988e-01
-5.287157367369703653e-01 -8.306049974206468622e-01 -1.747999084282659266e-01
-5.287157367369703653e-01 -8.306049974206468622e-01 -1.747999084282659266e-01
-5.372157702072170027e-01 -7.557212894172754547e-01 -3.745457902074956213e-01
-6.017725288009432294e-01 -7.218705835285833539e-01 -3.417201840930975676e-01
-4.479200522009865182e-01 -8.711283120026515059e-01 -2.012537971410145732e-01
-3.812079993623229135e-01 -8.967325088110499332e-01 -2.248360933293753472e-01
-4.707466917072765100e-01 -8.663987336080012369e-01 -1.665856736010215000e-01
-4.783745449906958713e-01 -8.195257802587968543e-01 -3.154921396741207085e-01
-4.797778590527538856e-01 -8.337434543104860207e-01 -2.732856717011970527e-01
-4.630268910796431769e-01 -8.547312307147003629e-01 -2.346073770750909115e-01
-3.414819647659863011e-01 -8.956152525572083078e-01 -2.850673378808058489e-01
-3.908141692397238409e-01 -8.509414312429505189e-01 -3.509458159255688936e-01
-3.053324626397992958e-01 -8.479218143139511943e-01 -4.333597628632044341e-01
-3.712635842185876278e-01 -8.411562534593961526e-01 -3.932168718395994134e-01
-3.712635842185876278e-01 -8.411562534593961526e-01 -3.932168718395994134e-01
-5.314937149920994086e-01 -8.440454898686877705e-01 -7.142577935328245364e-02
-6.564888080609927457e-01 -7.470008985944173174e-01 1.049385648357647471e-01
-5.564757194574546650e-01 -8.264178984062127142e-01 8.583839961326612811e-02
-6.342326334766428264e-01 -7.690463426345327536e-01 7.947760384996062355e-02
-3.918070956745862699e-01 -9.185113196246605938e-01 -5.314278408599174691e-02
-3.851669522462867201e-01 -9.203577347388430807e-01 -6.773521243557162341e-02
-4.149522605360638772e-01 -9.093758221614901549e-01 2.915879874282267456e-02
-3.883826316097582776e-01 -9.214197054207554638e-01 1.202738235058508319e-02
-4.213915452487690394e-01 -8.983577096713440957e-01 -1.240265740352109181e-01
-4.749433457530620739e-01 -8.691882341650780663e-01 -1.376249683519697453e-01
-4.749433457530620739e-01 -8.691882341650780663e-01 -1.376249683519697453e-01
-4.705218078780087354e-01 -8.806243758434997293e-01 -5.576680895888469491e-02
-4.766572687233035510e-01 -8.753476891373832558e-01 -8.102019066309112949e-02
-9.544978196970359541e-01 -2.450843049826415820e-01 1.699046663419820635e-01
-7.432007446103042758e-01 -6.612723297123125343e-01 1.018408521544269113e-01
-9.559809939959980074e-01 -2.560911255218804583e-01 1.432399195313931173e-01
-9.576516055447374942e-01 -2.522121933331337718e-01 1.388971271541506181e-01
-4.808913327235679880e-01 -8.722417582415302739e-01 -8.909456375713731280e-02
-8.669247565665368915e-01 -4.984246066555676480e-01 -3.791824401728452650e-03
-7.455520461891961270e-01 -6.664235818300781045e-01 -5.635246567081947378e-03
-9.419239492757806032e-01 -3.353418105099462698e-01 1.803174713187126466e-02
-9.415501345084698048e-01 -3.183476225928625336e-01 1.101732063459842509e-01
-5.564245000433495347e-01 -8.306661185690383808e-01 1.963606918293464912e-02
-6.645336084987433223e-01 -7.462700460710771644e-01 3.842006653705086483e-02
-5.815355732661934285e-01 -8.113519556404252819e-01 5.936649816535498336e-02
-5.815355732661934285e-01 -8.113519556404252819e-01 5.936649816535498336e-02
-5.630549438162935072e-01 -8.263518765977985181e-01 1.056911951524008679e-02
-9.674587029751142708e-01 6.090161122328116572e-02 2.455904146910417585e-01
-9.435450821360521489e-01 7.684649776345164884e-02 3.222069114068821238e-01
-9.435450821360521489e-01 7.684649776345164884e-02 3.222069114068821238e-01
-9.643599036037581174e-01 -4.742738442828443174e-02 2.603087004455333919e-01
-9.642063594242296087e-01 -1.186261414450407170e-01 2.371369541251102386e-01
-9.687870975722913114e-01 -1.105699013762676958e-01 2.218690074956352620e-01
-9.701076077263010022e-01 1.304846476778123189e-02 2.423240949611848993e-01
-5.477204167068936425e-01 -4.561623193025524103e-01 7.013688641299549165e-01
-5.477204167068936425e-01 -4.561623193025524103e-01 7.013688641299549165e-01
-6.748918998568662619e-01 -3.958727486266367945e-01 6.227404679337783522e-01
-7.541087750684499769e-01 -4.428104268335629756e-01 4.850143103581992521e-01
-7.539105139197302963e-01 -4.388889975791596121e-01 4.888715422329761306e-01
-7.345103100283012498e-01 -5.557112057472609612e-01 3.894607300730769661e-01
-7.345103100283012498e-01 -5.557112057472609612e-01 3.894607300730769661e-01
-7.751931805245690921e-01 -5.154300963231376320e-01 3.652497072860207417e-01
-8.132737246449350810e-01 -5.286770830060472104e-01 2.430769234344785923e-01
-8.202755299655763999e-01 -5.410474659525508212e-01 1.855146746918321377e-01
-7.981256506394791561e-01 -5.822858721130950155e-01 1.547210681478140837e-01
-8.562222008536563012e-01 -4.985506119145518000e-01 1.353913960521382076e-01
-7.872088989666535808e-01 -5.874162417256413304e-01 1.877346753922459477e-01
-7.613105062275510315e-01 -6.227995355755101548e-01 1.803525757910842409e-01
-6.833386446819654791e-01 -6.989580083894570972e-01 2.109644500679155044e-01
-7.178342254218447183e-01 -6.220667060513191959e-01 3.126452271113090431e-01
-7.787178522365618694e-01 -5.425242730777326550e-01 3.150649452566156028e-01
-7.502238193930295118e-01 -5.672522844494114480e-01 3.396896621951557838e-01
-7.645360124284255043e-01 -5.513243075103295698e-01 3.339553767321284394e-01
-8.049849872736968281e-01 -5.367807404940396765e-01 2.527164555359161513e-01
-7.059561897412144349e-01 -6.630465874278368421e-01 2.489881143074237912e-01
-7.021614811187915084e-01 -6.613039307589296811e-01 2.639059787042609684e-01
-7.021614811187915084e-01 -6.613039307589296811e-01 2.639059787042609684e-01
-7.317821650053462079e-01 -6.180881092375442032e-01 2.871618919690526184e-01
-7.214333147281511982e-01 -6.210163496831376806e-01 3.063864648227511700e-01
-5.605658457474377299e-01 -4.351510610980437455e-01 7.045633304442591172e-01
-4.071297114455200705e-01 -5.675638031871248490e-01 7.156233138810209615e-01
-3.788398757166510089e-01 -5.652088594904615126e-01 7.328160026367356306e-01
-3.452251358219137756e-01 -5.322281863514507494e-01 7.730153706426453608e-01
-5.713137319896126609e-01 -6.238270502189486866e-01 5.333295707676691810e-01
-5.338045168207781188e-01 -6.519734966134080878e-01 5.385009726411105202e-01
-5.798496300078977983e-01 -6.210203061161096993e-01 5.273596362741059806e-01
-5.342528030998368038e-01 -6.080329628503333694e-01 5.872562119445073892e-01
-7.796653855369943820e-01 -4.609050638764705110e-01 4.238966957744260688e-01
-7.775783838662256864e-01 -5.173353600303181032e-01 3.574017098536177994e-01
-4.471024997755472796e-01 -7.828341360159835061e-01 4.327471203631114705e-01
-4.471024997755472796e-01 -7.828341360159835061e-01 4.327471203631114705e-01
-4.764248915210787527e-01 -7.737867846271508920e-01 4.174605785885698306e-01
-4.883577791020130010e-01 -7.333604556875497060e-01 4.729578433901893142e-01
-4.775466185469422475e-01 -7.442265535666298115e-01 4.669861497739705714e-01
-5.797194332644375336e-01 -6.462276606213814834e-01 4.963015105189344522e-01
-5.539453851839040155e-01 -7.076282878203105087e-01 4.386419000847410765e-01
-5.340717793320757245e-01 -7.486647159170457533e-01 3.927702606638131533e-01
-5.752890516438612378e-01 -7.084960101294310864e-01 4.087492026773677511e-01
-6.154051690353247173e-01 -6.511725566032204870e-01 4.441292373301143903e-01
-6.785543239025009221e-01 -6.800919779932544929e-01 2.775588784068033221e-01
-6.693781694798598414e-01 -6.920196418581857634e-01 2.702622458025914498e-01
-6.781837439604386786e-01 -6.851334399118463869e-01 2.658175670311546113e-01
-6.248638867769532590e-01 -7.474463331839363844e-01 2.255417965963006643e-01
-6.589836783794235098e-01 -7.060364878196497829e-01 2.593318135069777042e-01
-8.865177103596088015e-01 -3.897404135017267235e-01 2.493767417027091815e-01
-9.568759706546262622e-01 -2.044501545787007213e-01 2.063698405206346453e-01
-9.527116191245297294e-01 -1.075134898386156390e-01 2.842207245924172621e-01
-9.483695098350040098e-01 -1.002628194004203804e-01 3.009030406313517592e-01
-9.502122919638326115e-01 -1.317809082975367752e-01 2.823657068574655926e-01
-8.417032209889361294e-01 -3.620405351013187834e-01 4.005775065082920472e-01
-8.903338166072867210e-01 -3.619359056993965429e-01 2.762391991934884383e-01
-7.264879626719102923e-01 -6.575520988096676955e-01 1.996007951983618522e-01
-7.687212466898142305e-01 -6.210647119270118477e-01 1.527948575269323095e-01
-6.501130986080398966e-01 -7.523110614933644635e-01 1.066818905577713722e-01
-4.362535470571011764e-01 -8.997883751849219403e-01 -7.982641303212734823e-03
-2.270645421940199471e-01 -9.619613805349490621e-01 -1.518946873248540608e-01
-3.382840290815417594e-01 -9.359817881061631706e-01 9.747824373647867580e-02
-3.791551603137890414e-01 -9.200527498139837723e-01 9.871323096298600941e-02
-2.460090562527773583e-01 -9.673832191991046381e-01 -6.040903453619161229e-02
-5.493619573120612776e-01 -8.076790146026648909e-01 2.141402559742775769e-01
-5.383725120104934092e-01 -8.114829522778950199e-01 2.272673678156690857e-01
-5.835943326565784517e-01 -7.924282237787799721e-01 1.774124151516197068e-01
-5.857881113695054820e-01 -7.916508135863824513e-01 1.736124359778596082e-01
-5.634764488560591866e-01 -8.067434469475147640e-01 1.779306111713423177e-01
-3.317436683239717299e-01 -9.201702656374810552e-01 -2.079250364039940957e-01
-6.391693379566245614e-01 -7.669615699318601543e-01 -5.685514632596308515e-02
-5.832446027673171551e-01 -8.038309123835595260e-01 -1.169683617026786582e-01
-5.672387878271226702e-01 -8.164989439977691221e-01 -1.075622240144960412e-01
-5.403518290188723538e-01 -8.314724526684506012e-01 -1.291257578079231527e-01
-5.610922964696105630e-01 -8.005733010420383877e-01 -2.103754370194207413e-01
-6.326450721340549643e-01 -7.632923034295104880e-01 1.309391928712266562e-01
-6.836898310403537460e-01 -6.985420614172590525e-01 2.112041745869124576e-01
-6.115238103424871507e-01 -7.853839071403151406e-01 9.597264083695292158e-02
-6.399706856935023502e-01 -7.682720381483735261e-01 -1.398559445760755478e-02
-6.557229563639255243e-01 -7.548114965264153264e-01 -1.694134613620630267e-02
-6.160607654257507226e-01 -7.824863922960718643e-01 9.046645331014208091e-02
-5.637075131259813299e-01 -8.160964992480523872e-01 1.273591125926809842e-01
-6.393301754378781787e-01 -7.610583002528322760e-01 1.097596938354053336e-01
-6.449265014389594652e-01 -7.641839882292078556e-01 -9.624961080734212304e-03
-3.666547461921650375e-01 -9.302191833926241049e-01 1.601773838962745194e-02
-5.346653407568829897e-01 -8.426372770788193023e-01 6.399525506253969653e-02
-4.978924770412032075e-01 -8.659050581455389750e-01 4.807818199293451694e-02
-5.373804738914690349e-01 -8.222843459139385081e-01 1.872716763022817255e-01
-5.373804738914690349e-01 -8.222843459139385081e-01 1.872716763022817255e-01
-5.424932003836816508e-01 -8.198117861682324703e-01 1.833296560764872962e-01
-5.424932003836816508e-01 -8.198117861682324703e-01 1.833296560764872962e-01
-5.067248295443246286e-01 -8.458528662947973897e-01 1.666219544482379356e-01
-5.227446077141618686e-01 -8.267481905025561018e-01 2.079074424029023760e-01
-5.227446077141618686e-01 -8.267481905025561018e-01 2.079074424029023760e-01
-4.370533798445100371e-01 7.029624264931750854e-01 5.610955088978325511e-01
-6.821484553564497455e-01 5.544717985621373524e-01 4.766912097512163160e-01
-5.952620759471599632e-01 6.341827160126465301e-01 4.934322077549260777e-01
-6.714243660502773325e-01 5.555168845042723902e-01 4.905000628997410739e-01
-8.426309195032520849e-01 3.121630028489564834e-01 4.387794356501067972e-01
-8.995807400711536284e-01 1.197369431754370245e-01 4.200209001133607400e-01
-7.059617671513466197e-01 3.031610842328623656e-01 6.400869787203167238e-01
-7.612052768203128039e-01 3.349768044004545198e-01 5.552990789246551318e-01
-8.072770207162481837e-01 2.303010213387389482e-01 5.433831533953111803e-01
-9.347105355556001305e-01 -5.378018318128900688e-02 3.513173872986509183e-01
-9.491506074335140930e-01 9.325470322728517114e-02 3.006936725882041195e-01
-9.598669272964012178e-01 1.155502954976360061e-02 2.802177067472171879e-01
-8.839860069672280662e-01 -7.332733208020761340e-02 4.617270209291793326e-01
-8.859006359889433080e-01 -1.304347592788433208e-01 4.451593385814298087e-01
-8.514754503253659790e-01 -2.194308087439437172e-01 4.762768918047504685e-01
-6.993452229495628059e-01 2.045485276863039659e-01 6.848913482874431358e-01
-7.460537106873403879e-01 2.120909144207958341e-01 6.312062299991981762e-01
-7.671969455854873443e-01 1.580859404298264395e-02 6.412167613519494935e-01
-6.854838232722373359e-01 2.187539278981605884e-01 6.944484480947470395e-01
-7.045265491746657283e-01 2.423699358463294873e-01 6.670076129294802980e-01
-7.003703262957432507e-01 2.435508451881207848e-01 6.709429125138339778e-01
-7.146282624299101771e-01 2.163627993273946337e-01 6.652019134094705466e-01
-7.406322265750140410e-01 4.745107124152832256e-02 6.702330197748902485e-01
-7.182911550648114485e-01 5.571250516199273417e-02 6.935084233981835267e-01
-6.396682625602816419e-01 4.748924704918697920e-02 7.671826935533752057e-01
-6.289827624702191144e-01 -7.971697902787486245e-02 7.733213353904061504e-01
-6.088435623426247112e-01 -1.456863880045708437e-01 7.797980462556469705e-01
-6.326993843602958245e-01 -1.334951760827823852e-01 7.628043831761388560e-01
-6.327570435233177415e-01 -1.461018757714665495e-01 7.604424802492881774e-01
-6.243538319097288181e-01 -1.851484941323963684e-01 7.588822884348691566e-01
-6.190014540203638838e-01 -2.808814343216507470e-01 7.334458533348507947e-01
-6.654254682816576061e-01 -2.564564936327496936e-01 7.010271129105720700e-01
-6.735734906265035127e-01 -3.186348369320951002e-01 6.669112335374812739e-01
-6.931936594782870387e-01 -2.844349892631475307e-01 6.622531897559827962e-01
-6.872123987438933934e-01 -2.894210468060593455e-01 6.663141726530726894e-01
-6.087159620662345727e-01 -2.877402921151903104e-01 7.393716263282245071e-01
-6.506223341987232844e-01 -2.647138044974389759e-01 7.117704545359384571e-01
-6.928017170389677570e-01 -2.008880313998417655e-01 6.925819660575592840e-01
-6.816828922389811529e-01 -1.337472763036877399e-01 7.193191923687581868e-01
-6.292364825643902426e-01 -2.027417463469375902e-01 7.503047602795731574e-01
-7.135424572230802953e-01 -1.266129018188851263e-01 6.890764361324873688e-01
-7.623360605789027966e-01 -2.195183649507090606e-01 6.088147650890266549e-01
-7.623360605789027966e-01 -2.195183649507090606e-01 6.088147650890266549e-01
-7.036256728625537304e-01 -1.441545650318087901e-01 6.957947785584543965e-01
-6.958501301249007120e-01 -1.626573411825144311e-01 6.995249715089476572e-01
-6.396410521662098114e-01 -1.619900958673357871e-01 7.514110281494378318e-01
-6.869380674232634654e-01 -2.915860129442082171e-01 6.656528288680908512e-01
-6.750068737657295426e-01 -3.217601423919824732e-01 6.639549164942658566e-01
-8.108429631570330809e-01 -1.531864073428476636e-01 5.648607029207409758e-01
-6.995894068176972125e-01 -1.896085310173428184e-01 6.889290724261155630e-01
-7.732878438281505229e-01 -3.498175746985021650e-01 5.288228200632681952e-01
-8.026438618170437245e-01 -3.264763519809609771e-01 4.991753426248397019e-01
-7.637139960150098883e-01 -2.891820525697531563e-01 5.771608725150466634e-01
-7.755421725747571049e-01 -2.419820829662575890e-01 5.830771904999687560e-01
-7.755421725747571049e-01 -2.419820829662575890e-01 5.830771904999687560e-01
-7.170271576742641706e-01 -2.562725199390404884e-01 6.482256171131005607e-01
-8.686949315571580454e-01 -1.820571967105009403e-01 4.606780795879247270e-01
-8.427234832775987172e-01 -2.558806820261768089e-01 4.736477671205568396e-01
-9.071471698180374466e-01 -2.732767699845426446e-01 3.200059675661375280e-01
-9.704525960725650657e-01 4.174668152413196082e-03 2.412557375936084381e-01
-6.682072171166332231e-01 -4.845855629460045777e-01 5.645139034404276224e-01
-6.588740069963539003e-01 -6.031037392729650115e-01 4.496119689015586895e-01
-6.331953499703890653e-01 -4.601618291675884653e-01 6.223461574983939482e-01
-6.536350854546215672e-01 -5.519443718267003085e-01 5.178016854661238177e-01
-8.415071693200044667e-01 -2.266793743149901619e-01 4.903897890894526879e-01
-8.415071693200044667e-01 -2.266793743149901619e-01 4.903897890894526879e-01
-6.245565699416282257e-01 -3.937584167658041423e-01 6.744504430785374094e-01
-6.086452459243278934e-01 -4.447550371515050505e-01 6.570722346455355467e-01
-7.031535626349856294e-01 -4.084570971250355842e-01 5.820119132474151913e-01
-7.031535626349856294e-01 -4.084570971250355842e-01 5.820119132474151913e-01
-6.575257084945237418e-01 -3.402758984979929457e-01 6.722144416554572954e-01
-7.797394270624119494e-01 -2.573168167151921870e-01 5.707840937867326714e-01
-7.005071758784553460e-01 -3.615444129550482999e-01 6.152847584686137461e-01
-7.209305180387537426e-01 -2.786998952383561989e-01 6.344963014506100896e-01
-7.003516681206817251e-01 -3.610660541152702629e-01 6.157425156071385519e-01
-8.151705751676947553e-01 -3.085292661721739105e-01 4.902107967966732871e-01
-8.023613902937789533e-01 -4.856144140585243463e-01 3.469795962652992838e-01
-8.274364599202690407e-01 -3.972195717807192050e-01 3.969452312208259781e-01
-7.606102188427047439e-01 -3.142884705743404505e-01 5.680623665198166750e-01
-6.922969336120091688e-01 -4.378456313966069824e-01 5.735993015845781695e-01
-7.165917961777119594e-01 -3.856812877917265570e-01 5.811593085360639011e-01
-7.920504522058606778e-01 -3.325325170838174249e-01 5.119357442515540813e-01
-8.075643825779410534e-01 -2.589678720266364031e-01 5.298824485199566947e-01
-7.095017241526360152e-01 -4.309880659196042574e-01 5.575451465660117290e-01
-7.338965191474879912e-01 -3.795575107609737708e-01 5.633222836069365913e-01
-7.277441826520021362e-01 -3.860276158551236847e-01 5.668960084648491105e-01
-8.093679783388439963e-01 -2.996333312923817882e-01 5.051171571213181055e-01
-8.227011305341671576e-01 -3.378726804950193952e-01 4.571705388505623024e-01
-6.391766134054763793e-01 -2.810634932123408647e-01 7.158607194551063202e-01
-6.515371554957415379e-01 -3.408439293370537637e-01 6.777350152106614845e-01
-6.081839117905102343e-01 -4.370759483812161061e-01 6.626288137304726655e-01
-6.537826334483004542e-01 -3.138686767052736304e-01 6.885163193306935714e-01
-6.129134498288845156e-01 -3.695467230967405259e-01 6.984069891312058020e-01
-6.429304062166250056e-01 -2.737517709229913554e-01 7.153324127135940458e-01
-6.440989395284112407e-01 -2.768665282296701169e-01 7.130788747708246555e-01
-6.402590223785932233e-01 -3.597222447717180471e-01 6.787254900762194065e-01
-6.501040104920620122e-01 -3.074050417827329795e-01 6.948862610734888312e-01
-6.209635552451003848e-01 -2.575001534288138272e-01 7.403363654728184473e-01
-6.978854110803216493e-01 -2.519131091824398094e-01 6.704444335090615770e-01
-5.799935628236135843e-01 -3.044890190646595829e-01 7.555752142256999537e-01
-5.827617889889028513e-01 -3.093178114381954225e-01 7.514726800233914039e-01
-7.294138252341950679e-01 -1.990686109942211846e-01 6.544670806649105499e-01
-7.076999198570269600e-01 -1.378956237189090384e-01 6.929254075248869604e-01
-6.636611715094129504e-01 -1.373307786804296160e-01 7.353190509280855824e-01
-6.485744779756580369e-01 -1.785775340820571488e-01 7.399062175977265676e-01
-6.938420993684284444e-01 -1.789105785091749390e-01 6.975486692995150895e-01
-6.996877764876706651e-01 -2.314065769645178294e-01 6.759349166682425691e-01
-6.360438591690018573e-01 -2.766690839790846290e-01 7.203488232679893244e-01
-6.363522596473739634e-01 -2.410006405267857421e-01 7.327854344263128317e-01
-6.239767274610019676e-01 -2.466887928975676769e-01 7.414834341007218166e-01
-6.290330920445721397e-01 -2.307744820565365007e-01 7.423344984199388152e-01
-6.239459417676468389e-01 -2.476348163487452625e-01 7.411939418826946069e-01
-5.227954041811864183e-01 -2.940405207395573317e-01 8.001406985838426245e-01
-5.487658233808906383e-01 -3.243802834628639054e-01 7.704761532907069554e-01
-5.818016748720395981e-01 -2.400939859310429469e-01 7.770853807889024356e-01
-6.043021483501702651e-01 -2.556756896532524914e-01 7.546183507043164873e-01
-5.871107649143917362e-01 -3.306794377518472716e-01 7.388856874847151701e-01
-6.279162171125424186e-01 -2.369731074761650125e-01 7.413264939418829913e-01
-6.107120753659796009e-01 -2.516093552749684714e-01 7.508152191719963398e-01
-6.402763988017970975e-01 -2.154167903413072571e-01 7.373206490913238875e-01
-6.402763988017970975e-01 -2.154167903413072571e-01 7.373206490913238875e-01
-6.251350936870453401e-01 -2.162883434748761879e-01 7.499503097657757023e-01
-5.909691696287276974e-01 -2.500882678960385519e-01 7.669493456605144255e-01
-5.554376408382233343e-01 -2.700209333697857761e-01 7.864971218524442476e-01
-7.493024173534431620e-01 -1.924728676859097931e-01 6.336403416395208765e-01
-7.573921564398536921e-01 -1.935027299258133548e-01 6.236295493918212474e-01
-7.573480553507031532e-01 -1.925730059060864752e-01 6.239708009617138673e-01
-7.573480553507031532e-01 -1.925730059060864752e-01 6.239708009617138673e-01
-6.491706185616575864e-01 -2.435719808834227451e-01 7.205901734861505092e-01
-5.019026342457898471e-01 -6.103360222141742675e-01 6.128488277910921767e-01
-5.221857649023302628e-01 -5.727979774604250451e-01 6.318421511347708242e-01
-5.328337979881322406e-01 -6.133444761851807314e-01 5.830066013817241100e-01
-7.385081176488877963e-01 -4.023285446344819771e-01 5.410522177562865354e-01
-7.044246499940044481e-01 -4.474589120391969654e-01 5.509686329706277030e-01
-7.394381779257960252e-01 -4.000873540876528911e-01 5.414437091008815761e-01
-7.223763621200364193e-01 -3.770675878808599779e-01 5.796485362872331182e-01
-7.143363255712587012e-01 -4.006430858350733537e-01 5.737671406955114906e-01
-7.143363255712587012e-01 -4.006430858350733537e-01 5.737671406955114906e-01
-7.376585684555961864e-01 -3.873618053761841984e-01 5.530015082436428031e-01
-7.229111804912576877e-01 -3.931305143591702356e-01 5.681969938326237868e-01
-7.403724626427413691e-01 -3.821924726766125491e-01 5.529715457323814976e-01
-7.112584879689981543e-01 -3.643288349040780250e-01 6.011454593935576796e-01
-7.256282761261944048e-01 -3.854697433373034943e-01 5.699795451221042475e-01
-7.299493101966436637e-01 -5.617840004552496769e-01 3.893234405683019816e-01
-7.658718934575446946e-01 -5.384482917172888072e-01 3.514451307935403945e-01
-7.397849968548165789e-01 -5.501653089729056090e-01 3.873451835653392572e-01
-7.397849968548165789e-01 -5.501653089729056090e-01 3.873451835653392572e-01
-6.437262960837270009e-01 -5.465534896501832440e-01 5.356264917659813163e-01
-6.437262960837270009e-01 -5.465534896501832440e-01 5.356264917659813163e-01
-5.760137173824247947e-01 -6.007678242347301856e-01 5.543340317457952082e-01
-5.753531478505318209e-01 -5.755413826453408266e-01 5.811375672946754722e-01
-6.574620502349807216e-01 -5.211245530155642625e-01 5.442176519970146620e-01
-9.109596599870988243e-01 3.122133777190123083e-01 2.695835763719196532e-01
-8.911976060349401374e-01 2.925356092401096841e-01 3.466839256788654677e-01
-8.576808313851754795e-01 3.505335608081648902e-01 3.761779023568272429e-01
-9.002335817237275828e-01 3.681450486726501325e-01 2.324838090592132034e-01
-8.998008447394150178e-01 -3.131439531951269450e-01 3.038080057924133492e-01
-8.963645027827794598e-01 -3.175862388231129874e-01 3.093051229145247771e-01
-9.490258729685193684e-01 -2.357882234334865712e-01 2.091741048180204010e-01
-9.319603295675835675e-01 -1.877456067840095055e-01 3.101637168425492863e-01
-9.210030360950725026e-01 -3.270986682740419926e-01 2.115652824000359422e-01
-9.114404148681619633e-01 -3.435531336745623054e-01 2.263793596760561855e-01
-9.359690907302270491e-01 -2.463697044563997185e-01 2.515230206635137855e-01
1.280738005644172645e-03 9.907787428368393101e-01 -1.354837350120423334e-01
-2.348260149238573513e-02 9.967011430037164832e-01 7.768783020676331419e-02
6.101190093662865049e-02 9.879590217989131506e-01 -1.421777731933995259e-01
5.712462741998108884e-01 7.951204534208184960e-01 2.036201334954542419e-01
7.621737392641830811e-01 4.687375392496400117e-01 4.465157449343137852e-01
7.314366474108374705e-01 6.179258345167031319e-01 2.883887894167010413e-01
6.181090280293980443e-01 7.406173386435976891e-01 2.634903929349749485e-01
2.630383764213669595e-01 9.644597761007100978e-01 -2.506297694567327997e-02
2.745437389604239442e-01 9.590503358965436487e-01 -6.962893518040870477e-02
3.403458416882605420e-01 9.379417123082428587e-01 -6.655863849111468000e-02
2.272995967288451991e-01 9.729374595053139618e-01 -4.156432626964814275e-02
5.747098453955805653e-01 8.183301561649982681e-01 -6.659513222253023862e-03
4.787285342341342509e-01 8.770243952301584045e-01 4.058572016377565844e-02
3.765956862067645905e-01 9.114839546074666732e-01 1.654469389973408089e-01
4.164124149162091171e-01 8.850134467205919009e-01 2.082111904470772268e-01
5.390413123852807464e-01 8.421366133987154834e-01 1.550444824224529554e-02
5.723930154383416458e-01 8.134224171694547367e-01 1.034901305613442207e-01
3.761373648656274327e-01 5.502702160188740477e-01 -7.454685587699079186e-01
3.258353179123011367e-01 5.882618438678858253e-01 -7.401211715997217944e-01
-4.284387454842176340e-02 9.839871061097151816e-01 -1.730138070314248544e-01
-2.184375163094781913e-01 9.411572884211578671e-01 -2.578914692662006014e-01
-1.966931795198733346e-01 9.343328525886819280e-01 -2.972102180340696620e-01
-1.665505618848349967e-01 9.482326472361339853e-01 -2.703992549017089075e-01
-1.803210364262738397e-01 9.313210826001823150e-01 -3.164259232847064784e-01
-1.798746535032059723e-01 9.253189388210676380e-01 -3.338112797467377990e-01
-1.957493979578238397e-01 9.337584872435932271e-01 -2.996285378593065984e-01
-1.185113907658629818e-02 8.780488476893605343e-01 -4.784242589731144135e-01
1.240166491126988429e-01 8.838056817777790730e-01 -4.511179309229162437e-01
9.483408659669692597e-03 8.254222525650307674e-01 -5.644361522180028068e-01
-2.500261604845959579e-02 8.160107778730046890e-01 -5.774956965950716059e-01
-4.717624115900390103e-03 8.453931120503401786e-01 -5.341237966244737345e-01
-4.029868877688655426e-02 8.142145009391018595e-01 -5.791638474070641696e-01
-1.778426086918028295e-02 8.622031563985274039e-01 -5.062503700361644654e-01
-8.091307196137639823e-02 8.171210628985150493e-01 -5.707593567812745405e-01
-7.368770132499871499e-03 7.801024450132068022e-01 -6.256084050835243326e-01
-8.668907998308969520e-02 8.162106416155776589e-01 -5.712137882834871228e-01
5.552022810372401335e-02 8.128310433833279003e-01 -5.798475654718926453e-01
-3.125492120389115197e-02 8.003360169071684904e-01 -5.987364945797999383e-01
-5.377318220549738570e-02 7.865921378911854278e-01 -6.151270222346506555e-01
1.628154726550370412e-01 8.482707859549457607e-01 -5.039124879971678128e-01
1.759132288795223209e-01 8.527395315979873214e-01 -4.918229632248030669e-01
1.741011526897741912e-01 8.613956391449499872e-01 -4.771648996878907756e-01
1.043603176299048030e-01 3.309702322843823818e-01 9.378526693707318618e-01
1.702555255360807818e-01 2.315174262406696493e-01 9.578166512288920353e-01
2.934941368678402052e-01 2.613077608141847197e-01 9.195539384736918231e-01
2.395766625149583495e-01 1.675773881256775732e-01 9.563058306667222563e-01
1.942635274953560254e-01 3.329655907433597961e-01 9.227110041968646925e-01
2.034561199531545461e-01 3.296482016367155432e-01 9.219206421440442334e-01
1.364819455608965726e-01 4.000070587744661288e-01 9.062930163399214312e-01
3.526547951847845003e-02 4.333866225950836482e-01 9.005178406394613866e-01
-2.501357443611344419e-02 4.071781853427297038e-01 9.130061590564058083e-01
-2.501357443611344419e-02 4.071781853427297038e-01 9.130061590564058083e-01
5.733176391903971325e-02 4.591073198693582103e-01 8.865289265942236652e-01
5.733176391903971325e-02 4.591073198693582103e-01 8.865289265942236652e-01
1.180421789847093811e-01 4.534760424329828954e-01 8.834169587006246438e-01
1.180421789847093811e-01 4.534760424329828954e-01 8.834169587006246438e-01
8.321122781885573194e-02 4.699952699125905520e-01 8.787379232880926372e-01
8.321122781885573194e-02 4.699952699125905520e-01 8.787379232880926372e-01
8.804427327578775997e-02 4.634194286929709250e-01 8.817542963055063909e-01
1.115933832248502677e-01 4.576520607347279168e-01 8.821006224494394310e-01
1.944065275007855476e-01 8.584796060010488894e-01 4.745723002297648208e-01
1.919579807960875850e-01 8.992360511174122273e-01 3.930987890841837196e-01
1.605483835779752400e-01 8.681952368549649135e-01 4.695330097371755440e-01
1.531763416515740939e-01 8.846154583799195059e-01 4.404457959312643722e-01
-1.123209416780802522e-01 8.808870210394326161e-01 4.598065486971924520e-01
-1.693847712829232854e-01 8.337177825411408172e-01 5.255696512662381137e-01
5.501711760055872924e-01 3.193103414923317285e-01 -7.715909427336997695e-01
3.376215471159066395e-01 3.728210180523235384e-01 -8.643009773345687874e-01
2.328491057675397824e-01 3.827074670970247450e-01 -8.940449029950546800e-01
3.302969988190971873e-01 3.378227532225703267e-01 -8.813510537670103950e-01
4.812082000956184324e-01 3.097151308586205132e-01 -8.200702444778512623e-01
3.906960174647137185e-01 5.175791609494352352e-01 -7.612282404693685445e-01
4.047591163369415601e-01 5.084383935053814474e-01 -7.600397737959539990e-01
3.548755861541952883e-01 4.555090298378665636e-01 -8.164403481503605953e-01
4.058234758907086626e-01 4.151355208588235479e-01 -8.142295780289836582e-01
4.491023514741566136e-01 4.145130260997806348e-01 -7.915087043703219472e-01
4.379464326933424356e-01 3.843661003272902388e-01 -8.126903610910906073e-01
3.937970468870342633e-01 9.008464849855977175e-01 -1.827552909005492054e-01
9.005054542462618272e-01 -2.872623469619605130e-01 3.264510237242946311e-01
8.140092898051659587e-01 -4.270452115399099857e-01 3.937273973344032618e-01
9.017808917812166758e-01 4.299458837203122274e-01 -4.401999875321582767e-02
6.655964835624598175e-01 6.107091654027066996e-01 -4.289704376322658330e-01
6.149661354494971865e-01 6.483290808176356279e-01 -4.488719808770318953e-01
3.575167214614762279e-01 8.918576973214246140e-01 -2.770769597132959339e-01
3.564000488252117016e-01 8.974049773793547624e-01 -2.600832785323701768e-01
5.170000971680446256e-01 8.555501122020694460e-01 -2.729294852628996390e-02
4.403846881826223858e-01 8.900710092514793059e-01 1.176219575774333087e-01
4.330133273867883270e-01 9.004289779844967256e-01 -4.155856002337564303e-02
6.392438968978711999e-01 7.558347594468362018e-01 -1.417076451387398461e-01
6.131727769919489424e-01 7.557397829635856823e-01 -2.299489639075029401e-01
5.465407318946668980e-01 7.987325319291420644e-01 -2.516338030116463398e-01
4.850683956511994688e-01 8.322423499769153743e-01 -2.684796499648955392e-01
3.475131926176562858e-01 8.440827497342552332e-01 -4.083612280294769414e-01
-2.357978492823214201e-01 9.633659008434017901e-01 1.277713401589445075e-01
-2.357978492823214201e-01 9.633659008434017901e-01 1.277713401589445075e-01
-2.357978492823214201e-01 9.633659008434017901e-01 1.277713401589445075e-01
-3.167354407030404384e-01 9.481722251789408418e-01 2.545765114590105987e-02
-2.633599923802281695e-01 9.586567885399142064e-01 1.077899633538491886e-01
-4.439624621979642582e-01 8.960171835914338967e-01 7.109069418408566453e-03
-5.246333238177325331e-01 8.512558744944807021e-01 1.110457917234950603e-02
-5.235270316265491219e-01 8.516748970263534613e-01 2.386036318760525674e-02
-2.644481971768342099e-01 9.582283059507468170e-01 1.089296318027576926e-01
-1.785680184184148811e-01 9.816334048336952112e-01 6.715148034650673947e-02
-1.785680184184148811e-01 9.816334048336952112e-01 6.715148034650673947e-02
-1.774970656870036301e-01 9.816935085892971591e-01 6.908434602816564130e-02
-1.501776562817537242e-01 9.864037358998221094e-01 6.674085223154842261e-02
-1.501776562817537242e-01 9.864037358998221094e-01 6.674085223154842261e-02
-2.182553658780284345e-01 9.748963131797261372e-01 4.406556267682809613e-02
-2.182553658780284345e-01 9.748963131797261372e-01 4.406556267682809613e-02
-2.146253689815885712e-01 9.762067767376568783e-01 -3.092377792236368148e-02
-1.998318495138530770e-01 9.789457556351268686e-01 -4.162258333937479682e-02
