-2.260809704554973543e-01 4.660511791581145591e-01 -8.553851139710297868e-01
-2.247697305874790663e-01 4.720208933344866020e-01 -8.524522534824723330e-01
2.682437081255329425e-01 -7.036867378178567056e-02 -9.607775823785943414e-01
2.682437081255329425e-01 -7.036867378178567056e-02 -9.607775823785943414e-01
2.613261104974264337e-01 -5.959342606133249953e-02 -9.634092004660115283e-01
2.095398871960391929e-01 -1.450272182784834163e-01 -9.669850782883240292e-01
2.095398871960391929e-01 -1.450272182784834163e-01 -9.669850782883240292e-01
3.495975311729386803e-01 6.434101769899579215e-02 -9.346880761191103115e-01
3.614781940354455103e-01 6.779303311154784295e-02 -9.299126947721541026e-01
3.448092233307195609e-01 7.369978751986333565e-02 -9.357750481956615962e-01
2.212279411534469054e-01 -1.468642988805310690e-01 -9.641001378318213577e-01
2.742845566376629907e-01 -9.948282163636339159e-02 -9.564889702392537219e-01
1.989666857808969347e-01 -1.713000527217671265e-01 -9.649189343602319058e-01
1.930458198198115871e-01 -1.243633444404186605e-01 -9.732764612429968265e-01
1.814521999328592705e-01 -1.528208468888114235e-01 -9.714529777069563776e-01
2.420198699181129731e-01 -6.666189590323989833e-02 -9.679786021392237094e-01
2.085531959975220617e-01 -1.570958045806450099e-01 -9.653115935398159930e-01
1.663042925805716943e-01 -1.817434976165272498e-01 -9.691811922150506131e-01
1.797526374657004988e-01 -1.789991424090416061e-01 -9.672891482596877033e-01
1.310511697210506032e-01 -2.201112055203698903e-01 -9.666315989657661145e-01
1.310511697210506032e-01 -2.201112055203698903e-01 -9.666315989657661145e-01
1.600168668981025999e-01 -1.730396985002128352e-01 -9.718291336706624817e-01
1.218756096992376498e-01 -2.116911041724473808e-01 -9.697077973156082997e-01
1.630482625919165984e-01 -1.617787985618986957e-01 -9.732640363239700720e-01
1.630482625919165984e-01 -1.617787985618986957e-01 -9.732640363239700720e-01
1.503694073479751314e-01 -1.862549107978594132e-01 -9.709264387879754654e-01
9.963875736841655562e-02 -2.311608605598449995e-01 -9.677999661992708891e-01
1.025701007884205901e-01 -2.247559874666953117e-01 -9.690016101751967037e-01
1.109551393239763123e-01 -2.248943817837153469e-01 -9.680451818483047921e-01
1.032522997667882775e-01 -2.234247282484253527e-01 -9.692369954763316864e-01
1.111445391387003850e-01 -2.264536312806936236e-01 -9.676598804845809587e-01
1.286616080752843172e-01 -2.191934674623687296e-01 -9.671610075004603013e-01
1.286616080752843172e-01 -2.191934674623687296e-01 -9.671610075004603013e-01
1.323858732996789078e-01 -2.088138850919646627e-01 -9.689534260961571999e-01
1.684269331326263275e-01 -1.826946157903859003e-01 -9.686356619269915758e-01
1.241080989799912965e-01 -2.050073784316456260e-01 -9.708600077025300035e-01
5.571511780500982836e-01 7.268920016936902817e-01 4.015103767913447141e-01
5.324107733813562282e-01 7.475964124705759550e-01 3.970369912849310845e-01
-9.427699077880103973e-01 2.824711384740744569e-01 1.771862209613003225e-01
-9.344785156044412844e-01 3.521838988056149033e-01 5.211914519441356031e-02
-9.281343878319030516e-01 2.991364170732538907e-01 2.215490061013022649e-01
-9.281343878319030516e-01 2.991364170732538907e-01 2.215490061013022649e-01
-9.144138310822028659e-01 3.406994899404929833e-01 2.185662441454682692e-01
-9.260343370302590582e-01 2.872214691449354595e-01 2.448759569724098251e-01
-9.044002166754711025e-01 3.307423479989098358e-01 2.695732689224383805e-01
-9.266136441333084894e-01 2.843847011809385594e-01 2.459928784339469321e-01
2.333053350243826374e-01 1.509397842016790003e-01 -9.606174067724939647e-01
2.162295146264031909e-01 1.623469225666433757e-01 -9.627503693780492533e-01
2.286626750254809048e-01 1.423408263583365585e-01 -9.630433376550698865e-01
2.250692521223228160e-01 1.378790314493116009e-01 -9.645378190800494300e-01
2.250692521223228160e-01 1.378790314493116009e-01 -9.645378190800494300e-01
1.853043457486005796e-01 1.621806067416821373e-01 -9.692057316398737798e-01
1.853043457486005796e-01 1.621806067416821373e-01 -9.692057316398737798e-01
2.121541742718107137e-01 1.372654050912732460e-01 -9.675478359772062831e-01
2.121541742718107137e-01 1.372654050912732460e-01 -9.675478359772062831e-01
2.121541742718107137e-01 1.372654050912732460e-01 -9.675478359772062831e-01
1.571149824230009817e-01 1.793324836220922813e-01 -9.711615430072135791e-01
1.994275159082145310e-01 1.801856710987966292e-01 -9.632039191310193260e-01
-8.797702778611178331e-01 3.938276360317973790e-01 2.662781464742788318e-01
-9.014962665946771869e-01 3.315115536055373013e-01 2.782167700587108716e-01
-9.014962665946771869e-01 3.315115536055373013e-01 2.782167700587108716e-01
-8.700610600373509529e-01 3.971543162094037238e-01 2.919969193723150336e-01
3.408655615328279320e-02 3.032094501446482293e-01 -9.523140952609013832e-01
1.125071521202104519e-01 2.289967412243547606e-01 -9.669036318219235149e-01
1.119189611706206261e-01 2.330847525380844443e-01 -9.659946398737153661e-01
1.106471164186540457e-01 2.280493552241018296e-01 -9.673420838618095319e-01
1.106471164186540457e-01 2.280493552241018296e-01 -9.673420838618095319e-01
2.164837622927895944e-01 1.420960477594652993e-01 -9.658900009186858204e-01
1.660729801710618680e-01 1.768115646383618678e-01 -9.701326898250756114e-01
1.660729801710618680e-01 1.768115646383618678e-01 -9.701326898250756114e-01
-1.689263411081353694e-01 4.565352459957321418e-01 -8.735212993644940749e-01
-3.635123570325435871e-01 6.059554965445628216e-01 -7.075851203156245939e-01
-2.157798747469709677e-01 5.712068030015993170e-01 -7.919354985469925223e-01
-1.970892415077254989e-01 5.088183163799112618e-01 -8.380093983949237213e-01
-7.465286184255594260e-02 4.012789748946742341e-01 -9.129086123628123994e-01
-7.773279597739631008e-02 4.451098695303433717e-01 -8.920957440074565037e-01
-1.072404960948821206e-01 3.992501782357718021e-01 -9.105486100016999540e-01
2.040098214600279472e-02 2.993220318278598802e-01 -9.539340234994870826e-01
1.116001436916261719e-01 2.329385932489436706e-01 -9.660667780765528345e-01
1.739899479621471665e-02 3.180524298715599052e-01 -9.479134595694260756e-01
-4.245466749303306031e-01 6.886556011437474645e-01 -5.878040352183233619e-01
-3.354827753817120617e-01 6.832500329793089744e-01 -6.485527733777392001e-01
-4.452617676045135808e-01 7.585822366429435526e-01 -4.757046862912884255e-01
-1.949367975686617238e-01 6.319764159948637605e-01 -7.500702997586036203e-01
-2.891854048023721480e-01 6.690061156158403355e-01 -6.846916232274886660e-01
-2.689050645891485347e-01 5.770293365847348754e-01 -7.711855878832841737e-01
-3.688475032269490361e-01 8.100890405510067227e-01 -4.557491258822062852e-01
-3.776423786308907848e-01 7.654014365924255436e-01 -5.211015973150092684e-01
2.098284505726822624e-01 -1.388732575654939294e-01 -9.678255212916301309e-01
2.046580257808350845e-01 -1.385567214267215408e-01 -9.689773616710396498e-01
1.612765765318229239e-01 -2.009392434862067589e-01 -9.662366616359399085e-01
1.684494139153842329e-01 -1.971109275172121811e-01 -9.658012617536114730e-01
1.570508653948218813e-01 -1.942762353536432174e-01 -9.682932252450975330e-01
1.570508653948218813e-01 -1.942762353536432174e-01 -9.682932252450975330e-01
1.352016310021356971e-01 -2.271996454560067658e-01 -9.644173578275264669e-01
1.431805001768366448e-01 -2.252258384991146223e-01 -9.637285229988171720e-01
1.463057895600364533e-01 -2.282332955059217516e-01 -9.625508707407214315e-01
1.463057895600364533e-01 -2.282332955059217516e-01 -9.625508707407214315e-01
3.828600606690536479e-01 8.748573734956484049e-01 2.967199858196009621e-01
3.828600606690536479e-01 8.748573734956484049e-01 2.967199858196009621e-01
3.288483261325567120e-01 9.011414097934169476e-01 2.824941379132471231e-01
1.866406666831811334e-01 -1.873347293290387183e-01 -9.644018668207114953e-01
1.580083055438351591e-01 -2.265181585389914876e-01 -9.611050406856006534e-01
1.760170331646306041e-01 -1.933134630089201056e-01 -9.652190989901828777e-01
1.694964730537990294e-01 -1.861269318807215467e-01 -9.677952835445066126e-01
1.277957165543479046e-01 -2.255399074364826117e-01 -9.658157199921232339e-01
1.544221421676670869e-01 -1.979586588052623664e-01 -9.679701294008873358e-01
1.282047666102555383e-01 -2.264926372556149980e-01 -9.655385145541353076e-01
1.282047666102555383e-01 -2.264926372556149980e-01 -9.655385145541353076e-01
1.277413342651132766e-01 -2.255064357823972909e-01 -9.658307299630138898e-01
4.545307896884614451e-01 8.289650202821481351e-01 3.259121912015586209e-01
3.949993600232002966e-01 8.607176190877436905e-01 3.211552362537277716e-01
4.953574669589975721e-01 7.881549508871724674e-01 3.652844827254566606e-01
4.710583030273348126e-01 8.063366951690212892e-01 3.576663377687481216e-01
4.925864070917223558e-01 8.045022487202726502e-01 3.318655802467209703e-01
4.709142629677957603e-01 8.075512846383711141e-01 3.551065750058906012e-01
-8.280936467480850549e-01 4.494265609270514661e-01 3.350771232846864733e-01
-8.515770002212962320e-01 4.140759059751876747e-01 3.214930120312511352e-01
-8.515770002212962320e-01 4.140759059751876747e-01 3.214930120312511352e-01
-8.502789503837300256e-01 4.468249330237066830e-01 2.781603597975503273e-01
-8.502807217217822622e-01 4.148360884002441074e-01 3.239347372991509544e-01
-8.442232509835875254e-01 4.792410512839327397e-01 2.400314922316931776e-01
-8.319296648056935251e-01 4.468404700300798726e-01 3.289781560523184489e-01
-8.270683457208488631e-01 4.915043535784088813e-01 2.727295765406620442e-01
1.686417431490069285e-01 1.808579900570696508e-01 -9.689429033230911870e-01
2.168659784222948528e-01 1.435061275626029753e-01 -9.655957429250228152e-01
2.168659784222948528e-01 1.435061275626029753e-01 -9.655957429250228152e-01
2.029610381450178969e-01 1.443069899782831733e-01 -9.684948681529006453e-01
2.013621781708743452e-01 1.372330357787099886e-01 -9.698558486152673019e-01
2.013621781708743452e-01 1.372330357787099886e-01 -9.698558486152673019e-01
2.194813560927416640e-01 1.225581592758230032e-01 -9.678881298593413618e-01
2.234255917607971820e-01 1.150408536795043540e-01 -9.679083670115825599e-01
2.263595041652465001e-01 1.221700809440793289e-01 -9.663518231970077421e-01
2.263595041652465001e-01 1.221700809440793289e-01 -9.663518231970077421e-01
2.020301264684318601e-02 3.269756681995076297e-01 -9.448167815431079974e-01
2.020301264684318601e-02 3.269756681995076297e-01 -9.448167815431079974e-01
1.111898972915608685e-01 2.311600956981604005e-01 -9.665411615120741429e-01
1.213933499263699506e-01 2.175940425008938417e-01 -9.684608857676045846e-01
1.213933499263699506e-01 2.175940425008938417e-01 -9.684608857676045846e-01
1.213933499263699506e-01 2.175940425008938417e-01 -9.684608857676045846e-01
1.256651459988686881e-01 2.375833957205709668e-01 -9.632042364727044781e-01
1.910504881914481812e-01 1.884664161971821017e-01 -9.633172483287113508e-01
1.684861686993277263e-01 1.807785499194216050e-01 -9.689847918548840644e-01
1.684861686993277263e-01 1.807785499194216050e-01 -9.689847918548840644e-01
1.684861686993277263e-01 1.807785499194216050e-01 -9.689847918548840644e-01
2.080046979990262113e-01 1.465267360690289400e-01 -9.670904617600626363e-01
2.080046979990262113e-01 1.465267360690289400e-01 -9.670904617600626363e-01
-9.819488260350676956e-02 4.347268916958320628e-01 -8.951928812646824385e-01
-4.369816451234164595e-02 4.201110752786701430e-01 -9.064199660457905594e-01
-4.257461493482085635e-02 4.692553510482123102e-01 -8.820356102084374594e-01
-4.257461493482085635e-02 4.692553510482123102e-01 -8.820356102084374594e-01
7.216931289435181418e-02 3.234789693619426476e-01 -9.434791712893785265e-01
7.216931289435181418e-02 3.234789693619426476e-01 -9.434791712893785265e-01
4.534865290302578927e-02 3.368623002390692678e-01 -9.404612115114179272e-01
4.534865290302578927e-02 3.368623002390692678e-01 -9.404612115114179272e-01
1.353200774997407319e-01 2.243917084955246721e-01 -9.650579452985834639e-01
1.353200774997407319e-01 2.243917084955246721e-01 -9.650579452985834639e-01
4.010951326435782671e-02 3.110653192390420707e-01 -9.495417811304613931e-01
-3.170428855156167680e-01 7.901137605790473639e-01 -5.245989459459170501e-01
-2.023513940260411037e-01 7.072474251134983625e-01 -6.773883620243592585e-01
-3.272226748991991507e-01 8.243962658928939424e-01 -4.618399266127454772e-01
-2.668261049842449162e-01 8.288068684684668508e-01 -4.918160270654365340e-01
-2.658311175439166951e-01 6.837256847079778987e-01 -6.795976787894136839e-01
-2.057342927386408005e-01 7.056637241625075552e-01 -6.780207291760567134e-01
-1.270154128026108609e-01 5.962024017548758215e-01 -7.927230166030881930e-01
2.043665750570103530e-03 4.420772491664208270e-01 -8.969746535993926573e-01
-1.299996564344629291e-01 5.515746766032264548e-01 -8.239329253385664353e-01
-2.963263480316331577e-01 8.645771904880548142e-01 -4.058287534786283457e-01
-2.139993633615271396e-01 8.248651043819668072e-01 -5.232607686935722979e-01
-2.139993633615271396e-01 8.248651043819668072e-01 -5.232607686935722979e-01
-2.656568385373216934e-01 8.962963968023033301e-01 -3.550763484344787169e-01
-2.264410673519713646e-01 7.668740902145388949e-01 -6.005235821965054788e-01
-2.264410673519713646e-01 7.668740902145388949e-01 -6.005235821965054788e-01
-1.929379443546007933e-01 9.211654795752544089e-01 -3.379779709790455278e-01
-2.414057184420996260e-01 9.555624130703445074e-01 -1.691855603490850235e-01
-1.814332632392605671e-01 9.549029028580366951e-01 -2.350370547459444404e-01
-1.243823067406791827e-01 9.061971029633565378e-01 -4.041483048964665814e-01
-2.029640345226688403e-01 9.236350543416091963e-01 -3.251213420888477423e-01
-2.026858682968604441e-01 9.737035929422422909e-01 -1.040180363404150932e-01
-1.240711196340200384e-01 9.726275354137490226e-01 -1.964740049669091715e-01
-1.549169043360687226e-01 9.867750000638144670e-01 -4.770589062147732873e-02
-1.075811275795594407e-01 9.450293589398728322e-01 -3.087811712692400956e-01
-8.005588920677925158e-02 9.699690861688859966e-01 -2.296759161949906147e-01
-1.638626460585108358e-01 9.513483103186859413e-01 -2.609318410629192231e-01
-1.040095237353089175e-01 9.944850066009750522e-01 1.347555632294329502e-02
-2.592097642078353137e-02 9.961886661309385937e-01 -8.328411885620498611e-02
-2.592097642078353137e-02 9.961886661309385937e-01 -8.328411885620498611e-02
-3.315232407581714114e-02 9.978794922857416871e-01 5.601287605472760750e-02
-3.315232407581714114e-02 9.978794922857416871e-01 5.601287605472760750e-02
-2.786329859240452983e-02 9.981808206571171072e-01 5.346667994026572251e-02
-4.090767281565989288e-02 9.861287508537198709e-01 -1.608622051461706393e-01
-3.604623866551810284e-03 9.955505110113375133e-01 -9.416043071187439606e-02
-7.151732236392294162e-02 9.973820201549712383e-01 -1.069478721074718086e-02
-8.148275984386374460e-02 9.877858118524629472e-01 -1.328147196330212720e-01
5.468057120728806592e-02 9.966530334107751576e-01 -6.076813412920351737e-02
5.468057120728806592e-02 9.966530334107751576e-01 -6.076813412920351737e-02
-1.516769851522608561e-03 9.964168972141970171e-01 8.456397788213296240e-02
2.245890194093568340e-02 9.983472318568907822e-01 -5.289992785714091317e-02
2.245890194093568340e-02 9.983472318568907822e-01 -5.289992785714091317e-02
1.278131957054718382e-01 9.896169412085663586e-01 -6.574265492475699080e-02
1.872554087640661280e-01 9.736983385175489447e-01 -1.297958298897425033e-01
5.725107097139538886e-02 9.944645886947620639e-01 8.810503223304522180e-02
5.725107097139538886e-02 9.944645886947620639e-01 8.810503223304522180e-02
1.475436075574937389e-01 9.819076519689110549e-01 -1.186939209640510834e-01
1.403233433818589782e-01 9.901047023716192941e-01 1.427460592825921352e-03
5.566452168455734983e-02 9.938563809726945752e-01 9.566062421648410807e-02
5.566452168455734983e-02 9.938563809726945752e-01 9.566062421648410807e-02
5.566452168455734983e-02 9.938563809726945752e-01 9.566062421648410807e-02
1.371327959179886868e-01 9.847236866421437140e-01 1.073026432555148485e-01
9.132982871270400871e-02 9.895411865622243397e-01 1.116561797856859828e-01
2.032450666336863554e-01 9.639967330895213848e-01 1.714693601836733139e-01
2.248405905709398023e-01 9.710880528312032522e-01 8.021659728642961673e-02
2.023469911442547231e-01 9.671387220353843128e-01 1.539428059853095720e-01
2.023469911442547231e-01 9.671387220353843128e-01 1.539428059853095720e-01
1.512092903089676810e-01 9.800843320936668546e-01 1.287262696918123894e-01
1.925598330596073327e-01 9.729611398892700214e-01 1.275434473323843187e-01
2.372704953925883486e-01 9.625357583414433371e-01 -1.312540511002159571e-01
2.372704953925883486e-01 9.625357583414433371e-01 -1.312540511002159571e-01
1.957218336845994722e-01 9.805630913569826079e-01 1.374727927902336805e-02
3.014643793441150188e-01 9.511596361021421586e-01 -6.644226543931221196e-02
2.413329907201825497e-01 9.694202428864038268e-01 4.452842094795478323e-02
2.311674631573470973e-01 9.674693214792507989e-01 -1.027848041972874993e-01
2.197285428143344599e-01 9.752842182462377885e-01 2.323921497198503522e-02
2.643478728050392412e-01 9.365773412335515191e-01 2.300936462211468636e-01
2.354604659309825765e-01 9.489650568481442505e-01 2.098182305348204602e-01
2.953737597141417592e-01 9.453689665427246203e-01 1.379560044734303159e-01
2.981483790641503706e-01 9.442685637365205720e-01 1.395149583391976922e-01
2.417960143854047672e-01 9.517451779324928030e-01 1.889862526999800119e-01
2.788406150881720946e-01 9.557244624279448431e-01 9.401416539046611454e-02
2.762604480291881992e-01 9.609965343543946936e-01 -1.287733720745618676e-02
3.509835195179344391e-01 9.357666812098009990e-01 3.393062575901620304e-02
2.909665789419830784e-01 9.564900171600714263e-01 2.157074435260370251e-02
2.602838040284158883e-01 9.570984982038109878e-01 1.273373711700803157e-01
2.903260449560229328e-01 9.136116688504487549e-01 2.846480390947586092e-01
2.706045081358996462e-01 9.248944537728746029e-01 2.671019459994700695e-01
3.108329416390470668e-01 9.113081245847669543e-01 2.700007119579712622e-01
3.674544383102741896e-01 9.195026157250346666e-01 1.396143812108923132e-01
3.415529198858526794e-01 9.144604412900778634e-01 2.170338780766824793e-01
2.927300958961386868e-01 9.320653526536706313e-01 2.134555441754228955e-01
-7.984268855784482088e-01 4.897554245716032040e-01 3.502201200505020706e-01
-7.984268855784482088e-01 4.897554245716032040e-01 3.502201200505020706e-01
-8.088475717390046782e-01 5.297107712534313562e-01 2.552882772671135614e-01
-8.088475717390046782e-01 5.297107712534313562e-01 2.552882772671135614e-01
-8.213205450880718406e-01 4.859179785745688096e-01 2.988582947054295169e-01
-7.550289826562852635e-01 5.380367160992889364e-01 3.747635621003036488e-01
-7.960519437273476662e-01 4.949307296611486495e-01 3.483459138916296660e-01
-7.960519437273476662e-01 4.949307296611486495e-01 3.483459138916296660e-01
-7.960519437273476662e-01 4.949307296611486495e-01 3.483459138916296660e-01
2.382602664570919737e-01 1.218896841980048329e-01 -9.635221587041504776e-01
2.207742956797910661e-01 1.266208109788977410e-01 -9.670707733119321414e-01
1.994072281561548587e-01 1.208755905857407803e-01 -9.724329534521275464e-01
1.994072281561548587e-01 1.208755905857407803e-01 -9.724329534521275464e-01
1.852119274818962713e-01 1.668063980572044858e-01 -9.684380039453337474e-01
1.650807586944075256e-01 1.439626866635905500e-01 -9.757167047650049385e-01
1.781158948425450583e-01 1.659275203215586081e-01 -9.699189584724995372e-01
2.096789099492224751e-01 1.222085229740931672e-01 -9.701030005288079350e-01
2.096789099492224751e-01 1.222085229740931672e-01 -9.701030005288079350e-01
2.096789099492224751e-01 1.222085229740931672e-01 -9.701030005288079350e-01
2.140145232154634369e-01 1.371233319510380966e-01 -9.671581957919311856e-01
2.140145232154634369e-01 1.371233319510380966e-01 -9.671581957919311856e-01
2.140145232154634369e-01 1.371233319510380966e-01 -9.671581957919311856e-01
2.023400149369465606e-01 1.221962115065965832e-01 -9.716617746154015967e-01
2.023400149369465606e-01 1.221962115065965832e-01 -9.716617746154015967e-01
2.023400149369465606e-01 1.221962115065965832e-01 -9.716617746154015967e-01
2.023400149369465606e-01 1.221962115065965832e-01 -9.716617746154015967e-01
2.053797142559263544e-01 1.240418288879388126e-01 -9.707897803635395784e-01
2.053797142559263544e-01 1.240418288879388126e-01 -9.707897803635395784e-01
6.682233728750396062e-02 3.022822270404609823e-01 -9.508734040106990859e-01
1.328232937561306115e-01 2.184259498006986266e-01 -9.667719881592740094e-01
1.328232937561306115e-01 2.184259498006986266e-01 -9.667719881592740094e-01
1.399135142728616110e-01 2.180473152980479112e-01 -9.658569132201371144e-01
1.407855760681940016e-01 2.202404165993235574e-01 -9.652323971289521465e-01
1.407855760681940016e-01 2.202404165993235574e-01 -9.652323971289521465e-01
1.185878056662751506e-01 2.968917827848286950e-01 -9.475189716634194736e-01
1.185878056662751506e-01 2.968917827848286950e-01 -9.475189716634194736e-01
1.510230449188815771e-01 2.203517390357875860e-01 -9.636582127535330278e-01
8.835526459865773730e-02 2.888490983676870738e-01 -9.532888049221365234e-01
-7.983998267477858402e-02 5.311807543713127355e-01 -8.434883421553699412e-01
-7.983998267477858402e-02 5.311807543713127355e-01 -8.434883421553699412e-01
-3.357811592341636286e-03 4.051795133016837802e-01 -9.142309812634447086e-01
-3.357811592341636286e-03 4.051795133016837802e-01 -9.142309812634447086e-01
3.439595060582574526e-02 3.763650587049562346e-01 -9.258327393044255560e-01
-1.209322439507516320e-02 5.608814340846872692e-01 -8.278078103176091940e-01
8.378106110335091505e-02 3.931900502900130823e-01 -9.156321958916329162e-01
-1.012374449452381996e-02 4.658053943376166961e-01 -8.848292741559734553e-01
-1.272281239494250371e-01 7.039310185924865237e-01 -6.987804558941628219e-01
-1.210176489643511738e-01 6.243897858693485681e-01 -7.716813616650139984e-01
-2.974164234717962055e-02 5.477820570795828292e-01 -8.360922512810132767e-01
-4.420947306459222653e-02 6.643041272631740046e-01 -7.461538373502236698e-01
2.936996138619830943e-02 6.514362463667094927e-01 -7.581346993033790671e-01
-5.183335984222046250e-02 7.374079179129576778e-01 -6.734559119992514775e-01
3.610290476243158825e-02 5.757574082903129664e-01 -8.168231063495550170e-01
-1.240697109872843235e-01 8.351896110219517722e-01 -5.357844906830847576e-01
-1.288912258400329580e-01 7.737224521079814066e-01 -6.202746319215916015e-01
3.700763980377613088e-02 7.752392275099747598e-01 -6.305827263142336214e-01
-4.241513355178813671e-02 8.606590955828273826e-01 -5.074119407703503448e-01
2.916919868174476169e-02 7.202332751109382647e-01 -6.931184511115228153e-01
-7.239096929901026045e-02 9.162609855417448435e-01 -3.939864895374205478e-01
-7.239096929901026045e-02 9.162609855417448435e-01 -3.939864895374205478e-01
-3.601852501429127825e-03 7.938605972038859093e-01 -6.080891208249391555e-01
8.512334771352210450e-02 8.322431452080421010e-01 -5.478369857250136032e-01
4.687213832994625504e-03 9.312090117115302546e-01 -3.644554932138068248e-01
1.006821541297367624e-02 9.566586201765215902e-01 -2.910376530285245233e-01
3.919651749250943618e-02 9.509724424605425774e-01 -3.067817574385566237e-01
3.919651749250943618e-02 9.509724424605425774e-01 -3.067817574385566237e-01
1.546709168203083962e-01 8.551500030493247584e-01 -4.947680060136319113e-01
6.705819542128417521e-02 9.625336188283746264e-01 -2.627398543274205300e-01
1.280502519859175459e-01 8.446417973476643137e-01 -5.197916574356019614e-01
6.776919640161488401e-02 9.624176378852468128e-01 -2.629821786860493948e-01
1.491604173424852242e-01 8.574166162466159147e-01 -4.925321472578404469e-01
9.508078752845458559e-02 9.641295259062022671e-01 -2.478182824548073315e-01
-7.550193773016616872e-01 5.380529682873865793e-01 3.747595805528441404e-01
-7.550193773016616872e-01 5.380529682873865793e-01 3.747595805528441404e-01
2.149335894860626706e-01 9.149311348063389471e-02 -9.723335653448649252e-01
2.149335894860626706e-01 9.149311348063389471e-02 -9.723335653448649252e-01
2.177396204217928732e-01 8.764640258012852680e-02 -9.720635605830184600e-01
2.177949970801941471e-01 8.739982789995458246e-02 -9.720733559407420676e-01
-2.347227067261198619e-01 -7.388902125220907224e-02 -9.692500520946875087e-01
-2.271504148643854748e-01 -7.425054172299967725e-02 -9.710249976600904276e-01
-2.182449804591260478e-01 -9.007825206793840245e-02 -9.717278615995225133e-01
-2.182449804591260478e-01 -9.007825206793840245e-02 -9.717278615995225133e-01
-2.182449804591260478e-01 -9.007825206793840245e-02 -9.717278615995225133e-01
-2.182449804591260478e-01 -9.007825206793840245e-02 -9.717278615995225133e-01
-2.182449804591260478e-01 -9.007825206793840245e-02 -9.717278615995225133e-01
-2.182449804591260478e-01 -9.007825206793840245e-02 -9.717278615995225133e-01
-2.255938218847394761e-01 -8.694948708252908665e-02 -9.703335582280566696e-01
-2.255938218847394761e-01 -8.694948708252908665e-02 -9.703335582280566696e-01
-2.255938218847394761e-01 -8.694948708252908665e-02 -9.703335582280566696e-01
-2.255938218847394761e-01 -8.694948708252908665e-02 -9.703335582280566696e-01
-2.255938218847394761e-01 -8.694948708252908665e-02 -9.703335582280566696e-01
-2.174022458786927237e-01 -8.408373361097834509e-02 -9.724536951592802625e-01
-2.174022458786927237e-01 -8.408373361097834509e-02 -9.724536951592802625e-01
-2.174022458786927237e-01 -8.408373361097834509e-02 -9.724536951592802625e-01
-2.174022458786927237e-01 -8.408373361097834509e-02 -9.724536951592802625e-01
-2.174022458786927237e-01 -8.408373361097834509e-02 -9.724536951592802625e-01
-2.174022458786927237e-01 -8.408373361097834509e-02 -9.724536951592802625e-01
-2.201902321384053285e-01 -8.793282483430407692e-02 -9.714855016867183224e-01
-2.201902321384053285e-01 -8.793282483430407692e-02 -9.714855016867183224e-01
-2.226181008061597355e-01 -7.121117345551222777e-02 -9.723014707221970809e-01
-2.218713700108325138e-01 -6.822607584401163550e-02 -9.726861249881399996e-01
-2.214551019482894068e-01 -8.785835002994110687e-02 -9.712046891109459290e-01
-2.214551019482894068e-01 -8.785835002994110687e-02 -9.712046891109459290e-01
-2.214551019482894068e-01 -8.785835002994110687e-02 -9.712046891109459290e-01
-2.224021603434645777e-01 -1.493938264547329808e-01 -9.634411054609268721e-01
-2.224021603434645777e-01 -1.493938264547329808e-01 -9.634411054609268721e-01
-2.224021603434645777e-01 -1.493938264547329808e-01 -9.634411054609268721e-01
-2.224021603434645777e-01 -1.493938264547329808e-01 -9.634411054609268721e-01
-2.224021603434645777e-01 -1.493938264547329808e-01 -9.634411054609268721e-01
-2.012461682471946289e-01 -1.500982719571467283e-01 -9.679723593787686875e-01
-2.012461682471946289e-01 -1.500982719571467283e-01 -9.679723593787686875e-01
-2.012461682471946289e-01 -1.500982719571467283e-01 -9.679723593787686875e-01
-2.012461682471946289e-01 -1.500982719571467283e-01 -9.679723593787686875e-01
-2.098346084700647429e-01 -1.609187297030979791e-01 -9.644037533724947320e-01
-2.098346084700647429e-01 -1.609187297030979791e-01 -9.644037533724947320e-01
-1.947063989190510602e-01 -1.541434503940152245e-01 -9.686739466510921881e-01
-1.947063989190510602e-01 -1.541434503940152245e-01 -9.686739466510921881e-01
-1.947063989190510602e-01 -1.541434503940152245e-01 -9.686739466510921881e-01
-1.947063989190510602e-01 -1.541434503940152245e-01 -9.686739466510921881e-01
-2.181786638668518075e-01 -1.302854810427772625e-01 -9.671730786486602005e-01
-2.181786638668518075e-01 -1.302854810427772625e-01 -9.671730786486602005e-01
-2.181786638668518075e-01 -1.302854810427772625e-01 -9.671730786486602005e-01
-2.181786638668518075e-01 -1.302854810427772625e-01 -9.671730786486602005e-01
-1.874984427624134531e-01 -1.543393438448975308e-01 -9.700637612565456980e-01
-2.203630633044011689e-01 -8.650026873593665011e-02 -9.715749193138485396e-01
-2.203630633044011689e-01 -8.650026873593665011e-02 -9.715749193138485396e-01
-2.203630633044011689e-01 -8.650026873593665011e-02 -9.715749193138485396e-01
-2.203630633044011689e-01 -8.650026873593665011e-02 -9.715749193138485396e-01
-2.203630633044011689e-01 -8.650026873593665011e-02 -9.715749193138485396e-01
-1.995527580629516684e-01 -1.242342943024804663e-01 -9.719796998233213303e-01
-1.995527580629516684e-01 -1.242342943024804663e-01 -9.719796998233213303e-01
-1.995527580629516684e-01 -1.242342943024804663e-01 -9.719796998233213303e-01
5.872541329366507412e-01 -6.614255881790689351e-01 4.665284285558546906e-01
6.092914201525067019e-01 -6.441878235895187599e-01 4.623699960719129254e-01
-2.332642559272508909e-01 -7.934030720504688106e-02 -9.691712452189832350e-01
-2.190466189788369822e-01 -8.618261833322042598e-02 -9.719007845511653532e-01
-2.190466189788369822e-01 -8.618261833322042598e-02 -9.719007845511653532e-01
-2.191908359322062572e-01 -8.629530709560440105e-02 -9.718582702311154842e-01
-2.191908359322062572e-01 -8.629530709560440105e-02 -9.718582702311154842e-01
6.239808508432658218e-01 -6.392764655981747479e-01 4.494146173782289089e-01
-2.237446237247236458e-01 -7.909434058921803457e-02 -9.714331827979928446e-01
-1.711970766205943573e-01 -3.789553246092864369e-01 -9.094418194182807280e-01
-1.984193775438898855e-01 -3.887387239680097917e-01 -8.997288230921687280e-01
-2.120624304218056699e-01 -2.607692899573541001e-01 -9.418221185652491112e-01
-2.067394297951876125e-01 -3.498834786529935181e-01 -9.136959885725890462e-01
-1.678067318709164091e-01 -3.466100434803800479e-01 -9.228772282905951529e-01
-1.970657490643058785e-01 -2.615422274144436066e-01 -9.448601768647122423e-01
-1.956138698449879088e-01 -2.618406833310757409e-01 -9.450791874107604684e-01
-1.826361411793002432e-01 -3.628359507364355419e-01 -9.137801227802679893e-01
-1.684390634290046374e-01 -3.794255458038787721e-01 -9.097607032085901491e-01
-1.531121975404588498e-01 -3.618603907727010460e-01 -9.195725705751338630e-01
-1.915837238444094981e-01 -2.225166137911316899e-01 -9.559194701149450468e-01
-1.917097555994435876e-01 -2.424192224232365189e-01 -9.510416868927014100e-01
-1.917097555994435876e-01 -2.424192224232365189e-01 -9.510416868927014100e-01
-1.706513020979940898e-01 -3.024760698795921909e-01 -9.377560238369333501e-01
-1.703067130509765825e-01 -2.308642724624485609e-01 -9.579651930994970144e-01
-1.703067130509765825e-01 -2.308642724624485609e-01 -9.579651930994970144e-01
-1.366439384888591124e-01 -3.221691766518491318e-01 -9.367686244157210629e-01
-1.640484820234639762e-01 -2.566552434953385808e-01 -9.524789664513046983e-01
-1.640484820234639762e-01 -2.566552434953385808e-01 -9.524789664513046983e-01
-1.803611447972216508e-01 -3.366648382736778800e-01 -9.241897230101587812e-01
-1.803611447972216508e-01 -3.366648382736778800e-01 -9.241897230101587812e-01
-1.877296949658874281e-01 -2.015799493238095430e-01 -9.613132089275717718e-01
-1.885634637248228551e-01 -2.025828212256253757e-01 -9.609391347491076374e-01
-1.885634637248228551e-01 -2.025828212256253757e-01 -9.609391347491076374e-01
-1.680229133164967137e-01 -2.097414047407498150e-01 -9.632117335965202365e-01
-1.713235554878385081e-01 -2.675688282173250832e-01 -9.481851936733735053e-01
-2.043966596766143284e-01 -1.342223796869433661e-01 -9.696423868128993817e-01
-2.043966596766143284e-01 -1.342223796869433661e-01 -9.696423868128993817e-01
-2.043966596766143284e-01 -1.342223796869433661e-01 -9.696423868128993817e-01
-2.043966596766143284e-01 -1.342223796869433661e-01 -9.696423868128993817e-01
-1.740240230343741146e-01 -1.903741827830170708e-01 -9.661642251380611057e-01
-1.740240230343741146e-01 -1.903741827830170708e-01 -9.661642251380611057e-01
-1.740240230343741146e-01 -1.903741827830170708e-01 -9.661642251380611057e-01
-2.225137580383832747e-01 -9.690289023907756871e-02 -9.701017767981611195e-01
-2.225137580383832747e-01 -9.690289023907756871e-02 -9.701017767981611195e-01
-2.225137580383832747e-01 -9.690289023907756871e-02 -9.701017767981611195e-01
-1.906199409312088755e-01 -1.306625637028946407e-01 -9.729292536284276371e-01
-1.906199409312088755e-01 -1.306625637028946407e-01 -9.729292536284276371e-01
-1.906199409312088755e-01 -1.306625637028946407e-01 -9.729292536284276371e-01
-2.205016424706293110e-01 -1.002044071905301148e-01 -9.702257997225951502e-01
-2.205016424706293110e-01 -1.002044071905301148e-01 -9.702257997225951502e-01
-2.211213316573784615e-01 -1.003982130016826957e-01 -9.700647171772285304e-01
-2.211213316573784615e-01 -1.003982130016826957e-01 -9.700647171772285304e-01
-2.211213316573784615e-01 -1.003982130016826957e-01 -9.700647171772285304e-01
6.505673501759343669e-01 -6.223983149050515973e-01 4.351809514310286953e-01
-2.173321335881307770e-01 -9.383854899506723080e-02 -9.715765901011259587e-01
-2.173321335881307770e-01 -9.383854899506723080e-02 -9.715765901011259587e-01
-2.223490221587543225e-01 -9.689699339947933920e-02 -9.701401367921992369e-01
-2.223490221587543225e-01 -9.689699339947933920e-02 -9.701401367921992369e-01
-2.223490221587543225e-01 -9.689699339947933920e-02 -9.701401367921992369e-01
6.797085064519075015e-01 -6.011860863007832956e-01 4.202042787683918368e-01
6.986935122523634245e-01 -6.001366268428085515e-01 3.894398606437097232e-01
7.170562395533870426e-01 -6.021099083824620335e-01 3.511324643851927996e-01
7.301451426780933840e-01 -5.805321725298503432e-01 3.603754532170007074e-01
-2.913919217773178194e-01 -5.709429967856788357e-01 -7.675381699591947715e-01
-3.099692563803310152e-01 -5.131073301811569509e-01 -8.003998549558775100e-01
-2.936606662081939212e-01 -5.168821187739477407e-01 -8.041121118438113724e-01
-2.819151487619651619e-01 -6.131281266958902298e-01 -7.379686640724709701e-01
-1.852680109998079139e-01 -8.839593019449921707e-01 -4.292921110445626631e-01
-1.676496308451224937e-01 -8.868858273140367565e-01 -4.304963769731290357e-01
-1.676496308451224937e-01 -8.868858273140367565e-01 -4.304963769731290357e-01
-2.370194488670136213e-01 -7.383779530600960150e-01 -6.313634288534295536e-01
-2.148577892012172585e-01 -7.314785720515606382e-01 -6.471284486475424869e-01
-2.345803519704838802e-01 -5.557681839799513135e-01 -7.975548784535336777e-01
-1.694713269591427152e-01 -5.021007669856736300e-01 -8.480414430504593648e-01
-1.801074051912534557e-01 -4.991281932952135736e-01 -8.476038987953804504e-01
-2.173313367258088158e-01 -4.880545688046466490e-01 -8.453223219257159915e-01
-2.216163604575092094e-01 -5.372640974428248839e-01 -8.137772904035318611e-01
-1.986160999682683170e-01 -6.542223109343419107e-01 -7.297566804826962628e-01
-1.699035573183858006e-01 -5.343843163406843955e-01 -8.279892412704752402e-01
-1.289253249410288182e-01 -7.127509933913505069e-01 -6.894666649001189862e-01
-1.985350665646555268e-01 -7.142912233947088518e-01 -6.710975156603234959e-01
-9.296294349608164032e-02 -6.604513311446247315e-01 -7.450918938801022184e-01
-1.136852409660693564e-01 -6.733379939300915273e-01 -7.305419987356558398e-01
-1.405658008259422775e-01 -4.959592021019648134e-01 -8.568930653754550653e-01
-1.386119434931534500e-01 -4.944331477375131789e-01 -8.580924143350908695e-01
-3.901676362719811580e-02 -6.031622363350039873e-01 -7.966636735884322640e-01
-1.063968367693334388e-01 -4.857709864971616054e-01 -8.675864578259934179e-01
-8.870776847728260861e-02 -6.278554612568977289e-01 -7.732583343111595342e-01
-1.392910187725680538e-01 -4.233979595178938293e-01 -8.951715924700606175e-01
-1.414230208995834737e-01 -4.694404237987493400e-01 -8.715648097894307389e-01
-8.638280883927283715e-02 -5.798785031706839010e-01 -8.101104442590312260e-01
-2.722880420140007945e-02 -4.935582587094711760e-01 -8.692863955460458092e-01
-9.062882792374976626e-02 -4.027412615306294463e-01 -9.108160581642620324e-01
-8.770170295615217770e-02 -5.207303449013452878e-01 -8.492045214184371638e-01
-1.509396153010636454e-01 -3.094472807266687164e-01 -9.388608059684019347e-01
-1.428801253084340250e-01 -3.706452363314058918e-01 -9.177185726445130642e-01
-9.979489502217439578e-02 -4.473418222289642920e-01 -8.887779660929848724e-01
-9.979489502217439578e-02 -4.473418222289642920e-01 -8.887779660929848724e-01
-9.381150802416313161e-02 -3.502746180733975478e-01 -9.319372794860004694e-01
-6.705505644982992508e-02 -3.464980405425975851e-01 -9.356509644651954671e-01
-4.018860462486034679e-02 -4.221589517525871638e-01 -9.056305513361745385e-01
-1.189557960091591621e-01 -3.649002469530986947e-01 -9.234161187511267244e-01
-1.781593669117959577e-01 -1.978205435003085599e-01 -9.639119630707103648e-01
-1.781593669117959577e-01 -1.978205435003085599e-01 -9.639119630707103648e-01
-1.662476901394853990e-01 -2.576130631000466131e-01 -9.518388599145849449e-01
-1.395284693382936869e-01 -2.842698387260047532e-01 -9.485370130020251977e-01
-1.295721030672218055e-01 -2.473762117120603399e-01 -9.602166838717848263e-01
-1.526614246764740057e-01 -1.919266854452599258e-01 -9.694630662535553833e-01
-1.051390603896893983e-01 -2.751152454184788709e-01 -9.556450071646391820e-01
-1.622885051137601398e-01 -2.193774256669876466e-01 -9.620478086954236119e-01
-1.965442089782126478e-01 -1.579836578628053823e-01 -9.676835938287972061e-01
-1.965442089782126478e-01 -1.579836578628053823e-01 -9.676835938287972061e-01
-1.890614400612268819e-01 -1.512824425993909427e-01 -9.702419257294220278e-01
-1.890614400612268819e-01 -1.512824425993909427e-01 -9.702419257294220278e-01
-2.040386663342149132e-01 -1.384519559506318387e-01 -9.691229429406772455e-01
-2.040386663342149132e-01 -1.384519559506318387e-01 -9.691229429406772455e-01
-1.766346769899817815e-01 -1.486672360319756803e-01 -9.729841950490550895e-01
-1.766346769899817815e-01 -1.486672360319756803e-01 -9.729841950490550895e-01
7.489026227371571309e-01 -5.639220278487611093e-01 3.480471349750610122e-01
7.508674539993283048e-01 -5.994296441064788095e-01 2.772763392194630416e-01
7.508674539993283048e-01 -5.994296441064788095e-01 2.772763392194630416e-01
7.718924127651960454e-01 -5.375702856389739104e-01 3.394116838200418873e-01
7.944213954320126225e-01 -5.490414880717059409e-01 2.597077027272402527e-01
7.917175338872883827e-01 -5.106732482790279359e-01 3.352553952251574598e-01
8.179467408853289268e-01 -5.121378606962916358e-01 2.620647643551008432e-01
7.858153603128998910e-01 -5.558446891852600880e-01 2.711658182751814361e-01
7.777947465462305976e-01 -6.282778085763643938e-01 1.738756726992353452e-02
7.769518818501519597e-01 -6.126439976424060685e-01 1.449589784809448556e-01
8.268003753758339514e-01 -5.502684975723072247e-01 1.166435590073268552e-01
-3.910646737126948214e-01 -9.129465079095340219e-01 -1.166065807309803748e-01
-4.377548771672275518e-01 -8.951492098692915844e-01 -8.413417609205160741e-02
-4.290252064113774799e-01 -8.614182635492774187e-01 -2.718380905749278043e-01
-3.502581804994076564e-01 -9.001420416548661096e-01 2.589662368700866302e-01
-3.821623243122266311e-01 -9.231589347250657163e-01 4.158772792012530028e-02
-4.049303643060650493e-01 -9.128369788948922370e-01 5.253617824893194732e-02
-3.579509083071694131e-01 -9.207528683453382046e-01 1.551944028497959926e-01
-3.666426757450161888e-01 -9.210357472677578317e-01 -1.314012959504503586e-01
-3.864218439996531251e-01 -8.711948231486269512e-01 -3.028163446694056571e-01
-4.201399079426934025e-01 -8.618978507562257141e-01 -2.839270198760666664e-01
-4.280490176022088700e-01 -6.293131375995605348e-01 -6.486439804502779349e-01
-3.982160008493602632e-01 -6.623051755678868169e-01 -6.346462566528957572e-01
-4.044677265122652021e-01 -7.737868563841058256e-01 -4.875035990607689551e-01
-2.833686282956571767e-01 -6.847600557683495293e-01 -6.714207969090355554e-01
-2.071376050392055579e-01 -9.442106182102963929e-01 -2.560474976201719821e-01
-2.158969316212115963e-01 -9.016211790645635160e-01 -3.747902938694813169e-01
-2.416238059721958209e-01 -7.656333607908472061e-01 -5.961740460902530403e-01
-3.225344321147643467e-01 -7.680286584262275840e-01 -5.532662288052792032e-01
-2.969863342353128433e-01 -7.444209282394288474e-01 -5.980272559646577779e-01
-3.072859980256306689e-01 -5.445749604054439530e-01 -7.803931239553570931e-01
-3.816656896938948607e-01 -5.410098879788476367e-01 -7.494261821017451641e-01
-3.348051440007644430e-01 -8.079512774106067940e-01 -4.848919971304909149e-01
-3.488386030861105880e-01 -8.257748212174951252e-01 -4.431789408807065844e-01
-2.729821649946378437e-01 -8.542759398675933147e-01 -4.423724179446324456e-01
-3.677352381953570837e-01 -6.780241316326492962e-01 -6.364385842429698403e-01
-3.437849876737458787e-01 -6.513415551078783894e-01 -6.764362947386939329e-01
-3.417666802153597749e-01 -8.031368181233995429e-01 -4.880233474632065804e-01
-3.288034702154760125e-01 -7.626276841549893826e-01 -5.570343735665317375e-01
-3.222515589498585187e-01 -9.000908750578959783e-01 -2.932411113604245223e-01
-3.027621853868405766e-01 -9.256893714784609761e-01 -2.267911961068956594e-01
-3.667033416176807004e-01 -8.388429112930297915e-01 -4.023322376094918829e-01
-3.129370903483822408e-01 -8.788531414410860609e-01 -3.601215534558062648e-01
-1.456445283492701082e-01 -9.643857534474740145e-01 -2.207890167319617736e-01
-1.822525548528466099e-01 -9.616868964034438472e-01 -2.047982410459674996e-01
-1.769774301177463038e-01 -9.634723131340604541e-01 -2.009977389251456081e-01
8.374712258548717703e-01 -5.166677756936590704e-01 1.780347028668992360e-01
8.515763769201557531e-01 -5.035613188682757091e-01 1.457520923046501660e-01
8.515763769201557531e-01 -5.035613188682757091e-01 1.457520923046501660e-01
8.018018554730197422e-01 -5.845760445462722110e-01 -1.240348044004479233e-01
8.364391198123423132e-01 -5.457325566104278547e-01 5.045369662373936498e-02
8.130604945967193631e-01 -5.813660594874264786e-01 3.075934008070195860e-02
8.480124448360067957e-01 -5.104421149855125073e-01 1.425613575004651967e-01
8.573145139645467205e-01 -5.147491965962953664e-01 6.714815649105049938e-03
8.210774436509159502e-01 -5.664727589313555134e-01 -7.028829857362579869e-02
-5.712341041201782765e-01 -8.072527308178073513e-01 1.484406510266308155e-01
-6.157328391728605910e-01 -7.785586039428598060e-01 1.213242390896125678e-01
-5.458897401327067467e-01 -8.325921855345701506e-01 9.377976436637945612e-02
-4.970915541901179124e-01 -8.052991279124955826e-01 3.230995223398311911e-01
-5.021471156759167442e-01 -8.300192090570988057e-01 2.427269799890106605e-01
-5.416976390842510591e-01 -8.083632164468030901e-01 2.304616629861189481e-01
-4.586382354870254807e-01 -8.503158506050636500e-01 2.580967321744593312e-01
-4.586382354870254807e-01 -8.503158506050636500e-01 2.580967321744593312e-01
-4.875939355218898985e-01 -8.564635055282071585e-01 1.694768944151667789e-01
-5.137383520020698535e-01 -8.295211430429193511e-01 2.190150198661401926e-01
-4.440003971400949823e-01 -8.733804763339643173e-01 2.001754003320476705e-01
-4.977774769697932977e-01 -8.568957328777410121e-01 1.339674826124085394e-01
-5.472936958472227609e-01 -8.324118113203068381e-01 -8.694933501950065369e-02
-5.751091469575159154e-01 -8.172765103918658847e-01 3.617422628740654678e-02
-5.751091469575159154e-01 -8.172765103918658847e-01 3.617422628740654678e-02
-3.929132875920617329e-01 -9.036509823317047108e-01 1.703938102295465273e-01
-4.008640605738816864e-01 -8.770947211600861326e-01 2.645994237585000963e-01
-3.564158537170767360e-01 -8.975659774784755518e-01 2.595054051310612953e-01
-3.777998835353647555e-01 -8.872061980050987007e-01 2.648252446841170560e-01
-3.514287740208584254e-01 -9.006965054871132192e-01 2.554283104777133051e-01
-4.404631909242756604e-01 -8.842913901410006661e-01 1.549868212568458192e-01
-4.864469353131088969e-01 -8.711570673824552413e-01 6.674386169592283480e-02
-3.856803070334475780e-01 -8.914484483522306935e-01 2.378452536776503035e-01
-4.259525330607360494e-01 -9.025288272485869623e-01 6.329419850533429814e-02
-4.643080732091647844e-01 -8.828965650242006635e-01 7.008329773391319684e-02
-4.197315963244249715e-01 -8.927268820863920595e-01 1.639027182424352136e-01
8.869993792759688356e-01 -4.454819102808761921e-01 1.215646691129767393e-01
8.869993792759688356e-01 -4.454819102808761921e-01 1.215646691129767393e-01
8.963773124667644421e-01 -4.396558723229168075e-01 5.666063560211316574e-02
8.627002256320287499e-01 -4.996757702783030108e-01 -7.792589615289206850e-02
8.849464373296851427e-01 -3.827621095703858667e-01 2.652601940260271851e-01
8.849464373296851427e-01 -3.827621095703858667e-01 2.652601940260271851e-01
8.871508668618042215e-01 -4.403861815834546611e-01 1.379251626669107667e-01
8.644588655636854524e-01 -4.541521794434087989e-01 2.155380886413073849e-01
9.102660104334998614e-01 -3.650230032142564585e-01 1.953816710285908032e-01
9.154127173332932133e-01 -3.829360347750934146e-01 1.240143145576530909e-01
9.086438789752505629e-01 -3.279658509167129865e-01 2.584660554759301565e-01
9.086438789752505629e-01 -3.279658509167129865e-01 2.584660554759301565e-01
9.353598012094408443e-01 -3.308193562750832983e-01 1.251423021810565139e-01
8.251313767201033933e-01 -4.632791312888763224e-01 -3.233120128671541638e-01
9.005211621722800652e-01 -4.329963210871572987e-01 3.969662964123607529e-02
9.055092951142602598e-01 -4.079564733629869044e-01 -1.167237435267988038e-01
-5.699601070225079891e-01 -7.191489180329518893e-01 3.974547900012351809e-01
-5.942662463661045891e-01 -7.117592067550126966e-01 3.744949399249813959e-01
-5.942662463661045891e-01 -7.117592067550126966e-01 3.744949399249813959e-01
-5.867966871455233546e-01 -7.552548980712158189e-01 2.919926144519345845e-01
-5.624270792322708656e-01 -7.446882910126650934e-01 3.593259380769678879e-01
-5.827997805407404419e-01 -7.780040428507153383e-01 2.346361547366624389e-01
-5.827997805407404419e-01 -7.780040428507153383e-01 2.346361547366624389e-01
-6.169244351891791656e-01 -7.374012132685228149e-01 2.750339832395678474e-01
-5.633043988627274290e-01 -7.583338098957222995e-01 3.280518053462588290e-01
-5.917097786772125279e-01 -7.678556953712906141e-01 2.455140910490387629e-01
-5.886299846356607413e-01 -7.699258244635099890e-01 2.464324775917454413e-01
9.385935208159545962e-01 -3.382425274572785634e-01 -6.807492417639834925e-02
9.193312215958445721e-01 -3.753873487669058817e-01 -1.179594989174062719e-01
9.345723180536459340e-01 -3.088736309528724577e-01 -1.765549841545789034e-01
9.370179083153263866e-01 -3.258218443173260259e-01 -1.258473887771482114e-01
7.790396484571056046e-01 -4.706012551521264742e-01 -4.142845456700895435e-01
8.548798645783368677e-01 -4.275028313716772166e-01 -2.939757580272966964e-01
8.633598720912458724e-01 -4.520318255699576349e-01 -2.242252437494029749e-01
6.570535146877890531e-01 -4.686531094700186473e-01 -5.904616345034668923e-01
6.259307590244145292e-01 -4.366008454319866283e-01 -6.462123386899965016e-01
6.545466713435458272e-01 -3.725884951609756968e-01 -6.578346815931520597e-01
-9.315580060637120019e-02 2.295123467240078041e-01 -9.688374887021169446e-01
-6.537580219608135623e-01 -6.180228108791360198e-01 4.366328594539534147e-01
-6.460440003223767436e-01 -6.119140106128253542e-01 4.562766630709790827e-01
-8.215329968159816587e-02 2.227587956933083368e-01 -9.714058648642660554e-01
-1.009583967017654987e-01 2.200758641515526137e-01 -9.702443074573312565e-01
-1.009583967017654987e-01 2.200758641515526137e-01 -9.702443074573312565e-01
-1.009583967017654987e-01 2.200758641515526137e-01 -9.702443074573312565e-01
-1.013177855019085499e-01 2.208654714328874002e-01 -9.700273964531712645e-01
-1.013177855019085499e-01 2.208654714328874002e-01 -9.700273964531712645e-01
-1.013177855019085499e-01 2.208654714328874002e-01 -9.700273964531712645e-01
-6.244831246362547716e-01 -6.535606520217142057e-01 4.276438952837884888e-01
-7.931329375808691962e-02 2.201269340248737383e-01 -9.722415000142980990e-01
-7.931329375808691962e-02 2.201269340248737383e-01 -9.722415000142980990e-01
-6.244343061049349997e-01 -6.537040113155851984e-01 4.274960385186761802e-01
-9.604227464901402000e-02 2.174324665907194920e-01 -9.713387688919448149e-01
-9.604227464901402000e-02 2.174324665907194920e-01 -9.713387688919448149e-01
-9.604227464901402000e-02 2.174324665907194920e-01 -9.713387688919448149e-01
