-9.712591902260846455e-01 1.830241951015344204e-01 1.521766388405451642e-01
-9.151537941800523823e-01 2.798139495795253229e-01 2.901683763240942016e-01
-9.662627085265705906e-01 1.397785278186623459e-01 2.163292427568294651e-01
-9.696130504358593249e-01 2.229243208809883470e-01 -1.007734071281601168e-01
-9.210838175178931442e-01 2.168882721087151966e-01 3.233636938933626692e-01
-9.022164386672663072e-01 2.741229546272498374e-01 3.329596124832285287e-01
-9.022164386672663072e-01 2.741229546272498374e-01 3.329596124832285287e-01
-9.389465301170727418e-01 -2.602728958397515502e-01 2.250276277977855954e-01
-7.291180487880412064e-01 -6.901721858887505112e-02 6.808990339762387434e-01
-6.939937256864974202e-01 -6.453854148559987070e-02 7.170826210212364327e-01
-8.623805582691762561e-01 1.569452348249108786e-01 4.813189856894255492e-01
-9.716476554989242898e-01 2.265926043130175177e-02 2.353452601607905204e-01
-7.967707564753704341e-01 -2.694237811097299762e-02 6.036807681940773440e-01
-7.092217291353997144e-01 -8.633269513035368714e-02 6.996793584733818072e-01
-8.315892770619931484e-01 1.740682351644534318e-02 5.551182547625138630e-01
-8.315892770619931484e-01 1.740682351644534318e-02 5.551182547625138630e-01
-8.038817489963947516e-01 -1.507581620083565943e-01 5.753660662729072062e-01
-8.289180430050463455e-01 -3.933010619077489944e-01 3.977551416172024901e-01
-8.031229490380018543e-01 -1.152194893552839494e-01 5.845665043442110909e-01
1.152327070093020316e-02 5.484017067890671893e-01 8.361356242997848298e-01
2.831122972772468979e-02 5.291549741020286080e-01 8.480527623057337872e-01
5.999673923632112826e-01 4.232819808360745450e-01 6.788751673175101864e-01
8.181756763896456119e-01 2.761092340021129576e-01 5.043334744621980059e-01
-3.859431312365058098e-01 3.987607979572808659e-01 8.318880486362537630e-01
2.978399086646965066e-01 6.007529745296578128e-01 7.418808882835395968e-01
-5.327885587915466292e-01 6.922756426506673222e-01 4.867142757444373746e-01
-5.050509861856027766e-02 6.517155916047342457e-01 7.567800358577259079e-01
-7.932102436612518126e-01 5.189986419056598077e-01 3.185245972463326414e-01
-5.587359330244412448e-01 7.484162095958452054e-01 3.573336457171290004e-01
-2.155059689310356852e-01 8.201073137241414734e-01 5.300765711963397742e-01
-2.155059689310356852e-01 8.201073137241414734e-01 5.300765711963397742e-01
-2.389468852179782166e-01 8.119504743080011577e-01 5.325793962552797245e-01
-2.331871830727157147e-01 8.082979295969481282e-01 5.406275933208543050e-01
-2.331871830727157147e-01 8.082979295969481282e-01 5.406275933208543050e-01
-5.357812575800230404e-01 6.043647976538290001e-01 5.896453471221623222e-01
-5.366752996227227429e-02 5.303199942810952194e-01 8.460972165735137773e-01
5.865705823503443161e-01 -2.302420699680168825e-02 8.095707738137206677e-01
5.521409557333255558e-01 1.990220560520337967e-01 8.096484337085515515e-01
-8.253360892232705082e-01 -2.361729196107346385e-01 5.128768778841362730e-01
-3.749372803017938516e-01 -4.817749649927958733e-01 7.920321451469533036e-01
-6.105361156123416677e-01 2.481268544994010283e-01 7.521161583221215308e-01
2.150687941275485626e-01 -6.945421676665649580e-01 6.865541428944633706e-01
2.504678189706416314e-01 -6.062481138487924026e-01 7.548040117241504587e-01
1.017399875299295486e-01 -7.883838186907070611e-01 6.067123942726636576e-01
-1.351397469531508654e-02 -7.295440717806920272e-01 6.838002777255819398e-01
-5.447270288158655507e-03 -7.697801523734586482e-01 6.382858640595939770e-01
1.189779953258262024e-01 -5.870514365166273896e-01 8.007589197205434717e-01
-3.373326778635864914e-02 -5.757854574129042113e-01 8.169046294863717694e-01
-3.373326778635864914e-02 -5.757854574129042113e-01 8.169046294863717694e-01
-1.633006111932283067e-01 -7.748378336058751037e-01 6.107038906023707359e-01
-1.312321594217237819e-01 -7.862525034014902214e-01 6.038088449405165647e-01
-2.065190205941134505e-01 -7.060302681750445508e-01 6.774002912263343834e-01
-6.469080679619773067e-01 -4.988235638320285825e-01 5.767885260401907077e-01
-5.303172932923332361e-01 -5.190862682623728075e-01 6.703081489408712068e-01
-4.052051320181809801e-01 -7.420224614727986001e-01 5.340519334821076658e-01
-5.404752652853732631e-01 -7.241686257129487103e-01 4.283296500917542771e-01
-4.988673502030945839e-01 -7.011539764915923900e-01 5.094256257309505154e-01
-4.545162974581721249e-01 -7.625580825884255010e-01 4.603478098394500617e-01
-5.234849617556961432e-01 -7.516443201807255781e-01 4.012409634567391525e-01
1.797353572715694459e-01 7.348919980607422353e-01 6.539334465622257397e-01
-8.306968651060644415e-01 3.011258718646671051e-01 4.682583983194547050e-01
-8.226151243291445203e-01 3.738069681036042535e-01 4.284538572846987581e-01
-1.976068795782984777e-01 -6.628356182497818772e-01 7.222191248663782925e-01
1.117084824440523483e-01 -8.029937352242986215e-01 5.854248680578711950e-01
-8.883918930374605782e-01 1.483989678090290865e-01 4.344393982347046212e-01
-6.289873882628213009e-01 -5.528490555914787885e-01 5.465645315403522275e-01
-2.539275048595304174e-01 -7.414338019644639566e-01 6.211253815296338132e-01
-3.392410036234518866e-01 -6.916027162121786143e-01 6.376529027523436532e-01
-2.487449089721537054e-01 -7.657773214683276652e-01 5.930523283701265580e-01
-2.366620498426298957e-01 -8.355204714740016581e-01 4.958796385335320633e-01
-3.316871972135723712e-01 1.841065616493408330e-01 9.252504402388913585e-01
-5.402304426865807141e-01 -4.827387626071437121e-01 6.892853950804304075e-01
-3.903773168104586744e-01 -8.516820967763959471e-01 3.496328882562806384e-01
-4.526324865803081354e-01 -7.613480638802492262e-01 4.641906480293663262e-01
-6.220849333962004124e-01 -5.219118124456818553e-01 5.836252185016582716e-01
-4.504157020033009995e-01 -7.435195289425884368e-01 4.942715907978779688e-01
-5.088593866389237164e-01 -7.258305352629903506e-01 4.628521996375293268e-01
-5.768058367172712586e-01 -6.019431168443095670e-01 5.522313924548718500e-01
-6.297215378147447140e-01 -5.170032322110948986e-01 5.797917235486497178e-01
-6.534539114527569970e-01 -2.006239147126774869e-01 7.298959038468791904e-01
-8.004381780542935143e-01 -1.808494303091584265e-01 5.714824640091555885e-01
-7.326901087851305228e-01 -2.325916707500863892e-02 6.801648444571436469e-01
-7.171127710409717082e-01 -2.600018427485260020e-01 6.466438860588643589e-01
-7.703714424344425549e-01 -1.765651845659151065e-01 6.126602453894661737e-01
-4.606215809337008138e-01 -1.918754420340294808e-02 8.873892028448288061e-01
-3.593394935579461436e-01 6.276716054877212736e-02 9.310936644216647462e-01
-9.104368560970783619e-01 3.963059546024382263e-01 1.185171776862673498e-01
-8.908872949274739828e-01 4.402467936698066797e-01 1.118149739536830611e-01
-2.499707971780623650e-01 6.701414450141134072e-02 9.659315218973382189e-01
-2.691998235877702816e-01 -4.498240721343298165e-02 9.620332832192440842e-01
-2.691998235877702816e-01 -4.498240721343298165e-02 9.620332832192440842e-01
-3.585858584758627177e-01 -4.925085743186613518e-02 9.321966182857318595e-01
-3.150095255164674923e-01 -2.929144657668913618e-02 9.486363950383387422e-01
-3.179177043541695502e-01 1.961016469053286550e-03 9.481162838347324540e-01
-2.710008859784385216e-01 -2.025048285873528101e-02 9.623660622356179362e-01
5.677874332101772170e-01 1.844184178149791409e-01 8.022513807150588594e-01
3.807389182329651289e-01 2.093292752718078215e-02 9.244456115358724579e-01
3.807389182329651289e-01 2.093292752718078215e-02 9.244456115358724579e-01
5.192073866299832252e-01 4.644315016340603425e-02 8.533854483595102458e-01
3.824340036944101628e-01 3.644908246730371726e-01 8.490528084562427580e-01
4.349290392771286151e-01 3.803621298198604506e-01 8.161870992562756388e-01
6.313119693533077170e-02 1.963291394727702810e-01 9.785036131601120291e-01
-5.724547532585671367e-02 6.221836094280275981e-02 9.964195055880369356e-01
-5.724547532585671367e-02 6.221836094280275981e-02 9.964195055880369356e-01
4.471360856075337065e-01 2.232532091816273878e-01 8.661566403010928505e-01
5.284540797440756554e-01 2.311521029168069896e-01 8.168873795811636418e-01
1.865729158685175970e-01 6.499947778857766145e-02 9.802885365807003648e-01
-4.437921157448225240e-01 3.675391935114873630e-03 8.961222291054147249e-01
-6.109319020620300744e-01 -5.351023028487397054e-02 7.898726899303013527e-01
-4.207733307971511238e-01 4.967079488136959264e-02 9.058049548471922563e-01
-4.207733307971511238e-01 4.967079488136959264e-02 9.058049548471922563e-01
-6.470479622349020188e-01 -8.695416019068116092e-03 7.623997142627456647e-01
-6.465258704901434283e-01 -6.050184241988667937e-03 7.628680712007812614e-01
-5.577747458274024961e-01 2.282273970750585759e-02 8.296785253755938339e-01
-5.849273612149555879e-01 3.520953319899013112e-02 8.103210912187945869e-01
5.757252177423980571e-02 -4.307119805811524538e-01 9.006512058063408377e-01
6.101874299056279094e-01 4.298209820591912256e-01 6.655262757899472748e-01
4.063391474359719924e-01 2.012254372996123974e-01 8.912894146373484539e-01
3.911021318017398052e-01 5.836842182393143785e-01 7.115840469533412094e-01
-8.012309475716501428e-01 -2.613286478027980753e-01 -5.382715917554974361e-01
6.697697239409554637e-01 5.843368189267579282e-01 4.582128314862143337e-01
7.751710047831646966e-01 4.978757560901411194e-01 3.888825591886696520e-01
-2.362147945151464590e-01 6.008189741187417443e-01 7.636878493148033797e-01
-2.547961274438210189e-01 5.169004174752749314e-01 8.172471424566247755e-01
-1.405295064335533306e-01 5.406597995517625765e-01 8.294205440970157106e-01
3.467559941749779329e-01 7.506277721102915246e-01 5.624217529936610394e-01
3.299881242363157940e-01 8.097587078378256642e-01 4.851790112358663198e-01
1.851581675346940514e-01 6.845466142678917620e-01 7.050619730843242783e-01
-1.378288177997853692e-01 5.813224606017823870e-01 8.019148419775024017e-01
3.155452557016116266e-01 6.584481033920488446e-01 6.832841917852469082e-01
3.155452557016116266e-01 6.584481033920488446e-01 6.832841917852469082e-01
3.591614397026633987e-01 7.709423373228670995e-01 5.259762093040566411e-01
3.335220329660545380e-01 7.967486576887058414e-01 5.039391133831899738e-01
-7.873479744219546994e-01 4.002606595525724509e-01 4.689078497830726500e-01
-5.583602262943663241e-01 9.473130954904769585e-02 8.241722130014008663e-01
-7.200306236950656524e-01 5.592272062984395831e-01 4.108781238724414364e-01
-8.747092950253649857e-01 4.844469034948808428e-01 1.395875676593590770e-02
-8.337087792269185504e-01 4.610720688949880297e-01 3.038786249884261048e-01
-8.885328361611032344e-01 3.936198715792366687e-01 2.357388295581602788e-01
-9.098159831819383481e-01 3.701319480206687884e-01 -1.877157899621332837e-01
-8.805508293300607914e-01 4.654850534958134278e-01 -8.918465079901354009e-02
-8.883455271419617993e-01 4.579249778009984451e-01 -3.386648952615534808e-02
-8.875440515177435152e-01 4.421643605131385102e-01 -1.294458763633512532e-01
-9.003743436913067555e-01 3.915405938931917906e-01 -1.897946378489531183e-01
-8.897193144614246041e-01 4.326944751519317123e-01 -1.455164342859145699e-01
-8.648981877433068455e-01 4.571753560018856355e-01 -2.072240784824310733e-01
-9.136753218750442995e-01 3.493469392048930700e-01 2.077357029128765742e-01
-9.049585152309909120e-01 3.809874235061155301e-01 1.894694403883965539e-01
-8.986043679844547549e-01 4.357860358580225024e-01 5.099726257760286985e-02
-1.668999909862706882e-02 5.864851950198242403e-02 9.981391661939297277e-01
1.914286207917227992e-02 9.449573503687368203e-02 9.953412012426988698e-01
-1.416867928870054472e-01 -4.603429188524281283e-03 9.899008340036394848e-01
3.574689820360284487e-01 -8.543900940758172857e-02 9.300086572465745549e-01
4.026332751341620830e-01 5.827668772282737497e-02 9.135043915728014996e-01
4.534474476967109702e-01 4.948057574232008760e-01 7.413182006386939138e-01
4.856653694260357756e-01 4.030752154908626705e-01 7.756671448483988263e-01
4.494084253145735897e-01 5.571126528079463069e-01 6.983248236584232993e-01
5.291304450887217570e-01 4.005221495756497441e-01 7.480661600283172730e-01
-5.498584846342253751e-01 3.355506758131961975e-01 7.648930584317396031e-01
-6.380445013203098759e-01 3.108122198924121449e-01 7.044820638600162166e-01
-6.126733563247607206e-01 3.575348687277587478e-01 7.048405323855724269e-01
-8.947735019815633573e-01 -1.493279540113591208e-01 4.208105776978887658e-01
-6.988837396973716087e-01 2.299244599300673542e-01 6.772711872747012585e-01
3.644408846299437236e-03 4.943804640822689889e-01 8.692379852594808165e-01
-6.465011273074935394e-01 2.206593386769743204e-01 7.303052434734261800e-01
-4.796799958094792315e-01 3.714368506519730717e-01 7.949476508537917097e-01
-1.513694003536166510e-01 3.318313880826559426e-01 9.311150490244072264e-01
-6.424762917443314070e-01 9.946422558041130568e-02 7.598230599133865004e-01
-7.003168345764714253e-01 -2.030419845063142006e-02 7.135433208530989058e-01
-7.263886414458214924e-01 5.720666692741106785e-03 6.872603695478768371e-01
-7.973734228002935520e-01 3.949871574253755596e-02 6.021922251793313530e-01
-7.567507765585381740e-01 1.124793039934683658e-01 6.439539334076579413e-01
-7.285572774135891105e-01 9.387496682677248794e-02 6.785217639331629913e-01
-4.411056982140819094e-01 8.936430428563896244e-01 8.263095641126587398e-02
-4.416109621879845126e-01 8.933027552296840534e-01 8.360589437627960474e-02
-6.454240179525364551e-01 7.514429628031122910e-01 1.369719339999408425e-01
-7.930903732224389158e-01 -1.415359163592626139e-02 -6.089395173132516881e-01
-8.741317015022160852e-01 -7.405484420120633793e-02 -4.800100503939219720e-01
-9.245538092956595566e-01 1.641196953426223015e-02 -3.806979130135751399e-01
-9.230251083667764256e-01 1.760903053834706605e-02 -3.843365340011279385e-01
-8.678749985218814356e-01 9.837768816774884045e-04 -4.967816614204789150e-01
-6.797809553948365169e-01 -1.922474510870603170e-01 -7.077702806935394220e-01
-7.597798504249013707e-01 -9.725425252459142522e-02 -6.428656074594422121e-01
-7.129327438897700153e-01 -1.876177234805306571e-01 -6.756674422567560123e-01
-6.633807193746215081e-01 -1.716848647872446232e-01 -7.283202100484341690e-01
-6.323609723075296341e-01 -1.930794790928178073e-01 -7.502265760792015126e-01
-7.357069712504530345e-01 -6.355701142296073247e-02 -6.743113218332218439e-01
-6.650467140795064402e-01 7.076712472082514749e-01 2.385671267521341232e-01
-1.177397166133634654e-01 8.520608828077896879e-01 5.100290296842083793e-01
-7.578959310206463684e-02 8.771501129883715331e-01 4.741978667833821603e-01
-3.627917757815248279e-01 8.523449654349445348e-01 3.766831391541054508e-01
-1.219786557534341398e-01 8.608733465522466766e-01 4.939820732946901272e-01
-3.727688016418224670e-01 8.186413414643589626e-01 4.368864550062800944e-01
-2.010800354671500867e-01 8.912065578127928989e-01 4.065927823363354454e-01
-9.649036244741124868e-01 2.193395700975761253e-01 1.443992675401488679e-01
-9.670390776176422953e-01 1.935358428918688423e-01 1.654669147490018810e-01
-8.676997454665172915e-01 3.167093643570873529e-01 3.831348721349585595e-01
-8.676997454665172915e-01 3.167093643570873529e-01 3.831348721349585595e-01
-9.634309310862483322e-01 1.596378383978609705e-01 2.152129214939079715e-01
-6.676535255500419819e-01 7.005435867545753981e-01 2.519473216321895803e-01
-7.204718399631183656e-01 4.188848208556601449e-01 5.526805901032533219e-01
-4.877336410106710707e-01 5.681643606998322271e-01 6.628009917441469723e-01
-7.186414805197534061e-01 5.679052148426181335e-01 4.012955138435223557e-01
-6.813484223965347031e-01 6.843199594656321771e-01 2.597508813742678280e-01
-6.813484223965347031e-01 6.843199594656321771e-01 2.597508813742678280e-01
-9.399863732667280702e-01 1.078763946334171803e-01 -3.237102123099588891e-01
-2.462559807899651065e-01 9.302136089222237114e-01 2.721408343138976837e-01
-2.462363151141641615e-01 9.302991243444348468e-01 2.718661736277165897e-01
-2.446172883506078088e-01 9.299556942044442387e-01 2.744900527464078643e-01
-1.506300297396168109e-01 6.898390967389604889e-01 7.081190682018224658e-01
-1.074614438188083720e-01 6.045148197565183290e-01 7.893122771040123054e-01
-3.860395084664634824e-02 5.936610792139357384e-01 8.037886898965266314e-01
-1.333073953740717410e-01 6.847814830539286080e-01 7.164519933708350941e-01
9.162338771370515111e-02 4.767635253039914645e-01 8.742434991257151955e-01
9.207711291311985319e-03 7.083444860780768737e-01 7.058068482917694286e-01
-2.909135448766850263e-01 8.946825567848961658e-01 3.389873625846869243e-01
-3.696098712571782574e-01 7.040267542492930630e-01 6.064114711732107033e-01
-9.256091509126869454e-02 8.434577223988402039e-01 5.291611734842491810e-01
-2.170882008544790798e-01 9.508568210190360137e-01 2.207804768799502271e-01
-2.012832814012147920e-01 9.305394282145564855e-01 3.059107928244528818e-01
-1.141100627582796873e-01 9.591818509897659384e-01 2.587451841274495123e-01
-2.465706215842779214e-01 9.301781187562868647e-01 2.719771974974333206e-01
-1.980703223356705123e-01 9.063156724072763959e-01 3.733095891599758076e-01
-1.310912438553955284e-01 9.395874978944516176e-01 3.162126176876712824e-01
-2.574828990855535515e-01 8.916471004690444957e-01 3.723815313675535310e-01
-2.732511228353061150e-01 9.008448985079520188e-01 3.373607752858089337e-01
-1.868846263654471984e-01 9.312809498425762555e-01 3.127138130760392376e-01
-7.536494591014930577e-02 9.611318121352787625e-01 2.656045267489160477e-01
-7.483538818621111866e-02 9.617129803814907785e-01 2.636433349067816567e-01
6.277792549151483756e-03 9.829592081523712555e-01 1.837165872456084648e-01
-7.265866062113076618e-01 3.230935005227650314e-01 -6.063682821473103113e-01
-7.663500519807875389e-01 3.180266611105008190e-01 -5.581815481113209243e-01
-7.213500630533696834e-01 3.618357870385584540e-01 -5.905327677200365999e-01
-7.277310958791390894e-01 4.006307899777363790e-01 -5.566888019462600257e-01
-7.277310958791390894e-01 4.006307899777363790e-01 -5.566888019462600257e-01
-5.494113971102633220e-01 6.004502835846720066e-01 -5.810392187007995535e-01
-6.689171334013472858e-01 3.302968315012436151e-01 -6.659233227199383709e-01
-6.846907066552612164e-01 2.392004235946451063e-01 -6.884633567388037667e-01
-7.528701220981989239e-01 2.072811695917080588e-01 -6.246767932175300020e-01
-6.529834606969198152e-01 4.689843485483443652e-01 -5.946984789563188878e-01
-7.278195951815591425e-01 1.881509415338327162e-01 -6.594526973708451090e-01
-7.523916163099588772e-01 3.778661057333960738e-01 -5.395591365590666211e-01
-7.903885624403432786e-01 3.368052693303102973e-01 -5.117109837738726963e-01
-6.968078753881055132e-01 5.904900115721802845e-01 -4.071613083663536692e-01
-7.229242911319974096e-01 4.876696882406698075e-01 -4.894473868175689413e-01
-3.667365286246568323e-01 9.204077147333513675e-01 -1.354767774626549348e-01
-6.915941012676436461e-01 6.396367327677122683e-01 -3.355032774594707279e-01
8.739542286990750058e-03 3.100422287510563590e-01 9.506826162246218015e-01
-5.041232177928790109e-02 4.276973042636432742e-01 9.025151598385668938e-01
-1.120535938034876028e-01 3.606104526922416786e-01 9.259611727955010529e-01
5.298511446345485071e-02 3.373269035907446867e-01 9.398952802090106973e-01
4.801154103025050135e-02 5.176012826503632036e-01 8.542738460977249426e-01
-1.628035669525143836e-01 2.084091290188703205e-01 9.643965126073060778e-01
-1.431024848373473601e-01 6.154545245615928861e-01 7.750725172717972677e-01
-4.441028334390420551e-02 9.842795003047822844e-01 1.709432420807616426e-01
3.212960694702403624e-03 9.822356865162685802e-01 1.876239137676459501e-01
6.075697388680843802e-02 9.653719736553906250e-01 2.537036511460041277e-01
-4.203490322103654170e-02 9.456724114953890536e-01 3.223922409855635718e-01
-1.303149005456843423e-01 9.281641003004843515e-01 3.486107135604997742e-01
-9.247031773332856086e-02 9.311749357447931530e-01 3.526506477790414262e-01
-2.726332379563434216e-01 2.810980813724782701e-01 9.201385690265088124e-01
-2.122987083800142449e-01 3.138494017829069338e-01 9.254338503754274692e-01
-1.572604677843525978e-01 2.863194382364235291e-01 9.451403729395043696e-01
-3.729975022344280133e-01 7.463355940453185733e-01 5.512313891533203725e-01
-3.733246833162244260e-01 7.935185091049171691e-01 4.805799169074277954e-01
-1.225210632504273034e-01 6.822379447549293818e-01 7.207912151216570029e-01
-1.904233148495440009e-01 7.772035173743587766e-01 5.997446571188744802e-01
-2.037028774827250588e-01 8.435697754560699257e-01 4.968854713535644230e-01
-1.249734730117217779e-01 7.600477404039115426e-01 6.377374564429290071e-01
-1.807082784319721525e-01 7.769566017863410723e-01 6.030613211330783097e-01
1.590227194723971560e-01 3.563528884408732056e-01 9.207194977795625235e-01
5.664878647081414975e-01 3.724430967435414241e-01 7.351038286027976598e-01
5.712514368519462371e-01 3.679608044013727985e-01 7.336733894035422088e-01
5.705686545736908810e-01 3.679796757669266394e-01 7.341950480903803866e-01
5.528372560077093878e-01 3.647401688490277127e-01 7.492233162401242819e-01
5.677950342691390206e-01 3.135540480466048607e-01 7.611127761461468078e-01
-9.817785749013283603e-01 -1.433818931298703470e-01 -1.247095128176328449e-01
-7.018505228180723643e-01 -2.061211857567123718e-01 -6.818503504452023689e-01
-8.944382957996013239e-01 -3.028424317237695118e-01 -3.290388982396139084e-01
-6.185135760410258587e-01 -3.387811821061952333e-01 -7.089910203265420430e-01
-6.980185005402012033e-01 -4.784315456828905910e-01 -5.327977374192659488e-01
-6.882774690167675624e-01 -5.208045411658420720e-01 -5.050116390192499471e-01
-6.879774460370149392e-01 -5.159966943230158698e-01 -5.103277821088193500e-01
-8.936398930215789793e-01 -4.212505220108275772e-01 -1.547764171506312847e-01
-7.246068380294771183e-01 -5.130340099549730581e-01 -4.601532732801577597e-01
-5.066820285198807561e-01 -3.099247541241433312e-01 -8.044998252057411481e-01
-5.369681982829541678e-01 -4.337946187661844699e-01 -7.235242793177423248e-01
-5.601647420373442321e-01 -4.786598825863233597e-01 -6.760918418237886751e-01
-7.905511777677778351e-01 -4.234899848391590615e-01 -4.423630500741536076e-01
-1.238640508894813530e-01 4.288610576211489001e-01 8.948384715429469338e-01
-6.510542481559379313e-01 5.081825501903789455e-01 5.638074685919916007e-01
-2.113698819556433101e-02 9.965299017651725322e-01 8.050703458652606892e-02
-6.509066987808633797e-01 7.589191077508646854e-01 1.903305999648447280e-02
-4.772623738637369328e-01 8.725993434499877965e-01 1.038797973842888328e-01
-4.929643692468566596e-01 7.755289060279441093e-01 3.943869249457300774e-01
-9.365684217879067797e-01 2.137264525507666657e-01 2.777779595104234445e-01
-9.587951393039771675e-03 5.111697714719521946e-01 8.594262830059347102e-01
-1.653215274026124393e-01 7.184261717206810172e-01 6.756719828171312558e-01
-2.302844285270771729e-01 7.618845446436625091e-01 6.053932792913020444e-01
6.303657474050416987e-02 8.419082458171097683e-01 5.359262037539699319e-01
-2.586537557916281926e-01 7.868175021981042017e-01 5.603717095371794077e-01
1.766427086092515475e-01 8.235829070191394985e-01 5.389884495618532112e-01
1.766427086092515475e-01 8.235829070191394985e-01 5.389884495618532112e-01
-8.710812024313476787e-01 9.455856302135565161e-02 4.819504299511452317e-01
-9.986908495187256651e-01 -4.573545947961020486e-02 2.290971046859921478e-02
-5.899478657126674408e-01 1.366511836279400149e-01 7.957939241751921244e-01
-1.663739617654453329e-01 6.886952932310063114e-01 7.057042567024293112e-01
-4.501108228899646652e-02 7.567634607035458316e-01 6.521373068726906697e-01
-6.953615070654073360e-01 3.928449380556974790e-01 6.017850356528821054e-01
-9.347864994950608741e-01 3.041213536126124439e-01 -1.835331104694808424e-01
-9.388418569521851387e-01 2.646308872304366511e-01 -2.203326148308608345e-01
-9.305347029496886524e-01 2.872273482510463438e-01 -2.271686972780510572e-01
-9.042327263397057502e-01 2.809474155614484769e-01 -3.216080320912485524e-01
-9.611520766447162467e-01 2.192349802211538690e-01 -1.676982677578387759e-01
-9.716772358616273531e-01 1.949239038939364899e-01 -1.335964857286853213e-01
-9.674096741554849554e-01 -2.198486059637872747e-01 -1.256388188664544492e-01
-9.544920525010743839e-01 -2.957444626654798792e-01 -3.847251635899174432e-02
-9.572705450144193273e-01 7.025334390101929671e-02 -2.805308740914650989e-01
-9.884887386407631427e-01 -1.121599526566321170e-01 -1.015389511490810692e-01
-9.821847891249309015e-01 -1.416045044809647602e-01 -1.235362469978568689e-01
-9.776157209917938351e-01 -2.081801398565837069e-01 3.047181384473602456e-02
-9.660361329101723182e-01 1.398847625408412287e-01 -2.172704377517848950e-01
-6.309491870626245946e-01 7.021048221031355174e-01 3.300786908065072023e-01
-6.718580222619058295e-01 6.803303751590267234e-01 2.928436076787373499e-01
-8.139851266270359265e-01 5.615419774217776938e-01 1.486567227649254752e-01
-8.086554468944567864e-01 2.059801525450389303e-01 5.510431425627659863e-01
-3.303715847022166696e-01 5.688409791792545800e-01 7.531763116480316711e-01
-8.018456454164681890e-01 2.853521302673454052e-01 5.249930691719036924e-01
-6.685364684379079270e-01 4.729573235438198631e-01 5.739079721304074511e-01
-7.645062652045755414e-01 4.696700406101672609e-01 4.415203544755268439e-01
-9.062239247856938018e-01 2.310777253174287615e-01 3.540639532741735596e-01
-9.794971036790196539e-01 1.865074793019048105e-01 7.616025242120368077e-02
-8.738436081609448625e-01 3.746983081224828926e-01 3.098362896214869600e-01
-3.365887333437195816e-01 8.573679799066518115e-01 3.893946219670444964e-01
-6.007918662987618008e-01 7.991898229390218544e-01 -1.856772199128940704e-02
-9.061754423087565735e-01 3.185260265485426734e-01 -2.781856181899528546e-01
-6.197825982104753217e-01 7.803723219834491909e-01 8.299740982483932994e-02
-5.804089785290252879e-01 7.577459764151255328e-01 2.982389191061114442e-01
-5.897091638913620759e-01 7.249815412344590149e-01 3.558719810435477804e-01
-8.626162720471975964e-01 5.054711243023423117e-01 1.980175991979862479e-02
-8.456075898352614084e-01 5.337348008782034636e-01 -8.658310718887517882e-03
-7.813618487376559063e-01 6.021680831056209771e-01 1.639123577591825032e-01
-9.246435200605068738e-01 3.505285433518045002e-01 -1.488761267153912715e-01
-9.246435200605068738e-01 3.505285433518045002e-01 -1.488761267153912715e-01
-8.857044140011608446e-01 4.600138613961624601e-01 6.256946813144960429e-02
-9.136546692334197584e-01 4.036040924146812592e-01 -4.836198893854304348e-02
-9.471405692020835598e-01 2.599225257904387298e-01 -1.880559032795087737e-01
-9.471405692020835598e-01 2.599225257904387298e-01 -1.880559032795087737e-01
-9.741695331285125103e-01 2.229667386000622198e-01 3.577085688416437731e-02
-9.498549469549447677e-01 2.291385516782531440e-01 -2.127700728016311549e-01
-7.993920473985116626e-01 5.917250050679592199e-01 1.040858920956125727e-01
-8.494168162816552181e-01 1.781738350564294193e-01 -4.967344931844586697e-01
-8.494168162816552181e-01 1.781738350564294193e-01 -4.967344931844586697e-01
-8.476051123143732990e-01 2.608078464847747857e-01 -4.621091221676033034e-01
-8.187506012246829057e-01 2.378195197224416690e-01 -5.225794954197949815e-01
-7.303815758485776577e-01 5.144436639439300407e-01 -4.493222343584757916e-01
-8.318180858077923734e-01 3.946815807486472871e-01 -3.902628882443336389e-01
-8.141724139034850483e-01 5.576832826676065835e-01 -1.615940489982679029e-01
-8.107796813005246905e-01 5.434443340881620621e-01 -2.174961244199394850e-01
-8.751600181590094563e-01 1.921735269347934205e-01 -4.440318436344001807e-01
-8.943367520498415324e-01 2.408474293506529806e-01 -3.770335392350689374e-01
-4.848559574730167410e-01 2.493405598229837539e-01 8.382982677603988408e-01
-6.163053387468091504e-01 -1.791772355333027533e-01 -7.668528201022827284e-01
-6.131887349736381276e-01 -3.244720953368147032e-01 -7.202204069930028263e-01
-4.344223402524595712e-01 -2.729177561796997109e-01 -8.583665467918786263e-01
-5.594936469471074592e-01 -2.636488899854138035e-01 -7.857837627714665540e-01
-5.594936469471074592e-01 -2.636488899854138035e-01 -7.857837627714665540e-01
-7.906941451057767356e-01 -4.410073998406496831e-01 -4.246354226642358731e-01
-7.454113669530753050e-01 -1.708870368567516895e-01 -6.443287318220930482e-01
-5.950336965853108007e-01 -3.875467039260245827e-01 -7.040898040762233467e-01
-5.962582822648386793e-01 -3.952717495626099087e-01 -6.987390820816433701e-01
-1.973111046530819368e-01 4.229211843797494597e-01 8.844241062880470183e-01
-9.909656248014006574e-02 6.173138218070841621e-01 7.804508419564626376e-01
-7.604243936679859761e-01 3.167804564783129884e-01 -5.669258186994730053e-01
-7.236784759339184303e-01 -5.284515123690955996e-01 -4.438788827425524386e-01
-9.337855384644694334e-01 2.960144329273663444e-01 -2.010473169512849156e-01
-9.337855384644694334e-01 2.960144329273663444e-01 -2.010473169512849156e-01
-8.628035794240989098e-01 3.243474570916538013e-01 -3.877740455615106274e-01
-8.409566041015246185e-01 3.184286236764733574e-02 -5.401648101591465245e-01
-6.407014705781530761e-01 4.293745603113979098e-02 7.665885470502189492e-01
3.071065107228395860e-02 8.735194215250818850e-01 4.858195921627723179e-01
2.326339706288663850e-02 8.710831374876928379e-01 4.905843270444866233e-01
2.395388640735865785e-02 8.955501279179421958e-01 4.443154056659986417e-01
-2.626039725081139586e-01 8.736615910873933855e-01 4.095785368907920443e-01
-7.193505996385268775e-02 8.628791149956500650e-01 5.002649098750786560e-01
-3.162129884222741327e-01 5.161393743202910001e-01 7.959959121938462445e-01
-4.787130507766740872e-01 8.406971208586746513e-01 2.531050493293733328e-01
-4.874308357148214310e-01 8.319442080317781540e-01 2.651037817850364076e-01
-3.176189449534584930e-01 9.069228410112618599e-01 2.767836090860752996e-01
-4.602150841378441770e-01 8.076431518950146771e-01 3.686659945385298842e-01
-3.371064945547040392e-01 8.485894546372789726e-01 4.077439745814090410e-01
-4.683646908984905877e-01 8.649476753426228459e-01 1.802776615084464573e-01
-2.971632656874193534e-01 6.460613107737355199e-01 7.030638493389567145e-01
-2.971632656874193534e-01 6.460613107737355199e-01 7.030638493389567145e-01
-1.580350498814539484e-01 5.624694614251467550e-01 8.115744130842665882e-01
-9.171536701059400387e-02 7.221181711911001111e-01 6.856629188527940677e-01
-4.722046975506653532e-01 6.683796628810286800e-01 5.747097962085968570e-01
-3.759169796502092042e-01 6.804846155900110549e-01 6.289889604404668155e-01
-3.501759729719503556e-01 7.433492217429197302e-01 5.699199263820695638e-01
-3.756925880112739202e-01 7.613436755808298262e-01 5.284040943884359409e-01
-5.266825272087676257e-01 5.945610152552437411e-01 6.075382413244778679e-01
-5.595436377734307465e-01 6.034709818877165288e-01 5.680965511660415190e-01
-7.682910123797795365e-02 6.221374469102763927e-01 7.791291846381622754e-01
-7.682910123797795365e-02 6.221374469102763927e-01 7.791291846381622754e-01
1.048876482718892264e-02 4.305590402256281313e-01 9.025014674184111962e-01
-3.637350135934841466e-02 3.746029313296717067e-01 9.264715927852719135e-01
-1.639518018482384043e-01 6.428688894034294554e-01 7.482241627399621731e-01
-1.283151219125128473e-01 7.356785179218233717e-01 6.650656717625158532e-01
-2.479062953939270217e-02 6.014167034904095432e-01 7.985507957855715322e-01
-2.479062953939270217e-02 6.014167034904095432e-01 7.985507957855715322e-01
-6.142785903743647885e-02 3.877089094137691205e-01 9.197327979882323756e-01
1.206466691276593256e-01 4.200583039258208307e-01 8.994417171397842692e-01
-2.162903464891114957e-01 6.211127489865776452e-01 7.532844343685568544e-01
-1.611410176870736455e-01 5.085053094569036425e-01 8.458462760294642724e-01
-1.731240021017017572e-01 4.994440412154151909e-01 8.488720336957182866e-01
3.255917165308890304e-01 7.233134960685219106e-01 6.089397511508026772e-01
4.528286124715815569e-02 4.482923330663205475e-01 8.927392937421460006e-01
-6.779303949032841441e-03 3.461807126813418178e-01 9.381433553596192354e-01
2.180074442856893002e-01 2.557800508284500673e-01 9.418329575005419674e-01
4.054641817207492172e-01 5.893925420411650906e-01 6.987240003948460565e-01
1.427419293437667824e-01 6.191139163119947497e-01 7.722193342801275673e-01
1.484760161901284570e-01 6.231465555475476092e-01 7.678823105955339123e-01
4.393519272494452593e-03 4.616364782708484160e-01 8.870583176534059255e-01
4.243313654898461795e-02 4.558354850794645308e-01 8.890519891800391372e-01
7.242423371371871088e-01 2.413102329916536060e-01 6.459430381632569329e-01
8.406916572360911832e-01 2.034772815266956414e-01 5.018311801354519153e-01
9.668571513643715587e-01 -6.079420958303598937e-02 2.479744199242061575e-01
9.561774381631767961e-01 -6.049522014349725807e-02 2.864699549472752849e-01
8.656934103409422709e-01 2.439426038415177800e-01 4.371120283443243881e-01
8.562479462792083051e-01 4.503007266900064809e-01 2.531179765150826655e-01
9.466736722849052876e-01 3.116263289755425991e-01 8.184124444214264937e-02
7.884963401340577827e-01 4.761238366958667756e-01 3.893322664835318636e-01
6.686898450303752073e-01 6.137366826922737717e-01 4.197394137689907101e-01
9.838492519099101274e-01 1.323877091728605238e-01 -1.204746611378177956e-01
9.093286543221782425e-01 6.907208863160928247e-02 4.103053070588821849e-01
9.821383824687308639e-01 1.749002727255214162e-01 6.938366005222741661e-02
9.401065146451381693e-01 2.333371799862203333e-01 2.485025182122886644e-01
9.998016515471143117e-01 -1.991562890771275685e-02 -1.590247556001570016e-04
1.389270905013115232e-01 8.008777495116684575e-01 5.824895654532926681e-01
6.367143957067558091e-01 5.703343435750498625e-01 5.189542512000433483e-01
1.375266411979705616e-01 8.028615227892428319e-01 5.800860265386009740e-01
2.590977483757223587e-01 8.205003260137326837e-01 5.095562498861035960e-01
2.060722458298561988e-01 7.297035289378164258e-01 6.519716169852309839e-01
6.346620256603298094e-01 4.474946773471936146e-01 6.300417660208393889e-01
-2.042428286828500972e-01 -8.859115721666571686e-02 9.749033151008565934e-01
-3.043340807839365128e-02 5.679051273982632653e-01 8.225311993763495533e-01
-3.043340807839365128e-02 5.679051273982632653e-01 8.225311993763495533e-01
5.893847133737345478e-02 8.450739681897700972e-01 5.313908588641782504e-01
1.631755101769582217e-01 -2.677204216074017262e-01 9.495786058735973256e-01
7.240714704043571537e-02 8.922711795534022938e-01 4.456560862322481165e-01
3.472959239892987049e-01 6.365212788297238689e-01 6.886408372855854498e-01
8.964546827465103007e-02 5.477984692518329535e-01 8.317935603881333462e-01
1.965390575820008534e-01 3.272715056023727809e-01 9.242649839010104174e-01
1.898767931927212160e-01 2.788068247028768765e-01 9.413891638987289534e-01
1.393150759785367343e-01 3.167235997631560052e-01 9.382310328262237764e-01
4.963894097594079291e-01 5.236448059179388270e-01 6.923826045719740918e-01
6.868875589912871726e-01 4.759197400896290064e-01 5.492593943630011966e-01
3.055293262492623230e-01 3.602038667144807360e-01 8.814221492597110741e-01
3.098267383855584090e-01 3.287142290089956620e-01 8.921627361801144351e-01
6.533251927018737248e-01 4.845434253658174040e-01 5.817077114116848691e-01
5.908449845729544236e-01 7.779288247425286684e-01 2.138432786872039582e-01
5.587188298343899184e-01 8.013144050552327702e-01 2.138422162237114121e-01
6.114512677448795674e-01 7.509647344079325437e-01 2.493578048684314263e-01
5.143980744607519195e-01 8.367098025461681132e-01 1.879130844678546797e-01
5.143980744607519195e-01 8.367098025461681132e-01 1.879130844678546797e-01
5.166189413117806550e-01 8.349977303778127746e-01 1.894298280150110703e-01
4.603919568338153967e-01 8.678081296519642995e-01 1.869446340302112763e-01
4.603919568338153967e-01 8.678081296519642995e-01 1.869446340302112763e-01
-2.252060319519525247e-02 5.746032617782838026e-01 8.181221876868282061e-01
-2.252060319519525247e-02 5.746032617782838026e-01 8.181221876868282061e-01
-6.503795201374615309e-02 6.111244610338298910e-01 7.888580087214481784e-01
-6.887923433886297131e-01 2.092588873389727155e-01 6.941007317089176176e-01
-6.887923433886297131e-01 2.092588873389727155e-01 6.941007317089176176e-01
-5.066588224338770541e-01 -3.868737330139625837e-03 8.621379648996948530e-01
-6.413453549748728832e-01 4.673924075465740041e-02 7.658273820031721302e-01
2.927071822256747113e-01 7.915914874594709438e-02 9.529198993846873522e-01
-4.638483420085314224e-01 5.863677778852853795e-01 6.640915182968453179e-01
-4.638483420085314224e-01 5.863677778852853795e-01 6.640915182968453179e-01
-4.148003423574647131e-01 7.420140667480411567e-01 5.266458019657646039e-01
-2.294801370984705657e-01 8.084070523658622998e-01 5.420488025652351327e-01
5.898379062832895814e-01 3.820883774775784003e-01 7.114068569446719836e-01
4.314385279865856071e-01 5.735159930881973400e-01 6.963764802467318216e-01
-6.381034427595724257e-01 6.174424729615848317e-01 4.599878138836545061e-01
-7.351520098359438649e-01 6.661863694207270647e-01 1.254880218674393477e-01
-4.442171945946408185e-01 8.443711531064254094e-01 2.995136721890880316e-01
-3.010021575149668394e-01 8.296315899141790684e-01 4.702224220385565201e-01
8.755018965971524819e-03 8.267416088447341327e-01 5.625136992533835700e-01
2.759786778967789345e-01 7.621500146264184039e-01 5.856305358767559532e-01
-9.797828521193767404e-02 8.579939036799848484e-01 5.042288338392690861e-01
-8.439099724914007894e-02 8.230814753136596051e-01 5.616182373986667864e-01
2.102133184003352195e-01 7.566472985948109464e-01 6.191084123934144090e-01
-6.138325524585771520e-01 7.486344401121716174e-01 2.505116217266650236e-01
-6.138325524585771520e-01 7.486344401121716174e-01 2.505116217266650236e-01
-6.333400371972091047e-01 7.613809330655976204e-01 1.384899709264094669e-01
-5.276576146505708165e-01 7.178420342935846188e-01 4.541808621050846262e-01
-5.725073906296588300e-01 7.571714233105375502e-01 3.145261887288783309e-01
-2.315198257295338902e-01 7.808996412882094340e-01 5.801674935138232403e-01
-7.154831485837026550e-01 5.664348627374257150e-01 4.089442631562215102e-01
5.662800072112485206e-02 3.542626536061093123e-01 9.334298269255626446e-01
8.188932059096710736e-01 4.000016597215328984e-01 4.115976063280739616e-01
5.502907080043152321e-01 6.391056255671045960e-01 5.373305649714981147e-01
9.561438570876662491e-01 -2.926309283727465127e-01 -1.249257032099024452e-02
7.842743250514070397e-01 4.570447894545531797e-01 4.195519556593714228e-01
9.729759702615879968e-01 1.416021846408202847e-02 2.304717976381731870e-01
9.959338838345848099e-01 -8.571712407589468508e-02 2.771775009479057403e-02
9.697071572784602411e-01 6.101023161974673814e-02 2.365286045294151263e-01
6.969628324341781145e-01 2.632067287354218910e-01 6.670569901842914318e-01
6.720502279813951318e-01 3.833004757445920840e-01 6.335844350709100015e-01
6.720502279813951318e-01 3.833004757445920840e-01 6.335844350709100015e-01
6.059424291145868446e-01 3.804583519554456394e-01 6.986309576779859976e-01
8.742823207662842044e-01 -4.227857726057913657e-01 -2.385007632642802966e-01
8.751816267907558400e-01 -4.018917863151242886e-01 -2.693327165799292433e-01
7.976056504553676874e-01 -4.667034285911009772e-01 -3.821166524806017262e-01
7.135805564293451475e-01 -4.587621104720065318e-02 -6.990694977939881927e-01
8.915297761676822530e-01 1.195127177805034441e-01 -4.369111677390728476e-01
7.057479836180288180e-01 -6.446662797402166190e-01 -2.938114555033472519e-01
7.533146000437882517e-01 -5.854286473725810458e-01 -2.996504833908625320e-01
7.537163345792676772e-01 -5.982672141979893388e-01 -2.720074032157409616e-01
6.488664602213796151e-01 -3.332288253625775298e-01 -6.840547249652280115e-01
6.488664602213796151e-01 -3.332288253625775298e-01 -6.840547249652280115e-01
7.930908907261661200e-01 -3.532924709621959591e-01 -4.961766510111115802e-01
7.090421398384291196e-01 -4.465608632817832380e-01 -5.457496122933757077e-01
3.642120526010251269e-01 9.184801570892315858e-01 1.540901741626913291e-01
5.445187000435534053e-01 8.386307206657332980e-01 -1.406768134950666695e-02
5.445187000435534053e-01 8.386307206657332980e-01 -1.406768134950666695e-02
4.925573290133411497e-01 8.685989926285115903e-01 5.406540150575150222e-02
5.051772497331624701e-01 8.626967785470269767e-01 2.345665442086359090e-02
6.423954179272346465e-01 6.400783815634031315e-01 -4.214591231439510088e-01
5.106228694028438486e-01 8.440029568096798496e-01 -1.640831927386954825e-01
5.658676093394181539e-01 3.389250692558899020e-02 -8.237992150243834688e-01
5.540013591097859846e-01 1.005942080499907243e-01 -8.264159360826152101e-01
5.151158496386566421e-01 1.369242722070978862e-03 -8.571194704505392670e-01
5.918776420523936821e-01 -2.015874774010421172e-02 -8.057757018724562847e-01
8.247103436874644311e-01 4.437752054057838430e-02 -5.638115684212011702e-01
-1.957919642192781917e-01 8.758867056190784428e-01 4.410079201861513698e-01
-2.006147138784085959e-01 7.910125876375472265e-01 5.779730294524442202e-01
5.745244537810142438e-01 9.194340373653794862e-02 8.133068686030919814e-01
8.439789721564694425e-01 -1.398926488793737211e-01 5.178122645778310273e-01
7.074207003389384463e-01 -2.198303106331863654e-01 6.717369926235138289e-01
6.552123399561674555e-01 -5.414596505522415448e-01 5.267999965765074455e-01
5.678381263258863720e-01 -5.885220827750815564e-01 5.755011905954552365e-01
7.070154724090995657e-01 -5.741232372110244286e-01 4.129305392780625028e-01
8.150470537121345949e-01 -5.162373594120732712e-01 2.630537758376009783e-01
8.252405240136601039e-01 -5.234246960725208453e-01 2.121430297394870657e-01
8.569888228693083310e-01 -4.125620034084778731e-01 3.088085990069910358e-01
7.894288346475794027e-01 -3.396472608969082763e-01 5.113138499905831580e-01
7.632128608443831119e-01 -5.011582082541489180e-01 4.078560767491684058e-01
9.221611884805825943e-01 -3.642083086853408758e-01 1.302729839400438572e-01
9.324816704004920132e-01 -3.382738877592397775e-01 1.266835081111882255e-01
7.794716147688847130e-01 -6.264253448248459089e-01 3.910131795786819103e-03
8.508488994182983323e-01 -5.207013791726974317e-01 7.018706495018445235e-02
7.254255471038110192e-01 -2.223320201319196054e-01 -6.514032916966232545e-01
-5.168455325125857064e-02 -7.733293074854156179e-01 -6.318943654910568197e-01
6.840993273478755965e-01 -5.776836862158407637e-01 -4.452972816021475433e-01
6.433500010315033046e-01 -6.818781890748037977e-01 -3.480559027467155508e-01
7.369154304588707571e-01 -5.090403419053153300e-01 -4.447848678457224647e-01
7.369154304588707571e-01 -5.090403419053153300e-01 -4.447848678457224647e-01
7.109443441622457227e-01 -3.916630204370400992e-01 -5.840875087911479024e-01
7.172944310386076827e-01 -5.136378617845526184e-01 -4.708129630143936262e-01
7.382347266915685324e-01 -5.050123963620244405e-01 -4.471822534798433058e-01
7.273875546282192461e-01 -6.242433012092537536e-01 -2.850046425364897718e-01
6.995295118869773177e-01 -6.293864409336923371e-01 -3.384245410250074082e-01
8.026949121236682805e-01 -5.738356488707248015e-01 -1.624608449316036762e-01
8.026949121236682805e-01 -5.738356488707248015e-01 -1.624608449316036762e-01
8.114550690778470354e-01 -5.768677427980959393e-01 -9.361772367931441019e-02
6.270751839092821855e-01 -3.259128532792103794e-01 -7.075009016195976663e-01
6.236022692086610197e-01 -3.471807815328468716e-01 -7.004182427464682448e-01
6.809832503723826092e-01 -3.121340423806734377e-01 -6.624455844062701049e-01
6.882421816333458287e-01 -3.705866140405124076e-01 -6.236892342461596295e-01
6.857498154152955605e-01 -3.879800678626360577e-01 -6.158073218135624582e-01
6.355917175493723814e-01 -3.378228518854314300e-01 -6.941893756941492910e-01
6.402695910773521515e-01 -3.314221217528142693e-01 -6.929749114899492746e-01
6.225649496019179940e-01 -3.283823276824712756e-01 -7.103364909625601298e-01
6.458340722632880393e-01 -3.591968580764743901e-01 -6.737031751831121795e-01
6.515690152888607353e-03 9.673741737785570560e-01 2.532681458219442905e-01
6.515690152888607353e-03 9.673741737785570560e-01 2.532681458219442905e-01
-3.706756604498297192e-02 9.329357450261457352e-01 3.581297128136831098e-01
-1.048992019252296092e-02 7.957217059943378912e-01 6.055715714792223592e-01
-8.697350727158836142e-03 5.685597117233907039e-01 8.225960188910129700e-01
-4.512897298045049493e-02 2.587898166374318354e-01 9.648788559205212501e-01
8.100045759664092904e-01 2.455511314936221767e-01 5.325384762960130303e-01
6.629434584881821468e-01 3.687544632750722196e-01 6.515566872210286631e-01
8.574794274472606892e-01 1.079546190195590227e-01 5.030654348462633152e-01
3.157952352408891494e-01 8.661460187877314532e-01 3.873815219358227036e-01
3.157952352408891494e-01 8.661460187877314532e-01 3.873815219358227036e-01
9.154939270464194090e-01 2.479727118547721543e-01 3.168286661849202268e-01
8.265410536144939257e-01 3.258468815399145901e-01 4.589702566404004203e-01
8.265410536144939257e-01 3.258468815399145901e-01 4.589702566404004203e-01
6.027348645692235385e-01 3.061713319370110153e-01 7.368648441421510320e-01
7.828895845133263531e-01 2.796300056175128890e-01 5.557795951804107570e-01
6.920380025697231430e-01 2.540032455976198311e-01 6.756964956437047087e-01
8.069502066572468157e-01 2.739086360203866755e-01 5.232642000837415264e-01
6.065817473193202414e-01 3.822344414523322076e-01 6.971050247894243768e-01
-7.886263620624049953e-01 3.427552167887119583e-01 5.104775435064107247e-01
-8.675325569878400422e-01 2.147671238482458667e-01 4.486227202004960946e-01
-9.246265600053663603e-01 5.939032159815676309e-02 3.762160472828213198e-01
-8.485143195586519749e-01 1.398241350249989634e-01 5.103652229222015446e-01
-7.921860224041371579e-01 4.177203335528813927e-02 6.088484237779353547e-01
-7.194583787803093822e-01 -3.859403337526475658e-02 6.934624299777442102e-01
-7.499171195767615483e-01 2.117487226775369158e-01 6.267270476133327550e-01
-7.774280866399762013e-01 6.447542242792757283e-02 6.256584451648087297e-01
-5.534272481799550336e-01 -4.853855580193782576e-02 8.314819839134367507e-01
-5.534272481799550336e-01 -4.853855580193782576e-02 8.314819839134367507e-01
-1.593057129654911475e-01 -2.244312228120954027e-03 9.872267484621652933e-01
-9.792381777173898572e-01 4.662229768549329412e-02 1.972788702807547756e-01
-9.466661883548194156e-01 -4.584274570999100074e-02 3.189381922748144582e-01
-9.594348264503407275e-01 -1.132564614664711145e-01 2.581816951882878741e-01
-9.584171207615576060e-01 -1.100569087498979304e-01 2.632947007965453223e-01
-9.981755779088450353e-01 -4.384181000161015140e-02 4.151398995671019831e-02
-9.242303447207528277e-01 1.139305333510303928e-02 3.816653877849834342e-01
-9.950457419043186036e-01 -2.610552550682417386e-02 9.592952129608993406e-02
-9.750532365123240064e-01 -1.474983033613692651e-01 1.658777757035564959e-01
2.955133271573966991e-01 -4.553777255467781893e-01 8.398231960050928091e-01
3.779276262107300610e-01 -5.582779062119581637e-01 7.385773410972711339e-01
-6.682253420172657998e-01 5.631526683821563850e-01 4.861419179416286429e-01
-5.762237722955063646e-01 6.116239543732010508e-01 5.421091243268508775e-01
5.860894018631671587e-01 4.105747774788888749e-01 6.985181208256777685e-01
3.926799706222882103e-01 5.464739112111081099e-01 7.397085270819262481e-01
5.288296826718483779e-01 5.347939881879629764e-01 6.590406337421123029e-01
-8.530516249365999171e-01 3.505866835128445547e-01 3.865124869088852333e-01
-8.530516249365999171e-01 3.505866835128445547e-01 3.865124869088852333e-01
-3.843399936678124074e-01 5.354553922961219348e-01 7.520440759213731230e-01
3.732909918418638728e-01 4.688922709132741229e-01 8.004960172839776789e-01
6.017606077916831664e-01 -4.782345023733682310e-01 6.396686108055334996e-01
6.017606077916831664e-01 -4.782345023733682310e-01 6.396686108055334996e-01
-6.294490486125232653e-01 2.028212936096265018e-01 7.501049380315443216e-01
-5.379169142512382207e-01 1.076142893105506981e-01 8.361008061822516879e-01
-1.439895181970985982e-01 1.414646802316630869e-01 9.794155210615772544e-01
-6.798850445330912873e-01 1.601661445643530746e-01 7.156138150955633215e-01
-5.334019875361781793e-01 1.000812828807084859e-01 8.399202679477419942e-01
