-8.315381889540740534e-01 -4.792279900578844676e-01 -2.808643335421194820e-01
1.041749560431285138e-01 7.887614493179453401e-01 -6.058076878046916303e-01
-7.995688839668352310e-01 -4.139164261294643321e-01 -4.351583527547658314e-01
2.301792586637017024e-01 -9.331356554486928134e-01 -2.761799366560996338e-01
-8.228853006623417787e-01 -5.450861136114315553e-01 -1.604397416534719956e-01
-5.227785411624483181e-02 -1.918139298525592673e-01 9.800379800209368941e-01
3.129118811380112164e-01 -9.453504587404341075e-01 9.164422950694688097e-02
-5.869844614129087201e-01 -7.699777732572177236e-01 -2.501668857975697935e-01
-1.222973151447705881e-01 -4.561746787237367373e-01 8.814465549309703496e-01
8.573962823440884132e-03 8.650340315194958718e-01 -5.016399221300374967e-01
-8.111418843722132399e-01 -5.617906401768741897e-01 -1.626041820703049146e-01
2.474842303602055316e-01 1.941026473021774945e-01 -9.492500819243068211e-01
-2.610965099762967978e-01 2.092044173392334228e-01 -9.423704814158543330e-01
5.777493951077140866e-02 9.846677169459118195e-01 -1.645950897476975150e-01
-6.955160145270731231e-01 -3.733914817646991624e-01 -6.138699169058038363e-01
-3.148854432720383234e-01 -1.178998681600755688e-01 -9.417785189221555830e-01
-4.193223028127715524e-01 6.151897714039969434e-02 -9.057506399751498183e-01
-7.608511554989449976e-01 -5.700672084229816416e-01 -3.100466046528310149e-01
-7.587660703498663173e-01 -4.436464016105236552e-01 -4.769191973739950741e-01
5.550536841735198568e-02 6.696951272468563976e-02 -9.962099369321067988e-01
-4.171509562883304323e-01 -8.917139058916004890e-01 -1.755886947023565792e-01
-7.768511364451833323e-01 -5.983207526766869400e-01 -1.962513406839044572e-01
-3.716815706798188429e-02 -1.865286439136611130e-01 9.817461958672926148e-01
-6.514206748871470554e-01 -1.991844048703108327e-01 -7.321042802675270522e-01
-7.784468858843771599e-01 -6.038478573856449483e-01 -1.714299010898666376e-01
-1.630975626722842298e-01 4.400638089933917203e-03 9.866001314791933430e-01
-6.573609018502589718e-01 -3.955747497946081603e-01 -6.414025740855328062e-01
-6.326065541894776434e-01 -3.274603734741978189e-01 -7.018394769465838845e-01
-4.017426181036617416e-01 8.506782216554009679e-02 -9.117929229990916484e-01
1.086518448458511782e-01 -9.673722816315659667e-01 -2.288791063914119572e-01
-7.513916757583662953e-01 -5.842267927610256262e-01 -3.067402879003666705e-01
-3.046199385881242505e-01 1.295184614361303832e-01 -9.436268654302848446e-01
-2.826406938902759625e-01 -9.332248761466446219e-01 -2.218232825884229320e-01
-3.142387612681485920e-01 -4.535330142471381554e-01 8.340034807508687198e-01
-7.204511453432725920e-01 -4.500669980402965953e-01 -5.276266146135563107e-01
-7.480140373130150788e-01 -6.358232803924720455e-01 -1.902728464433086630e-01
-7.529965663675951548e-01 -6.337810029538147871e-01 -1.769683907749297624e-01
-2.807936953229884791e-01 -4.400229777086803740e-01 8.529564348518903216e-01
-7.236563134768693173e-01 -4.611077588354740575e-01 -5.135184268424973775e-01
3.710291198289344394e-01 -9.135423767754435875e-01 -1.666664875565562753e-01
-5.469989875529379653e-02 -1.856390240724995200e-01 9.810943246281523811e-01
-7.279573204868735603e-01 -6.290459717403955597e-01 -2.727256955014559781e-01
5.939913665393165704e-02 2.233613306773644391e-01 -9.729241792261125177e-01
1.789601302801296367e-01 -9.624664827913620435e-01 -2.040380878006457788e-01
-6.642365858221985775e-01 -6.929435631651281735e-01 -2.803907564868807212e-01
-7.264811462048743618e-01 -6.609616850455242165e-01 -1.880287082087019612e-01
-6.654108974764662010e-01 -4.341206162858634032e-01 -6.072624045955306027e-01
-7.389946029826197638e-01 -5.086624610690791970e-01 -4.417572607911586235e-01
-3.245367481348305772e-01 1.339655423374412069e-01 -9.363381507640842205e-01
-5.781834271873952380e-01 -4.343428372143683935e-01 -6.906882250961070557e-01
-3.352476408190465107e-01 -1.953303813804586342e-01 9.216588639160523400e-01
5.552027881598885495e-01 -6.781914085352513943e-01 -4.814626438348648674e-01
-6.617889199864342986e-01 -6.125191751319026823e-01 -4.322680713156157872e-01
-6.216406137408218013e-01 5.796107271281274176e-02 -7.811552095441176569e-01
-1.649392749922760359e-01 -4.547198011278872354e-01 8.752285061783791065e-01
-6.928786494729859413e-01 -6.926175421792734044e-01 -2.004996692516805290e-01
-6.982777289716287639e-01 -6.911160412625215743e-01 -1.864586568970314495e-01
-7.080080639453534275e-01 -6.785306746669639288e-01 -1.957567493711185325e-01
-4.886988482598848826e-02 8.694831341802079505e-01 -4.915392290888460636e-01
-3.060575237764152079e-01 2.299267421654271892e-01 -9.238303336527990961e-01
-3.257861070960399452e-01 -1.458053619633342401e-01 9.341328646643092259e-01
-1.962599297337768445e-01 3.404484729458869263e-01 -9.195525418646325333e-01
5.508783016218378459e-02 1.723349773858717238e-01 -9.834968157230776775e-01
-2.190998295830817733e-01 -1.329929727502338621e-01 -9.665961586286798690e-01
-6.714987654143412810e-01 -7.172100209903211621e-01 -1.862771962374311641e-01
3.119704648649774051e-02 6.909248924315808393e-01 -7.222530978188516082e-01
-3.217542744301596369e-02 -1.832433903771829853e-01 9.825408906258988884e-01
4.032151218597044284e-01 -8.999663063762820547e-01 -1.657655358966264592e-01
-7.099714554823407520e-01 -6.695425908366696710e-01 -2.182962470039430947e-01
-6.727839775222674845e-01 -7.142321569534287873e-01 -1.929615131651127025e-01
-5.090650372873346541e-01 9.630937208908647851e-02 -8.553229171835923239e-01
-6.710538868952754532e-01 -7.187641892954873546e-01 -1.818370728678385395e-01
-2.120688224195738936e-01 3.981564323489255042e-01 -8.924675175807524896e-01
-6.563433783861292170e-01 -7.273796123288721605e-01 -2.003304001318378103e-01
-1.139125187372407866e-01 -4.581455934029119992e-01 8.815478168088395350e-01
-5.137734662963518995e-01 -1.706942441831340584e-01 8.407736320393141005e-01
2.676278938756899151e-01 -9.452361658224319729e-01 -1.868258580629844345e-01
-6.796683586296562440e-01 -6.727962557690350121e-01 -2.922261461622422951e-01
-6.898442171069762985e-02 -2.281921939757925455e-01 9.711691264500508236e-01
-6.375082714143089913e-01 -7.432165091572050519e-01 -2.030084342940413622e-01
-6.046444294005989262e-01 -7.766897111210577798e-01 -1.765168735093390617e-01
4.977685694388652160e-01 -8.491897333972704409e-01 -1.763611294232901583e-01
-6.212519343953069040e-01 -7.620295872755719069e-01 -1.826388297342901312e-01
-6.648756953616699050e-01 -5.707108741198860802e-01 -4.819018654027513171e-01
-6.332736196191784961e-01 -4.867927519775677170e-01 -6.016621471528105225e-01
-3.322786677437901681e-01 1.726305692008501536e-01 -9.272483882648717701e-01
-5.699502277664485472e-01 -7.954509864537107067e-01 -2.059477264229735149e-01
-5.720111862979662121e-01 -7.704352391065772965e-01 -2.814831168876465450e-01
-4.980220276800171320e-01 -6.274770636022208858e-01 -5.985370453018079573e-01
-6.368047235757851032e-01 -5.103643670426432077e-01 -5.779342150147629420e-01
-5.765367174123023908e-01 -7.952112387675357441e-01 -1.877351837382868760e-01
-5.766663586894735793e-01 -7.951582203564340201e-01 -1.875614975292424769e-01
-5.648129263474257478e-01 -7.762784492081259424e-01 -2.799609392859732093e-01
-5.653138862241203766e-01 -7.992153218413001747e-01 -2.041447510378097685e-01
4.857998349182842124e-01 -8.598221292933853066e-01 -1.571764179855133503e-01
-7.383569346126733768e-02 7.976014474984188807e-01 -5.986486626724564220e-01
-4.423024971531618887e-01 -6.841633319172601979e-01 -5.799043337240634699e-01
-5.220391593780775441e-01 -7.650641870405566758e-01 -3.770303777997233707e-01
-5.498607211068512468e-01 -4.704328100070219176e-01 -6.901783527848078803e-01
-3.183067886552721215e-01 1.865175007167091115e-01 -9.294579120231105662e-01
-3.337758840718738629e-01 -1.431301686938300510e-01 9.317228203826043442e-01
4.344967523356975669e-01 -8.851871125975077081e-01 -1.663019780430128047e-01
-5.069018470813650978e-01 -8.382329374534003286e-01 -2.010374591804828248e-01
-2.660005853024830294e-02 6.777249236509895747e-01 -7.348342430429107841e-01
-3.632980566163004910e-02 -1.899034231376480475e-01 9.811303863917332224e-01
-2.952121157133189566e-01 1.706079205207379768e-01 -9.400759246952639092e-01
-4.625042805683064473e-01 -8.533878695429697459e-01 -2.404556810992508342e-01
-4.988638604737032911e-01 -8.446690990638194840e-01 -1.940849345003084203e-01
-3.949241033357483305e-02 -1.392981035818117164e-01 9.894626763372914580e-01
-4.750941713108692288e-01 -8.566746098625001027e-01 -2.009829375926520112e-01
-3.664818625424672849e-01 1.604119848991977793e-01 -9.164927929493519310e-01
3.018847556162116419e-01 -9.326966535116197887e-01 -1.973386603146111418e-01
-3.922551911581044770e-01 -7.050846447455616506e-01 -5.907550327788533284e-01
-5.981696247282267676e-01 -6.283310447961336642e-01 -4.973863671210655424e-01
-5.522895568399888155e-01 -4.712293760103226647e-01 -6.876911520373159004e-01
-2.988122871579608208e-01 2.077556535508520708e-01 -9.314230002856310753e-01
-4.665820955455647900e-01 -8.569212271557890004e-01 -2.190597146125367323e-01
5.250328186689806609e-01 -8.363773211538134689e-01 -1.575230649145578643e-01
-4.247657176671136847e-01 -8.840087764413442351e-01 -1.951987916699779724e-01
-4.240491284533860483e-01 -8.822997655844859732e-01 -2.042778997040178290e-01
-4.166768782479914890e-01 -8.837360754802476848e-01 -2.130514680265742089e-01
-3.389239410171523276e-02 -2.379222755352247420e-01 9.706926889732890862e-01
-4.042618220724072259e-02 -2.162295959539176082e-01 9.755052463343046876e-01
-4.460230517322764238e-02 6.558126119895741901e-01 -7.536049710084499198e-01
-4.895636763951975723e-02 -2.212285079087097650e-01 9.739924133975738085e-01
-3.894623025599825428e-01 -8.692910423166071432e-01 -3.043882366859522737e-01
4.018399194567772725e-01 -8.971011354982421082e-01 -1.836688101413397334e-01
-5.515103658821665089e-01 -5.411454866160333443e-01 -6.348211390932214648e-01
3.828092551455751225e-01 -9.054793822157182204e-01 -1.832052470786009746e-01
-4.075203730837506089e-01 -8.597783710428406057e-01 -3.077471335505830852e-01
4.920016234486450091e-01 -8.533939334436775326e-01 -1.722010362495700053e-01
-6.877188026434816193e-01 -1.339641997363205661e-01 7.135099450460541393e-01
-2.967277098840474525e-01 -7.904467231445826414e-01 -5.358606573139701457e-01
6.258542028633595766e-02 2.113832956640620264e-01 -9.753974407808247982e-01
-3.155635833010363850e-02 -1.845617863568043415e-01 9.823141774736469101e-01
-1.248583766261606026e-01 1.244256356273595737e-01 -9.843417328270743782e-01
5.329369854050831634e-01 -8.311304841837885427e-01 -1.587459852965214802e-01
4.858555736392587976e-01 -8.575149644653381475e-01 -1.691521424093604675e-01
-5.143921257482305665e-01 -5.770110585317014262e-01 -6.343965473584656234e-01
-3.326137096903013513e-01 -9.197539662278522155e-01 -2.083764903586557971e-01
-4.990162506496254730e-02 -1.925097185955553791e-01 9.800254262324707977e-01
-1.607889065048734856e-01 2.102289446606650791e-01 -9.643395244268641031e-01
-3.555187215966019998e-02 -1.940971463884694770e-01 9.803378816254099126e-01
-4.588699054889810308e-02 -1.933952971568854429e-01 9.800472657662818721e-01
-1.812174908834685017e-01 2.274883091499321774e-01 -9.567702389800828433e-01
-3.196830546214628477e-01 -8.622328741558469289e-01 -3.928832082347603616e-01
3.308008992490703293e-02 1.884917762032395916e-01 -9.815174771517356511e-01
-1.320393632293124231e-01 9.174299725025879537e-01 -3.753503058636005196e-01
1.493176525814888522e-01 -1.653322490784195631e-01 9.748689583950373994e-01
-2.776519900324332935e-01 -9.364907212566608852e-01 -2.142300199113295056e-01
-5.322144986774307585e-01 -6.781787746843234155e-01 -5.067753713088282153e-01
-2.550707257057416855e-01 -9.451033812593973016e-01 -2.042511288096119648e-01
-2.471649964501011765e-01 -9.476515863413853547e-01 -2.021532474002768476e-01
-2.525733045233767293e-01 -9.412203197454550585e-01 -2.243012160921221965e-01
-1.714329249057139071e-01 2.599305174624638171e-01 -9.502877871202848326e-01
-4.908631543224811211e-01 -6.602840907769277345e-01 -5.683997565054632606e-01
-4.500364315747519273e-01 -6.073826605170992154e-01 -6.546399880534597981e-01
-1.694585332880634843e-01 2.833771155498974736e-01 -9.439180133245039794e-01
-1.833294842125259283e-01 -9.587896877052305422e-01 -2.170544516209597929e-01
-4.795428381511215310e-01 -6.962366109385204060e-01 -5.341284938727858256e-01
-1.157503518192801450e-01 -4.613809160419669042e-01 8.796189552107142040e-01
-3.115934841281315371e-01 2.888546711799407918e-01 -9.052471925316420975e-01
-2.082543548748659601e-01 9.245255551410938022e-01 -3.191905724903317809e-01
-4.240519119216301647e-01 -7.389427842380917877e-01 -5.235871824424916943e-01
5.235655118728088642e-02 2.090099885382503131e-01 -9.765109401532652278e-01
-3.589599345043661960e-01 -6.951167075019187847e-01 -6.228647753504068518e-01
-4.102186459594631684e-01 -7.516691473693030145e-01 -5.164437582160223972e-01
-5.103993805990156979e-02 -1.735051169951762062e-01 9.835094809402354921e-01
-1.243711912247168483e-01 8.922159828051982045e-01 -4.341456516197059190e-01
2.698121243373894501e-02 1.778778987020757374e-01 -9.836826049742567468e-01
5.528396985523384433e-02 9.802465979514541905e-01 1.898954709350535730e-01
-3.631779996999923155e-01 -7.663380864992547226e-01 -5.299317670366374688e-01
-1.257736499962983090e-01 7.183357602778966955e-01 -6.842329460590047541e-01
-1.447352075082896372e-01 2.754945485348733736e-01 -9.503443972766392189e-01
1.460818736974511256e-01 -7.055684045335527399e-01 -6.934214538799753358e-01
-3.204782712607545103e-01 -7.949297973427047470e-01 -5.151507497290521709e-01
3.169194300837236550e-02 2.101412378721518037e-01 -9.771572447123920702e-01
2.630335544333275988e-01 -1.929151425007185339e-01 9.453026483809814362e-01
-1.921594991451696932e-01 3.691695271099915132e-01 -9.092791579826642323e-01
-1.626325063883697353e-01 3.752654994497339747e-01 -9.125384774290773437e-01
-7.029945599505234288e-02 2.697616291935539534e-01 -9.603575635676740996e-01
-5.782787125026739306e-02 -1.921198911519759744e-01 9.796662108751202913e-01
-1.998947054984974159e-01 2.883224908247059015e-01 -9.364359283999660333e-01
-1.771523436892896153e-01 -4.525359590763376461e-01 8.739726842803789975e-01
2.996484414033899479e-02 2.273565926876748577e-01 -9.733504445353153844e-01
2.942534619670426066e-01 2.381326349191979219e-01 -9.255850843152401142e-01
2.668062438236611794e-02 2.020895028024640439e-01 -9.790035633947509197e-01
-4.531498231651603231e-02 -2.303336286574764469e-01 9.720560538812221818e-01
-5.774285954706093182e-02 -2.468657821763353410e-01 9.673277871341207090e-01
-3.339206480559991225e-02 -2.820381016944363273e-01 9.588219225698886294e-01
-4.090247184532694313e-02 -3.951067639063705061e-01 9.177241594904091970e-01
-4.483437861217712955e-02 -2.841756814646357460e-02 9.985901663420791996e-01
1.033496954897731579e-01 1.530499224304544270e-01 9.827993496569902288e-01
5.147234473872679128e-02 2.000521585335221508e-01 -9.784322825792167722e-01
-9.645830574327490803e-02 -2.678311805397794454e-01 9.586251895208079965e-01
4.761846941337093131e-02 7.953639982075406956e-02 9.956939502047207347e-01
-1.056927294069165274e-01 -2.105696952324793148e-01 9.718484709049128867e-01
-2.375550541807899124e-02 -1.407094251217715364e-01 9.897658984043814501e-01
-3.247648452153712589e-02 -2.793354542035783594e-01 9.596441955110251998e-01
-4.345587732323984343e-05 -1.182735793828655346e-01 9.929810464110339074e-01
-1.457958558434943874e-01 4.320315715861501073e-03 9.893052629451528635e-01
2.125237077250069495e-01 3.078870401215104066e-02 -9.766707374340996006e-01
-1.731750500955343275e-01 -6.828660699077540586e-02 9.825209113958321971e-01
-4.204748168532593811e-01 4.201749545208975922e-01 8.041479565263967011e-01
1.716504982639764990e-02 -1.231110788511632220e-01 9.922444372877884389e-01
-3.088089449466234482e-02 -2.445155906242847954e-01 9.691534947039436299e-01
-3.834912502655785094e-02 -1.920192456694392313e-01 9.806416031875443418e-01
-4.890937425117162785e-01 -6.397527446351176650e-01 5.928775057022461770e-01
-3.057051909520314692e-01 -4.566486018101846844e-01 8.354737522446681330e-01
4.908003342987803802e-02 2.146523378971109397e-01 -9.754565721516393895e-01
-6.640503896977492659e-02 5.979578151085782611e-01 -7.987720714634419794e-01
1.137179014248828196e-01 -6.244724665731185564e-02 9.915485768637063435e-01
-3.328498770698973264e-01 -6.348106054320802327e-01 -6.972994009502015977e-01
7.223597079301365131e-02 -8.609061625923694616e-02 9.936651198043009448e-01
-7.704360896357287380e-01 -6.335448211844105781e-01 7.105766205850377881e-02
6.083364469213498743e-02 -1.311694482202000744e-01 9.894917096808235613e-01
3.369884176454389646e-01 6.606866315502185616e-02 9.391878076943563913e-01
-1.684971962522298639e-01 -3.163380265186359064e-01 9.335625034422881940e-01
-7.111232892665381167e-01 -6.060345705754650592e-01 3.564067433847898370e-01
1.988482901683031046e-01 -4.324495966741932068e-02 9.790757023644829360e-01
-6.862399647314039175e-01 -3.960761377488397073e-01 6.100806536118019707e-01
2.930036320090140811e-01 -1.085638317634479537e-02 9.560496904313365851e-01
-5.249772068677951292e-02 -1.907880473839053959e-01 9.802264586809160685e-01
-3.953470078263983667e-01 -3.422505452243396751e-01 8.523880030223065507e-01
2.316179635031267725e-01 -9.714904022759308644e-01 5.059167192744625646e-02
-1.292002745624722393e-01 -2.576518134184377917e-01 9.575608764434626607e-01
2.227094553144669808e-01 -7.713038378247433213e-02 9.718288956452683092e-01
-5.365021917031695398e-02 -2.053806646899252186e-01 9.772105384995096733e-01
-4.131066811644731329e-01 6.246025117694239404e-01 6.627326552001199245e-01
1.793458854810027203e-01 -1.232427851977243999e-01 9.760359979312969170e-01
9.940892196865663832e-02 -1.581380657800663392e-01 9.824002332982056940e-01
-8.470504989900888571e-02 -1.973868677602334809e-01 9.766593464240285183e-01
1.253766866973150991e-02 -2.089483716432046778e-01 9.778462991963415840e-01
-9.760013305915014870e-02 6.125925922703963078e-01 -7.843497497432330157e-01
1.208708855925379709e-02 -1.808260437924625041e-01 9.834408188480521229e-01
-2.242719438614161898e-01 7.869151559551901265e-01 -5.748622726572343300e-01
2.436920443318046636e-01 -2.023627764152479136e-01 9.485059273672979963e-01
-5.766754991628781496e-02 -1.987323033625173485e-01 9.783557253304551171e-01
-8.465827804269112633e-01 -3.870108762671165548e-01 3.654041290620544946e-01
-7.135710021452593144e-02 -1.681355955690223836e-01 9.831777996637355299e-01
-2.412922020507751730e-01 1.342091585065370851e-01 9.611274499266239113e-01
-4.273413379241703947e-01 -1.013271161469888465e-01 8.983942321912550266e-01
-8.024995509159515983e-02 -1.931571842764448210e-01 9.778804870075854527e-01
1.358282762033856672e-01 -2.416513143613529258e-01 9.608097218757974955e-01
-4.458887685653151189e-02 -1.952701835375805217e-01 9.797353660462975178e-01
-2.545147077441950456e-02 -1.326456317107699567e-01 9.908366964457208104e-01
-3.585800468243106054e-01 -1.284747777853897377e-01 9.246159102527221618e-01
-2.849348420733952558e-01 -2.522579329497906531e-01 9.247583852209766420e-01
-2.267087945347136535e-01 -2.043876494737890404e-01 -9.522755962551998632e-01
2.283626369443296777e-01 -2.497296325386520743e-01 9.410024530679726995e-01
-5.298917089982967399e-01 7.469225288393592788e-01 4.016484938937041616e-01
-1.286153820516829360e-01 -8.945827122508067664e-01 4.279951570306488318e-01
-7.662046798514723922e-02 -1.465586215877403009e-01 9.862301325370457228e-01
-1.984975392186436871e-01 -8.653587565419760264e-01 4.601662193167465609e-01
2.758911858301310582e-01 5.485908474831908271e-02 -9.596220789466136658e-01
-4.330401320819218247e-01 -8.942618222519715943e-01 -1.130134384445278528e-01
-4.820007820169582846e-01 -8.739063107907883987e-01 -6.295241135234355689e-02
-5.207357981339404418e-01 -2.691862368429129293e-01 8.101685000270988368e-01
-6.056058432771180833e-01 -7.871334839179081611e-01 -1.168864452529327080e-01
-4.732113859000398604e-01 -4.641613943523069663e-01 7.487490796304765439e-01
1.166015486484148489e-01 1.488399881330958463e-01 -9.819626962290020078e-01
-4.892619716696153254e-01 -4.613896347235313389e-01 7.400961613517844651e-01
-4.281086620141804078e-01 -3.195813678903736132e-01 8.453346809434389986e-01
1.501428476645870203e-01 9.776142567756112012e-01 1.474024770627609116e-01
-3.659915367515282347e-01 -3.640439020314966689e-01 8.564591247805914964e-01
-7.644604875133692232e-03 -1.033304359663558825e-01 9.946177059651138963e-01
-5.355740537351038055e-01 -4.273000159425856537e-01 7.284058822807610856e-01
-8.261583892511841221e-01 -5.594347869147437979e-01 -6.704502263064682221e-02
-9.303179786543547269e-01 1.107645777382653962e-01 3.496278977869748394e-01
3.302253448469478214e-01 2.878837075310234500e-02 -9.434630100486698367e-01
-2.723888343900706110e-01 7.496569435637920886e-01 -6.031739300286546035e-01
-7.779231019823689142e-01 -3.003638058792176269e-01 5.519213997661990279e-01
2.556139089947004894e-01 -9.486668503547159015e-02 9.621132166220509596e-01
-1.100744004644320234e-01 6.559240884062853549e-01 -7.467578031803747685e-01
-7.609509196970002387e-01 -2.290834292018587848e-01 6.070209883335225820e-01
-5.962731846093844990e-01 -1.702169621970012481e-01 7.845281862981134946e-01
-5.906103656790446799e-01 -1.555442858286486263e-01 7.918240783775906122e-01
-6.272477052992525559e-01 -1.037849591674408906e-01 7.718736933251675314e-01
-8.574074319972532221e-01 3.548958416640690672e-01 3.726948310956668120e-01
2.412346112894071526e-01 -8.302788531702579022e-02 9.669085957709918633e-01
2.447901503802249745e-01 9.460893312137571565e-01 2.121149679780583996e-01
1.200185814098329168e-02 -1.847128532175244253e-01 9.827192464063196908e-01
-6.958161498223016661e-01 4.212628307426490026e-02 7.169834460577281243e-01
-5.656430801535407005e-01 -2.667261259890498296e-02 8.242187073899522876e-01
-3.242049778274588151e-02 -1.977335770914855073e-01 9.797195230340796090e-01
-5.532193165793645173e-01 1.884772140032770632e-02 8.328224007322787559e-01
-6.436542752823126712e-01 5.942730608119781849e-02 7.630056154463953355e-01
-6.673382650807100358e-01 1.879855183667569207e-01 7.206393583779960865e-01
3.223641278241734520e-02 2.088464437429941867e-01 -9.774169921925983662e-01
4.208615138272310818e-01 -4.977660374869209980e-01 -7.583564848431249006e-01
-5.884458137185255566e-01 -5.352847636739295201e-01 6.059717370436410455e-01
7.505875228530871635e-01 -3.104329529924030329e-01 -5.833093109437589296e-01
9.080084849793369495e-01 -3.407537638787299511e-02 -4.175637196040313248e-01
1.841023121275926766e-01 9.546041842389961785e-01 2.341734188644712944e-01
-1.960828807938357413e-02 -2.097614890057303838e-01 9.775559486641647311e-01
3.316802049541592856e-01 9.145570061398078376e-01 2.314599839327705910e-01
3.345512793333432211e-01 9.140932821031941824e-01 2.291482339234441334e-01
-4.452277282667444630e-02 -1.821098905626326592e-01 9.822696729814528460e-01
7.254743200277854465e-01 6.872853067234812041e-01 3.641315891587882519e-02
6.282713502955982188e-01 7.737869804181631839e-01 8.080110972682646997e-02
5.610654375997713439e-01 8.260992353472812466e-01 5.258923929487985260e-02
-5.313375367977887231e-01 -5.417575484855369217e-01 6.512903965579406318e-01
1.597336696417291924e-01 -9.479445418342547641e-03 -9.871146310826051096e-01
2.218809489559298298e-01 -4.797974647438471574e-02 -9.738925959358505358e-01
5.825503110700473719e-02 1.615544243600249563e-01 -9.851428928436842813e-01
2.398991431327687218e-01 -2.424662498203120076e-02 -9.704949779886262728e-01
4.050327335409264345e-02 2.048837929623022469e-01 -9.779479107953471528e-01
2.347532760724432011e-01 -2.968840868367070458e-03 -9.720504541211600902e-01
4.243338795706998179e-02 -1.813267460026879441e-01 9.825070069829331398e-01
2.449680918079275849e-01 3.484304127824357222e-02 -9.689048438677893005e-01
-1.702188612536801593e-01 6.403469277270749105e-01 -7.489868833457611341e-01
2.421535631263866950e-01 5.162307672256159080e-02 -9.688636177578822117e-01
2.024148839400806421e-01 1.715840140110395651e-01 -9.641509948630364590e-01
2.298864460161026413e-01 9.333298151134103438e-02 -9.687317360860483451e-01
3.167058607123416358e-01 1.784665916481801562e-01 -9.315831006710763029e-01
2.306925674836057261e-01 1.916854776461795196e-01 -9.539589178614443776e-01
1.244196721419609242e-01 4.480270577068187210e-01 -8.853199990662460328e-01
6.247625320769658805e-03 -1.614452474219827127e-01 9.868618947262609575e-01
2.598354913989552872e-01 9.871480122621544007e-02 -9.605940377851261980e-01
2.323624216359013173e-01 1.947891240798586832e-01 -9.529243947720622554e-01
2.713413538653614010e-01 1.490848298138184314e-01 -9.508667536526332897e-01
9.787597390062646729e-02 4.652348449865064128e-01 -8.797595312034904858e-01
2.954816507462237896e-01 8.294941171254054113e-02 -9.517405051634768576e-01
3.162325555370029129e-01 6.261322818528210210e-02 -9.466132021447588585e-01
-2.720932956493183341e-01 6.669376520005333431e-01 -6.936565481610535988e-01
1.954165274441407030e-01 1.479540620013959640e-01 -9.694957330174076571e-01
-3.291265842608573911e-01 -8.606365859398011631e-02 9.403556445314716905e-01
3.156354671812408030e-01 8.668023692884166409e-02 -9.449131115521890445e-01
-3.254115830081254490e-01 7.897125990986280097e-01 -5.200589509555963996e-01
3.169480476665906266e-01 1.012292206391917498e-01 -9.430252276419323065e-01
3.145812350282952696e-01 1.320214639285571534e-01 -9.400047763869251449e-01
2.381933113089741982e-01 -7.827493410611234548e-02 9.680583562669916597e-01
3.919722375633554190e-01 9.047824519172931179e-01 -1.665127012636197779e-01
3.034296787648838034e-01 1.555354453155997629e-01 -9.400740158599840690e-01
-3.441132135370404688e-02 -1.910703626110480946e-01 9.809729749052084058e-01
-6.129509521212499201e-02 -1.817897938574926653e-01 9.814251790901774575e-01
3.219258243809516307e-01 1.793317663280402929e-01 -9.296256672351026484e-01
-2.435992174124987919e-01 -3.111193463951468785e-01 9.186207996636451822e-01
5.722393510019906371e-01 4.608935162748838410e-01 -6.783209357086025237e-01
6.248148790244096862e-01 5.230552692651749824e-01 -5.796719350146664063e-01
-2.828098277725858423e-01 -4.782944615576555925e-01 8.314162671962298523e-01
1.512364248673431777e-01 9.669666762529979254e-01 -2.051901333143832662e-01
9.869052478196894962e-02 9.555620931958650477e-01 -2.777791683431218295e-01
3.202438607735401122e-01 2.483421342857358716e-01 -9.142046018125609130e-01
-2.991295128625183208e-01 5.794548801268388505e-02 9.524514974284016278e-01
1.673918051948345143e-01 9.842788931976290678e-01 5.634752842197179867e-02
-4.032268139144010166e-02 -1.978463281344051972e-01 9.794033448018939492e-01
3.113693339718364705e-01 2.750183889522831437e-01 -9.096230118021563227e-01
3.482447080449045385e-01 2.414384917173459100e-01 -9.057776095907715819e-01
2.772918649144380243e-01 2.624851680778372831e-01 -9.242352288197104304e-01
2.576041978097551866e-01 8.030516087830406047e-01 -5.373529481651356798e-01
6.875578701514113711e-02 2.458852343417607667e-01 -9.668573282985583051e-01
3.105030828669432252e-01 3.103836904194137158e-01 -8.984708121312288132e-01
2.753090818895513880e-01 1.930417270520441986e-01 -9.417748144041103719e-01
1.489797654592574516e-01 9.582099779701358511e-01 -2.442102938087922781e-01
3.412602192603000906e-01 2.957137175556582842e-01 -8.922414807661792624e-01
3.039307020746886620e-02 2.037108444038809030e-01 -9.785592231212283387e-01
-5.810670058900080370e-02 -1.823047828191156072e-01 9.815236000769086422e-01
2.992878533983821532e-01 3.680231846729516976e-01 -8.803327304782930796e-01
1.524522965586323775e-01 3.840136900988392332e-01 -9.106545904406738723e-01
-4.438598599641603581e-02 -1.865945787696959290e-01 9.814338222319860527e-01
3.320365764726103397e-02 2.009653163920920027e-01 -9.790354736812501013e-01
1.326229284893827576e-01 3.185772154884262686e-01 -9.385732345483440708e-01
2.535186307529470051e-01 3.546563284457004972e-01 -8.999706620521396028e-01
-2.555582000241980456e-01 2.414495209992591207e-01 -9.361581785198590522e-01
1.088699752693233352e-01 4.734027603370063453e-01 -8.740921890682697981e-01
3.819708836837580890e-01 6.238615490376286932e-01 -6.818320993105408956e-01
-3.041063648615225934e-01 9.514443675140878964e-01 -4.767530153473157478e-02
-3.083386481816928759e-01 -7.069397253183277996e-02 9.486462144999867618e-01
-1.904491465955485685e-01 -4.931592052454544794e-01 8.488363333662731769e-01
-2.113809378066999201e-01 6.448721071351399825e-01 -7.344780899189877754e-01
-3.894169264639877892e-01 7.917847819647926277e-01 -4.705648907773580247e-01
1.646824828201746416e-01 4.874662868072122124e-01 -8.574708736036295020e-01
-5.873709393216769437e-01 2.708707209448945052e-01 7.626430568589502856e-01
1.823228994708003814e-01 4.536833809910269522e-01 -8.723128739971175438e-01
5.011616206359910397e-02 -1.500380452395811137e-01 -9.874092136904032424e-01
8.438815122796608503e-02 4.450340798861912028e-01 -8.915286353629799931e-01
-9.751303571033470563e-02 9.578782499639340031e-01 -2.701119510732288287e-01
1.483153927546802531e-01 4.728996386834755095e-01 -8.685438826018310188e-01
1.217532558215436572e-01 5.064380859920478706e-01 -8.536372823123207221e-01
8.130631875360538885e-02 6.860081634606058909e-01 -7.230367087473108523e-01
1.831817557547546771e-01 8.771783388150360405e-01 -4.438497564179791355e-01
-3.588105490701803263e-02 -1.878658675839324499e-01 9.815390800654327785e-01
-6.011200585630645937e-02 -2.081462920609957190e-01 9.762487735475983142e-01
8.521413052103848917e-02 4.950038700821460802e-01 -8.647020993170082548e-01
-3.885368141544587317e-02 -1.995948842089970421e-01 9.791078968316331288e-01
1.033212166257071185e-01 4.713767354828590772e-01 -8.758588353384957337e-01
4.943148474598968445e-01 5.785878352332851637e-01 -6.487595459804501585e-01
1.424605626987197893e-01 -8.585002387392036693e-01 4.926279815035827792e-01
4.216576505578305545e-01 -7.523343081504645369e-01 5.061599692842296827e-01
3.319579055406128854e-01 -6.794746446639615689e-01 6.543073866371009739e-01
8.376420208198838147e-01 -3.855097538094260368e-01 3.869600427364265349e-01
-3.135139077480122438e-01 -5.203652113954223418e-02 9.481567539791428967e-01
1.293255527908229174e-01 4.227532999266817026e-01 -8.969696476450298439e-01
1.718233323706651605e-01 -3.366132012345749991e-01 9.258338377957739951e-01
1.730331950726014534e-01 -2.760516888468773078e-01 9.454390400696143226e-01
2.094545941326220739e-01 -2.390676062498945376e-01 9.481431604133859770e-01
2.650892612088003863e-01 -2.636166257186918216e-01 9.274879827989490622e-01
-2.352820610682472557e-01 2.089726030717629357e-01 -9.491958717276899327e-01
3.040383131583449527e-01 -2.427865631117192766e-03 9.526567113080689486e-01
4.291151125078101480e-01 1.767148726179105416e-03 9.032480818705285186e-01
-4.940789465676296427e-02 -2.113363086537381197e-01 9.761638308143761877e-01
4.046428665434291527e-02 -4.335219561993217119e-01 9.002340556758938739e-01
4.203789702430185682e-02 -4.257823156881327953e-01 9.038485685450994289e-01
-4.169655710328306480e-02 -2.443435915688448035e-01 9.687918281989015279e-01
5.476815876992297688e-02 2.122081046656448255e-01 -9.756885615293268144e-01
5.095029705715928281e-02 -4.484522352932020506e-01 8.923534388852423227e-01
5.428867042072482024e-02 -4.489201270815411093e-01 8.919212183623860257e-01
5.545641342695141196e-01 6.052718211039592733e-01 -5.710557271925403855e-01
7.938184767505686301e-02 -4.355929282910479539e-01 8.966366728405235076e-01
9.904147060729540097e-02 -4.372473840302642523e-01 8.938710825721093434e-01
-4.540609277845217284e-02 -2.002919642487384078e-01 9.786835115582445122e-01
5.333924974488010173e-01 6.334867700400573787e-01 -5.605238227315111343e-01
1.055577583890332932e-01 -4.280733615080017929e-01 8.975582191764064355e-01
-4.078432453668060648e-02 -1.955598690845413434e-01 9.798433428235983067e-01
3.153937544479151200e-01 3.980820447214930002e-01 -8.614275740453188890e-01
1.331114915912105789e-01 -4.042782310112982280e-01 9.048980289163737201e-01
2.956024670689165190e-01 4.136046719426209606e-01 -8.611331818075570466e-01
-4.968800896336485196e-02 -2.244612165476535526e-01 9.732154252945254269e-01
1.109843869812011941e-01 -4.400382353254432832e-01 8.910941685916683452e-01
-6.893401981910871057e-02 -1.939717200350993265e-01 9.785821747498795187e-01
1.930428391340555322e-03 -2.019108444835546745e-01 9.794020034317695300e-01
4.791204729902798776e-01 3.628770778959949372e-01 -7.992270007321040648e-01
-4.593822930426114809e-02 -2.140128772041197946e-01 9.757500537941072860e-01
4.206225933042416765e-01 -9.032091845269752950e-01 -8.538034310150578732e-02
1.367418917620997487e-01 -4.219415702411684621e-01 8.962516199928116656e-01
-3.829387244462478107e-02 -1.920315242954692414e-01 9.806413579948346504e-01
-5.501024831855967981e-03 -2.054365485581488848e-01 9.786549766093843861e-01
5.586948838103347192e-01 -8.181928045905211277e-01 -1.357223685339083719e-01
1.503525324259304408e-01 -3.988833064329191380e-01 9.045917442925573981e-01
5.799322664283563800e-01 -8.070651956355757717e-01 -1.110150275817633758e-01
5.431959735667245548e-01 -8.286306136143924972e-01 1.353123811110193697e-01
1.740802824473934862e-01 -4.145272626428976870e-01 8.932318869077737755e-01
1.735365805197899569e-01 -3.814292300673359226e-01 9.079629935585136202e-01
6.565141874179263315e-01 -7.513766068829542677e-01 -6.650049885556051643e-02
-2.389466727008813518e-01 1.983115565936780511e-01 -9.505666805261850927e-01
2.056846375070605637e-01 -4.069451427186409620e-01 8.899940902676229948e-01
1.738832512567771993e-01 4.774552545395631675e-01 -8.612787555982867049e-01
1.877652659514831013e-01 4.255597429372974250e-01 -8.852361888746471674e-01
7.094488802918018644e-01 -7.041776825237434645e-01 -2.856707349726866560e-02
6.379485576035658356e-01 -7.241622364687237967e-01 2.619364295476029336e-01
1.845713363071060376e-01 -3.310425736903573335e-01 9.253886946674211300e-01
2.155002106214898017e-01 -3.395530711003345581e-01 9.155672400913132947e-01
9.298295204389243063e-01 6.529076467045330512e-02 3.621521489223383239e-01
7.310144839250417581e-01 -6.299041319320195509e-01 2.623711281120194583e-01
8.041231686128946787e-01 3.380039700570532935e-01 4.890186560097976587e-01
7.427240137299980782e-01 -5.937384584724514358e-01 3.095733876798176798e-01
3.487524675571337385e-01 8.758178007955845779e-01 3.336388709104441408e-01
2.010083519446119460e-01 -3.131230108433544213e-01 9.281969739925376439e-01
3.606149970951445516e-01 -3.946457179442904306e-01 8.451103958526984261e-01
4.962367772916117525e-01 8.681871871307194066e-01 -2.626124224531586763e-04
7.858617999569196266e-01 -5.451758812604629023e-01 2.918980812892544296e-01
2.726535358316351521e-01 -3.139247885310714192e-01 9.094565831001659717e-01
8.717475955698101853e-01 -4.478423174381840344e-01 1.987294349859915210e-01
8.478853440372359218e-01 -4.375753600892800521e-01 2.993630698827014491e-01
3.221064260296397919e-01 -3.351904825013590772e-01 8.853783319863426371e-01
6.666019600536731149e-01 -6.873308934179643837e-01 2.884754232267701668e-01
6.843910139477875632e-01 6.086698571246389466e-01 -4.014099463832341841e-01
9.189608005465115248e-01 -3.603243171734792916e-01 1.602417970205673170e-01
-3.589676312809063630e-01 -8.511311565064959561e-01 -3.830378494567997505e-01
4.364445917502116634e-01 -3.096046114343163902e-01 8.447846488369666895e-01
9.387103294342314941e-01 -2.820060013858406434e-01 1.982310081592830453e-01
1.451365258211227416e-01 4.201488186050940099e-01 -8.957736092882612189e-01
3.621734093430751256e-01 -2.724182433984492224e-01 8.914138894074494779e-01
-2.792607381869259553e-02 -2.130971569766813845e-01 9.766318324166629594e-01
4.937492198891542117e-01 -2.927256690061501021e-01 8.188549264453096610e-01
7.862654684362354596e-01 4.281862206325622866e-01 4.454696101926034491e-01
-2.901177254359622593e-01 -5.432822414414889556e-01 7.878300016641757164e-01
4.004257063547426165e-01 -2.650955812081602914e-01 8.771451342361841208e-01
6.490636818361961158e-01 6.583868718459535696e-01 -3.811076801930671221e-01
8.828766306478118553e-01 -2.308385138103229428e-01 4.089528525365836997e-01
9.059499048898338458e-01 -1.552593454606399637e-01 3.938899662053282347e-01
-2.367294153776852705e-01 -5.215900312880652478e-01 8.196969093243272608e-01
3.646217738051536483e-01 -2.223037233663813783e-01 9.042300684254128695e-01
7.380295559945324602e-01 -1.491155962525794743e-01 6.580857948875292740e-01
4.542413174795116304e-01 -2.193446992100937798e-01 8.634539526940105958e-01
3.256125432082629945e-01 -2.176412106963468984e-01 9.201134577388134783e-01
-1.504592214590425893e-02 -2.658946970903236506e-01 9.638846561108981303e-01
7.127077279953907274e-01 5.556125151557167463e-01 -4.281850388068064173e-01
3.934801735585385929e-01 -1.770092578073678979e-01 9.021314070947907826e-01
-1.362194929459619730e-01 -5.327714839171996397e-01 8.352237997484326382e-01
-4.352048323123275386e-01 -5.093999518651033398e-01 7.423667846636385903e-01
5.311096069765308680e-01 -1.775128820136177288e-01 8.284997055500106233e-01
7.845028652005038294e-01 -1.940640038807202317e-01 5.889774332603787688e-01
7.537763770968636257e-01 5.081283832626938279e-01 -4.166853962566576253e-01
7.642742828969474322e-01 5.224634139826707102e-01 -3.780433858063504404e-01
-2.831421382083345040e-01 -2.073676080365357416e-02 9.588537512687659303e-01
4.131047215675603401e-01 -1.550469414216494035e-01 8.973878397740744361e-01
9.513513817250796034e-01 1.026502970469187342e-01 2.905055335203810540e-01
-3.955234033154596957e-02 -2.190737691082514094e-01 9.749063011710419335e-01
4.381238126894556051e-01 -8.196400683436834422e-02 8.951700544243592628e-01
6.320135383648962657e-01 7.176090904194988296e-01 -2.925680786941449174e-01
-4.663568480404441802e-02 -2.054325676748833540e-01 9.775594984661355458e-01
-2.846646859574215593e-01 -9.725173053426119582e-03 9.585778203035179024e-01
2.589626068998230890e-01 -1.754500867385619667e-01 9.498187381237952476e-01
1.305035195988543395e-01 2.863095164867444087e-01 -9.492079288235207857e-01
4.625739210300663928e-01 3.164638958661422641e-01 -8.281762917375100619e-01
7.246176246898727857e-01 4.672891831255069905e-01 -5.065275089496156236e-01
7.699967827005395060e-01 2.580950240396729933e-01 5.835168491112990852e-01
8.898034553932470114e-01 3.206116538701360708e-01 3.247429416829473170e-01
2.157469498071595826e-01 -6.944286926886235334e-02 9.739768691075854079e-01
2.949332176790049886e-01 2.750022171512993552e-01 -9.150891637820754987e-01
8.617422942422523491e-01 4.235492042183100492e-01 2.792960614117852014e-01
9.382004716656050514e-01 1.671405131209936501e-01 3.030576246196210466e-01
-2.739982151586670689e-01 9.124488993796249503e-02 9.573919511621526990e-01
7.573699592457338037e-01 4.672387783769604286e-01 4.561564082778200024e-01
2.379079434126307180e-01 -1.905288607103145654e-02 9.711008176258203450e-01
-3.416433813131470459e-02 -1.616144409378149072e-01 9.862624247533749999e-01
8.420490816621472030e-01 5.084624597394842294e-01 1.800535228969658286e-01
7.373562558583882653e-01 6.499839982012589612e-01 1.839199663679970675e-01
-2.862467492746733067e-01 -2.776029179163376145e-02 9.577537077606776972e-01
7.676951102641018654e-01 4.725712081421540867e-01 4.328055809617676886e-01
5.833453362732716752e-01 7.388798216024993204e-01 3.372904206716857423e-01
-3.113060931965088915e-02 -2.049980294135327341e-01 9.782671890132857984e-01
6.392682319215345910e-01 6.011859707921987095e-01 4.794909344070612534e-01
1.262478833695360736e-01 4.952864343553262660e-01 -8.595073122948396760e-01
-5.652823690194599265e-02 -2.053757176325557710e-01 9.770493196557020754e-01
1.153456895117483116e-01 -3.736233027975755516e-01 9.203808991486570612e-01
1.091611608012501566e-01 9.803337233887136071e-01 1.644069090985677273e-01
4.333986154230046739e-01 7.804876533931679461e-01 4.505603877952972236e-01
9.209216196306599378e-02 5.441279417910042937e-02 9.942626823604471253e-01
-2.847601673244933851e-01 -9.993813577289508560e-03 9.585466972430236599e-01
1.024871217182681676e-01 -5.403017932895497477e-01 8.352067780196718028e-01
-1.650197563150697655e-01 -3.364954794397346238e-01 9.271134085657148916e-01
8.462576376083783339e-03 -2.299984511469515824e-01 9.731542001507687001e-01
-2.432005258146527904e-01 1.025905044828826218e-01 9.645354802356541635e-01
-2.886526284189779856e-01 -1.159813487503799992e-02 9.573636421831757115e-01
2.032928888556685965e-01 -5.124927827990893858e-01 8.342800182909585471e-01
2.744210901200216379e-01 -4.989822240550161325e-01 8.220156965499190171e-01
4.156951233713150340e-01 -6.378589073199100179e-01 6.483313803588081070e-01
2.896761747162878153e-01 -4.438163789283022798e-01 8.480063299272644350e-01
3.536021855060834107e-01 -4.779538047105294507e-01 8.040681904963348225e-01
3.160819507314626686e-01 -4.267858755499852053e-01 8.473169518266620015e-01
1.568086363582234244e-01 9.698429467006689508e-01 1.865896843301843300e-01
6.220675649724650980e-02 1.660786757264249291e-01 9.841484608101814802e-01
-2.799642595253953314e-01 -1.823549840452357712e-02 9.598372153580708721e-01
-6.169608292284205209e-02 -2.319051763049833903e-01 9.707798836785465069e-01
5.981900249168825567e-01 7.381744562092811268e-01 -3.118768447481661821e-01
-1.879612284970864355e-01 -5.517596167348689518e-01 8.125465536955137624e-01
2.318273327525935679e-01 -7.200784228471527326e-01 6.540207586451484145e-01
1.257829391321240581e-02 -2.155806546069720941e-01 9.764050224581304338e-01
2.754880051256888840e-01 -6.185055347390304714e-01 7.359057429651262305e-01
-4.963366170855480070e-02 -2.043435821460717339e-01 9.776401178660337754e-01
-8.772462075547252103e-02 -9.034090950340638304e-02 9.920397728838324936e-01
1.572889803463693031e-02 4.691383495483981703e-01 -8.829846039142590364e-01
1.896103212073448618e-01 -5.615952306935756422e-01 8.053935205561794097e-01
6.308067785310956799e-01 6.454497203687478146e-01 4.306709493744920736e-01
2.757334801653638090e-01 -4.043670332578501725e-01 8.720426310279455473e-01
3.799272727930786409e-01 -4.959291022808156035e-01 7.808390313623915224e-01
-1.469861282097617017e-01 1.688721839246003220e-02 9.889943882393210650e-01
-2.560244528729178071e-01 1.211488396796612729e-02 9.665943870712088160e-01
1.990852996512130491e-01 -3.553681643685392966e-01 9.132789887083362368e-01
-2.258957703505501402e-01 7.125101120611324057e-02 9.715422761464566070e-01
2.510083027356005414e-01 -4.624506678776510449e-01 8.503729838943070440e-01
1.891951048893039944e-01 -3.121765454071063761e-01 9.309946384290351817e-01
7.806507953239998077e-03 -2.070067301477639676e-01 9.783083727062275026e-01
8.082356482181092538e-02 2.659191697387852105e-01 -9.606011381082836253e-01
-1.401808011609642357e-01 4.002953655527147214e-01 -9.056008852153848432e-01
1.938488047954130267e-02 -2.075508877422589382e-01 9.780321341378278577e-01
1.990817140805687391e-01 -3.224630538305577887e-01 9.254102063587873461e-01
-2.448157065232214186e-02 -1.763686453195835446e-01 9.840196916965281426e-01
-1.986964541944409579e-02 -2.550688365076368980e-01 9.667187211560278604e-01
-2.553941589349838504e-01 2.216410357016991919e-02 9.665829380321292463e-01
-5.165366222754512460e-02 -7.060331994074968698e-01 7.062924468751570206e-01
-4.471655807854078152e-02 -1.983936966458517137e-01 9.791018182828599148e-01
-3.153704015863207505e-02 -1.396141596623239889e-01 9.897036432790453642e-01
8.273627879321102108e-02 -8.436923238384226309e-01 5.304130191346874135e-01
1.602842491034947303e-01 -9.337204076055779511e-01 3.201174158183247576e-01
-4.282614601094483081e-02 -2.059227926026409583e-01 9.776306688645661769e-01
3.913428962383769250e-01 2.613306748521723386e-02 -9.198737958804850123e-01
7.961807374853026656e-03 -2.996166274657058870e-01 9.540264598895578096e-01
-2.555831478643321719e-01 2.193768874101720973e-02 9.665381484144642821e-01
-4.218489055272342525e-01 5.590827673119187768e-02 9.049407524796432289e-01
7.125272880267920217e-02 3.076429766517678743e-01 9.488302522343033951e-01
-5.967094430504794184e-02 9.900935137995139357e-01 1.270992224125528369e-01
-5.156988713043114680e-01 -2.286525305918140072e-01 -8.256952793793959078e-01
3.327769767182895966e-01 7.332038679851411445e-01 5.930190315140506652e-01
4.376618006493304680e-01 8.173003234141864581e-01 3.747963841867363310e-01
4.016200550338668296e-01 5.130066162528438278e-01 7.586339981014568190e-01
-3.956267580803007333e-01 -5.778388298811180102e-01 7.138499527018908886e-01
4.132080520248770233e-02 8.426329431251158852e-02 9.955864042307031037e-01
-4.840449278559937063e-02 -2.227415861632710548e-01 9.736750951275475741e-01
4.775188872960728359e-01 7.354627905350044070e-01 4.806976139050253005e-01
4.425765949446267555e-01 5.925500571572566155e-01 6.730604633836039241e-01
9.997270956817431997e-02 -4.409273408346600642e-01 8.919576993591529224e-01
-6.086183756548616541e-01 7.722645791402065196e-01 1.821842271455935691e-01
4.412051003786250924e-01 4.637070175013156131e-02 -8.962074633805989787e-01
5.279379697389797732e-01 7.261677860634176973e-01 4.404109973554685697e-01
5.536857763347711181e-01 6.804940778840372628e-01 4.799581971894172350e-01
5.621694010299150834e-01 7.016380174456865459e-01 4.378009330969417356e-01
5.742817318440394114e-01 7.138017079762795092e-01 4.008585962161183569e-01
5.939882983270717842e-01 7.012143864490670842e-01 3.943048131678942858e-01
4.274131399260759911e-01 3.857909566749728181e-01 8.176083081563821908e-01
-2.573122543541899176e-01 -6.073339166985152193e-01 7.516221905896641742e-01
4.033580251427630881e-01 2.498231507601734319e-02 -9.147011465426141408e-01
-1.033823022202261521e-01 -2.636827152959108078e-01 9.590534527552786459e-01
4.764977251589367913e-01 4.806047619628322498e-01 7.361854254853240631e-01
5.903393649795578568e-01 6.295872425270961914e-01 5.050933955246890150e-01
-9.491309367903873195e-02 -1.281872575530922792e-02 9.954030263758917307e-01
-6.147737520568959113e-02 -1.928174677260128256e-01 9.793068755387899227e-01
-6.367590730012934186e-02 -2.077348516257336020e-01 9.761104498208897917e-01
5.601042095171753221e-01 5.815541642008263956e-01 5.899813798602615567e-01
4.666917425997153535e-01 4.092965134745027433e-01 7.840122329701604276e-01
7.409146735887615076e-01 4.196703667326777687e-01 -5.243302678153519691e-01
-9.259156757463696263e-02 -1.049976442575590446e-01 9.901526631355563879e-01
4.482645312091000922e-01 4.110114012732525857e-01 7.938063605711931370e-01
6.344236920307088079e-01 6.872514343490828681e-01 3.538248789659266813e-01
4.727941861941896695e-01 3.580190587433031979e-01 8.051633443454396799e-01
3.581317271566310939e-02 -5.066930308817904072e-01 8.613823710268647682e-01
-2.660822467654140600e-02 -2.325992107092421379e-01 9.722086245024780249e-01
6.509479371912838541e-01 6.747707242556416629e-01 3.477804663202481716e-01
-1.986634841177877531e-01 -1.985384501866115092e-02 -9.798666464964281841e-01
-4.348569467277921957e-02 -1.868099228689244218e-01 9.814331597600176593e-01
1.874447548216100490e-01 -7.404725023339854273e-01 6.454184202338142384e-01
6.467273870344331099e-01 6.356378743648968266e-01 4.215544799103554396e-01
4.825843897512937519e-01 3.566903198788707874e-01 7.999276982784633283e-01
2.543897752978018234e-01 -7.914514097527185488e-01 5.557791901685131819e-01
6.635251397849983857e-01 5.527728637674295120e-01 5.041592505901812959e-01
-8.841166930036080396e-03 -5.314337203936158049e-01 8.470537377261937451e-01
5.438563691098661224e-01 4.566580163385932645e-01 7.040480849291006482e-01
6.940397143749830189e-01 6.406727117081213452e-01 3.284012048437922049e-01
5.848390979151270042e-01 4.239731460106753169e-01 6.915272959266547392e-01
9.892008823146848651e-02 -4.382655071309941031e-01 8.933857853153311934e-01
1.138585025489275149e-01 -3.039176151704733181e-02 9.930320147050683000e-01
4.198521223559992938e-02 -5.491981428044778735e-01 8.346368323370613185e-01
5.209389128810918562e-02 -6.143709795639217264e-01 7.872957042688153440e-01
