3.921839535642535068e-01 -6.172208831861266676e-01 6.820778019593140007e-01
3.725415938525964976e-01 8.287729471012625915e-01 4.175501921959261509e-01
3.780857221709740812e-01 8.301060785668321618e-01 4.098476363441045378e-01
-7.293602566144286037e-01 2.008719935547126911e-01 6.539755792662982348e-01
-8.102435983470571701e-01 9.463194442934404205e-02 5.784030657172678502e-01
-7.767871974972704319e-01 1.411264284748827424e-01 6.137466749321420778e-01
3.936655237786477746e-01 8.102156481216981065e-01 4.342557529000849459e-01
3.965563667712095897e-01 8.056949426606436759e-01 4.399985310705935571e-01
7.189590009957318451e-01 -1.039473480958529386e-02 -6.949747508906044535e-01
7.714007747880854415e-01 -5.059856952083845172e-02 -6.343347928490019605e-01
8.082444219814997055e-01 -1.074138718251311519e-01 -5.789673690937390260e-01
8.092456821440875414e-01 -9.591928340127023334e-02 -5.795868502674447198e-01
8.068492921287332420e-01 -9.328568678456018726e-02 -5.833455240528507835e-01
8.089664347319946991e-01 -9.105337916761424566e-02 -5.807603547240153263e-01
8.083128723689831929e-01 -9.262179244221921404e-02 -5.814219671868223749e-01
8.100882555586905731e-01 -9.673409002181758420e-02 -5.782728888972129555e-01
8.151686474019650408e-01 -1.043472320591212338e-01 -5.697470767405927727e-01
8.112047665106152383e-01 -9.790896998515465077e-02 -5.765072943050281173e-01
3.993285092032981543e-01 8.027072381682183178e-01 4.429422440113641724e-01
-8.179403266460815169e-01 7.650896090388913107e-02 5.701929506294414196e-01
3.955729864578185762e-01 8.094599965590499879e-01 4.339314765668252361e-01
-8.226231156965423397e-01 7.358051081060051901e-02 5.638059222379314672e-01
3.941726611893286436e-01 8.120284192133987444e-01 4.303925644812086615e-01
7.459181333394440117e-01 -1.724152641365134893e-03 -6.660354087081772345e-01
7.679698444596756435e-01 -5.774669897257133505e-02 -6.378774465039132036e-01
8.043630407665482984e-01 -9.165716091927379738e-02 -5.870256071935964215e-01
8.022198770144380875e-01 -9.203061982392229945e-02 -5.898929003961350670e-01
7.898897484463048846e-01 -1.084251107154103194e-01 -6.035877572199294105e-01
3.971849559591909551e-01 8.120177481766571725e-01 4.276345255072446783e-01
3.972103211255337829e-01 8.120209935426068171e-01 4.276048021683431233e-01
3.965364901997264768e-01 8.123060033830558080e-01 4.276888691653424335e-01
3.949080129652345894e-01 8.127251025586623712e-01 4.283988433304434240e-01
3.970640191198592794e-01 8.112591545252968439e-01 4.291838171684536074e-01
3.990978270279340601e-01 8.104595531022941168e-01 4.288079258208863931e-01
3.989475657710264134e-01 8.105441145255031232e-01 4.287879174760415579e-01
3.912434164903674794e-01 8.139357247756050517e-01 4.294615523966673343e-01
5.929282560730252394e-01 -6.349636607164544921e-01 4.952345229482293387e-01
6.072049837929630600e-01 -7.001592128665834469e-01 3.756050908800808719e-01
7.836690374421343419e-01 -6.211341896739259738e-01 -7.426854827870983666e-03
8.821501335173489444e-01 -2.069797698477739700e-01 -4.230490713960802784e-01
8.258356131183279825e-01 -8.977170623542296557e-02 -5.567194813054923141e-01
8.062197427817299200e-01 -9.765761583457596706e-02 -5.835003996729288822e-01
8.141522537982808227e-01 -9.863913049274332379e-02 -5.722118747202081801e-01
8.144958042365085804e-01 -9.723907598538834851e-02 -5.719625398421045448e-01
8.138117428223670125e-01 -9.473837432904473610e-02 -5.733542427451909784e-01
8.125361525642055271e-01 -8.951173312107307822e-02 -5.759970923622963479e-01
8.113944098573454555e-01 -8.865114499396810344e-02 -5.777370389229935510e-01
8.123543345241645008e-01 -8.863658979784201641e-02 -5.763887491344802383e-01
8.112624210836288929e-01 -9.064158144687584073e-02 -5.776135281053744741e-01
8.104049173565182063e-01 -9.185329023292927719e-02 -5.786249588444660752e-01
8.094500595178431013e-01 -9.605624857072707357e-02 -5.792786879016685875e-01
8.082293537432252428e-01 -9.476124629902513141e-02 -5.811932707350145888e-01
8.080071720387673739e-01 -9.113572384942078553e-02 -5.820813429172558839e-01
8.069865373100109096e-01 -8.896955512634110996e-02 -5.838297242013454902e-01
8.069991896960772015e-01 -9.196165686119049665e-02 -5.833484048981528725e-01
8.098237528643934535e-01 -9.244866309850470476e-02 -5.793433644980574559e-01
8.178544309080874042e-01 -8.051291216842521026e-02 -5.697646889885051857e-01
8.198655406091969189e-01 -7.743584084846014126e-02 -5.672955013691552972e-01
8.301351745000388194e-01 -6.026852020716736563e-02 -5.542953161716491772e-01
9.317528036624713739e-01 8.472739228829105629e-02 -3.530693725929085480e-01
6.471665365811026804e-01 7.457190260632642342e-01 -1.583622685391848917e-01
6.366131201641023196e-01 7.329597968747315617e-01 2.397783797598909417e-01
4.471035270981806309e-01 7.946479427486243807e-01 4.106495868033300245e-01
4.158235081209994410e-01 8.079002446841915264e-01 4.175978983821262980e-01
4.144892716030256774e-01 8.010094263533847903e-01 4.319520142550727360e-01
3.906620923916239163e-01 8.057940136594153868e-01 4.450608240666080184e-01
3.830413831846773975e-01 8.050078301002264736e-01 4.530360827189086059e-01
3.744358233160240412e-01 8.097873731932770935e-01 4.517103324414700194e-01
3.673038042777215240e-01 8.158694068100557084e-01 4.465926851108525386e-01
3.517954865004119802e-01 8.354910037563586522e-01 4.221311624603549251e-01
9.372898948832135702e-01 3.309660340921246613e-01 1.093121092429602675e-01
3.648081021203523622e-01 8.321993942699050795e-01 4.175634284802125507e-01
9.370163156761822654e-01 3.287859004459172674e-01 1.178993461584945945e-01
6.506260659529834456e-01 -2.293383215702823608e-01 7.239403680980014411e-01
9.457592543975226196e-01 1.702962848924114564e-02 3.244216769498619035e-01
4.658788839469641951e-01 -5.738182748125219002e-01 6.735647355551745985e-01
7.993026810742221988e-01 -4.043416200136291105e-01 4.445481732639491868e-01
4.058525167646433451e-01 -6.000047050315048258e-01 6.894041547422395944e-01
4.103691376782079292e-01 -5.977166248771508261e-01 6.887176541854514999e-01
3.999095940983045105e-01 -5.986486234959701447e-01 6.940404470450619590e-01
-8.323660715522496201e-01 6.252726691774275480e-02 5.506878097620033774e-01
3.873841648246618141e-01 8.158834023510095346e-01 4.292642340228686737e-01
-8.318261356452418820e-01 6.064896777770705655e-02 5.517127719792266349e-01
3.891653201483318836e-01 8.138532231322123112e-01 4.315011990610869153e-01
3.884183436923384081e-01 8.127073199174834617e-01 4.343247660862109005e-01
-8.309677501749649364e-01 6.278581328405354045e-02 5.527662614699063726e-01
3.839293119222684236e-01 8.145658130433055533e-01 4.348342438998935022e-01
-8.304616424221129556e-01 6.584723948884421696e-02 5.531704995001680558e-01
3.874711086488790146e-01 8.099025750268621371e-01 4.403679812693772067e-01
-8.302085182255329876e-01 7.001601766526222015e-02 5.530384919117860010e-01
3.877304368113425603e-01 8.087574921467092226e-01 4.422402370506907654e-01
3.903124244627641515e-01 8.076645398333610615e-01 4.419662910288115198e-01
3.941602204800506160e-01 8.060533177996155318e-01 4.414926607038328066e-01
-8.335894955763787362e-01 6.543121813086544281e-02 5.484954954770635549e-01
3.927651633774626450e-01 8.074637627240193183e-01 4.401565611514202114e-01
3.928361167168549772e-01 8.061766597770130272e-01 4.424465828024886083e-01
-8.323315234113389804e-01 6.945328773743909834e-02 5.499095161553579914e-01
3.960101189651479281e-01 8.012304273402979238e-01 4.485596816269746268e-01
4.007475575355423647e-01 7.955909707664686747e-01 4.543527290158662080e-01
-8.341935196079409698e-01 6.630246918614912666e-02 5.474716014771318084e-01
3.971368650322432137e-01 7.953852499917528629e-01 4.578696479653554530e-01
-8.369556824337688328e-01 6.585203931087380003e-02 5.432942982955216715e-01
4.497282767752913135e-01 7.286162414852150881e-01 5.165876979881400821e-01
1.000425215464296330e-01 4.632622700238572255e-01 8.805563940231058151e-01
5.311912912847699397e-01 5.138203168442524449e-01 6.736649716745637395e-01
-8.358600580532838942e-01 6.369173715673613623e-02 5.452351107266644181e-01
5.888093783832918371e-01 -1.450688763320671093e-01 7.951468650806796656e-01
-8.341453974574715158e-01 6.482717592272224660e-02 5.477215471043670458e-01
-8.335260470079521866e-01 6.624184188614894164e-02 5.484946192469233317e-01
4.575393698715153890e-01 -4.860659901673882732e-01 7.445787924861766438e-01
4.455175961041640820e-01 -5.154359205173679737e-01 7.320108492378923915e-01
4.202649226099084423e-01 -5.426573679393376093e-01 7.272553718226066888e-01
4.186188757926069259e-01 -5.410934279758367049e-01 7.293669440216575817e-01
-8.330450261136782553e-01 6.821252229113393406e-02 5.489836393463313202e-01
4.104211346943522076e-01 -5.505582395973273035e-01 7.269388674487645696e-01
3.038056251464840707e-01 -7.293420670839672049e-01 6.129945279617428078e-01
-8.340347163571659728e-01 6.688676331228721184e-02 5.476424497832758087e-01
3.808759112521004631e-01 -6.307667735290989341e-01 6.760671694732502957e-01
3.724161148539349986e-01 -6.210424540352723621e-01 6.896466542244277242e-01
3.812188111470184437e-01 -6.162462048737540332e-01 6.891391971193838728e-01
3.760273649301033583e-01 -6.134401649562878367e-01 6.944743226658025570e-01
3.787641566255268710e-01 -6.061065923407423783e-01 6.994086876618322846e-01
3.773558446933116262e-01 -6.073394406302821125e-01 6.991004007513464957e-01
3.808913142097692939e-01 -5.979269985300004198e-01 7.052695308805420060e-01
3.815086496477579359e-01 -5.964233752430562197e-01 7.062084024617837352e-01
3.814955121889054834e-01 -6.010682466112764466e-01 7.022664288540143573e-01
4.109334554751383761e-01 -5.911723087948766997e-01 6.940093633989365962e-01
4.494951942902553621e-01 -5.956047181050684314e-01 6.657395061741097075e-01
7.031442667755795073e-01 -4.214616597428140765e-01 5.726763566513506376e-01
7.031442667755795073e-01 -4.214616597428140765e-01 5.726763566513506376e-01
6.069918836675917140e-01 -6.676081406314312572e-01 4.311150933617518555e-01
8.755322426023689486e-01 -1.625466713261148888e-01 -4.549965624095051453e-01
9.168799755695018483e-01 1.900125927699978234e-01 -3.510360736284702243e-01
8.158237156991662298e-01 -1.707991636886431186e-01 -5.525027697542029825e-01
7.916081027547406945e-01 -1.085828466611967608e-01 -6.013038974295700223e-01
8.150605840674907121e-01 -1.066454422061796220e-01 -5.694760696958297563e-01
8.165209831935088536e-01 -9.406255935568418047e-02 -5.696013684430225599e-01
8.114337409569375437e-01 -9.860145595109665040e-02 -5.760668684458024602e-01
8.121587795512184016e-01 -1.002695014879266266e-01 -5.747557253905679620e-01
8.119761903142251880e-01 -9.810084217266182294e-02 -5.753876007769126444e-01
8.099516314622410285e-01 -9.663992329903844936e-02 -5.784799736519925517e-01
8.086378884610875284e-01 -9.861911111550504538e-02 -5.799819275356616899e-01
8.080054758665101700e-01 -9.601899532895820377e-02 -5.812981193034707506e-01
8.080418078410512850e-01 -9.552943672701789957e-02 -5.813282751592115938e-01
8.103415615948652562e-01 -9.182722248132874077e-02 -5.787178196352344983e-01
8.165350754600588790e-01 -7.865210700474893624e-02 -5.719128575291426708e-01
8.331072947220264924e-01 -3.635625253994552442e-02 -5.519152637698999664e-01
8.869791784942135937e-01 5.701716482056003177e-02 -4.582760956383774009e-01
8.891290916675645972e-01 4.045551189430520722e-01 -2.139733957467248870e-01
5.992305582099706207e-01 7.569956984431363001e-01 2.605383861275633040e-01
4.105318383329040199e-01 8.036918751499658731e-01 4.307470017689477570e-01
4.068412757402549706e-01 8.033589394491156277e-01 4.348500784882466386e-01
3.787965526711626896e-01 8.088504494817148061e-01 4.497489544820209018e-01
3.776227389564747461e-01 8.112193746280929041e-01 4.464573812258185170e-01
3.783641549900149670e-01 8.105523745067653163e-01 4.470407301355618923e-01
3.770895278027215358e-01 8.094398749241600299e-01 4.501228464589204781e-01
3.790249444363495424e-01 8.102030305817986555e-01 4.471142367796974715e-01
3.799767972545409767e-01 8.110620364721811137e-01 4.447426295530709228e-01
3.763875656302443362e-01 8.123956430918984895e-01 4.453602132254735335e-01
3.802113236071519853e-01 8.117548083522102553e-01 4.432758514942632400e-01
3.796988225270384598e-01 8.144162937006947933e-01 4.388107846514305854e-01
3.760920421485666743e-01 8.211141013621937601e-01 4.293325149306513322e-01
3.772800123926147720e-01 8.247805893898009222e-01 4.211849612876045756e-01
3.781729881791793813e-01 8.252809554630851085e-01 4.194002093008151189e-01
3.832637540401613863e-01 8.187230610749757220e-01 4.275528553326058412e-01
3.772578918303131079e-01 8.201897334234694581e-01 4.300759052056809528e-01
3.638261253393185735e-01 8.291384582687763016e-01 4.244525503990465576e-01
3.532600478484979600e-01 8.391815174889546425e-01 4.134993582812581114e-01
3.913846011999028707e-01 -6.006422208304382782e-01 6.971707226350457587e-01
3.969518665787660217e-01 -5.990430050205515222e-01 6.953967887153211791e-01
3.960470838979198160e-01 -5.898271553943756906e-01 7.037404593281056941e-01
4.010962324745005469e-01 -5.939284194154922369e-01 6.974029286613132594e-01
3.999908370744925112e-01 -5.964161595393691062e-01 6.959131374652705038e-01
3.978752942632208800e-01 -5.985693863483774191e-01 6.952768800567743490e-01
9.390688447607481448e-01 3.150961846633379415e-01 1.373466388752257739e-01
9.387869097616924341e-01 3.159159777076038234e-01 1.373908042379143324e-01
9.359751832849545483e-01 3.270713529752430349e-01 1.302873222444910772e-01
9.431223566877080522e-01 3.112154833949927202e-01 1.168980034519182948e-01
9.355549862174045161e-01 3.335278461137180517e-01 1.161724736350922965e-01
9.353285888835868311e-01 3.352560453548516506e-01 1.129770546175815904e-01
9.367591597455139363e-01 3.326117599083110443e-01 1.088654849048807244e-01
9.393224052981100636e-01 3.273957271942454228e-01 1.023985191295488234e-01
9.382758179390831010e-01 3.307246356244564200e-01 1.012902012132230328e-01
9.383754728803480605e-01 3.302063940770791906e-01 1.020549323021470861e-01
9.411347096578429605e-01 3.229150276317794277e-01 9.995670666250897063e-02
9.387136993167438659e-01 3.294537299355905224e-01 1.013747036819387937e-01
9.398696122687060228e-01 3.257914316475122862e-01 1.024941705607536474e-01
9.396761670382882681e-01 3.264954367338917529e-01 1.020266185472028242e-01
9.392303571151577879e-01 3.277608628317151829e-01 1.020742527239002079e-01
9.397146979966113367e-01 3.267966902865985790e-01 1.006986076709231598e-01
9.412772405719470603e-01 3.218581856226450100e-01 1.020022780576976124e-01
9.420476250390557027e-01 3.181190475095180825e-01 1.065201566367211805e-01
9.457054529241326613e-01 3.025900030504565796e-01 1.186612251895529102e-01
9.547913190395805882e-01 2.021257075141323079e-01 2.179879250063393448e-01
7.577335753505722860e-01 -1.109359451425475512e-01 6.430653503818786199e-01
6.047533167419322231e-01 -3.651536547382792652e-01 7.077684892116277160e-01
4.262282739303253631e-01 -5.884055756317830843e-01 6.871014023183228403e-01
3.746082234025952529e-01 -6.159027243798491646e-01 6.930602521142233963e-01
3.704849532248308819e-01 -6.165250667306494403e-01 6.947213409178986110e-01
3.845356209594605335e-01 -6.088875698798353886e-01 6.938215069159723303e-01
3.833262047311591370e-01 -6.081814368813927008e-01 6.951088839881777171e-01
3.838925847387235080e-01 -6.073360295103419348e-01 6.955353554214442902e-01
3.866072553714962057e-01 -6.070415381133767996e-01 6.942876933224904068e-01
3.965924736188196631e-01 -6.010721355685552103e-01 6.938491894583160846e-01
3.970968754668913192e-01 -6.010006526316822306e-01 6.936225825553289370e-01
3.935613820645587624e-01 -6.029720106359643950e-01 6.939266480955007532e-01
4.085993250655431952e-01 -5.954831293525369995e-01 6.916982248151952728e-01
4.015131090722632856e-01 -5.989107839368172925e-01 6.928875061128693114e-01
4.023497338907902066e-01 -5.970062337307303624e-01 6.940448461912667177e-01
3.951066999186376161e-01 -5.862087347114804947e-01 7.072835464135787120e-01
4.022289439184868476e-01 -5.986958366492770578e-01 6.926580482843183173e-01
4.046014147014992401e-01 -5.987042997918342602e-01 6.912675723859141863e-01
4.096098066137081051e-01 -5.931457868293205093e-01 6.931074100689638140e-01
4.071778952590169864e-01 -5.942134648191736979e-01 6.936256337823952789e-01
4.095210634357204782e-01 -5.933404454175568166e-01 6.929932282743980210e-01
4.086351244658095738e-01 -5.949867976152517501e-01 6.921040714490558354e-01
4.329682969030054784e-01 -5.985529514068956836e-01 6.739976396390460200e-01
4.571736472233468573e-01 -5.986775729643918353e-01 6.577061805350228330e-01
5.156229155540270614e-01 -5.858442622877234607e-01 6.252355630481345461e-01
6.656092829268223099e-01 -5.361488207187387056e-01 5.191422969895124195e-01
9.785928898609000948e-01 -2.057943107249410597e-01 2.158144327603602527e-03
9.673336827829291940e-01 -2.533122203165541486e-01 -9.922962859599598548e-03
9.911955834310641755e-01 5.236343710997151679e-02 1.216116188560227435e-01
8.157580907536094994e-01 4.662203091202271055e-01 3.423117887743067911e-01
7.646242979023663011e-01 5.600363562803737372e-01 3.189184264063708585e-01
5.391380373682628235e-01 7.289331900958154753e-01 4.218845589014077468e-01
4.639998371707246827e-01 7.776974606744497809e-01 4.241353684450915318e-01
4.465567112373224345e-01 7.889119385454096411e-01 4.221434079426450436e-01
4.160352390782031673e-01 8.023337360480963243e-01 4.279897847428674740e-01
3.990929988082912439e-01 7.999709019810007371e-01 4.480751435707066022e-01
3.864007016829230090e-01 8.040032350101183889e-01 4.519660339364112711e-01
3.876019838703473330e-01 8.011704164092684488e-01 4.559502889245389268e-01
3.867005846869289720e-01 8.034645317641138096e-01 4.526669901813699104e-01
3.877925060700587734e-01 8.047677072907218898e-01 4.494061743433643841e-01
3.767794566703311920e-01 8.115927342437575520e-01 4.464912930326318530e-01
3.727351033426116733e-01 8.138117652450320705e-01 4.458463339368592404e-01
3.771783996965194508e-01 8.113813970933798636e-01 4.465385574092879950e-01
3.840544078714565046e-01 8.066764232039849158e-01 4.491941228926868424e-01
3.858269712595144840e-01 8.056818485500725213e-01 4.494600173159428169e-01
3.848023185119245348e-01 8.073143239152019701e-01 4.474044680925613471e-01
3.894565504058761229e-01 8.068562315890850378e-01 4.441920945850073021e-01
3.885007864613234663e-01 8.071626402991862737e-01 4.444722837525189596e-01
3.866623924561102821e-01 8.082406592697929382e-01 4.441162358698987900e-01
3.921948591134260531e-01 8.060474920866351756e-01 4.432500795102530811e-01
4.004352590710897886e-01 8.027932771902702713e-01 4.417856464290970120e-01
4.020963985449260147e-01 8.002612021493636929e-01 4.448600843092750390e-01
3.918345326655071625e-01 8.091717808616216701e-01 4.378432688394732208e-01
3.825640948819938880e-01 8.168196594932065624e-01 4.317989777344577451e-01
3.684824317119876347e-01 8.251714851861609024e-01 4.281503445698552901e-01
3.662172526927385263e-01 8.270635615717573108e-01 4.264396662488410539e-01
3.643593794322863566e-01 8.295509192241262708e-01 4.231873285368152326e-01
3.591046103468982786e-01 8.352519583066913000e-01 4.164109088057606489e-01
3.602000467998647260e-01 8.377133387569891676e-01 4.104781216508295860e-01
4.002356724955535294e-01 8.331945857368036057e-01 3.815733071913023911e-01
6.560695919460872716e-01 6.957300782805857509e-01 2.924591402219878788e-01
6.930658226131103383e-01 6.273430667117808612e-01 3.551062406861795195e-01
9.244610222314084691e-01 3.808198814038052937e-01 1.865573108862116775e-02
9.302291764549445174e-01 3.669620353718239802e-01 3.541732305540929056e-03
9.326590731122363920e-01 3.607363598990996900e-01 -4.041285460281028932e-03
4.222918921489137167e-01 -6.105886231689489074e-01 6.699634998131893671e-01
4.022622658214410341e-01 -5.923302401722977395e-01 6.980902205830049612e-01
4.036378495633620722e-01 -5.751107778756826550e-01 7.115645294497835449e-01
4.348533266141705877e-01 -5.193276305661277403e-01 7.356639154282075266e-01
5.070186662346062301e-01 -1.899440944898894423e-01 8.407456886943261987e-01
5.040209158381760979e-01 -3.958742587513311983e-01 7.676239233216551883e-01
3.996475161232073692e-01 7.266540645842478607e-01 5.587984728681193447e-01
4.096726794119646686e-01 7.777396803803166003e-01 4.767486605176195491e-01
3.822423285992304631e-01 8.133140816785623395e-01 4.386467904480719771e-01
3.925420627940099383e-01 8.053464391221270002e-01 4.442159856767130544e-01
3.928266316930394964e-01 8.039560283067038737e-01 4.464772580793018864e-01
3.992569170078524299e-01 7.996675103710019217e-01 4.484704974448468495e-01
4.006015985948003233e-01 7.999335205025431828e-01 4.467938249122270222e-01
3.974259497162117571e-01 8.043748903253844507e-01 4.416261431416766969e-01
4.017304082647327190e-01 8.013445361266038347e-01 4.432376490050111695e-01
9.424533582482749194e-01 3.091724425674310384e-01 1.272559164967886902e-01
9.412377755743555063e-01 3.129837063715322221e-01 1.269356111490300143e-01
9.397554722476850753e-01 3.167204117312699685e-01 1.286383814159100525e-01
9.428772840648960152e-01 3.078072976182618103e-01 1.274248591419593901e-01
9.401877872895423316e-01 3.190143386434046713e-01 1.194854651056166117e-01
9.377408945019941600e-01 3.267179358777572151e-01 1.178872561152291276e-01
9.399338147205692495e-01 3.237088702759736702e-01 1.083373954343166135e-01
9.401057776524767151e-01 3.236467038998588897e-01 1.070230717144162041e-01
9.401618196263610283e-01 3.234579438474191604e-01 1.071014074550360740e-01
9.397683426514626959e-01 3.241312060062624401e-01 1.085100154043339565e-01
9.383128574084454998e-01 3.280505223216554911e-01 1.093244548419378542e-01
9.391555535658829834e-01 3.264093005650801627e-01 1.069757669333354783e-01
9.393630434021140729e-01 3.265484294772811880e-01 1.047052811286934976e-01
9.401504190630808333e-01 3.248244197491625962e-01 1.029868237695166222e-01
9.401246379718043444e-01 3.247275288016229222e-01 1.035263112294414894e-01
9.405467582362085910e-01 3.224906639589282809e-01 1.066375507534215172e-01
9.412391362263952121e-01 3.209856974144433828e-01 1.050574628056136911e-01
9.409237774303610413e-01 3.215027293533614938e-01 1.062941206488844242e-01
9.392756114536768841e-01 3.262452548088786153e-01 1.064206720661502736e-01
9.418633065500376933e-01 3.179193026551314638e-01 1.087236348449810569e-01
9.401835353351079005e-01 3.212632584026519633e-01 1.133350726178297130e-01
9.404473402581087216e-01 3.161969489307326908e-01 1.248130189056603917e-01
9.419145373423537526e-01 3.035947152162890572e-01 1.436219107096129988e-01
9.636912830694487342e-01 1.706908333602648042e-01 2.053381366009192355e-01
5.738911411794140882e-01 -4.221479817241775567e-01 7.017407210658316297e-01
9.244025767168597696e-01 -1.249648276356024046e-01 3.603660195041070158e-01
3.982729444254909934e-01 -6.006886315870462179e-01 6.932184573572255371e-01
3.725059825659867707e-01 -6.154762843929342253e-01 6.945705409117325368e-01
3.850114897358768440e-01 -6.123433624814567100e-01 6.905083339079001181e-01
3.859247881641734712e-01 -6.054352051711394678e-01 6.960677195645681437e-01
3.919741783325379481e-01 -5.989180462534712257e-01 6.983218580228293115e-01
3.914012805532827155e-01 -6.007891093665763682e-01 6.970347793674046555e-01
3.946175004875605019e-01 -5.974943646861826663e-01 6.980526573813791158e-01
3.946150047313279341e-01 -5.985806507282984690e-01 6.971228031090223043e-01
3.977874224890056154e-01 -5.974671353335817559e-01 6.962745067183178094e-01
3.956210189718342707e-01 -5.982644931524851994e-01 6.968239415954989857e-01
3.979249598872448002e-01 -5.954576524534195281e-01 6.979154034934299533e-01
3.990861637267315021e-01 -5.924463884116022427e-01 6.998124825836771201e-01
3.991204309492473734e-01 -5.914526935481457803e-01 7.006329944368379081e-01
3.992279968519212852e-01 -5.903947139776953845e-01 7.014635330769500854e-01
3.970621158618261037e-01 -5.917283416139420549e-01 7.015691312181170369e-01
4.065269636869828784e-01 -5.917803940163098853e-01 6.960831796943118821e-01
4.066622249043050363e-01 -5.902012858542210472e-01 6.973437294562161437e-01
4.071079730913059191e-01 -5.916917368616873008e-01 6.958189324638185402e-01
4.070214892515617300e-01 -5.908139685302702393e-01 6.966149308455522604e-01
4.533945434451532308e-01 -5.372326385414726291e-01 7.112063554693031087e-01
4.799237460093038199e-01 -4.950807558819867449e-01 7.242708355109418461e-01
4.238618246104893239e-01 -2.249313066009810957e-01 8.773523015007382853e-01
4.037946819386370456e-01 3.762699555614767433e-01 8.338889466708616638e-01
4.183977108811747780e-01 -5.013538489806386445e-02 9.068791533112424696e-01
4.679450548093339601e-01 7.126076611644786007e-01 5.227023502235103036e-01
4.404082032080500753e-01 7.469305359353551887e-01 4.981318992339077711e-01
3.896969490258788138e-01 7.965438118920092903e-01 4.622274804211329857e-01
3.874198021349045118e-01 7.983183247083442957e-01 4.610788970974644130e-01
3.842157525086749570e-01 7.997240825694320598e-01 4.613237987386656358e-01
3.864996583622478110e-01 8.001098902649371736e-01 4.587397710969648990e-01
3.915686486169083214e-01 7.998109729326410289e-01 4.549465913674597406e-01
3.915358906268870398e-01 7.994651849891694084e-01 4.555821159146214439e-01
3.850520489209766639e-01 8.018332500112765882e-01 4.569445905119257079e-01
3.814671577198736618e-01 8.035827540724009843e-01 4.568780635339544371e-01
3.803983249096304919e-01 8.059148293014796183e-01 4.536500879730038793e-01
3.834535900604596481e-01 8.106442603008611192e-01 4.425146636112916587e-01
3.858935751699589800e-01 8.085331049451334184e-01 4.442525935212188748e-01
3.842129034872835969e-01 8.100568067850272280e-01 4.429316138808747638e-01
3.953657876063205179e-01 8.071257189650342667e-01 4.384449426958990093e-01
3.970380767342919226e-01 8.052862812763225131e-01 4.403121288487135132e-01
3.962669401686819137e-01 8.061122684148083195e-01 4.394946220836863371e-01
3.961128873805263573e-01 8.068641061878782939e-01 4.382520902365426574e-01
4.015949113401912629e-01 8.020261298116478921e-01 4.421262424749446418e-01
3.982844270956419908e-01 8.029084417699087206e-01 4.435172479934835210e-01
3.936794595248135353e-01 8.050021937915458059e-01 4.438332469960417637e-01
3.866294651212817679e-01 8.101253321124314288e-01 4.406978590482988900e-01
3.839762453882848425e-01 8.121089005428714369e-01 4.393647421409280218e-01
3.787784117882971868e-01 8.161059773479948376e-01 4.364607067079570579e-01
3.780180421832426418e-01 8.162975777489548390e-01 4.367615188465406306e-01
3.727757780499179607e-01 8.209427042563280930e-01 4.325405132789126306e-01
3.674325067460113003e-01 8.252423785194373806e-01 4.289153409262998484e-01
3.663759716133991873e-01 8.261916227454351169e-01 4.279907124338124258e-01
3.756341375755847256e-01 8.216204796448869363e-01 4.287642500441853910e-01
5.734964400818113317e-01 7.245683182454861759e-01 3.822336790608557577e-01
9.367926129113895994e-01 3.489728501314934839e-01 2.524975773652912703e-02
9.399928002534322369e-01 3.407471486996864196e-01 1.746184768988752467e-02
9.378380820020827402e-01 3.467282509807667612e-01 1.546777031356944346e-02
9.355522245528341552e-01 3.529008213835951313e-01 1.424940002341236640e-02
9.283885738806141319e-01 3.712682853477315970e-01 1.595356332844476838e-02
9.294188314496671932e-01 3.686022207807814755e-01 1.769289637710975624e-02
9.345377138949424456e-01 3.556413454174399691e-01 1.258946931716937133e-02
9.367772747914493436e-01 3.497808490614141008e-01 1.008439706586353179e-02
9.347207984781279455e-01 3.547673271948312279e-01 2.090866919357829354e-02
9.336983002378812513e-01 3.569576953935331698e-01 2.808358652717097767e-02
9.190868957637986503e-01 3.811394996064045859e-01 1.000597815060776802e-01
8.630089433986132263e-01 4.607107051250384222e-01 2.072708609457658002e-01
4.032922473974354105e-01 7.990944361955670816e-01 4.458737996680389171e-01
3.996220443048305038e-01 8.038063249323331716e-01 4.406785832150281745e-01
7.691397397516556156e-01 5.184119384377001705e-01 3.737286754050611615e-01
4.035631411784082467e-01 8.036838497188510955e-01 4.372974511511626972e-01
-1.057363916790976660e-01 5.785547068084295752e-01 8.087609453382973435e-01
-1.960549859962525676e-01 5.900632968691026381e-01 7.831907482561157874e-01
3.874792056928410000e-01 8.131370752846203143e-01 4.343592544809176670e-01
3.834216839110512476e-01 8.133053553130256130e-01 4.376325071632211627e-01
3.786811872247355937e-01 8.172230367062133238e-01 4.344503040840689834e-01
9.445989589415157983e-01 3.028256359818750076e-01 1.266074285292040080e-01
9.439013285617341431e-01 3.076790446134408108e-01 1.199328455643130925e-01
9.417023750436177565e-01 3.110783326474626520e-01 1.281674989788137431e-01
9.410229406686481113e-01 3.128128047976777570e-01 1.289339919879161078e-01
9.418715437861115980e-01 3.113240391731731393e-01 1.263144395501458461e-01
9.419984132259314746e-01 3.109385248914892652e-01 1.263179449568905544e-01
9.410103969055886308e-01 3.183413114986664572e-01 1.147093819567319567e-01
9.391350233669588654e-01 3.241595804154325244e-01 1.137803775280805257e-01
9.407215089338942793e-01 3.201763700297864945e-01 1.119380842416308336e-01
9.419601821818589515e-01 3.176046155363144163e-01 1.088040595471935490e-01
9.411564116882386033e-01 3.202963872914678101e-01 1.078648831925984597e-01
9.427997892970867433e-01 3.150954481243367078e-01 1.088274591851352835e-01
9.371173399757376510e-01 3.282671871257294982e-01 1.185400564086207392e-01
9.372158889659554237e-01 3.286596716392001238e-01 1.166584660784068528e-01
9.382045348124680162e-01 3.266564551080364809e-01 1.143145274826065649e-01
9.379950293555960883e-01 3.273472079017731851e-01 1.140575748607153828e-01
9.401559824711323010e-01 3.218259362672321600e-01 1.119589003583869313e-01
9.411088913249135990e-01 3.208123230248447477e-01 1.067403769179895573e-01
9.409724605820070087e-01 3.217346865286959123e-01 1.051552181801963526e-01
9.410321688474100332e-01 3.219906758423494164e-01 1.038290030045882079e-01
9.400995510655384413e-01 3.246789115561752870e-01 1.039059116560290541e-01
9.396559146731409129e-01 3.250642666133012337e-01 1.066770106018136571e-01
9.389661506902237109e-01 3.262572474007215950e-01 1.090815125330060753e-01
9.387564115544984045e-01 3.263471318236411678e-01 1.106071847386233958e-01
9.439071218795196394e-01 3.088901113517830144e-01 1.167315054910405131e-01
9.489202062150293715e-01 -4.403813470934165274e-03 3.154854175136140304e-01
6.860633925970797131e-01 -3.890746088969589955e-01 6.147665980271402875e-01
4.963232008251725613e-01 -5.799845301674527720e-01 6.459730838735421310e-01
3.962486258962676366e-01 -5.992960679528067658e-01 6.955797937056713565e-01
4.122574733727467633e-01 -5.948922934825079389e-01 6.900340098889623519e-01
3.955499989413726047e-01 -5.983866615802375666e-01 6.967593570095333977e-01
3.902929103432299929e-01 -6.000389095800293671e-01 6.983013326106579655e-01
3.879212212218618450e-01 -5.998809217772050895e-01 6.997571048681607842e-01
4.045323150825371195e-01 -5.881587549830724626e-01 7.003019955638603022e-01
4.058971453361013282e-01 -5.885513211514216136e-01 6.991815570929486023e-01
3.934225745265452212e-01 -5.932550802855632854e-01 7.023297570004243262e-01
3.994267714944382264e-01 -5.921745801384489249e-01 6.998482127228602412e-01
3.941162151129127267e-01 -5.922032717533655122e-01 7.028283530917642796e-01
3.940081879832877387e-01 -5.916427838986388910e-01 7.033607638067356227e-01
4.005686270838322294e-01 -5.879011441581925013e-01 7.027923019595916365e-01
4.188471563317515689e-01 -5.647391046493057676e-01 7.110814322654653852e-01
4.202056074346425807e-01 -5.255064799285765753e-01 7.397771198364810896e-01
4.956922625193730947e-01 -4.147120015081581235e-01 7.630878957784105188e-01
3.988520615899005528e-01 3.240536078985861712e-01 8.578498074682978647e-01
4.615062471284789858e-01 7.096748008654676365e-01 5.323285272065984008e-01
3.826317665108827648e-01 8.061604168334262077e-01 4.513294955879989523e-01
3.861537001001988934e-01 8.050073013406007227e-01 4.503871275772086680e-01
3.895069632283567063e-01 8.031388291519159228e-01 4.508351657813676194e-01
3.909019211800959792e-01 8.026075227239580778e-01 4.505739145629949483e-01
3.922354901379994652e-01 8.029008506621628793e-01 4.488892338675307125e-01
3.945688286237413744e-01 8.008719966139641322e-01 4.504658527769348497e-01
3.954304356188410030e-01 8.025546810994234059e-01 4.466998482557348882e-01
4.034662346152521617e-01 7.967409929857043327e-01 4.499097549748659608e-01
3.970495688958092795e-01 8.041125701634405099e-01 4.424416507798492049e-01
3.963495138803633244e-01 8.063341225205582496e-01 4.390129220259936793e-01
4.022536733466239300e-01 8.065559795410837118e-01 4.331967614672004308e-01
3.991470534493890554e-01 8.087637483144197725e-01 4.319523459076015648e-01
3.911435950663392225e-01 8.136081939623748260e-01 4.301725174344151470e-01
3.826239846588915805e-01 8.161948906010804139e-01 4.329258445974817904e-01
3.807121753954285648e-01 8.137426057675923863e-01 4.391824348311864079e-01
3.892842327095416000e-01 8.137473072854015665e-01 4.315936816607742754e-01
4.082160389995405647e-01 8.047586473542630570e-01 4.309561288716780569e-01
4.397974945527509671e-01 8.000353275422720234e-01 4.080706292658816126e-01
6.209255004774778541e-01 6.926653170183426633e-01 3.669690470007960781e-01
8.045557264697444921e-01 5.661931693558732714e-01 1.792076392888786451e-01
9.273909981673422731e-01 3.671141129912396939e-01 7.192471453426735328e-02
9.384321644463892165e-01 3.375141317935510532e-01 7.368367235765756196e-02
9.437614032044910894e-01 3.228200009049888575e-01 7.142591152511112984e-02
9.438873410201996661e-01 3.224439838276382808e-01 7.146023198380115071e-02
9.463562345555340816e-01 3.164174991140014659e-01 6.549689742508123247e-02
9.474515845193199892e-01 3.134086553370385442e-01 6.411325722235046431e-02
9.435214441552428610e-01 3.246104004020282097e-01 6.629760455732941482e-02
9.314533965602624921e-01 3.530795404805594506e-01 8.791705255743989533e-02
3.813426477499858858e-01 8.172114682813884645e-01 4.321379422318842312e-01
9.099982712420017217e-01 3.949496879972705932e-01 1.261661217895948539e-01
3.932846157586562530e-01 8.135450110741939689e-01 4.283359965772845501e-01
4.998532776558154422e-01 7.818260366856354393e-01 3.726858585688082037e-01
-2.217044764578776916e-01 5.133443639350342425e-01 8.290504744191835584e-01
9.233946653943883032e-01 3.713574680676984263e-01 9.713867834973856363e-02
9.008162455307392458e-01 2.649824010316876310e-01 3.439686307374334451e-01
-2.268347129110477867e-01 5.125583401940876360e-01 8.281485138041632110e-01
-2.183080258275131233e-02 5.768023239458819340e-01 8.165920004195624804e-01
-2.272327155237585661e-01 5.033222625445001874e-01 8.336857879457846288e-01
-2.296149842330232616e-01 4.998731383536349493e-01 8.351070617400837559e-01
-2.121242422718747633e-01 4.974528824656294645e-01 8.411563086413960111e-01
-2.256825786606736217e-01 5.069003491154092655e-01 8.319371429114972294e-01
3.926942875764792285e-01 3.412319083143716125e-01 8.540210660475148208e-01
-1.765226460440222703e-02 5.277011609400364955e-01 8.492466557466529231e-01
-2.282298920623351823e-01 5.000231798196741462e-01 8.353968733555547921e-01
-2.182960762489931927e-01 5.005634261340016211e-01 8.377249426340865890e-01
-1.833707809756417173e-01 5.160342805533750798e-01 8.367100919542824755e-01
-2.100075023374149141e-01 4.959498469530699283e-01 8.425737939606401383e-01
-1.838400516077460800e-01 5.039628249301372209e-01 8.439338282787917089e-01
9.447522190317184654e-01 2.959763682370500915e-01 1.408589155142474514e-01
9.443303180776020378e-01 2.978125610853065708e-01 1.398139078177329242e-01
9.429418781213444456e-01 3.044628114439850153e-01 1.347702153022548310e-01
9.424068589839011967e-01 3.070448140751440014e-01 1.326378312912941393e-01
9.432362999565809814e-01 3.062313001106698462e-01 1.285599987427945012e-01
9.419728552016112255e-01 3.105152944807960114e-01 1.275436864640063228e-01
9.391905321228939396e-01 3.178227720010364243e-01 1.300378020742140872e-01
9.396858217307987315e-01 3.158013201858172470e-01 1.313776335873365897e-01
9.411651946572470173e-01 3.121881880071333826e-01 1.294086999958241613e-01
9.393052730027501296e-01 3.193300007479604186e-01 1.254350618110285087e-01
9.405157957514234113e-01 3.150177219066542800e-01 1.272551485277059746e-01
9.387134433588021354e-01 3.201475931921726747e-01 1.277598913224331223e-01
9.376876477905561336e-01 3.256164091843381514e-01 1.213088176964546849e-01
9.373994730707506662e-01 3.269626588600494932e-01 1.199068288207390531e-01
9.379191502942113567e-01 3.255047136000748242e-01 1.198096362381498164e-01
9.404802413296452501e-01 3.199029183343799487e-01 1.147128524171527608e-01
9.400307753803881505e-01 3.199097215592837107e-01 1.183212212141493552e-01
9.399691653341640807e-01 3.190813381887332989e-01 1.210168080916120964e-01
9.412744999723484662e-01 3.148854302799040106e-01 1.218584486166024022e-01
9.414260312241016226e-01 3.156557202179672839e-01 1.186528298327230307e-01
9.407922398324866098e-01 3.181800523623972143e-01 1.169248294830287499e-01
9.411268351538901733e-01 3.195773543436539743e-01 1.102297362054948104e-01
9.409295695152561922e-01 3.205812144042223255e-01 1.089918812708026152e-01
9.410448948085362586e-01 3.206305226268045816e-01 1.078451385777451782e-01
9.412386836892084885e-01 3.199945599135755603e-01 1.080426857900303461e-01
9.424007388853380407e-01 3.187039635178189334e-01 1.015314285647630071e-01
9.382508565804460465e-01 3.302486737323100385e-01 1.030589327720281417e-01
9.378113600696540431e-01 3.310204679808532169e-01 1.045719976955711145e-01
9.358324591568096817e-01 3.407994340672764189e-01 8.985184543425990544e-02
9.467420094881930925e-01 3.023375751194803396e-01 1.107770650501752607e-01
9.660393769894527471e-01 2.143290626879831295e-01 1.443293975360552817e-01
7.851075815853011397e-01 -7.665811749391926444e-02 6.145971187367934574e-01
3.720967997183684539e-01 -5.981562844897050368e-01 7.097556135493535701e-01
4.149717063687048402e-01 -5.904054079816836165e-01 6.922571322416456452e-01
4.069360299771364597e-01 -5.917130281185599694e-01 6.959014009622419561e-01
4.012938731892939925e-01 -5.938996710901529585e-01 6.973137084696836574e-01
4.003427554177619863e-01 -5.958258582058452157e-01 6.962163635521515515e-01
4.118924799732914810e-01 -5.814960083801642421e-01 7.015746412031921286e-01
4.432174265886654752e-01 -5.530699067957891568e-01 7.054587096102918897e-01
4.099632016059706618e-01 -5.561687273869464487e-01 7.229152924138255720e-01
4.533416085504601845e-01 -3.982366871405403352e-01 7.974264398502275419e-01
5.494198649724526540e-01 2.895182444981179645e-02 8.350446717599480095e-01
5.258486500157265597e-01 4.675967438342574223e-01 7.105184603036277524e-01
4.721115341691262679e-01 6.746138864369948251e-01 5.674564331566318565e-01
-1.691747029452176088e-01 4.741260928991749557e-01 8.640511373266980266e-01
4.026492932583573547e-01 7.911253285152388681e-01 4.604283453700485085e-01
4.021872917048790463e-01 8.002740561275484277e-01 4.447547835383630077e-01
4.083687456130534188e-01 8.015713718938773935e-01 4.367130675473182011e-01
4.089763514612566597e-01 8.005298256443063032e-01 4.380528988596411044e-01
4.058120479713617779e-01 8.022909303800980219e-01 4.377737369362463271e-01
4.025943205991990848e-01 8.041348195169950586e-01 4.373614124058488040e-01
3.921064868054964236e-01 8.094940595916632065e-01 4.370032843021433577e-01
3.871470614489382900e-01 8.123094155995850274e-01 4.362001445892841889e-01
3.871952319622030125e-01 8.145785489256098799e-01 4.319046653788120027e-01
4.031415222802491316e-01 8.008934897801472941e-01 4.427714207594485862e-01
6.312616989940971202e-01 7.111164039674552351e-01 3.095514939254551678e-01
6.918449731913746126e-01 6.555694320772131878e-01 3.026206417212586874e-01
9.335027966079414430e-01 3.415836653835774284e-01 1.090556200673420267e-01
9.224427785300978178e-01 3.593419320403795081e-01 1.413247898111296696e-01
9.122351448213338321e-01 3.734516441982319024e-01 1.684069772854952796e-01
5.890968709588642604e-02 7.082267762367260300e-01 7.035229080759198839e-01
3.349429993114939053e-01 7.609971825245125387e-01 5.556046034744264173e-01
8.182905726688706194e-01 3.682003624290198229e-01 4.413944174866626380e-01
-1.965181037363960548e-01 5.124971810105801717e-01 8.358990814446800588e-01
-6.413909741024241551e-02 5.335657345425847131e-01 8.433230597496024217e-01
1.749175321499343849e-01 7.351121725759702796e-01 6.549915653481451772e-01
1.839000899732613770e-01 4.547093651852658902e-01 8.714471585360978878e-01
-1.753954155979002283e-01 5.474126199627149525e-01 8.182761585753284272e-01
3.900417172491844608e-01 8.184382179556924930e-01 4.219316795345159909e-01
3.970213903606351069e-01 8.199768786456265168e-01 4.123250345088005919e-01
-1.066138166838151435e-01 5.367830772821360341e-01 8.369572402671657807e-01
-1.972024920308229345e-01 4.991664898985807008e-01 8.437677361093888218e-01
3.881765259200796736e-01 8.178342225406795007e-01 4.248130990987684652e-01
-1.891750666955008264e-01 4.923626190379221113e-01 8.495833364154871115e-01
-2.009686323137573338e-01 4.830452781166578169e-01 8.522199646306923837e-01
-2.069017718605069833e-01 4.774767617146143950e-01 8.539365309105284574e-01
-2.061626264208668291e-01 4.707812034200267726e-01 8.578240087416775239e-01
3.818730077689447833e-01 8.191886033578432702e-01 4.279054078486571044e-01
3.767947341290475705e-01 8.237220538733068809e-01 4.236834977850343353e-01
3.757586203820396098e-01 8.301009723626303627e-01 4.119925180039097912e-01
3.699931250767341528e-01 8.353786529712418085e-01 4.065065725863550861e-01
3.707771461937638402e-01 8.358407722414351593e-01 4.048388708106593903e-01
3.712789415056671483e-01 8.354023764335294366e-01 4.052836254324160281e-01
3.848704016888426782e-01 8.332499269049558066e-01 3.969500386909600165e-01
9.391366776169370878e-01 3.347093065901521336e-01 7.740788613933746731e-02
9.429207795981745521e-01 3.252001739697390481e-01 7.173039977598276440e-02
9.447376760663549478e-01 3.202466229319637647e-01 7.009153958514288685e-02
9.459145623540214931e-01 3.167305465213257620e-01 7.019545303580758400e-02
9.418312158043079529e-01 3.255215506469712472e-01 8.360431209555115040e-02
9.204095912825361880e-01 3.755559195026844099e-01 1.086459184765256603e-01
8.946591478835121958e-01 4.097564754610048543e-01 1.780017975362127025e-01
-2.156918855964642390e-01 5.084362543777865007e-01 8.336483585554094189e-01
9.465764461263507235e-01 2.906728708247519055e-01 1.396506849439161091e-01
9.456587143811374663e-01 2.941777547338328969e-01 1.385245268346909087e-01
9.424275456006581120e-01 3.044511614519194720e-01 1.383467078889016044e-01
9.422280312626108989e-01 3.054654910056182060e-01 1.374669811543152986e-01
9.423581683562445299e-01 3.060003012219564278e-01 1.353694876415501847e-01
9.402251054593606661e-01 3.156188766244343302e-01 1.279119845138219635e-01
9.426625387966385272e-01 3.093454733189019978e-01 1.252705715105517370e-01
9.431986896298844014e-01 3.078751697724583236e-01 1.248563643473925150e-01
9.428899160084892594e-01 3.096403193293099099e-01 1.228066730074028889e-01
9.420067315608625647e-01 3.139607500806303464e-01 1.185409849074524485e-01
9.415168524433964459e-01 3.146549315465606012e-01 1.205748341011051855e-01
9.433121341936296922e-01 3.081866057625897715e-01 1.232202642084236632e-01
9.390532083733929003e-01 3.200375957770516533e-01 1.255189592566856305e-01
9.395167579293633997e-01 3.203358990728044087e-01 1.212154005690533887e-01
9.400462982040589388e-01 3.189959768297085385e-01 1.206421319411489224e-01
9.400942266374626710e-01 3.188928064439762733e-01 1.205413748104591787e-01
9.381723772862263777e-01 3.241741648025725508e-01 1.214236442035279834e-01
9.393794376045774275e-01 3.220630633536654686e-01 1.176505649326039932e-01
9.408294968664477897e-01 3.175623671352924560e-01 1.182962417216046336e-01
9.411459767621370709e-01 3.165990063596337833e-01 1.183609715934085121e-01
9.404872242862533094e-01 3.187980737644748874e-01 1.176926893158570658e-01
9.397358021670980666e-01 3.206188135778443304e-01 1.187442567255215381e-01
9.398873534028453491e-01 3.206286341560938835e-01 1.175118797083617023e-01
9.386200226442656946e-01 3.231073385306872381e-01 1.208060465328373856e-01
9.393062350374207226e-01 3.208663921035067590e-01 1.214436298794807495e-01
9.387311725418332475e-01 3.204139204094133553e-01 1.269594632396697231e-01
9.400443505784038534e-01 3.150955569363763087e-01 1.305044403251539864e-01
9.405126108121116824e-01 3.142653772988083793e-01 1.291251390497732410e-01
9.407094732372787149e-01 3.149913844177258948e-01 1.258813516937515309e-01
9.369054797344855690e-01 3.275940762608735013e-01 1.220255843758939474e-01
9.367420458037235553e-01 3.287416604212284321e-01 1.201801161879473279e-01
9.405780512401901161e-01 3.204248416695176238e-01 1.124315363511103061e-01
9.370931736535156320e-01 3.254454095566986505e-01 1.262603235005151092e-01
9.372300144577414560e-01 3.204639366149654167e-01 1.374873278843587177e-01
-1.724470834843051525e-01 4.751151006631952889e-01 8.628601535124673649e-01
9.442031819005860527e-01 2.904958398538809439e-01 1.552176482117846590e-01
9.283398452249718158e-01 3.375824585060446248e-01 1.556380913423509871e-01
9.457035008037008028e-01 2.838549856372767910e-01 1.583389898176890964e-01
-8.371601822415696281e-01 6.846610704855166096e-02 5.426557117131250996e-01
-8.370150910260419908e-01 6.856679944251382886e-02 5.428667713250431293e-01
9.420271657755729944e-01 7.794452086539310764e-02 3.263578873076385389e-01
-8.354781334600978049e-01 6.901940257939997991e-02 5.451720926254515209e-01
6.515105256783855214e-01 -3.929237658488191620e-01 6.489568160990805135e-01
-1.553548287821802654e-01 4.001539482756149013e-01 9.031841976327398269e-01
-1.814421034014771783e-01 4.817264420037657424e-01 8.573321399478968097e-01
-1.775941348321382340e-01 4.787861364602318814e-01 8.597814599110105149e-01
-1.792435415536713372e-01 4.759274578378707710e-01 8.610254396283997247e-01
-1.817197470818605332e-01 4.783608756688034758e-01 8.591558683672481100e-01
-1.751350479888781342e-01 4.948196105442720372e-01 8.511646538636037373e-01
1.382158127901199074e-01 5.259322702025576168e-01 8.392208507028114939e-01
1.215834647749079733e-01 4.929991195330021281e-01 8.614925009731735361e-01
-1.793625803045946210e-01 4.660522551341392816e-01 8.663858033641023138e-01
-1.822516851534382865e-01 4.808150456724165078e-01 8.576719740750329279e-01
1.763966515562533921e-01 4.758841753625061011e-01 8.616370888949066442e-01
6.699183651158556740e-01 5.046923876948508081e-01 5.445135240592002823e-01
-1.830052990789420575e-01 4.568416843087571566e-01 8.705198079233837927e-01
-1.908791233894822637e-01 4.691692309178225884e-01 8.622327951394807011e-01
7.877848384962696793e-01 4.736344208590996807e-01 3.937835491902521579e-01
-1.796738155718961838e-01 4.560103287245557691e-01 8.716489546224206464e-01
-1.811568002344449702e-01 4.540977037182329368e-01 8.723402370673070116e-01
-1.899950060648912809e-01 4.523149397055886145e-01 8.713857314585381486e-01
-1.863383083537616114e-01 4.569262705776559463e-01 8.697680254503802333e-01
-1.924819568607503417e-01 4.620703899929701208e-01 8.657029808050800135e-01
-1.788246413661661594e-01 4.713667919693312891e-01 8.636174471771649319e-01
-1.808394289991241688e-01 4.589165207462274076e-01 8.698808699502755815e-01
-1.852847374813760273e-01 4.539115859376826601e-01 8.715697552164114459e-01
-1.962285031165171834e-01 4.592649699706060629e-01 8.663544666720136567e-01
-1.949700024917888630e-01 4.658954338202371814e-01 8.630921983622634741e-01
-1.802111155200750436e-01 4.636660894801060140e-01 8.674893148098347107e-01
-1.700903091205227813e-01 4.644934104225021398e-01 8.690886942178904784e-01
-1.960661677350220011e-01 4.660157554039971450e-01 8.627788671409054588e-01
-1.779204998494151313e-01 4.444344716122343164e-01 8.779648604449317162e-01
-1.894785167665906378e-01 4.456504525938205785e-01 8.749248915117546765e-01
-1.796255536087618954e-01 4.525367370881108187e-01 8.734673216992104861e-01
9.328118761258349378e-01 3.207550201923057287e-01 1.642504818258791466e-01
