4.652584229628153878e-01 -7.935178523998275280e-01 3.922550417584452775e-01
4.679411000661944375e-01 -7.928229930232644218e-01 3.904648877971905740e-01
5.448306463118245402e-01 -7.439855769000418562e-01 3.868397965620281598e-01
5.292598346469189474e-01 1.464016718707619180e-01 -8.357335567649306629e-01
5.362716854129085942e-01 1.943154762059494944e-01 -8.213733469812942722e-01
5.075617817488595751e-01 1.929407684743952578e-01 -8.397350162809890106e-01
5.404054089877777800e-01 1.388818837722899102e-01 -8.298637335711284146e-01
5.532625724567726833e-01 1.430352204714911146e-01 -8.206347857745163177e-01
7.074650225797430858e-01 9.880607092082249743e-02 -6.998075465264954609e-01
6.307252951149262543e-01 8.055182584819993441e-02 -7.718141003212565243e-01
7.047420611180632566e-01 2.601898487036689578e-01 -6.600302037957246348e-01
6.040156728474580516e-01 2.144958015634212956e-01 -7.675653835773847966e-01
6.104208707374512155e-01 1.294344634102576053e-01 -7.814301505891814159e-01
6.966798891109314829e-01 8.486530988183603463e-02 -7.123447278439281050e-01
5.723903836130267431e-01 8.376119362674377955e-02 -8.156919217385663057e-01
5.554066722710534476e-01 4.526827389848994687e-02 -8.303458386570296001e-01
3.451040119407811080e-01 9.295738114870291113e-01 1.295984179681773096e-01
3.984041993961088268e-01 8.843582717777578317e-01 2.432787311743522807e-01
4.181482139894121541e-01 8.591370772770182684e-01 2.950178868905538043e-01
4.123054799485499355e-01 8.652653436958992472e-01 2.851667515739048087e-01
3.707251982655357936e-01 9.063846904834070850e-01 2.025576960480082456e-01
3.961494530199872188e-01 8.812439167700520937e-01 2.578270157057683254e-01
3.942875630093835571e-01 8.968168767094011340e-01 2.006409910893487969e-01
3.469799679183118712e-01 9.195216668448328301e-01 1.846207086605065051e-01
3.502325652074477769e-01 9.168774302285500610e-01 1.915017707638791145e-01
3.506523028825582755e-01 9.282358201947051857e-01 1.241822233277432158e-01
3.792616022545000076e-01 9.082087628959637504e-01 1.769674547885360383e-01
3.945190533631223739e-01 8.973382038245353298e-01 1.978354480127924309e-01
2.625443929718025426e-01 9.598304216218908058e-01 9.897476167291895111e-02
3.488917089670113270e-01 9.312748107330809377e-01 1.048894766320359051e-01
2.614812488754710285e-01 9.510633154003379497e-01 1.646393834604618356e-01
9.739888320706665548e-01 2.265958497744795519e-01 2.754389229465267958e-04
9.735435318448432129e-01 2.263859354498712340e-01 3.102256974454828051e-02
9.170453725770233433e-01 1.246663572443372781e-01 3.787955702044253914e-01
9.086017425094750077e-01 1.627970589781830568e-01 3.846296804678491221e-01
8.956062039791485851e-01 2.087151811152358483e-01 3.928453901550760796e-01
9.087001397573382100e-01 1.507804312387939216e-01 3.892676682700962343e-01
8.714399992097530134e-01 3.007269045501380078e-01 3.874992343953700957e-01
8.714184824758964831e-01 3.048594551471794922e-01 3.843052705945763092e-01
8.988893821840381326e-01 2.122914762603567151e-01 3.833147632220766376e-01
8.987964075752311599e-01 2.237986482708473057e-01 3.769339236020027295e-01
6.644070979052687509e-01 6.464557282475190680e-01 3.750442636130676410e-01
6.769893678310514584e-01 6.508062277991365496e-01 3.437101245258445403e-01
7.152843258441771157e-01 6.370562865245873452e-01 2.872762102944551033e-01
7.577018108058160006e-01 5.958498467415452859e-01 2.661783725993991379e-01
1.934036613166661145e-01 -5.317995842367851944e-01 -8.244902825351496656e-01
2.319461818870819370e-01 -5.462936041749845151e-01 -8.048380375861406977e-01
2.266229525629223640e-01 -5.896489837027885095e-01 -7.752135921086085180e-01
1.338197764742018181e-01 -5.331692074308783669e-01 -8.353579254857905756e-01
1.195130637999808620e-01 -5.489688959660621315e-01 -8.272543616342826756e-01
2.078384751587018242e-01 -5.402317963454552618e-01 -8.154463651651580047e-01
2.104527822749177046e-01 -5.403465108819659468e-01 -8.146994995766423386e-01
4.021909301150574101e-01 -9.149668190383061228e-01 -3.283558728131077270e-02
2.662462866364454506e-01 -6.359748147458686995e-01 -7.243265491898398523e-01
4.410823624193523917e-01 -7.421597949609205491e-01 -5.046238086992401728e-01
2.140992657471488259e-01 -5.498153563578500602e-01 -8.073813091220418681e-01
2.411957928655260597e-01 -5.366953315120378543e-01 -8.085683091966653357e-01
3.165606353701356790e-01 -4.778675883357756948e-01 -8.194095021124698786e-01
3.523919696817429115e-01 -4.499986713230640922e-01 -8.205614513924587294e-01
2.876120048775817062e-01 -4.755829924758832039e-01 -8.313243361757082228e-01
3.526632586339087938e-01 -4.488089511519385288e-01 -8.210963106576533166e-01
2.091960628435749203e-01 -5.304252828053294122e-01 -8.215144713586203240e-01
2.897179459403271262e-01 -4.724333220272248779e-01 -8.323882916274341071e-01
2.655735628569056428e-01 -4.870539312696824386e-01 -8.320151144938633392e-01
6.634903898683630619e-01 -3.814743803904026009e-01 -6.436286193590883276e-01
6.935448111779731750e-01 -3.204521297948971226e-01 -6.452178139186981465e-01
6.652787611527540834e-01 -3.248876899820756226e-01 -6.721994933478954160e-01
6.137864452820773753e-01 -3.298129764856321255e-01 -7.172793041275339343e-01
6.292776416959848795e-01 -3.744816111961347671e-01 -6.810089371935486025e-01
5.063463474596457958e-01 -3.801095056690054763e-01 -7.740349734439265772e-01
4.849350304580810622e-01 -3.936418152278047256e-01 -7.809507907280578420e-01
4.596562899758496190e-01 -2.903349677982240418e-01 -8.392983388278818513e-01
3.774890947265580055e-01 -3.407467719248005178e-01 -8.610421713164527757e-01
4.359616090500668117e-01 -3.911329415868331494e-01 -8.105260621596985793e-01
4.576396572802517992e-01 -3.552110045488079959e-01 -8.151018870864183974e-01
5.352498548958461999e-01 -5.656618438399806381e-01 -6.273230995727232528e-01
3.922191216034403016e-01 -4.534802519019331957e-01 -8.003248226711358049e-01
6.053635891184212525e-01 -6.668954755789701094e-01 -4.344943608632478305e-01
6.330076988423044559e-01 -6.617348210918739815e-01 -4.017564931160116926e-01
6.140198883059033719e-01 -7.054378551820141841e-01 -3.540296728256057679e-01
6.336006345345269741e-01 -6.968060999726739535e-01 -3.361718235639578056e-01
4.214225092329930145e-01 -7.586937082419629164e-01 -4.967765350596049512e-01
3.362518825574791759e-01 -7.501276986926439516e-01 -5.694234866341826296e-01
3.793119560907597387e-01 -7.631295031464210288e-01 -5.232167824086859653e-01
5.090515857852760950e-01 -6.423334339316570940e-01 -5.729522167363183538e-01
4.635688150213130299e-01 -6.905922962208640437e-01 -5.551452369786936680e-01
4.739883451653836843e-01 -7.515813359855361142e-01 -4.587597890460515804e-01
5.605239202917674524e-01 -6.982759730253167429e-01 -4.452230904572395676e-01
5.347326208854209506e-01 -6.951007936539502774e-01 -4.805162961051967496e-01
3.317436213209308815e-01 -6.011559686346059639e-01 -7.270197185000304430e-01
4.068058910691516594e-01 -6.014566007027354333e-01 -6.875746682815939703e-01
4.213754594774591911e-01 -6.379500671200972750e-01 -6.445637548075626722e-01
4.874156318624330853e-01 -6.167064008698901478e-01 -6.181417450247567169e-01
4.791713139972813007e-01 -6.414459047174827511e-01 -5.991176872395680419e-01
5.768392491539851008e-01 -5.462074109710592928e-01 -6.073828651153725389e-01
5.034958137925059640e-01 -4.029719377678055436e-01 -7.642680046064221910e-01
4.107282269650516793e-01 -5.467939844265808924e-01 -7.296017147519933133e-01
5.359782863847352141e-01 -4.872497397733355218e-01 -6.894309012619752597e-01
5.356528369175254101e-01 -4.934204650851168328e-01 -6.852826299691199274e-01
5.658317140600849227e-01 -4.171084506403188730e-01 -7.112348499393564838e-01
5.186639232639809194e-01 -4.531170473871556359e-01 -7.250328793038020025e-01
5.371310431754109382e-01 -3.777194278478591127e-01 -7.542004218267056581e-01
4.383075927733137700e-01 -5.127684075520265727e-01 -7.382106842452375028e-01
-5.224821271337186657e-01 3.834167510606077967e-01 -7.615799510438497899e-01
-5.581296882618520527e-01 3.211017453201470695e-01 -7.651045158885700914e-01
-4.979048459374882940e-01 3.744517883074608977e-01 -7.822254295440096428e-01
-4.916786744753588456e-01 3.955056539332751364e-01 -7.757753275098187018e-01
-8.693668950242535720e-01 -4.583690485232002065e-01 -1.846591920046892765e-01
-7.909232928216124447e-01 -3.639254225211360216e-01 -4.919335643306222416e-01
-8.336789903769391552e-01 -3.825239706370742732e-01 -3.983148916273831497e-01
-6.029166236699203818e-01 -1.998671405042173610e-01 -7.723630435547333972e-01
-6.297086758652931104e-01 -2.282264905942238131e-01 -7.425494276686394057e-01
-5.374702029738671616e-01 -1.312216781360629192e-01 -8.330105954322460926e-01
1.317122205625210485e-01 -9.660363204114010838e-01 2.223189569076162719e-01
7.162075275177312746e-03 -9.927257897193582092e-01 1.201840717559074512e-01
1.770612760368429558e-02 -9.758922790838695516e-01 2.175333369159151431e-01
2.544376737772183206e-01 -9.132627919396717475e-01 3.181391881258794352e-01
5.419685220213508320e-02 -9.845267306761829040e-01 1.666427850086735218e-01
1.034259150341572120e-01 -9.548751958564921649e-01 2.784177444728928030e-01
1.820257138638853300e-01 -9.520760638466787551e-01 2.458003420310024278e-01
-2.104895453278982642e-01 -9.675110862402694911e-01 1.400587352142972919e-01
-2.366491040791445788e-01 -9.707891818081215707e-01 3.956723420781480677e-02
-2.378135941571203893e-01 -9.712961495461592820e-01 5.337069502758323529e-03
-2.766654489980691078e-01 -9.602543475107020443e-01 3.698401570263572941e-02
-2.159595473772902841e-01 -9.728080022994890497e-01 8.370223747710300866e-02
9.121669166428135814e-03 -9.980024264930821287e-01 6.251361344170125456e-02
3.411851223235417563e-01 -9.381043037949478025e-01 5.960727729452228868e-02
1.588778426371508234e-01 -9.851610773240982999e-01 6.492674983846682957e-02
3.756751438885548855e-01 -9.254018989384681371e-01 4.999511681545307229e-02
1.264968841507573272e-01 -9.890936925293672966e-01 7.544670767350464269e-02
1.454908299260085358e-02 -9.969822678910325031e-01 7.625406018650907058e-02
-1.219594098921272379e-01 -9.903565378350295267e-01 6.572541598330203239e-02
6.817138184558405381e-03 -9.993532741427777477e-01 3.530665782940770048e-02
-7.936039766103020199e-03 -9.975432815510321127e-01 6.960187285719666994e-02
-2.975833833000871009e-01 -9.542739491040209687e-01 2.837886616990941899e-02
-3.102978911204270496e-01 -9.492845919357808526e-01 5.073442893670520454e-02
5.080460017403261030e-01 -7.557951260416888584e-01 4.131137707306499762e-01
5.438103898053742169e-01 -7.358938407246775615e-01 4.033987049101790956e-01
2.303650458225485476e-01 -9.473187022860365403e-01 2.225291485677211578e-01
4.176458677870767966e-01 -8.629928781319416986e-01 2.842801811838578940e-01
3.788678688171949298e-03 -9.967091146266069401e-01 8.097275303485174103e-02
1.774913339473214169e-01 -9.722755323156893059e-01 1.522403219710315170e-01
-3.042470407208452410e-01 -9.503997804729280574e-01 6.460646631428153264e-02
-3.655809317270647951e-01 -9.278601311004310848e-01 7.366246990063742006e-02
-3.139854348301620579e-01 -9.473897448988689574e-01 6.217570244854546402e-02
-3.484319444101081076e-01 -9.340085314591755061e-01 7.888753561917188906e-02
-3.134510115693311394e-01 -9.444536546822640544e-01 9.877123824007609521e-02
-3.075741635321883050e-01 -9.487508387213267058e-01 7.259462757707384195e-02
7.661354808762839141e-01 -5.833680618004399854e-01 2.696629922953154290e-01
9.013182615368506845e-01 -3.277732605174845104e-01 2.831785322193871579e-01
9.399756876982361398e-01 -2.838649551021982242e-01 1.893842490838535397e-01
7.748607822390783939e-01 -5.682211655224206348e-01 2.769755859280478849e-01
2.387744903240642536e-01 -9.598354092764355139e-01 1.473184641164194952e-01
-3.437147472094153611e-01 -9.364702836861197310e-01 6.988261817939084297e-02
-3.491347517267948120e-01 -9.340824249097210430e-01 7.479938911144033697e-02
-2.619465350146452098e-01 -9.183091595109859062e-01 2.968034709231817114e-01
-2.656208278142646040e-01 -9.165382656929200733e-01 2.990036510678071302e-01
-3.197019560809605254e-01 -9.326815555476799524e-01 1.670202838554873948e-01
-3.234964701178924540e-01 -9.268302266523300581e-01 1.906194239442925709e-01
-2.668046031800070939e-01 -9.335833217540533413e-01 2.392435684916662253e-01
-2.764732727694280134e-01 -9.430746772495787189e-01 1.848585474755342073e-01
-3.154514643885589775e-01 -9.391971948435415829e-01 1.356429239331565784e-01
-3.361149145429564444e-01 -9.366844251024840640e-01 9.822958817082429184e-02
-3.344157107378222249e-01 -9.367756052208999762e-01 1.030417288031101747e-01
-3.192222933812499663e-01 -9.418646488435161723e-01 1.048241893233371191e-01
-2.416660488760636605e-01 -9.380790108194188015e-01 2.482041302651766812e-01
-2.878941368616388385e-01 -9.453422677650307193e-01 1.531174801829006671e-01
-2.885407712542760739e-01 -9.474863833198680085e-01 1.378904519806353757e-01
-2.773720286000033175e-01 -9.530798903164272584e-01 1.212579087100957992e-01
-2.055142455133911195e-01 -9.761021059428230950e-01 7.062983551621382361e-02
-2.156940187244253959e-01 -9.719847508603586261e-01 9.339022636996617555e-02
-2.364123371858600220e-01 -9.675500697997425625e-01 8.919680070962482388e-02
-2.956194088399686781e-01 -9.529335046645299734e-01 6.728224732337353964e-02
-2.818480479098046110e-01 -9.532794271058279145e-01 1.087198774199874540e-01
-2.625907043017966513e-01 -9.581355616275278875e-01 1.141155885888875815e-01
-2.764424733731441486e-01 -9.544008950888344112e-01 1.126875785921870182e-01
-3.210120825751269780e-01 -9.427111564596621918e-01 9.081254498837920686e-02
-3.401582479666913073e-01 -9.345105275462396444e-01 1.047971385366976288e-01
-2.976916486778524717e-01 -9.484646250993171712e-01 1.086026576225167101e-01
-2.790900648367213299e-01 -9.415256877848194872e-01 1.887806000381322125e-01
-2.866016978828495043e-01 -9.487368585113130637e-01 1.332585459651750015e-01
-2.782705969969205828e-01 -9.306389686820678575e-01 2.376480271690773471e-01
-2.184210795960446205e-01 -9.341244042951312165e-01 2.823186662060524488e-01
-2.764608147488527568e-01 -9.358521720703162350e-01 2.185180311545745491e-01
-2.956164788245940200e-01 -9.292683563377663880e-01 2.215202459294732529e-01
-2.644073987743483234e-01 -9.450316144636864424e-01 1.923641732172102214e-01
-3.065967248905043796e-01 -9.390569068194407620e-01 1.554688844789224311e-01
-2.928898003615426626e-01 -9.403341201430071017e-01 1.731684363244422875e-01
-2.592349460648493698e-01 -9.549065102890150758e-01 1.447439095313148849e-01
-2.584594174282172085e-01 -9.574767792394027754e-01 1.282066564574796674e-01
-2.799910575221961628e-01 -9.525298787701678149e-01 1.195484745100982016e-01
-3.003194836326876227e-01 -9.487588684276968554e-01 9.830980281941326115e-02
-3.336604406702018966e-01 -9.386903140443192406e-01 8.678251351017726711e-02
-3.242342066959348901e-01 -9.426190178628414129e-01 7.963395237931009119e-02
-3.010931711675129963e-01 -9.466236547495895381e-01 1.150936946353739165e-01
-1.865623479560992448e-01 -9.734900405720390282e-01 1.323315201762499671e-01
-2.421589369064504060e-01 -9.691375084012334717e-01 4.616859415432394975e-02
-2.627729636651694456e-01 -9.642955896767444468e-01 3.293000602191203940e-02
-1.360378808251117011e-01 -9.899157540212369932e-01 3.950310014642319928e-02
-8.793217034801531495e-01 4.532473390067527363e-01 1.461512623006026856e-01
-8.910832452678003612e-01 4.536748842007853333e-01 1.223721571310955672e-02
-8.910832452678003612e-01 4.536748842007853333e-01 1.223721571310955672e-02
-8.374410465150302629e-01 5.461699164511119031e-01 1.977159517075330677e-02
-7.946979965049807415e-01 6.042684014067574161e-01 5.757424261153416128e-02
-5.804635208236024191e-01 6.978555508459088896e-01 4.195947224961488753e-01
-4.533176162412934085e-01 7.936739881455749934e-01 4.056904476893793410e-01
-7.260562022194835263e-01 5.570348401674246608e-01 4.031805774814459786e-01
-7.200562343977162660e-01 5.818189207435908727e-01 3.781610275659619269e-01
-7.774401951244213071e-01 5.052591332634075449e-01 3.745663509430764426e-01
-7.778918218783130722e-01 4.984953043345846657e-01 3.826052077680185959e-01
-7.268989492877612202e-01 5.600601211391614820e-01 3.974299664518726183e-01
-7.348209167926288421e-01 5.636171427385000543e-01 3.773247098393237575e-01
-8.059523606232394943e-01 4.689239147437246347e-01 3.613186330474086883e-01
-9.914471124733499341e-01 -4.414856673554388988e-02 1.228150122071968997e-01
-9.718707973091355035e-01 6.282998240581706695e-02 2.269791766849769965e-01
-9.557939145543975501e-01 1.020405948454017331e-01 2.757638662050879708e-01
-8.211067941900714873e-01 4.306611125493721715e-01 3.745859563206294096e-01
-8.460694122729228717e-01 4.054483030536432109e-01 3.460899061906774210e-01
-9.228013224247646473e-01 2.708059571306307145e-01 2.740471727890445575e-01
-9.432807083931532555e-01 2.430445496653086956e-01 2.261655412552897593e-01
-5.784933864833550210e-01 7.118352006712905800e-01 3.982914120092008736e-01
-5.882520335046618198e-01 6.876758295650671204e-01 4.255132177848616193e-01
-6.537704296944285565e-01 6.219070294233350893e-01 4.310636519251019316e-01
-6.497084702611879425e-01 5.852848776952374044e-01 4.850984597090967632e-01
-8.607078398691671017e-01 3.859787435413608581e-01 3.319675043162876871e-01
-9.979383252357352241e-01 -1.376224388363278192e-02 6.268731665164260780e-02
-9.871882334689752181e-01 -9.260011635433990085e-02 1.299407947935008190e-01
-7.815236983097156864e-01 4.666457202556680839e-01 4.140802829734511747e-01
-9.460958397261202135e-01 1.864568785059534384e-01 2.648329558622635194e-01
-9.019627853631804193e-01 2.936779488933742299e-01 3.165697334769605464e-01
-6.612090682204583292e-01 6.426146137252911616e-01 3.871033793829862790e-01
-6.638039639849226958e-01 6.155440282492561366e-01 4.248174274727705146e-01
-6.638039639849226958e-01 6.155440282492561366e-01 4.248174274727705146e-01
-6.804829177985487476e-01 6.111202775392444719e-01 4.043204236304797083e-01
-7.382270684589562482e-01 5.358470419510995564e-01 4.097422885506838419e-01
-7.416038236180103604e-01 5.386006625732883135e-01 3.999163600939100172e-01
-5.761334991221057633e-01 -2.949620444435687161e-01 -7.622778912752151692e-01
-6.797009782011488310e-01 -4.340183015602482319e-01 -5.912991579083796134e-01
-7.230832672798370719e-01 -3.494922707618990931e-01 -5.958235823275269682e-01
-7.123886219634342210e-01 -3.235961073487374495e-01 -6.227262726156522765e-01
-3.838077821257928068e-01 -2.709155742356005314e-01 -8.827776265947584466e-01
-6.161187837572260628e-01 -7.569529382582951271e-01 -2.177610928601580731e-01
-6.836060568127731996e-01 -6.641794267347431724e-01 -3.025697410370036811e-01
-4.076141563577114768e-01 -6.551212210134156333e-01 -6.361343296149662985e-01
-5.466469527764618030e-01 -6.181691150347542463e-01 -5.648398483086667365e-01
-7.197398406661303927e-01 -4.880897532927379601e-01 -4.937033061348963803e-01
-2.391569804449655556e-01 -3.865091262830250285e-01 -8.907382522404541092e-01
-2.391569804449655556e-01 -3.865091262830250285e-01 -8.907382522404541092e-01
-3.144710573769335937e-01 -3.796340813156773297e-01 -8.700493769757180473e-01
-3.144710573769335937e-01 -3.796340813156773297e-01 -8.700493769757180473e-01
-2.675731005815363828e-01 -4.409047623917959347e-01 -8.567424504163529964e-01
-3.865025591216627032e-01 -4.427999196797284820e-01 -8.090389378293428857e-01
-2.504072928204802984e-01 -4.173806953220981497e-01 -8.735499658718784977e-01
-2.353122275831283639e-01 -3.686103675394644119e-01 -8.993078185428430293e-01
-3.104329060587281974e-01 -4.489837505515287264e-01 -8.378812580411471034e-01
-4.659572031532784320e-01 -5.261220594407141071e-01 -7.113926225365541089e-01
-3.060512619410608592e-01 -4.000222159713862080e-01 -8.638951625015767188e-01
-4.494230468128447842e-01 -4.218014963018379970e-01 -7.874658232018645343e-01
-3.187318978187695939e-01 -3.429850045918710899e-01 -8.836126209702753753e-01
-2.806334191475417517e-01 -3.944953023723272723e-01 -8.749961945424256093e-01
-4.723894970420908779e-01 -4.905067046334562475e-01 -7.322918378583417320e-01
-3.289811016125974708e-01 -3.778822608456557375e-01 -8.654342445962822650e-01
-4.456584395335952409e-01 -4.340438123773602830e-01 -7.829396683074677510e-01
-4.662480509005358376e-01 -4.258008922341438574e-01 -7.754394594061218005e-01
-5.266285303172963950e-01 -3.182935744974040304e-01 -7.882585816148848235e-01
-4.479298132195473903e-01 -2.520695656395715023e-01 -8.577994034198083151e-01
-4.356097015333430522e-01 -2.691720937629557553e-01 -8.589473626883654678e-01
-7.984592913764722022e-01 -2.476070571218368377e-01 -5.487745486791869576e-01
-8.689725868361651839e-01 -1.812630658349987378e-01 -4.604675279445450409e-01
-9.117098117052756523e-01 -3.157909292637657850e-01 -2.627951830514750897e-01
-8.732212113280444221e-01 -2.665738390864057505e-01 -4.079498797665198628e-01
-9.020773942687558833e-01 -1.548416758313710395e-01 -4.028404525057337482e-01
-9.414689506924197593e-01 -1.846829774915954570e-01 -2.820078238399651993e-01
-9.430099647085430359e-01 -2.036753137440710237e-01 -2.631512360443071796e-01
8.344546122254198339e-02 4.867545408450828226e-02 -9.953228396711411019e-01
9.163366118473814659e-02 3.768013557904925648e-02 -9.950796347632812067e-01
4.422429075150372674e-02 1.700279786554772035e-02 -9.988769278405973395e-01
-1.515795344379214891e-02 2.206566816258239208e-02 -9.996416071452481900e-01
-3.785685069318727586e-02 3.073524934286066268e-02 -9.988103940705792549e-01
8.402153078292667887e-01 -4.976445497230070347e-01 2.153790579892949641e-01
9.932492395906554750e-01 9.091721602935788626e-03 1.156429360180685206e-01
9.931925044874504449e-01 -1.061677156302708036e-01 4.792770793388315825e-02
9.597955458529616735e-01 2.778146712658072226e-01 4.014372417062220255e-02
9.768724774525353594e-01 -2.352927901511978406e-02 2.125242005626050146e-01
9.729020856369913206e-01 -1.790404781205718818e-02 2.305232674485067079e-01
9.749723605411180216e-01 4.264217826592699156e-02 2.181983978255037648e-01
9.709375638427354405e-01 1.742402530864375909e-01 1.640749259439352181e-01
9.668868343779600805e-01 2.171765934837618928e-01 1.340305067861643773e-01
9.653807618843295302e-01 2.425970630124796301e-01 9.584701143671808810e-02
9.639925284096440006e-01 2.589145717569343863e-01 6.067659929746219150e-02
9.590672056969925530e-01 2.259847428044465534e-01 1.706487356418757706e-01
9.656149452275453182e-01 1.927461869425053931e-01 1.744611273961312881e-01
9.565735641078745299e-01 2.444430909525446838e-01 1.587910316596119198e-01
9.613738372433652257e-01 2.483882692873030373e-01 1.185901039059577278e-01
9.564529812776302320e-01 2.452358352945201159e-01 1.582942819325194594e-01
9.620713357088350737e-01 2.463927326760581016e-01 1.170870030867754569e-01
9.436457894927560153e-01 2.956486232394029967e-01 1.487431193341015312e-01
9.451836550941348225e-01 2.817722304724800120e-01 1.650220236133805585e-01
9.955282918600569797e-01 9.415850596583141829e-02 7.589193664662990599e-03
9.955282918600569797e-01 9.415850596583141829e-02 7.589193664662990599e-03
9.943299367749830475e-01 9.762006053100191760e-02 4.216990176632755272e-02
9.874467985182603380e-01 1.362956753493997641e-01 7.982674349545622328e-02
9.969729825500055487e-01 2.699947369256605265e-02 7.291022209313850755e-02
9.959333144435693619e-01 6.899028007888766134e-02 5.794112905426428844e-02
9.787750107632365859e-01 2.048693516140012438e-01 5.294060321234888254e-03
9.825649497674017185e-01 1.857214967998015720e-01 8.581673206576932375e-03
9.783439697645908151e-01 2.067229551558617540e-01 1.042576792802282076e-02
9.784115836506096509e-01 2.037725542802813206e-01 3.446039901678383394e-02
9.679844540464419556e-01 2.499188542725719331e-01 2.338082555207948027e-02
9.783124416877817531e-01 2.058301121292313296e-01 2.321058766508283383e-02
9.789924031620483857e-01 2.035900366815253659e-01 1.117906592753902320e-02
9.628511575162810310e-01 2.699641194202808125e-01 6.084627777452417986e-03
9.662554698722414237e-01 2.570328923119528652e-01 1.686591864458819590e-02
9.585250414161869958e-01 2.828608279699407202e-01 3.492129691544414855e-02
9.623142071649325446e-01 2.642201569547939499e-01 6.433564600834683345e-02
9.623142071649325446e-01 2.642201569547939499e-01 6.433564600834683345e-02
9.622022052130310144e-01 2.694856888848119469e-01 3.929859755078326383e-02
9.700927450148590925e-01 2.385581055472604517e-01 4.483409804198019294e-02
9.731561727483812874e-01 2.225778504623402987e-01 5.853344279372865028e-02
9.588728197201720205e-01 2.837651048982899882e-01 -6.346719148425493916e-03
9.656424595132387934e-01 2.576430801922812708e-01 3.398063587187143825e-02
9.560772934383151567e-01 2.906132868303945016e-01 3.821160150138545875e-02
9.532065704001088102e-01 2.977045653407858761e-01 5.262343509612752573e-02
1.855552338445300500e-02 9.996987913296417894e-01 1.606297500409428411e-02
-8.684572499723602901e-02 9.955785243256671802e-01 3.579416085385062757e-02
-2.205293252281368688e-01 9.041399691963678542e-01 3.659203913640420858e-01
4.294093500389849910e-02 9.984200865261099178e-01 3.624095641930490108e-02
4.294093500389849910e-02 9.984200865261099178e-01 3.624095641930490108e-02
-1.161766833657423559e-01 9.776634116591702561e-01 1.751491699811560110e-01
4.907271427804810876e-02 9.972135176252722166e-01 5.618780097864561895e-02
4.907271427804810876e-02 9.972135176252722166e-01 5.618780097864561895e-02
4.109152928899345580e-02 9.962472151076248172e-01 7.617724470597350694e-02
5.991335484457340627e-02 9.966361645639568723e-01 5.591730854139428941e-02
4.622688938068324899e-02 9.973302819062291880e-01 5.652772320753351315e-02
9.516944822320613229e-01 2.841825482797696867e-01 -1.162664686926769414e-01
8.877232866390954991e-01 4.391420771282473767e-01 -1.382085469649800835e-01
2.689458337859282899e-01 9.630819799236900458e-01 1.188437779006172590e-02
9.282744493190483448e-01 3.380017161979460560e-01 -1.551173316836661487e-01
6.075616328746338141e-02 9.971004885396227424e-01 4.581816644774174691e-02
6.676258235444169908e-02 9.961873296859055094e-01 5.615658261175971583e-02
3.057332365867283519e-01 9.515995965382038069e-01 3.139101646221647418e-02
5.306314212022773535e-01 7.620426185982255296e-01 -3.711082621996046327e-01
7.937452271498688372e-01 6.080475467575467974e-01 -1.570653554837367002e-02
8.074215105191462349e-01 5.875684972668955286e-01 -5.323312287009308863e-02
6.419157294039704031e-02 9.969280916676526161e-01 4.487562821097695193e-02
1.569097893895427254e-01 9.873736633229728277e-01 2.173860551880016020e-02
1.997944479008676999e-01 9.793789657632328005e-01 2.998366236016030556e-02
6.527363416500558957e-02 9.970383117937701156e-01 4.066887628545937799e-02
-6.951967871910307295e-01 7.165899509549634727e-01 -5.657092247464064194e-02
-7.279396120695557082e-01 6.757371768637983056e-01 -1.161171347569717599e-01
-4.141842256545184564e-01 9.098454767757326866e-01 -2.515224860140655161e-02
3.080974550299852774e-02 9.981512440118076590e-01 5.239135100110887955e-02
7.177990057775576749e-02 9.965413050921458904e-01 4.186971600441329044e-02
5.544541970777353695e-02 9.838457230317020352e-01 1.702157416505775678e-01
-3.509719971076227796e-02 9.971810982767866927e-01 6.631774884572137763e-02
4.018349081687141999e-02 9.968722550948282413e-01 6.805140768508979865e-02
3.724687228422707275e-02 9.990354892481448923e-01 2.325428407330495592e-02
6.286075173618246859e-02 9.963430988875777716e-01 5.787015802864676345e-02
7.237877373253928659e-02 9.933333669747761441e-01 8.972254548065637658e-02
-9.881639015779460911e-01 4.422283557757977768e-02 -1.468892250361804874e-01
-9.989196546961325307e-01 1.469945627745296302e-02 -4.408457152912594740e-02
-6.526645295863339191e-01 5.486343326450054958e-01 -5.225221343283162900e-01
-1.374606622715328630e-01 9.888568499214974716e-01 -5.715502332433206045e-02
-9.925551164822494776e-01 1.179510346196717130e-01 -3.036271030486368747e-02
-7.282513556186402948e-01 6.625893734731038709e-01 1.750008148556241039e-01
-4.280440731817287958e-02 9.960399423095861460e-01 7.792442516988057344e-02
-1.905319031175659317e-01 9.727257022715247725e-01 1.322962661406860974e-01
-2.662645088818567096e-01 -9.618496608898036149e-01 -6.283662272969159357e-02
-2.377876163697202616e-01 -9.657383004626489686e-01 1.039547234170771633e-01
-1.255392089332697247e-01 -9.907972546099027555e-01 5.060343148333386332e-02
-7.200562279612506000e-02 -9.956681975385102135e-01 5.882202560399132224e-02
-3.524994732637476424e-02 -9.974740750029642555e-01 6.166774611147077950e-02
-4.873308018325689384e-02 -9.969361674219004987e-01 6.118304488977858308e-02
-5.421489626342854834e-02 -9.968910559509495117e-01 5.717488599154740836e-02
-5.584116708709866567e-02 -9.966497867127239729e-01 5.975756608022592814e-02
4.024235014499918384e-01 -9.150687109767979832e-01 -2.654391968021532072e-02
-6.380986453387206547e-02 -9.972247677053456272e-01 3.835445037004860808e-02
-6.648391445775803099e-02 -9.939265292929279072e-01 8.769232284577811731e-02
-8.526464963106060446e-02 -9.913567724152162475e-01 9.970802028812630891e-02
-1.128851979564015062e-01 -9.917637028606718363e-01 6.051189775931067188e-02
-4.760043969788305129e-02 -9.988231134583512860e-01 -9.305168560199160444e-03
-3.344409066801398711e-02 -9.974712855230208897e-01 6.270986649995187456e-02
-8.988364260035436315e-02 -9.948881801821540805e-01 4.602651112927766408e-02
-4.041450394033749283e-02 -9.961967105127847999e-01 7.719314629397609762e-02
-4.919222337264231998e-02 -9.973634459075449987e-01 5.335055695195428660e-02
-6.469223289276865296e-02 -9.964181684224621138e-01 5.445868747016986006e-02
-9.675227074730434473e-02 -9.935958243953991742e-01 5.836382312072459222e-02
-3.334896377838892506e-02 -9.959915148339111290e-01 8.299848790043491686e-02
-4.251955251134976327e-02 -9.957723539397914658e-01 8.142178322440102312e-02
-6.271939264423563587e-02 -9.936654292049799109e-01 9.324855274598650712e-02
-1.151846594841313132e-01 -9.896846625690356447e-01 8.518663566040707291e-02
-3.675360245092428035e-02 -9.988818509045035432e-01 2.973584773421642305e-02
-7.702601906135392307e-02 -9.952221782701106134e-01 5.999840220252734835e-02
-7.702601906135392307e-02 -9.952221782701106134e-01 5.999840220252734835e-02
-5.973220009264459951e-02 -9.961733445770775131e-01 6.380228699828603689e-02
-6.171129836523567280e-02 -9.962548820430865426e-01 6.056340198001359393e-02
-4.591614037050060354e-02 -9.975995309158055546e-01 5.183516152228188900e-02
-6.181868475013058140e-02 -9.947883850591423549e-01 8.108340870478591977e-02
4.965841567731366646e-01 -8.679885648997718306e-01 -1.626196400780039689e-04
6.837035272469731417e-01 -7.114693641649918465e-01 -1.623601881149121240e-01
5.437244540021267669e-01 -8.391282711411770512e-01 1.508186632047512146e-02
-2.220212930213057156e-02 -9.964897482985908272e-01 8.071707991659846093e-02
-6.816860482631144358e-03 -9.999322174258170604e-01 9.438801144689056011e-03
-4.368648276858926732e-02 -9.971477672255172342e-01 6.154528040780615078e-02
-7.093593053479702037e-02 -9.961688982741805365e-01 5.114313121395249601e-02
-4.597520777104739664e-02 -9.969215156708353121e-01 6.351198204255191493e-02
-5.753046156543217132e-02 -9.964836429106970206e-01 6.091465672146905569e-02
-5.816412506149407774e-02 -9.962787675199112902e-01 6.360465348414130748e-02
2.246478857001040774e-01 -9.668940266003492878e-01 1.210341636689240830e-01
-7.106008587113284147e-02 -9.928935145582816757e-01 9.546168311993322164e-02
-8.182911594204714811e-01 -5.572577935048510511e-01 1.409373264696237582e-01
-9.596435464300928642e-01 2.761304488943457369e-01 5.325635162571175363e-02
1.812284338940697292e-01 6.110217489470983754e-01 7.705898241359873113e-01
-5.503008296490260465e-01 -7.265120906206203877e-01 4.115205694368737066e-01
-1.975782959878875644e-01 -9.291797108240135161e-01 3.123905919638512163e-01
-3.778720128364883579e-01 -3.917518988678906910e-01 8.388940288548386581e-01
-4.296116716709376393e-02 -9.699909633439482981e-01 2.393154176953929679e-01
-5.511166422310222190e-02 -9.690072634930010365e-01 2.408062037497495922e-01
-3.001061043814912815e-02 -9.573818222533948541e-01 2.872619182556204187e-01
-5.712991311958124513e-02 -9.514258001255581076e-01 3.025311882804658792e-01
-1.767019206301901901e-01 -9.804496271556292220e-01 8.657343620296867326e-02
-6.832299164835727023e-02 -9.964375666921972963e-01 4.943828978384405548e-02
-5.073821099899675918e-02 -9.951381788140575280e-01 8.441350017184688637e-02
-7.697307812198073140e-02 -9.947372485083718630e-01 6.762360293877328621e-02
-5.352987914807675468e-02 -9.964691456513308232e-01 6.468225261460208708e-02
-7.018573857994439558e-02 -9.902364980847596643e-01 1.204393621737492315e-01
-6.186164799194386610e-02 -9.940436583911993473e-01 8.972369653531454825e-02
-2.287525134011840489e-02 -9.958718409792212123e-01 8.784076058859693892e-02
2.827301239250650244e-01 -5.820547511058166146e-01 7.624145484842634879e-01
9.564394787901108197e-01 -1.421159551833461321e-01 2.550030954596947397e-01
9.953479911897870069e-01 -8.694403172308733108e-02 -4.151038161942478821e-02
4.977356496658086327e-02 -9.932742532087021070e-01 1.045411409121446006e-01
1.723897858167051100e-01 -9.849372102648166205e-01 1.343330122609112318e-02
-1.175280158022702290e-02 -9.988712401933239615e-01 4.602300696028940180e-02
9.225693356970705583e-01 -3.194961185238237578e-01 2.163054578129653127e-01
6.084423655699751077e-01 -7.898744066381336859e-01 7.678743072709896811e-02
-1.071025580041461561e-01 -9.930218224839951757e-01 4.936296323695604088e-02
-6.799318569367529541e-02 -9.964371652431942561e-01 4.989892204579857854e-02
-1.007852710843870209e-01 -9.934373624664243341e-01 5.407897917121563813e-02
-5.165781610760459414e-02 -9.966644844389775937e-01 6.317733369635090968e-02
-5.165781610760459414e-02 -9.966644844389775937e-01 6.317733369635090968e-02
-1.144126073018714856e-01 -9.924907513381305835e-01 4.326504129965525608e-02
-1.420014977877064877e-01 -9.887664420388723174e-01 4.665294978709625534e-02
-4.454279667231849510e-02 -9.970664097272002868e-01 6.224559308352084486e-02
-6.084429084748785993e-02 -9.954368730874765259e-01 7.350784971071684659e-02
-5.100675036350034441e-02 -9.973834773757059846e-01 5.122997633515112559e-02
-6.149778902361489885e-02 -9.954007821323505034e-01 7.345273906065070968e-02
-6.149778902361489885e-02 -9.954007821323505034e-01 7.345273906065070968e-02
-6.345728140597908795e-02 -9.954233079728552758e-01 7.145356100951541500e-02
-6.700557218307168217e-02 -9.947209757962213184e-01 7.772022650142135225e-02
-7.614558234256189884e-02 -9.962499148463777043e-01 4.108475944066669605e-02
-7.323379861240636446e-02 -9.969771683941941465e-01 2.594872716516433489e-02
-7.323379861240636446e-02 -9.969771683941941465e-01 2.594872716516433489e-02
-6.706866889802515219e-02 -9.968636328346499598e-01 4.200822757450370371e-02
-8.491436191671015987e-02 -9.954484155975158455e-01 4.326665025944741866e-02
-9.749226165569480074e-01 2.115544410142495280e-01 6.906960411716966952e-02
-3.819522885501159259e-01 -9.226120993910096324e-01 5.384573640171184949e-02
-4.612427208613434360e-02 -9.982420588742502154e-01 3.722020175955829263e-02
-1.231916193498710510e-01 -9.910767374818180153e-01 5.089916840530900322e-02
-5.930674327793278300e-02 -9.954120382254971755e-01 7.508384884598520714e-02
-5.817117479658626827e-02 -9.953247643959860502e-01 7.710206095079281952e-02
-6.154072539547035536e-02 -9.969130479417455115e-01 4.875565568524580645e-02
-9.866870640799021430e-01 6.646545921047292138e-02 -1.484283676031099009e-01
-9.755686222408239683e-01 -2.196195410090200639e-01 -5.755041800715982037e-03
-9.960744053905884465e-01 -1.938880881737300305e-02 -8.637044065204842191e-02
-9.908558577476873630e-01 3.108948488753180209e-02 -1.312939948989386985e-01
-9.727992944325720703e-01 1.988453997312254473e-01 -1.188361887524974070e-01
-5.594426617039045535e-01 -8.281066758953949947e-01 3.554211027963548319e-02
-2.321978437020485730e-01 -9.725239050772207516e-01 1.677544137934256635e-02
-7.008250649833491774e-01 -7.124182432496820594e-01 3.611751619534873947e-02
-3.172425778157050291e-01 -9.482444302835882910e-01 1.377124747433083191e-02
-5.046508630935348655e-02 -9.964928358705974487e-01 6.674805706808334405e-02
-3.211069983478757883e-02 -9.982732828256951629e-01 4.918694697305139168e-02
-6.724991025176563220e-02 -9.966693197921774328e-01 4.612717806378282409e-02
-6.122680017912093126e-02 -9.979846805805315801e-01 1.666902115903356324e-02
1.093082840915274717e-01 9.940037860374026923e-01 -2.858736132497287190e-03
-1.263639491616025401e-01 9.919827752982649516e-01 -1.525078304832515590e-03
6.342454945306716940e-01 7.731072913058568696e-01 -6.145632373058808502e-03
1.214496962302084176e-01 9.925388295072076206e-01 1.080014842732463128e-02
6.618353152180569965e-02 9.977483774605802047e-01 1.085888714748882954e-02
4.629762054469583332e-01 8.863014309855925532e-01 -1.108181496086100074e-02
4.193592729125309448e-01 9.078063430632978825e-01 5.044176475412542708e-03
4.253250533784254106e-01 9.049916751262587766e-01 9.416311422617831481e-03
7.075268472253615215e-01 7.065957874113194537e-01 1.132049768859106492e-02
9.040050385626709206e-02 9.946169360267023141e-01 5.064483657183347504e-02
5.686559010118034246e-02 9.968148395495216585e-01 5.591493822142865056e-02
5.725503484670572268e-02 9.967731356463362946e-01 5.625990613636714516e-02
5.178647239168911176e-02 9.943155402763559358e-01 9.303100366094704810e-02
4.715462225025360277e-02 9.972615202561786463e-01 5.697281647216655143e-02
4.715462225025360277e-02 9.972615202561786463e-01 5.697281647216655143e-02
4.932246749084478327e-02 9.969617558696626247e-01 6.028724188328597744e-02
4.187494890652419116e-02 9.973893780517146812e-01 5.882956062805323738e-02
8.713933937984092992e-01 4.505065615218672992e-01 -1.942096580251210514e-01
4.713614890679236891e-01 8.819398323813394391e-01 -6.918690949563426063e-04
1.251962554615879131e-01 9.918133251474774426e-01 2.514409827973868722e-02
4.907484151008149886e-02 9.984552220288996915e-01 2.605435729357240618e-02
4.199329904652004952e-02 9.967394202498429667e-01 6.889913609906020420e-02
8.776586604959012161e-02 9.935485977337504826e-01 7.182156151089680307e-02
5.356457011167634064e-02 9.972605807314454118e-01 5.101147858993673040e-02
4.372949552386894839e-02 9.986356321652187784e-01 2.854129273879916356e-02
1.733098513202385726e-02 9.980890909418282941e-01 5.931107398511978324e-02
5.380538906723644071e-02 9.955596765177086027e-01 7.723930734592730774e-02
-1.570462760487734699e-01 9.853844660130263167e-01 6.598425054083220664e-02
-1.423589893659069905e-01 9.862242358466188907e-01 8.423582833610687715e-02
7.631766816664524444e-02 9.940249816345829714e-01 7.803812793739144105e-02
7.631766816664524444e-02 9.940249816345829714e-01 7.803812793739144105e-02
6.504097446178060127e-02 9.978812157608824007e-01 1.658575486706375529e-03
-3.137517493677892122e-01 9.356374332336740984e-01 -1.616862186475838681e-01
-1.643859388988478110e-01 9.861521765068181899e-01 -2.193508293145082430e-02
-9.715920054520249538e-01 1.870773645536683571e-01 -1.449518354949879961e-01
-8.948877750263621866e-01 4.391998372374854576e-01 -7.924249541081719583e-02
-9.264760344298167416e-01 3.246277460889533395e-01 -1.904179195779825695e-01
-9.940016599345429249e-01 1.063705668312422831e-01 -2.541658040282864309e-02
-8.556783378782011340e-01 4.745626871058086782e-01 -2.064093943911304574e-01
-8.400341410506954043e-01 5.423447234268957695e-01 1.431233175357668995e-02
-5.611409359765127253e-02 9.962012235998042309e-01 -6.659076961536743167e-02
7.626677385170517465e-02 9.946141671495614123e-01 7.018573723796814323e-02
6.537506873860769729e-02 9.971728060520186343e-01 3.704720310314163489e-02
7.715902293321930117e-02 9.958212938078851995e-01 4.885116148855029455e-02
-7.945499153236025569e-02 9.951774141475038249e-01 5.752233210919160955e-02
8.535729389969574921e-02 9.938457142745082962e-01 7.060331859277658995e-02
8.535729389969574921e-02 9.938457142745082962e-01 7.060331859277658995e-02
9.355201481096868388e-02 9.947259126188634504e-01 4.205210208036830322e-02
7.679373794946293963e-02 9.958502445296966155e-01 4.883658753324836288e-02
9.192322433266940651e-01 3.874662316649205573e-01 -6.987132564907888588e-02
4.823756758953052781e-01 8.709796231414410617e-01 9.331775488587729095e-02
-1.045770692141387813e-02 9.948565666242723537e-01 1.007524104451624908e-01
7.837894417250355558e-03 9.990265654945414964e-01 4.341069968665067780e-02
3.258895048107689207e-02 9.978061334808016047e-01 5.762707952546834711e-02
6.254793360290640536e-02 9.968187412633894295e-01 4.939790550294938243e-02
5.748905492970215331e-02 9.961133958806882571e-01 6.673163500419333760e-02
5.101669758193774079e-02 9.975456456793980742e-01 4.795812083376552876e-02
6.005360820905257524e-02 9.954304481189694132e-01 7.424141094255418127e-02
-2.574200702808715491e-01 9.625714638436965176e-01 8.480026185333680577e-02
6.257687983428000811e-02 9.953906233896291367e-01 7.267489923083060577e-02
3.234236640299358728e-02 9.973552021950287116e-01 6.508895443904361144e-02
-2.297524132285531651e-01 9.691575015186543185e-01 -8.914912150871497076e-02
7.306278811881557200e-02 9.962709757230854279e-01 4.589086972455650587e-02
3.838709166770542525e-01 -9.228761954146974533e-01 3.070256123536869650e-02
7.171537350932327692e-01 -6.927230212908493945e-01 -7.632388889137380061e-02
6.755628390039589704e-01 -7.370843514037717092e-01 -1.793068522372285797e-02
4.674527005506293187e-01 -8.753578319789734330e-01 1.234367803411729331e-01
4.272862233046785252e-01 -9.036403997210115113e-01 -2.933447402076462540e-02
7.249596511263647347e-01 -6.885283328236019296e-01 -1.903258095716255441e-02
8.736721232259073711e-01 -4.855310372280159381e-01 -3.092948409239683685e-02
5.034079071999244537e-01 -8.637831295769132778e-01 2.142857967541262135e-02
5.580497651102455103e-01 -8.279279369003856859e-01 5.581927051002072426e-02
-5.686497246135344824e-02 -9.961850838423346177e-01 6.619406043604010581e-02
4.886766163275071267e-02 -9.952865985705667828e-01 8.376477990407707463e-02
8.385843054403963048e-02 -9.930245178588011923e-01 8.288588877478356154e-02
-3.511270929004876862e-02 -9.978314920355775275e-01 5.567235533337398096e-02
-5.962454120725583229e-01 -8.017048707320385548e-01 4.196080107613091997e-02
-6.418247211875572900e-01 -7.651342064196182680e-01 -5.129009104237702149e-02
-6.456700707552797125e-01 -7.623617856469929732e-01 -4.375691392226806892e-02
-8.555465789363907170e-02 -9.954235234380319763e-01 4.257240302022228390e-02
7.216620915570594041e-01 -6.887605732422444893e-01 -6.937361426727882419e-02
7.607919198046561027e-01 -6.421331736163804482e-01 -9.413098374765353771e-02
5.185612759927248350e-01 -8.509766220717913665e-01 -8.326458868018538073e-02
4.258238272977528383e-02 -9.973049371438612587e-01 5.974615493513945469e-02
-2.565380890394256333e-02 -9.995902749716978342e-01 1.269504906352018035e-02
-1.101864175103213495e-01 -9.927635652009850764e-01 4.774365932425440884e-02
-2.650988533242037634e-02 -9.970171708298372071e-01 7.248439176905106807e-02
-1.055540528821546226e-01 -9.899797064261554036e-01 9.380044128113017299e-02
-3.515757843050680564e-02 -9.987358252909159795e-01 3.592625724140666166e-02
-1.155425741801638234e-01 -9.917945203489506589e-01 5.471327953629126495e-02
-1.173087836118181099e-01 -9.916342861190995395e-01 5.385250115435013391e-02
3.337738754430311788e-02 9.980355812635661739e-01 5.301819058222698861e-02
3.988829303835526863e-02 9.986734003351478428e-01 3.256322375809543590e-02
3.998447566785711532e-02 9.968171129764124005e-01 6.897017458972322379e-02
6.004369979220040149e-02 9.961092101966129153e-01 6.450732886071339212e-02
5.196822426352527141e-02 9.958035803555338461e-01 7.532949633440870485e-02
-5.084332470588892594e-01 2.136012485668880023e-01 8.341883120110357153e-01
-4.773537452887359755e-01 3.375483468373794427e-01 8.112918805252329335e-01
-1.931069917532617919e-01 -5.202688846129307348e-02 9.797973732425708793e-01
-1.583365081665621121e-01 -3.520096236540115608e-02 9.867575398395342923e-01
-1.385426604277444906e-01 -3.197777008609790916e-02 9.898400645871652248e-01
-1.088527895843386523e-01 -3.020393376138450631e-02 9.935989093115217274e-01
-1.068327655005104487e-01 -5.205270416888768681e-02 9.929135290669671710e-01
-1.599341411283953518e-01 -5.107904800787805427e-02 9.858052552893656895e-01
-1.095814670101048910e-01 -4.241657505069618139e-02 9.930723721103523749e-01
-1.750273008061965507e-01 -9.974842616143005103e-02 9.794976750614649008e-01
-9.983146169278318549e-01 -2.138972740338637712e-02 5.394817132994667030e-02
-9.805849774913133476e-01 -1.682057448772993902e-01 -1.007964746835593589e-01
-9.453269069593336349e-01 -3.188017481408926823e-01 6.872033440700443807e-02
-8.387908536760604328e-01 -5.436920748989911845e-01 2.878943350286076314e-02
-9.738444098595055998e-01 -2.270905544136812004e-01 7.546222994209057094e-03
-9.763962778372772267e-01 -2.074734965677488274e-01 6.004212560746630123e-02
-8.217584185363359106e-01 -5.698348445928395067e-01 -1.162519898550906303e-03
-8.518407490120454284e-01 -5.238007633328316537e-01 3.140932031196888097e-04
-6.635120624745732831e-01 -7.481184898213683043e-01 8.394530250891997156e-03
-5.367974924705538609e-01 -8.434414221728827599e-01 -2.133118469074328158e-02
-5.367974924705538609e-01 -8.434414221728827599e-01 -2.133118469074328158e-02
-6.617617357296430303e-01 -7.496439405470460837e-01 1.026486849339759526e-02
-4.776080011872040343e-01 -8.785693844262350005e-01 -2.536523382566560191e-03
-4.987428866625625568e-01 -8.666003423948799300e-01 -1.610526511956028931e-02
-5.016469700009357213e-01 -8.650723013267305195e-01 4.805893827466696066e-04
7.695965655701050290e-01 6.225571670897316334e-01 -1.419285030143956905e-01
8.754479324332843371e-01 4.833031017816426522e-01 3.004897091530059870e-03
7.613520934896175207e-01 5.244646328041024930e-01 -3.811559243625036175e-01
5.939058716896625789e-01 4.848031821664503527e-01 -6.420605034837648661e-01
6.858381517241155523e-01 4.144981894596177496e-01 -5.981783016579153012e-01
4.633160933271929238e-01 3.976076624761763489e-01 -7.919888537121331229e-01
5.773022720695918375e-01 4.503871760692200743e-01 -6.810825781765968978e-01
5.700167412406316192e-01 4.807249175666962748e-01 -6.663215952795645824e-01
4.217365139575544597e-01 3.596904372193380772e-01 -8.323227151579433158e-01
4.852874041538464134e-01 3.714204786013173276e-01 -7.915446692671170847e-01
5.359305812936840940e-01 3.185425554738942067e-01 -7.818625533854238752e-01
4.367366519817575954e-01 3.228010630668048941e-01 -8.396788496197254981e-01
4.672226389179332529e-01 2.603329623329579401e-01 -8.449436397804940269e-01
4.173351910424024092e-01 5.174291324073182485e-01 -7.470598578787455146e-01
3.772139668700137394e-01 4.552568352289327325e-01 -8.065053237118305907e-01
3.709857102566667120e-01 4.964171239451714013e-01 -7.848182221631713196e-01
3.786045332418589426e-01 4.233236971326818088e-01 -8.230769434594992218e-01
4.587468958778473938e-01 3.990358274751824585e-01 -7.939280155742306500e-01
4.269668791003563002e-01 3.787211700368397493e-01 -8.211391840103776651e-01
4.186272545925669997e-01 3.432220300447688111e-01 -8.408031040643451082e-01
4.483808183236311362e-01 3.117362290757498267e-01 -8.377202189520450704e-01
4.741178520618217762e-01 3.080796404136319500e-01 -8.248025203155551210e-01
4.539840458400060674e-01 2.392956785385117191e-01 -8.582750516912003302e-01
4.720516279422583561e-01 2.558254567542183056e-01 -8.436353455335778850e-01
4.834842633957242009e-01 2.592068962360137285e-01 -8.360949419727322640e-01
4.654939501899540422e-01 2.852050479368589131e-01 -8.378385661736313939e-01
4.656438133692449299e-01 2.847303667230274837e-01 -8.379167365178463722e-01
1.246412243744230292e-01 -1.366667639338514373e-01 9.827445043460145691e-01
7.531817649536493020e-02 -1.012285474977268479e-01 9.920080410263383275e-01
7.088614609252530396e-02 -1.184353033025723895e-01 9.904283079677078661e-01
6.786007485529088612e-02 -8.397244115905931616e-02 9.941547361283467055e-01
9.163940158279772208e-02 -9.285100807650120691e-02 9.914539375970646828e-01
