8.917598874001453346e-01 -4.078136595853994462e-01 1.960926369847784956e-01
8.884672055034914528e-01 -4.147312017358642522e-01 1.965300360035140692e-01
8.864299153061642178e-01 -4.149284713049470330e-01 2.051252518605307662e-01
8.864299153061642178e-01 -4.149284713049470330e-01 2.051252518605307662e-01
8.868178444503626023e-01 -4.196834347221149453e-01 1.934423050531107746e-01
8.868178444503626023e-01 -4.196834347221149453e-01 1.934423050531107746e-01
8.868178444503626023e-01 -4.196834347221149453e-01 1.934423050531107746e-01
8.718013429827443650e-01 -4.331933751784740605e-01 2.287048711220753539e-01
8.718013429827443650e-01 -4.331933751784740605e-01 2.287048711220753539e-01
8.718013429827443650e-01 -4.331933751784740605e-01 2.287048711220753539e-01
-6.641647180033142250e-01 7.329039403608686998e-01 1.474348722761697206e-01
-6.831849304350889884e-01 7.116526961261570028e-01 1.637339027897833088e-01
-8.578818422960685641e-01 -1.701345307347280067e-01 -4.848638841060213256e-01
-7.208264710678505827e-01 6.694515284498921970e-01 1.795657251926781883e-01
-7.549899536764380636e-01 6.298798960487997922e-01 1.823224791439692072e-01
-7.508318934898826624e-01 6.202627326357615933e-01 2.269925334049896493e-01
-8.438589127364745091e-01 -1.569722786632710698e-01 -5.130904784991392464e-01
5.685914069997858311e-01 -7.233604548218938168e-01 3.917313675031232068e-01
5.788866447298389728e-01 -7.290372940462863660e-01 3.652326333216922571e-01
7.970422525508848999e-01 -5.265726351005559636e-01 2.957108513596823918e-01
8.036669707835776277e-01 -5.188662874340533859e-01 2.913711993934033351e-01
3.854914449587051872e-01 -9.097337080256888697e-01 1.542106557455751037e-01
5.347107025626929300e-01 -8.086359290258353649e-01 2.453413924584180172e-01
7.624092267858005867e-01 -5.711357546738250468e-01 3.041975026936252768e-01
7.118134775865069264e-01 -6.486852351033678410e-01 2.693121588140645062e-01
6.692591262014293552e-01 -6.699644383717862084e-01 3.213096221921725171e-01
-3.995044411784562932e-01 -5.458065882810766434e-01 -7.365401344581711252e-01
-5.334824928708771230e-01 -4.518061224884000748e-01 -7.150298297849335682e-01
-3.246955226781266801e-01 -8.161681749331124447e-01 -4.779564078230676416e-01
2.406746639964222889e-01 -9.560919467085244872e-01 -1.672240878262249431e-01
1.289083424439822212e-01 -9.808040460985005815e-01 -1.463081077902222693e-01
2.529486045725938825e-01 -8.650701896305378336e-01 -4.332096149179550659e-01
-3.448407151257031067e-02 -8.523925357912524037e-01 -5.217641361182984161e-01
3.569708520784555805e-01 -9.316382459442643649e-01 6.798521501235293973e-02
5.749713438417886069e-01 -7.969007163339872912e-01 1.853569585074855142e-01
8.015865190324401590e-01 -5.324785917316376960e-01 2.718926292729306193e-01
8.015865190324401590e-01 -5.324785917316376960e-01 2.718926292729306193e-01
6.718869533295281915e-01 -7.391907837839505335e-01 4.652856235081316572e-02
-6.443771713775898746e-01 -2.007867571810212914e-01 -7.378771843255121921e-01
-6.813035476029972726e-01 -1.666299482067717941e-01 -7.127832323955010096e-01
1.267765073354948091e-01 -8.200627113556466785e-01 -5.580545373275253018e-01
8.398674720431764662e-01 -4.821582643590224815e-01 2.492910698643234779e-01
8.398674720431764662e-01 -4.821582643590224815e-01 2.492910698643234779e-01
8.398674720431764662e-01 -4.821582643590224815e-01 2.492910698643234779e-01
8.614683141309211756e-01 -4.813454305210911333e-01 1.617990119404130456e-01
8.614683141309211756e-01 -4.813454305210911333e-01 1.617990119404130456e-01
8.614683141309211756e-01 -4.813454305210911333e-01 1.617990119404130456e-01
8.614242301259715795e-01 -4.589199794477799021e-01 2.175792917892839795e-01
8.614242301259715795e-01 -4.589199794477799021e-01 2.175792917892839795e-01
8.715423485377401525e-01 -4.658767429243841907e-01 1.528816375745871148e-01
8.736441549492677261e-01 -4.584291450721661443e-01 1.630601406579262613e-01
8.736441549492677261e-01 -4.584291450721661443e-01 1.630601406579262613e-01
8.627427857809910616e-01 -4.565701328114829538e-01 2.172984109637242922e-01
8.627427857809910616e-01 -4.565701328114829538e-01 2.172984109637242922e-01
8.775455163643656187e-01 -4.515578463865017600e-01 1.612742325220723472e-01
8.775455163643656187e-01 -4.515578463865017600e-01 1.612742325220723472e-01
8.241379780832992497e-01 -5.140288029417531268e-01 2.378465531115382114e-01
8.241379780832992497e-01 -5.140288029417531268e-01 2.378465531115382114e-01
-8.248424498080872969e-01 5.299055546865317767e-01 1.970660704102861205e-01
-8.248424498080872969e-01 5.299055546865317767e-01 1.970660704102861205e-01
-8.248424498080872969e-01 5.299055546865317767e-01 1.970660704102861205e-01
-8.018504513889650465e-01 5.698608559218498737e-01 1.797065900164211139e-01
-8.018504513889650465e-01 5.698608559218498737e-01 1.797065900164211139e-01
-8.018504513889650465e-01 5.698608559218498737e-01 1.797065900164211139e-01
-8.018504513889650465e-01 5.698608559218498737e-01 1.797065900164211139e-01
-7.818886172659346157e-01 5.929510360110090694e-01 1.925078156424718523e-01
-7.818886172659346157e-01 5.929510360110090694e-01 1.925078156424718523e-01
-7.723462284717732551e-01 5.975462953025816315e-01 2.154523806681824249e-01
-8.445933373983373071e-01 5.075411731602563759e-01 1.704818229884029757e-01
-8.445933373983373071e-01 5.075411731602563759e-01 1.704818229884029757e-01
8.546390276675954745e-01 -4.947030204166062428e-01 1.576738848956094896e-01
8.546390276675954745e-01 -4.947030204166062428e-01 1.576738848956094896e-01
8.546390276675954745e-01 -4.947030204166062428e-01 1.576738848956094896e-01
8.546390276675954745e-01 -4.947030204166062428e-01 1.576738848956094896e-01
8.263858341329975987e-01 -5.313073789477753550e-01 1.865446922856690559e-01
8.263858341329975987e-01 -5.313073789477753550e-01 1.865446922856690559e-01
8.263858341329975987e-01 -5.313073789477753550e-01 1.865446922856690559e-01
8.263858341329975987e-01 -5.313073789477753550e-01 1.865446922856690559e-01
8.263858341329975987e-01 -5.313073789477753550e-01 1.865446922856690559e-01
8.263858341329975987e-01 -5.313073789477753550e-01 1.865446922856690559e-01
8.128638774692916735e-01 -5.547307657260416303e-01 1.775558905319332970e-01
8.128638774692916735e-01 -5.547307657260416303e-01 1.775558905319332970e-01
8.128638774692916735e-01 -5.547307657260416303e-01 1.775558905319332970e-01
7.875240330018038470e-01 -5.852988123414410992e-01 1.929538745821717249e-01
7.875240330018038470e-01 -5.852988123414410992e-01 1.929538745821717249e-01
7.737015010917784874e-01 -5.922665322507324470e-01 2.249585339213006074e-01
-8.228021889936213418e-01 5.154288143368715991e-01 2.394362026482036443e-01
-8.228021889936213418e-01 5.154288143368715991e-01 2.394362026482036443e-01
-8.429181213716129273e-01 4.798168558691944252e-01 2.434436803187781106e-01
-8.429181213716129273e-01 4.798168558691944252e-01 2.434436803187781106e-01
-8.429181213716129273e-01 4.798168558691944252e-01 2.434436803187781106e-01
-8.429181213716129273e-01 4.798168558691944252e-01 2.434436803187781106e-01
-8.566392903430414263e-01 4.870749700812243566e-01 1.700796865029592098e-01
-8.566392903430414263e-01 4.870749700812243566e-01 1.700796865029592098e-01
-8.594277232002908162e-01 4.657040268664006666e-01 2.109591144160005427e-01
-8.594277232002908162e-01 4.657040268664006666e-01 2.109591144160005427e-01
-8.654014956829296779e-01 4.760730498786451270e-01 1.563160338832620677e-01
-8.776537330946305726e-01 4.550469009957181510e-01 1.505199079167008347e-01
-8.776537330946305726e-01 4.550469009957181510e-01 1.505199079167008347e-01
-8.627861348762612126e-01 4.605911582116580805e-01 2.084607167850225928e-01
-8.720644055016352203e-01 4.631012071828899956e-01 1.582433081138970576e-01
-8.720644055016352203e-01 4.631012071828899956e-01 1.582433081138970576e-01
3.633214383712775053e-01 6.017985231848549388e-01 -7.112215336393812315e-01
4.981371000437032071e-01 3.479731528024919140e-01 -7.942128899034208711e-01
7.228300811211771926e-01 1.658509209485176383e-01 -6.708279554750837814e-01
5.411380356418939996e-01 5.021481275049025639e-01 -6.745493936139536073e-01
2.462207275445064125e-01 6.888369406783655391e-01 -6.818203740607374774e-01
7.579894648373689536e-01 1.430574723259791237e-01 -6.363855205826580708e-01
1.843560128348348173e-03 9.906679460396142778e-01 -1.362850761297985380e-01
1.555023385492540766e-01 8.029805128666652747e-01 -5.753619023380852626e-01
1.241555923108165066e-01 8.824688529833928374e-01 -4.536894448982973227e-01
-5.209501529893437732e-01 8.382139587240633460e-01 1.612708823703563610e-01
-3.890375144022567011e-01 9.211847926674455733e-01 -8.269833489825687695e-03
-7.351021059432438776e-01 6.694508060271693317e-01 1.070537815650680902e-01
-7.351021059432438776e-01 6.694508060271693317e-01 1.070537815650680902e-01
-4.363408223005931785e-01 8.929145652049369497e-01 -1.109516382885823577e-01
-4.133498191238346720e-01 9.009364128358411383e-01 -1.321192910092243433e-01
-4.696547905657704747e-01 8.656828625985479864e-01 1.732557621027528416e-01
-4.696547905657704747e-01 8.656828625985479864e-01 1.732557621027528416e-01
-7.310362373548138226e-01 6.091898335623699978e-01 3.073658509957933327e-01
-8.008749023621122287e-01 5.582728465098869552e-01 2.166352224736901311e-01
-7.283121263775599319e-01 6.577321345087063786e-01 1.922235308332933823e-01
-7.735383757181847342e-01 5.670810767582091794e-01 2.829442236095704444e-01
-6.500134053028752135e-01 6.887382508348435239e-01 3.211264466896494030e-01
-5.262517427319951535e-01 7.896310752290570667e-01 3.155025646554101004e-01
-6.650756466638974018e-01 6.508614165849023747e-01 3.661335830208600761e-01
6.384447217666678887e-01 -7.584683282920549052e-01 1.308209930635665375e-01
8.712660893546442242e-01 1.987595674252758127e-01 -4.487650118910589958e-01
9.098293486433778332e-01 2.578748753037128361e-01 -3.251324422973838058e-01
9.098293486433778332e-01 2.578748753037128361e-01 -3.251324422973838058e-01
8.827361334428638351e-01 2.447883997521189958e-01 -4.010680217383821300e-01
8.862644435138066212e-01 2.408153681105672239e-01 -3.956555252298830094e-01
6.947854334843179824e-01 -7.056434661612012160e-01 1.390701264902493572e-01
7.520739400871647717e-01 -6.392676505231673634e-01 1.603797357410128022e-01
7.520739400871647717e-01 -6.392676505231673634e-01 1.603797357410128022e-01
7.200525320878111701e-01 -6.787531438199753131e-01 1.442862460126798085e-01
7.616533872166906249e-01 -6.210229087257973513e-01 1.849720643207826698e-01
7.163523975475117878e-01 -6.670090672229764817e-01 2.047880532898991024e-01
7.508555100285714268e-01 -6.291027425625292935e-01 2.011112686053120879e-01
9.281950936160764387e-01 2.236865178584715175e-01 -2.973519966561430361e-01
9.281950936160764387e-01 2.236865178584715175e-01 -2.973519966561430361e-01
4.977196216883720270e-01 -8.628958324709286032e-01 8.766960984678215385e-02
-8.790925200096045833e-01 4.247107521908203287e-01 2.163726374490785309e-01
-8.790925200096045833e-01 4.247107521908203287e-01 2.163726374490785309e-01
-8.833993525080222620e-01 4.160989781502046903e-01 2.155625764615985152e-01
-8.792661387453356570e-01 4.492399314296373625e-01 1.583494277380338711e-01
-8.792661387453356570e-01 4.492399314296373625e-01 1.583494277380338711e-01
-8.889643191078013817e-01 4.260348300521842879e-01 1.680379806341693039e-01
-8.833396400115098857e-01 4.427461146939450365e-01 1.539056799073777182e-01
-8.746756452975420482e-01 4.331659587628490793e-01 2.175080864988475915e-01
-8.746756452975420482e-01 4.331659587628490793e-01 2.175080864988475915e-01
-8.746756452975420482e-01 4.331659587628490793e-01 2.175080864988475915e-01
-8.751269147190705588e-01 4.325641728705980626e-01 2.168896481694223277e-01
-8.900667448541368376e-01 4.178830288870677978e-01 1.820850457147171753e-01
-8.832803542381830741e-01 4.305820216223552599e-01 1.855126369616786897e-01
7.992382271785187786e-01 -2.470269293048756726e-02 -6.005064805466467925e-01
8.726102756771149105e-01 -1.704133196213704904e-01 -4.577232867992781506e-01
8.596280934885881519e-01 -1.750704218672037848e-01 -4.799894668348613780e-01
8.007187338588080960e-01 -1.320579187878666849e-01 -5.843031878511054655e-01
8.394455249478667280e-01 -2.238022055818535694e-01 -4.952209440458855139e-01
8.423633130836862826e-01 -7.234831623686827085e-02 -5.340316188282915322e-01
7.653793124713794693e-01 -2.306196056465018365e-02 -6.431661169680449319e-01
7.900310622671565808e-01 1.910468955076332631e-01 -5.825392728133645948e-01
8.763814709297348404e-01 -1.573186190496348724e-01 -4.551992635224162420e-01
8.763814709297348404e-01 -1.573186190496348724e-01 -4.551992635224162420e-01
8.508079217355821733e-01 -4.828159729620332824e-02 -5.232540183070807371e-01
-5.947059527902098797e-01 5.670641520972096172e-01 5.698798795554738117e-01
-4.518116513947800228e-01 6.232847196856881045e-01 6.382651407293482571e-01
-6.273673579704227565e-01 6.166109019837557881e-01 4.756061329587650821e-01
-5.866011571644373923e-01 2.007499937754914365e-01 7.846008682205769524e-01
-5.326148276746306420e-01 1.534051240587820386e-01 8.323390614729270220e-01
-4.547574616635294831e-01 2.372076512900695711e-01 8.584452115486418400e-01
-6.207202481816007644e-01 6.568219265164665366e-02 7.812760223287567030e-01
-6.749967375161787242e-01 9.498719960020644837e-02 7.316808294978249805e-01
-7.384179508680549509e-01 1.560870402581374106e-01 6.560303085218528452e-01
-7.061622338446049696e-01 1.255639343815293241e-01 6.968275237633975161e-01
-6.385657484963863650e-01 2.457840530581490157e-01 7.292626304079752320e-01
-6.546162203649547040e-01 1.428836374266371778e-01 7.423354162309881987e-01
-7.965591121275311659e-01 2.964583504343565323e-01 5.268833147332904199e-01
-8.237297947321409186e-01 2.346086586276774077e-01 5.161666422459580961e-01
-7.942681057571256975e-01 2.134338412850358691e-01 5.688445935150491239e-01
-7.446759134645920541e-01 2.547028228676120887e-01 6.169151124173773981e-01
-7.446759134645920541e-01 2.547028228676120887e-01 6.169151124173773981e-01
-7.876323114330420205e-01 2.177414172760859523e-01 5.763887726085972218e-01
-7.708369363344038661e-01 2.726331480083912240e-01 5.757443739973712171e-01
-5.589504166468879376e-01 3.721645411508491263e-01 7.409912185986067268e-01
-5.589504166468879376e-01 3.721645411508491263e-01 7.409912185986067268e-01
-6.188565778475350054e-01 4.275350481445223116e-01 6.589615456632494928e-01
-5.912016569170680524e-01 3.651155970503768278e-01 7.191461615339822533e-01
-7.195455671014470145e-01 2.212718099034492736e-01 6.582499244259043536e-01
-6.451970935983230016e-01 2.817127591714137513e-01 7.101821116673566747e-01
8.876035707171118228e-01 3.179573600831182012e-01 -3.332611864877268459e-01
8.780902880577174940e-01 2.526596278564580134e-01 -4.063502903532257293e-01
8.707469293147190870e-01 3.419532880341552561e-01 -3.533662885613418903e-01
8.845325203211195086e-01 3.161447792079026264e-01 -3.430083075873744392e-01
8.419934092555065863e-01 2.025904819018436998e-01 -5.000041953954663665e-01
8.293112246177891667e-01 2.691402963624873745e-01 -4.897003099823966088e-01
8.479469285233884879e-01 2.320171968829212172e-01 -4.766067842135101595e-01
8.392958640501252399e-01 3.746026953539358106e-01 -3.940244576443447388e-01
7.989687416175172974e-01 4.126800592859653505e-01 -4.374289869062784053e-01
8.302379105560749872e-01 3.776937605681426890e-01 -4.099419899246444232e-01
7.930385688991744564e-01 3.587003019764218315e-01 -4.923656381190438802e-01
7.934735476332924753e-01 3.594293862218049251e-01 -4.911315969538650461e-01
8.676103663915224473e-01 2.581633575630420951e-01 -4.249752145028518613e-01
8.311591857814691897e-01 2.967568381629254737e-01 -4.702231245851573038e-01
8.477350124756715122e-01 3.636925338475451852e-01 -3.860998438829331691e-01
8.583149358980395327e-01 3.144905696903702030e-01 -4.054517879972546202e-01
8.419313510924243404e-01 3.300111743663383113e-01 -4.269007201224134240e-01
8.508870484067294626e-01 3.274347044784944316e-01 -4.108256870702768904e-01
-8.097640696160024465e-01 2.920915422844392317e-01 5.088857263520247809e-01
-7.778242891348406962e-01 3.651139069327012932e-01 5.115478571905258676e-01
-7.709722551340429941e-01 3.715313220611866640e-01 5.172680722227060990e-01
-7.341801971506123348e-01 4.567066543292163661e-01 5.023927447757398079e-01
-6.700405393684476518e-01 4.814880321698392085e-01 5.649911065495238915e-01
-6.904939777112503174e-01 4.430801523367293160e-01 5.717499850019726049e-01
-5.630635476644131332e-01 4.983520816568068335e-02 8.249096273645061261e-01
-8.901795201214121045e-01 3.567807601306439147e-01 2.833512152029922793e-01
-8.803121230598716096e-01 3.771279657054200096e-01 2.877934389049080499e-01
-8.803121230598716096e-01 3.771279657054200096e-01 2.877934389049080499e-01
-8.803121230598716096e-01 3.771279657054200096e-01 2.877934389049080499e-01
-8.954678417225537812e-01 4.007311255619515067e-01 1.937831505745605254e-01
-8.954678417225537812e-01 4.007311255619515067e-01 1.937831505745605254e-01
-8.912091049063164405e-01 3.672909601238237287e-01 2.661647646541557832e-01
-8.828008347073338369e-01 4.205240865796632810e-01 2.093374759721121636e-01
-8.796963573594015484e-01 4.095359536457972571e-01 2.416911697187703045e-01
-8.832935648254166550e-01 3.812958583881381758e-01 2.727745345776625974e-01
3.843676694105304659e-01 3.124042661371336793e-01 -8.687146074581894029e-01
-1.281542896333103809e-01 6.336432247827969988e-01 -7.629369185820276122e-01
-2.437331032454622126e-01 7.071369515198052680e-01 -6.637405413093383499e-01
8.968294883961663855e-01 -2.484323675010897681e-01 -3.660303642061322194e-01
9.105802223368205661e-01 -3.111905438284813807e-01 -2.720369535941037364e-01
8.791720360869450523e-01 -3.031082271447901877e-01 -3.676709583307847806e-01
8.791720360869450523e-01 -3.031082271447901877e-01 -3.676709583307847806e-01
8.879678424762527111e-01 -3.442872959870743599e-01 -3.049251851683911219e-01
8.879678424762527111e-01 -3.442872959870743599e-01 -3.049251851683911219e-01
8.802247746110054560e-01 -2.728454375418754019e-01 -3.882778816435299984e-01
9.071207440263453492e-01 -2.618422505724086191e-01 -3.295005183186600628e-01
8.790932089095482294e-01 -1.633443309661566922e-01 -4.477876277771997704e-01
8.788675070369973419e-01 -1.637104299435913624e-01 -4.480968647538809413e-01
8.978192909399251853e-01 -2.462277358868120158e-01 -3.650923484492443749e-01
8.978192909399251853e-01 -2.462277358868120158e-01 -3.650923484492443749e-01
8.900708193133578527e-01 -2.520699393233187258e-01 -3.797824144117079026e-01
-7.192750537457576199e-01 5.086779948969794019e-01 4.731702595965073810e-01
-8.259317859534974771e-01 2.842662225541706666e-01 4.868566520716841595e-01
-7.866713456331392296e-01 3.881722268764088990e-01 4.800734487987808330e-01
-9.015911226380142196e-01 2.375155786800465796e-01 3.615519291396572243e-01
-9.015911226380142196e-01 2.375155786800465796e-01 3.615519291396572243e-01
-8.877283485583463696e-01 2.841583918346678450e-01 3.622048971449811083e-01
-8.855399866154640698e-01 3.701609574305858574e-01 2.807130166186737052e-01
-9.069441623918303996e-01 2.871751866353839389e-01 3.081926321058204299e-01
-9.069441623918303996e-01 2.871751866353839389e-01 3.081926321058204299e-01
-9.061844477393227182e-01 3.327756496320977142e-01 2.609408241102069703e-01
-9.061844477393227182e-01 3.327756496320977142e-01 2.609408241102069703e-01
-9.061844477393227182e-01 3.327756496320977142e-01 2.609408241102069703e-01
-9.063696293630650880e-01 2.518668457076158607e-01 3.392008063102979198e-01
-9.050871834198677135e-01 2.969130885681037224e-01 3.044007362770993486e-01
-9.050871834198677135e-01 2.969130885681037224e-01 3.044007362770993486e-01
-8.843302478486351204e-01 3.315896849306361194e-01 3.286461525525181671e-01
-8.960258730836472285e-01 2.507290745545673882e-01 3.664322119269781686e-01
-8.950284217867520153e-01 2.529758586469015857e-01 3.673245691970231652e-01
7.982164241571662044e-01 6.559250250098684620e-02 -5.987889142439135615e-01
7.686937033607034175e-01 -6.127875915586795258e-02 -6.366748809949425159e-01
6.476726869410796006e-01 8.652071794534729743e-02 -7.569902614675725339e-01
7.126869704272406070e-01 -5.362728498673513533e-02 -6.994293363079597814e-01
5.072743418271083993e-01 2.072746977276016811e-01 -8.364866656473401996e-01
3.004879125236512016e-01 4.344515847998877134e-01 -8.490929483231176578e-01
-1.286020816820599988e-01 7.801791212098138084e-01 -6.121944490236115310e-01
1.839582579389127392e-01 6.265985747587775601e-01 -7.573200020112694775e-01
-5.394014388593425524e-01 7.260644570472822856e-01 -4.264698019427705655e-01
-4.346395288640021448e-01 7.906187093954701872e-01 -4.312893881174443833e-01
6.432781518833565748e-01 2.179470596084131517e-01 -7.339566053368413723e-01
5.052303518543376226e-01 4.333402443842848117e-01 -7.462965390259493903e-01
-6.076181796192938744e-01 7.741022186114873138e-01 -1.776679569784839485e-01
-8.132630617488503244e-01 5.746217918351342879e-01 9.172234593088726684e-02
-8.254993244037365230e-01 5.607122234341269662e-01 6.444119723074699657e-02
-7.423131495337588204e-01 6.682446814628594245e-01 -4.919587102464050010e-02
-6.889960471077698489e-01 7.246176966600664793e-01 1.461645500550285380e-02
-7.410398560672328827e-01 6.711116375762221642e-01 2.165875411043786253e-02
-5.317720631901730055e-01 7.949600283016655666e-01 -2.919880583398607454e-01
8.935388127174420658e-01 -3.647593107532411949e-01 -2.617996092172875100e-01
8.960799021664787034e-01 -3.621417542114561128e-01 -2.566985757458796757e-01
9.013303090895994352e-01 -3.583087027871976749e-01 -2.433486129473571291e-01
9.013303090895994352e-01 -3.583087027871976749e-01 -2.433486129473571291e-01
8.968337368101151341e-01 -3.091497353771141543e-01 -3.164106345170233925e-01
8.968337368101151341e-01 -3.091497353771141543e-01 -3.164106345170233925e-01
8.837192560681054188e-01 -3.654453683066193337e-01 -2.923866604988568652e-01
8.867616646140362713e-01 -2.708943498031208263e-01 -3.745263694530573950e-01
9.037920237091702225e-01 -2.546717853295140666e-01 -3.439509552781627733e-01
9.037920237091702225e-01 -2.546717853295140666e-01 -3.439509552781627733e-01
9.046422925522725755e-01 -3.390230421904562030e-01 -2.582357438266374983e-01
9.046422925522725755e-01 -3.390230421904562030e-01 -2.582357438266374983e-01
9.037535948476552727e-01 -2.855257740013665835e-01 -3.189113860947279666e-01
8.879561404259668222e-01 -3.031230308810632934e-01 -3.459050748822549703e-01
-8.907574964564501929e-01 1.774934534854065160e-01 4.183863722403740049e-01
-9.023817513548004765e-01 1.508910734025519229e-01 4.036571054611435283e-01
-9.076028725429337030e-01 1.859566872929491466e-01 3.764002340632209842e-01
-9.076028725429337030e-01 1.859566872929491466e-01 3.764002340632209842e-01
-8.943465289905097038e-01 1.454380566558726995e-01 4.230745297920811554e-01
-9.061656130563882083e-01 1.086045810271020762e-01 4.087406594578862906e-01
-9.066472310939620582e-01 1.224389112417214320e-01 4.037319796146863760e-01
-9.097766988176723135e-01 1.235160360263904133e-01 3.962955300438624207e-01
-9.097766988176723135e-01 1.235160360263904133e-01 3.962955300438624207e-01
8.947186499323072084e-01 -1.794764604430352795e-01 -4.089825639439280125e-01
8.927958256156893757e-01 -1.718389900401100512e-01 -4.163976167861607180e-01
8.850108002440815191e-01 -1.854843049680936773e-01 -4.270262943447786785e-01
9.215853223612329170e-01 -3.013671228731161222e-01 -2.446596633274930321e-01
9.159244394618488716e-01 -2.966385062760292790e-01 -2.703479568830214341e-01
9.158159898809798971e-01 -2.968410403960576316e-01 -2.704930117672305068e-01
9.147390444541291243e-01 -3.070543580520715965e-01 -2.626215942232793532e-01
9.144952443161826761e-01 -2.426936505461549376e-01 -3.237255629505740862e-01
9.192820163568830028e-01 -3.220134476392532696e-01 -2.263358432557811273e-01
9.079566626767966442e-01 -2.662419159251705469e-01 -3.236200564014971026e-01
8.288360957625615644e-01 -1.366983083199531102e-01 -5.425350669436371787e-01
8.662037506324241631e-01 -8.880964887790120110e-02 -4.917356084894654034e-01
8.954396268951044791e-01 -1.945491658435047067e-01 -4.004228972668179565e-01
8.812119254635539800e-01 -2.175949841607231205e-01 -4.196641100796093538e-01
8.349318352090827622e-01 -3.031250850442437569e-02 -5.495179545588680936e-01
7.543654350724851021e-01 2.336876215946789154e-02 -6.560386355414095094e-01
7.301352574712044463e-01 1.134007047292067832e-01 -6.738269703450414649e-01
8.201357763151710945e-01 7.816469131303728501e-02 -5.668047189639914274e-01
8.515085970252379566e-01 1.285352229547308267e-02 -5.241830750383977833e-01
9.134458465027356366e-01 -2.986353954421143153e-01 -2.764662476615053488e-01
9.065482528062824841e-01 -2.281407004994374099e-01 -3.551367146740852521e-01
9.079484584447186091e-01 -2.380353626011662282e-01 -3.449184874128822798e-01
9.042677627948932928e-01 -1.548052165263395230e-01 -3.979135058101842537e-01
8.952946263799915760e-01 -1.686970273123677977e-01 -4.122970348560386911e-01
-8.630726273562419060e-01 3.842344825438632205e-01 3.278254144093216138e-01
-8.205099153844289672e-01 5.416479744098134930e-01 1.827045444798326979e-01
-8.731397731380348137e-01 3.913818354102261421e-01 2.905979963375243669e-01
-8.308724234148702203e-01 5.067757308196391142e-01 2.298464153754011530e-01
-8.485121396414706529e-01 4.539655726737437114e-01 2.719235328324001721e-01
-7.631011194855176205e-01 6.283054173015836241e-01 1.513571406621859183e-01
-8.970707060914112629e-01 3.589328355374762358e-01 2.577428327726758450e-01
-8.580018977246560707e-01 4.544383509135832555e-01 2.394128833622616304e-01
-8.406572931360550838e-01 5.059090375212473845e-01 1.932650026556431144e-01
-7.810695448113144090e-01 6.124346789597212570e-01 1.218775212077646691e-01
-8.213899240629359833e-01 4.821435161718714557e-01 3.047231898975013009e-01
-8.795204284497935010e-01 3.132413965376850684e-01 3.582228963014680856e-01
-8.882594445280599382e-01 3.240613914259116712e-01 3.255447339365278858e-01
-8.882594445280599382e-01 3.240613914259116712e-01 3.255447339365278858e-01
4.334833740476324304e-01 6.562281398778982977e-01 -6.176218850208222699e-01
4.588548378385258752e-01 6.599016381450389934e-01 -5.949639197175524696e-01
4.588548378385258752e-01 6.599016381450389934e-01 -5.949639197175524696e-01
5.044998050316764626e-01 6.308838291790778152e-01 -5.894620774938321706e-01
4.827911531194585826e-01 6.755183983335014686e-01 -5.573038632402653736e-01
5.109087219160018956e-01 6.533672322496907325e-01 -5.586443749761884625e-01
8.952548899379938474e-01 -3.597086627754374488e-01 -2.629227262265799170e-01
8.952548899379938474e-01 -3.597086627754374488e-01 -2.629227262265799170e-01
8.785679803845193314e-01 -3.617143708202069652e-01 -3.118990506321053791e-01
8.785679803845193314e-01 -3.617143708202069652e-01 -3.118990506321053791e-01
8.785679803845193314e-01 -3.617143708202069652e-01 -3.118990506321053791e-01
-4.185762832721188764e-01 7.597938901949473633e-01 -4.975008939735958702e-01
-3.685768976766488625e-01 7.933862245390780332e-01 -4.844474885998321656e-01
-3.685768976766488625e-01 7.933862245390780332e-01 -4.844474885998321656e-01
-4.016190390755914330e-01 7.356152051375098866e-01 -5.455019866347857738e-01
-4.016190390755914330e-01 7.356152051375098866e-01 -5.455019866347857738e-01
-3.439491026989172084e-01 7.708906408461618787e-01 -5.361218467926888165e-01
-3.444323947859341817e-01 7.699318363582703384e-01 -5.371883215260807587e-01
-1.788696352825438762e-01 8.479171075156034521e-01 -4.990413132760275206e-01
-2.628552202276082106e-01 8.254312572212504362e-01 -4.995701880629400682e-01
-2.628552202276082106e-01 8.254312572212504362e-01 -4.995701880629400682e-01
-2.523630086536045591e-01 8.350127139588968683e-01 -4.889444542995637910e-01
-1.776458975258508322e-01 8.165803685882315754e-01 -5.492162021722801768e-01
-1.717460101472848277e-01 7.900023311524665415e-01 -5.885572400133715076e-01
-2.636427491666889500e-01 8.048958117748306051e-01 -5.316344919201225760e-01
-1.749371451402763344e-01 8.196528820590831543e-01 -5.454962403008919436e-01
-1.809211566138330951e-01 7.791736297495741592e-01 -6.001299774152148991e-01
-1.809211566138330951e-01 7.791736297495741592e-01 -6.001299774152148991e-01
-2.685133837932833778e-01 7.648851010032438058e-01 -5.855350928741491767e-01
-2.687041303951056004e-01 7.987305320082943583e-01 -5.383564131190015090e-01
-2.687041303951056004e-01 7.987305320082943583e-01 -5.383564131190015090e-01
-2.642223836366033862e-01 7.715233046257697902e-01 -5.787385613597242351e-01
-9.577172124960357802e-02 7.718252599863634211e-01 -6.285805799226306112e-01
9.168414241564081246e-01 -3.402448954141730209e-01 -2.088904356246299721e-01
9.218591639826567707e-01 -3.279501310272361914e-01 -2.064567590087950655e-01
-9.781585887946245284e-02 7.938085181282423797e-01 -6.002500264878937175e-01
-9.196643503790478957e-02 8.314435317074950760e-01 -5.479450961621854521e-01
-8.657918091950633777e-02 8.050519422201718456e-01 -5.868521242688286010e-01
-8.787616680006986314e-02 8.356070180591770313e-01 -5.422533454749508541e-01
-1.510262985428415666e-02 8.442350672144596224e-01 -5.357602652837192281e-01
9.264712461527272458e-01 -2.004686784134113442e-01 -3.185331050729151015e-01
9.311637205815580520e-01 -2.714988842883947484e-01 -2.433566956195516995e-01
9.105182819326717025e-01 -2.150667538002087043e-01 -3.531327649428983584e-01
9.031692726659105164e-01 -2.321113074854704583e-01 -3.611227019304039110e-01
9.199042207322657427e-01 -3.001837927878940326e-01 -2.523210558523358849e-01
9.253554690334859778e-01 -2.835551761728868359e-01 -2.516221730996299200e-01
-8.996508578825656022e-01 2.545553460027771830e-01 3.547251185531835049e-01
-8.974142202814563429e-01 2.137100308089142642e-01 3.859737555434030742e-01
-8.974142202814563429e-01 2.137100308089142642e-01 3.859737555434030742e-01
-9.137599345773450565e-01 1.326805378747525910e-01 3.839774170839639345e-01
-9.137599345773450565e-01 1.326805378747525910e-01 3.839774170839639345e-01
-9.191513377268146767e-01 2.057948064592244330e-01 3.358709811660086642e-01
-9.191513377268146767e-01 2.057948064592244330e-01 3.358709811660086642e-01
-9.191513377268146767e-01 2.057948064592244330e-01 3.358709811660086642e-01
-9.145424417598196909e-01 1.751611903555007621e-01 3.645965984663472881e-01
-9.040080831769212732e-01 1.868442338072971443e-01 3.845238846206469052e-01
-9.139298963827040545e-01 9.116781488375669262e-02 3.955004096422922166e-01
-9.059018310296204080e-01 1.877639763057090683e-01 3.795873571907396049e-01
-9.159588924785997399e-01 1.755460434638943246e-01 3.608363810836562324e-01
-9.178884650464804729e-01 9.697099166655849534e-02 3.848082542121726846e-01
-9.145050859399420640e-01 1.059542914928323504e-01 3.904537564222314572e-01
1.936535043567571834e-01 8.172228943973748327e-01 -5.428121784955868279e-01
2.303969843355307412e-01 8.403078414688870401e-01 -4.907137262956817181e-01
2.303969843355307412e-01 8.403078414688870401e-01 -4.907137262956817181e-01
2.744489572525607990e-01 7.941396805330721564e-01 -5.422360534544083954e-01
2.744489572525607990e-01 7.941396805330721564e-01 -5.422360534544083954e-01
2.317641398690669929e-01 8.245727881983574425e-01 -5.161057066469407761e-01
3.939031792969240886e-01 6.985008644054151450e-01 -5.974419032547542141e-01
3.675809224308650980e-01 7.425413040900862294e-01 -5.599255996871980168e-01
3.675809224308650980e-01 7.425413040900862294e-01 -5.599255996871980168e-01
3.976536235541031639e-01 7.091094479640878134e-01 -5.822674527073948836e-01
3.976536235541031639e-01 7.091094479640878134e-01 -5.822674527073948836e-01
3.711876064078639681e-01 7.503740361997105479e-01 -5.469538980997906696e-01
4.286748943105063714e-01 7.566144712497453462e-01 -4.937331028838802260e-01
4.183262262596700309e-01 7.459762788111391485e-01 -5.181916246664247661e-01
4.183262262596700309e-01 7.459762788111391485e-01 -5.181916246664247661e-01
4.183262262596700309e-01 7.459762788111391485e-01 -5.181916246664247661e-01
4.008622473526993191e-01 7.971749182282183988e-01 -4.514660656075674128e-01
4.008622473526993191e-01 7.971749182282183988e-01 -4.514660656075674128e-01
3.225955087867816151e-01 8.003758270825306331e-01 -5.053025560320791865e-01
3.225955087867816151e-01 8.003758270825306331e-01 -5.053025560320791865e-01
2.907160379990769150e-01 8.435631733018509326e-01 -4.515366628514574932e-01
2.907160379990769150e-01 8.435631733018509326e-01 -4.515366628514574932e-01
3.263703711040215616e-01 8.087491913870614724e-01 -4.892924752090485607e-01
3.263703711040215616e-01 8.087491913870614724e-01 -4.892924752090485607e-01
3.263703711040215616e-01 8.087491913870614724e-01 -4.892924752090485607e-01
3.263703711040215616e-01 8.087491913870614724e-01 -4.892924752090485607e-01
5.371902013254603592e-01 6.732162308308674570e-01 -5.081403291865265182e-01
5.371902013254603592e-01 6.732162308308674570e-01 -5.081403291865265182e-01
4.818354786118061450e-01 6.953023591414150273e-01 -5.332815400173854803e-01
4.818354786118061450e-01 6.953023591414150273e-01 -5.332815400173854803e-01
4.924632353095020898e-01 7.282320785497125026e-01 -4.766109541750624401e-01
4.924632353095020898e-01 7.282320785497125026e-01 -4.766109541750624401e-01
4.994618852912980911e-01 7.020592754719942041e-01 -5.075929460355026457e-01
-1.835714199766518284e-01 8.702369562154257387e-01 -4.571533373001524514e-01
-1.826742835609519167e-01 8.711760858352428638e-01 -4.557217721310652947e-01
-8.792880767367274031e-02 8.555831145941518168e-01 -5.101431748072854377e-01
-8.792880767367274031e-02 8.555831145941518168e-01 -5.101431748072854377e-01
-7.875926238899894072e-02 8.792792689446918830e-01 -4.697498757764911881e-01
-7.875926238899894072e-02 8.792792689446918830e-01 -4.697498757764911881e-01
-8.319720103519739896e-02 8.601540759747010600e-01 -5.032029325471160108e-01
8.098582322386633017e-03 8.758796443145461241e-01 -4.824616685704592456e-01
-7.090563889260334540e-02 8.848085091622402976e-01 -4.605282754482349916e-01
9.238116764117394464e-01 -2.594568533495932861e-01 -2.815210965012377442e-01
9.075426960857833070e-01 -4.538591302089705487e-02 4.175001481204611009e-01
-2.731147424551303923e-02 -9.253150249505499580e-01 -3.782144735137718539e-01
-9.216728836029887129e-01 2.244741017704987296e-01 -3.164339951163264719e-01
-9.216728836029887129e-01 2.244741017704987296e-01 -3.164339951163264719e-01
-9.156557478481065493e-01 2.657796701787053517e-01 -3.015554979641776323e-01
-9.080594989108746740e-01 2.467703206829935658e-01 -3.384262922229057113e-01
-9.080594989108746740e-01 2.467703206829935658e-01 -3.384262922229057113e-01
9.236880590378732103e-02 -8.886937398211267602e-01 -4.491007019574206338e-01
8.631464825812994179e-02 -9.137869442471809878e-01 -3.969171223561345774e-01
2.050835047921140564e-03 -8.990577738771254879e-01 -4.378252086240737029e-01
9.232136758180341241e-02 -8.887367608576424161e-01 -4.490253166449427735e-01
9.800019356371357862e-03 -8.935120673961669535e-01 -4.489322276669858169e-01
9.096548642424565068e-02 -9.098137089539648503e-01 -4.049250489646579743e-01
9.096548642424565068e-02 -9.098137089539648503e-01 -4.049250489646579743e-01
9.836126099096984682e-03 -9.174813678348456847e-01 -3.976571265540996825e-01
9.836126099096984682e-03 -9.174813678348456847e-01 -3.976571265540996825e-01
4.828396148539193522e-03 -9.206437188771895430e-01 -3.903739610714466735e-01
3.157395953930995924e-01 -8.471126868554382794e-01 -4.274442696651365448e-01
3.157395953930995924e-01 -8.471126868554382794e-01 -4.274442696651365448e-01
3.454718395550970822e-01 -8.618843560768629786e-01 -3.712203723186383586e-01
2.667198512885715633e-01 -8.741865987359648260e-01 -4.057811128170548676e-01
2.784546854814386463e-01 -8.885973385301567662e-01 -3.644965817268452923e-01
2.753602278397219161e-01 -8.650964301320323013e-01 -4.192671123482859530e-01
1.962841445146218389e-01 -8.851162627494945090e-01 -4.219499212329952398e-01
2.765642346433529464e-01 -8.903129743084989833e-01 -3.617389001670825999e-01
1.810044668059969941e-01 -9.116637098259937622e-01 -3.689263655291973310e-01
1.930714473017342281e-01 -9.023812303890244024e-01 -3.852681290716948315e-01
1.930714473017342281e-01 -9.023812303890244024e-01 -3.852681290716948315e-01
-6.097532621129909680e-01 -6.973351952903691364e-01 -3.767287946944175570e-01
-5.687243496375710139e-01 -6.737945913454431723e-01 -4.717557236567979095e-01
-5.273765477667926582e-01 -7.267351538335256045e-01 -4.401476945846036770e-01
-5.273765477667926582e-01 -7.267351538335256045e-01 -4.401476945846036770e-01
-5.611256002934713605e-01 -6.960240200185198178e-01 -4.479828392389048064e-01
-5.611256002934713605e-01 -6.960240200185198178e-01 -4.479828392389048064e-01
-5.876425699946412617e-01 -7.055515649326791205e-01 -3.960722145659054116e-01
-5.286384597178118705e-01 -7.388497335814928624e-01 -4.179024408803284629e-01
-5.636640827772226858e-01 -7.301593591960534591e-01 -3.861995753044282220e-01
-4.886635889596415705e-01 -7.835129198023320640e-01 -3.838168851521606695e-01
-4.886635889596415705e-01 -7.835129198023320640e-01 -3.838168851521606695e-01
-4.628139697333581437e-01 -8.308112881421124696e-01 -3.091210651432447221e-01
-4.628139697333581437e-01 -8.308112881421124696e-01 -3.091210651432447221e-01
-4.628139697333581437e-01 -8.308112881421124696e-01 -3.091210651432447221e-01
-4.942720151597500555e-01 -7.921109263111785204e-01 -3.581277082946339174e-01
-4.942720151597500555e-01 -7.921109263111785204e-01 -3.581277082946339174e-01
-4.942720151597500555e-01 -7.921109263111785204e-01 -3.581277082946339174e-01
-2.745490698446145794e-01 -9.074759648192288752e-01 -3.179782720923973738e-01
-3.479645245254274766e-01 -8.835041852361352754e-01 -3.135937568607288783e-01
-2.827117238031509050e-01 -8.820712107501026411e-01 -3.768613277985663479e-01
-2.946459155383606698e-01 -8.947492751677211809e-01 -3.355704382739919112e-01
-2.946459155383606698e-01 -8.947492751677211809e-01 -3.355704382739919112e-01
-3.841678439765005004e-01 -8.549850223689990925e-01 -3.484475271531271567e-01
-3.841678439765005004e-01 -8.549850223689990925e-01 -3.484475271531271567e-01
-3.841678439765005004e-01 -8.549850223689990925e-01 -3.484475271531271567e-01
-3.841678439765005004e-01 -8.549850223689990925e-01 -3.484475271531271567e-01
-4.195308503431743330e-01 -7.983511864294868809e-01 -4.320060748843281284e-01
-4.195308503431743330e-01 -7.983511864294868809e-01 -4.320060748843281284e-01
-3.038573284464168300e-01 -8.562475374401609107e-01 -4.177449922824527651e-01
-3.038573284464168300e-01 -8.562475374401609107e-01 -4.177449922824527651e-01
-3.789529904214197220e-01 -8.455028044139110133e-01 -3.761909605225451370e-01
-3.789529904214197220e-01 -8.455028044139110133e-01 -3.761909605225451370e-01
9.097615290878749983e-01 -1.026082112467513463e-01 4.022505626800707557e-01
8.998646767660217760e-01 -2.010430260462928442e-01 3.870726872138263719e-01
8.901148038749793212e-01 -1.944589560992735500e-01 4.121666535703589762e-01
8.844594790390670758e-01 -1.704447358834434711e-01 4.343731367701800239e-01
9.008510950158945541e-01 -2.244827009846054044e-01 3.715842052177675825e-01
8.544015526828477869e-01 -3.928985027442634670e-01 3.400422816569356188e-01
-9.253593105852467859e-01 1.676209054319162672e-01 -3.400196735122560932e-01
-9.152173990506573542e-01 1.410135891377684025e-01 -3.774814964384801130e-01
-9.005393036150901587e-01 1.903714857564731966e-01 -3.908806212327767260e-01
-8.894734264895424181e-01 1.074440776453207819e-01 -4.441765344408672433e-01
-9.020854542533448539e-01 5.213519789202260279e-02 -4.283967254371772171e-01
3.324074787766693184e-01 -8.251380149986584644e-01 -4.567849869001953667e-01
3.241523314897008512e-01 -8.405202175599436609e-01 -4.341094676032487554e-01
3.241523314897008512e-01 -8.405202175599436609e-01 -4.341094676032487554e-01
3.753525708689192109e-01 -8.352586376920304589e-01 -4.018127122216849090e-01
3.586797948222026911e-01 -8.069518948097439415e-01 -4.692306940613185096e-01
3.586797948222026911e-01 -8.069518948097439415e-01 -4.692306940613185096e-01
9.090551187756692464e-01 -4.428302747330769423e-02 4.143160683651455622e-01
9.043545205126944930e-01 -4.608003998152412906e-02 4.242870857609922219e-01
9.122646106471432592e-01 -1.157695016017878803e-01 3.929003724351627924e-01
9.122646106471432592e-01 -1.157695016017878803e-01 3.929003724351627924e-01
9.018448736093038764e-01 -1.220324496453694257e-01 4.144682197444926608e-01
9.055827381110249652e-01 -2.266147968907775423e-01 3.585605085135429304e-01
9.106535576354682915e-01 -1.199399565194119166e-01 3.953789382301317601e-01
-8.745662960761669824e-01 3.825720216068357882e-01 -2.979470457166388808e-01
-8.744674144053897757e-01 3.231111440690468406e-01 -3.618092449365325480e-01
-8.744674144053897757e-01 3.231111440690468406e-01 -3.618092449365325480e-01
-8.744674144053897757e-01 3.231111440690468406e-01 -3.618092449365325480e-01
-8.779611476755925237e-01 3.907101458504192437e-01 -2.766402087580555613e-01
-8.779611476755925237e-01 3.907101458504192437e-01 -2.766402087580555613e-01
-8.950091238854777087e-01 3.345565337455365107e-01 -2.950094810170023618e-01
-8.770826217917437884e-01 3.843757654124623779e-01 -2.880648286662306767e-01
8.168631041230010048e-01 -4.759501047800093754e-01 3.258928763910520776e-01
7.920131701874331132e-01 -5.680019626527351706e-01 2.238055152856889829e-01
8.734845956996611926e-01 -3.288445154014750238e-01 3.590068881870769335e-01
8.420868888667299990e-01 -4.486969299576198944e-01 2.992669989246362627e-01
7.576973848578255621e-01 -5.982519751767796379e-01 2.607474777954602585e-01
1.691859017818856670e-01 -9.385310523833325647e-01 -3.008913331262372259e-01
5.664008650551630719e-01 -8.238114714518685044e-01 -2.290675815277965280e-02
1.081706409480791831e-01 -9.170265926870073692e-01 -3.838767259703811940e-01
5.871866019304537998e-01 -8.061021342243305243e-01 -7.356115627385345634e-02
6.153288330774479009e-01 -7.812548833783224955e-01 1.049344289595652985e-01
6.599735853021451160e-01 -7.363229738343551878e-01 1.492090644269438993e-01
-5.377172640332388287e-01 -5.374504804354512943e-01 -6.496207547795178616e-01
-3.621864392867271132e-01 -7.384757572923493774e-01 -5.687482211737396876e-01
-7.267034518907036222e-01 -2.417615594030738113e-01 -6.430034536494572128e-01
-7.740308440681996638e-01 -1.598988650903716835e-01 -6.126243591091375951e-01
-8.748385102098127364e-01 5.835002400278051227e-02 -4.808875708029378138e-01
-8.325898406354504955e-01 -1.401330201292671773e-01 -5.358702211730800302e-01
9.100031389637766033e-01 -1.042001309056376085e-01 4.012936827254093841e-01
9.100031389637766033e-01 -1.042001309056376085e-01 4.012936827254093841e-01
9.132582112711616906e-01 -1.988923970810625164e-01 3.555295401638901009e-01
9.132582112711616906e-01 -1.988923970810625164e-01 3.555295401638901009e-01
9.132582112711616906e-01 -1.988923970810625164e-01 3.555295401638901009e-01
9.094164033402322156e-01 -2.189915454343165924e-01 3.535597663253071121e-01
9.094164033402322156e-01 -2.189915454343165924e-01 3.535597663253071121e-01
9.004413173875633891e-01 -2.243566522867081747e-01 3.726520179954087020e-01
8.921407896860340525e-01 -3.308544125812691861e-01 3.076039158624003789e-01
8.899707360376397647e-01 -3.255811622824952845e-01 3.192945282390558526e-01
9.031546557123948382e-01 -3.223401034318019720e-01 2.835639708859374331e-01
-8.520280416023716663e-01 4.362605366673587004e-01 -2.893526576168521935e-01
-8.132190003621924124e-01 4.649008503118154390e-01 -3.500600760287687074e-01
-8.838709547654042264e-01 3.045488366775850331e-01 -3.549959737805803983e-01
-8.803604528093932347e-01 3.085154237263359467e-01 -3.602550574970455055e-01
-8.864557347858141867e-01 3.064325399668859640e-01 -3.468361698479344724e-01
-8.864557347858141867e-01 3.064325399668859640e-01 -3.468361698479344724e-01
-8.964675802273407434e-01 2.001164032273867743e-01 -3.953470662097675059e-01
-8.846764980292451952e-01 2.565501189472944032e-01 -3.892679415297901069e-01
-8.797992745544654936e-01 2.132903317850186053e-01 -4.248063922076420473e-01
-8.846070812266449979e-01 2.533873585437671494e-01 -3.914909429014779008e-01
-8.870263841095790136e-01 2.844687960240834812e-01 -3.636780141582575676e-01
-9.006164421630028505e-01 2.415898294598863016e-01 -3.612815777301657816e-01
3.927667374172769676e-01 -8.381571161785992263e-01 -3.784533505965587685e-01
6.091495297392746089e-02 -8.453002901773998268e-01 -5.308076750859841431e-01
8.990386263422852631e-01 -3.073529939227170882e-01 3.118712642603014840e-01
8.907420629470430562e-01 -3.851484297163326742e-01 2.413281259693720315e-01
8.840758801812527157e-01 -4.007539842263536656e-01 2.404289545966681318e-01
8.808341943878590374e-01 -4.039833238812388649e-01 2.468371852516501597e-01
8.994246220975964379e-01 -3.133324168781025931e-01 3.047263455921106479e-01
8.994246220975964379e-01 -3.133324168781025931e-01 3.047263455921106479e-01
8.837409888266938296e-01 -3.926478765764106482e-01 2.546163971303755935e-01
9.027405359918273531e-01 -3.063755204445650637e-01 3.019827232632855130e-01
8.871017516385544255e-01 -3.739331700805034742e-01 2.706001968834348959e-01
8.769782372065607623e-01 -4.268067193211063093e-01 2.207831420385799881e-01
8.948234843810399797e-01 -4.103210578966604016e-01 1.758623360664245405e-01
-7.405115564131229400e-01 4.868760708350864386e-01 -4.632432692083092163e-01
-8.264974978866022060e-01 4.858758752924789981e-01 -2.843000524023049924e-01
-8.029894139498191530e-01 4.671209762288723311e-01 -3.701432083012074492e-01
-9.001232274865738070e-01 2.066759830581431368e-01 -3.834882180277564001e-01
-8.969616917808026502e-01 1.485064700104165303e-01 -4.164199224854230885e-01
-8.969616917808026502e-01 1.485064700104165303e-01 -4.164199224854230885e-01
-8.895388784934653570e-01 9.098365612552040960e-02 -4.477081169318029019e-01
-8.895388784934653570e-01 9.098365612552040960e-02 -4.477081169318029019e-01
-8.675517537046087968e-01 1.615701853882916539e-01 -4.703711617835971692e-01
-8.609232595465952098e-01 9.102362293763729961e-02 -5.005255650203821460e-01
-8.609232595465952098e-01 9.102362293763729961e-02 -5.005255650203821460e-01
-8.299203601434955724e-01 -7.337217592454765847e-02 -5.530359116905408934e-01
-8.832551156719464780e-01 -1.269353420122062764e-03 -4.688910207939913644e-01
9.001738901233427015e-01 -3.833163526319543490e-01 2.067741312281191901e-01
9.001738901233427015e-01 -3.833163526319543490e-01 2.067741312281191901e-01
8.971242475088082591e-01 -4.161928184193114388e-01 1.481607992282191755e-01
8.971242475088082591e-01 -4.161928184193114388e-01 1.481607992282191755e-01
8.893099069852613558e-01 -4.482359088408277570e-01 9.062262059498810141e-02
8.673255413994296337e-01 -4.708686277863036729e-01 1.613354908345633887e-01
8.284785482436917148e-01 -5.599569998028730566e-01 8.453015544178767507e-03
8.610713687079534218e-01 -5.002962786791798067e-01 9.088306515064194235e-02
8.299802007619077049e-01 -5.529743573900671727e-01 -7.315891204949470650e-02
8.833090273717527641e-01 -4.687897440896766077e-01 -1.156719457607708734e-03
4.720082821976775977e-01 -2.566156039953264023e-01 8.434195950551014453e-01
-5.834349723863260229e-01 8.060904241556331451e-01 9.910530299211287031e-02
4.698211743654504002e-01 -4.171381253107533382e-01 7.779870490760751878e-01
5.068799127920073921e-01 -5.298241548896946984e-01 6.799699397057107353e-01
5.904840746254127470e-01 -3.775510684412486384e-01 7.132907880609713480e-01
6.247386047281218158e-01 -1.216130044889007639e-01 7.713053564584794186e-01
5.759017354763412699e-01 -1.699431368948983723e-01 7.996602536688065532e-01
5.947794656728048190e-01 -2.905071224558733456e-01 7.495618713731249105e-01
6.030879693363062621e-01 -5.812651723198577480e-01 5.462743822382454262e-01
3.284571355476343379e-01 -4.729122731670974411e-01 8.176000807214804933e-01
6.294497643794304542e-01 -4.650789825817202017e-01 6.224905895541164025e-01
4.430925370636073501e-01 -6.695155583155827372e-01 5.961693725544019440e-01
-6.867242540790952088e-01 -5.910603735329509334e-01 -4.231517856497816199e-01
-7.351735613225774957e-01 -5.937900916552926178e-01 -3.270063635226042043e-01
-8.212436642590639213e-01 -3.727876386250667529e-01 -4.319585864439930978e-01
