-5.262593444991495728e-01 -5.653356548058676573e-02 -8.484427254101349902e-01
-5.262593444991495728e-01 -5.653356548058676573e-02 -8.484427254101349902e-01
7.587339495535955214e-01 -2.385705101898552005e-01 6.061409947054846592e-01
1.718078255142002353e-01 6.316564914129514374e-01 7.559709967637396888e-01
-1.762570885156336253e-01 -8.230053570021979015e-01 -5.399959454418866711e-01
-1.762570885156336253e-01 -8.230053570021979015e-01 -5.399959454418866711e-01
-5.502707173076099023e-01 -3.019959390424931667e-01 -7.784603974998414166e-01
-3.904210305746958487e-01 -4.202756024883814168e-01 -8.191091727224280028e-01
4.469144997143919551e-01 5.235237124501158634e-01 7.253897934541698733e-01
4.469144997143919551e-01 5.235237124501158634e-01 7.253897934541698733e-01
-5.548570060318525066e-01 -3.509927109655632260e-01 -7.542796694240229138e-01
-5.548570060318525066e-01 -3.509927109655632260e-01 -7.542796694240229138e-01
-5.548570060318525066e-01 -3.509927109655632260e-01 -7.542796694240229138e-01
-5.548570060318525066e-01 -3.509927109655632260e-01 -7.542796694240229138e-01
-5.680589529340822619e-01 -2.492321191861797125e-01 -7.843420024182052863e-01
-5.751340393462751610e-01 -2.556250276190284443e-01 -7.770950276768009424e-01
4.428662626848279826e-01 6.288940367035043000e-01 6.390318958974930963e-01
7.676756980250122320e-01 -1.518273964223558758e-01 6.225933378678406571e-01
7.676756980250122320e-01 -1.518273964223558758e-01 6.225933378678406571e-01
-3.787853605931041923e-01 -5.321151983596804635e-01 -7.572153367932993318e-01
-5.398464711698701679e-01 -4.839643440132477825e-01 -6.887265794851141765e-01
-5.398464711698701679e-01 -4.839643440132477825e-01 -6.887265794851141765e-01
6.345489170136620061e-01 5.376664226724491291e-01 5.552139135931303260e-01
6.345489170136620061e-01 5.376664226724491291e-01 5.552139135931303260e-01
7.146134708435146754e-01 4.368256158790748134e-01 5.463615731371050943e-01
7.146134708435146754e-01 4.368256158790748134e-01 5.463615731371050943e-01
-5.603322454022870158e-02 8.415756054016987342e-01 5.372250721442444199e-01
-5.027129386063569072e-01 -5.800999851703696475e-01 -6.409085024893165228e-01
-1.140661007474409600e-01 8.268919237411871404e-01 5.506711097487078099e-01
-3.839513949359927292e-01 -7.151745654709735778e-01 -5.840433778668409071e-01
7.200482895176795184e-01 3.731378466509487901e-01 5.850629095741387564e-01
7.795189927892987036e-01 3.013561778694145987e-01 5.491216567762511325e-01
-3.741650706556043926e-01 -6.545094091395053937e-01 -6.569763566896011930e-01
1.654433852877111588e-01 -7.314949614029039315e-01 -6.614707912725293903e-01
7.568535459490361994e-01 3.439164526934871402e-01 5.557824966217437268e-01
7.568535459490361994e-01 3.439164526934871402e-01 5.557824966217437268e-01
-1.268322406535578872e-01 7.275007470886273309e-01 6.742820223884713471e-01
-2.394467912022105183e-01 -7.609684370332789882e-01 -6.029861292120188843e-01
-3.197536334510833744e-01 7.527555456271179946e-01 5.754274084734322114e-01
-3.197536334510833744e-01 7.527555456271179946e-01 5.754274084734322114e-01
2.550339290086457988e-01 -7.641192194452915976e-01 -5.925196313445919571e-01
-1.680451769097803805e-01 -7.722873095398843368e-01 -6.126443748546194223e-01
-5.945743250491934973e-01 2.095598335239521881e-01 -7.762512790106752547e-01
-5.945743250491934973e-01 2.095598335239521881e-01 -7.762512790106752547e-01
-2.473820287906885462e-01 -6.978501626783359946e-01 -6.721661121190376509e-01
-5.565030498010720139e-01 6.126313979790510844e-01 5.612371386253220962e-01
-5.565030498010720139e-01 6.126313979790510844e-01 5.612371386253220962e-01
8.392239646743649972e-01 1.163127586571889929e-02 5.436615220318388175e-01
8.392239646743649972e-01 1.163127586571889929e-02 5.436615220318388175e-01
8.392239646743649972e-01 1.163127586571889929e-02 5.436615220318388175e-01
-3.705367587992705602e-01 7.550341244682504671e-01 5.409491485038071534e-01
-4.599038818571252740e-01 6.990366463647237349e-01 5.475729964962730012e-01
-8.145052528543315074e-01 1.513985649900011499e-01 -5.600532721015650806e-01
6.253477685837369737e-01 -4.355388285668856940e-01 -6.474921599046014054e-01
6.253477685837369737e-01 -4.355388285668856940e-01 -6.474921599046014054e-01
-4.233357788703400182e-01 6.730473424119620685e-01 6.064602981238240709e-01
-8.385631635231832748e-01 4.047527881286032692e-01 -3.646738286251335337e-01
8.141025363497215173e-01 -2.161943914337891362e-02 5.803185850548611135e-01
8.141025363497215173e-01 -2.161943914337891362e-02 5.803185850548611135e-01
-8.788072680151485239e-01 1.993332298803145164e-01 -4.335482085642062278e-01
3.717865486771343431e-01 7.605406838116629542e-01 5.323087736361602484e-01
3.717865486771343431e-01 7.605406838116629542e-01 5.323087736361602484e-01
8.082106905252456341e-01 -4.406230660396676796e-02 5.872427035369991444e-01
3.479952372049806564e-01 7.607277841502416704e-01 5.478983056229618231e-01
5.836728984372472340e-01 -5.453906461020940899e-01 -6.015604631075776032e-01
5.836728984372472340e-01 -5.453906461020940899e-01 -6.015604631075776032e-01
-8.183901902529648886e-01 -2.589992932278269988e-01 -5.129881700441072390e-01
-8.183901902529648886e-01 -2.589992932278269988e-01 -5.129881700441072390e-01
5.430929504271647668e-01 -4.852273989135754140e-01 -6.852768918764757800e-01
5.430929504271647668e-01 -4.852273989135754140e-01 -6.852768918764757800e-01
5.430929504271647668e-01 -4.852273989135754140e-01 -6.852768918764757800e-01
4.852980907434346625e-01 6.378384081473043032e-01 5.980367281471011820e-01
4.852980907434346625e-01 6.378384081473043032e-01 5.980367281471011820e-01
2.300199979087411140e-01 7.752511405753699236e-01 5.882826443119419935e-01
2.300199979087411140e-01 7.752511405753699236e-01 5.882826443119419935e-01
-7.810547098155532497e-01 -2.832821845860737375e-01 -5.565112255571161848e-01
8.267271476901855154e-01 -9.142510432642930729e-02 5.551249170870928840e-01
8.267271476901855154e-01 -9.142510432642930729e-02 5.551249170870928840e-01
8.355885429312547297e-01 -1.114025019633564234e-01 5.379416970995343217e-01
8.148951951216161227e-01 -1.740568874637151708e-01 5.528562389031589364e-01
5.433380995799786950e-01 -5.566592011114158689e-01 -6.284220264780807641e-01
8.111480750970921916e-01 -1.784837713142984894e-01 5.569401616365149410e-01
8.111480750970921916e-01 -1.784837713142984894e-01 5.569401616365149410e-01
1.869814818663911860e-01 7.275970439489802821e-01 6.600306561636015701e-01
1.869814818663911860e-01 7.275970439489802821e-01 6.600306561636015701e-01
5.588501969442889461e-01 -4.683660724370974360e-01 -6.843388631118191290e-01
5.588501969442889461e-01 -4.683660724370974360e-01 -6.843388631118191290e-01
5.588501969442889461e-01 -4.683660724370974360e-01 -6.843388631118191290e-01
5.699767351799136517e-01 -4.794767321366193991e-01 -6.672545126810570659e-01
-7.533031075922426156e-01 -3.474877478683595089e-01 -5.583786288650789409e-01
8.344442717476787674e-01 -1.814770725567557141e-01 5.203545228819635993e-01
8.344442717476787674e-01 -1.814770725567557141e-01 5.203545228819635993e-01
8.344442717476787674e-01 -1.814770725567557141e-01 5.203545228819635993e-01
-5.507151383555327628e-01 -8.167934023938419053e-01 -1.719342147216140759e-01
-5.430412473016932307e-01 -8.256591857346508023e-01 -1.529480720408549210e-01
7.013523546197504566e-02 8.481398703464395616e-01 5.251093305926091137e-01
6.161441848677758903e-01 1.818505321246788597e-01 -7.663528739553308045e-01
-8.447749746481824085e-01 -4.485581853609135750e-02 5.332384061108313977e-01
1.154667660136412671e-01 8.403070328249486742e-01 5.296711399833687883e-01
1.154667660136412671e-01 8.403070328249486742e-01 5.296711399833687883e-01
1.470245530559853298e-01 8.301154989262827799e-01 5.378587539875655521e-01
-5.685702622364636749e-01 -8.222275491017310145e-01 -2.587884074914043389e-02
-6.163479483555354133e-01 -7.614605004643473785e-02 7.837837620289465068e-01
6.074197043041343891e-01 -5.901148925191683769e-01 5.317948067160568337e-01
-5.807588601639975812e-01 -7.262464269018414909e-02 8.108297032146376537e-01
6.578943354296460377e-01 -5.072624066094306716e-01 5.566506033863548586e-01
-4.093291048200553561e-01 -2.176367432484894171e-01 8.860496215988150626e-01
6.016537439696122425e-01 -5.803749376385898273e-01 5.487965963162957372e-01
-6.066631895975025390e-01 -7.949573687945572509e-01 -1.598807874301888966e-03
-6.066631895975025390e-01 -7.949573687945572509e-01 -1.598807874301888966e-03
7.138531743440097443e-01 -4.340342825272991423e-01 5.495706388354397731e-01
7.138531743440097443e-01 -4.340342825272991423e-01 5.495706388354397731e-01
-3.037418801631346921e-01 9.004422787588944876e-02 9.484898034566311420e-01
6.295987053071934181e-01 1.337171155859157579e-01 -7.653268604164423783e-01
-5.908578889449033200e-01 -7.249584417479169041e-01 -3.540087750466142658e-01
-5.908578889449033200e-01 -7.249584417479169041e-01 -3.540087750466142658e-01
-5.321210947905826716e-01 3.784066071484899485e-01 7.574005414212747755e-01
-5.321210947905826716e-01 3.784066071484899485e-01 7.574005414212747755e-01
-6.535738820707301944e-01 -6.907792234098298900e-01 -3.092979876758134017e-01
-5.666680755995870955e-01 3.916146396483399794e-01 7.249312147434137099e-01
8.504503894610082604e-01 5.159299031469027907e-01 -1.027154813280196088e-01
8.291279410466102506e-01 5.453396443296207874e-01 -1.230915500684415798e-01
-5.606785372171093629e-01 -5.509108222377149255e-01 6.181721797731173362e-01
-5.606785372171093629e-01 -5.509108222377149255e-01 6.181721797731173362e-01
6.058223809842968599e-01 7.396488989604339537e-01 -2.930848835493485849e-01
6.161576103961112771e-01 6.824404152668841483e-01 -3.932237006607264274e-01
-5.752164047214105569e-01 -7.882025791596877218e-01 2.187756429436114869e-01
5.872574647914446944e-01 1.579091210502096831e-01 -7.938472016300587297e-01
5.872574647914446944e-01 1.579091210502096831e-01 -7.938472016300587297e-01
-7.804611567432475638e-01 2.776139538208442174e-03 6.251981092935713358e-01
-5.794092966124392285e-01 -7.633442717022183022e-01 2.856403155342192579e-01
-5.794092966124392285e-01 -7.633442717022183022e-01 2.856403155342192579e-01
-5.794092966124392285e-01 -7.633442717022183022e-01 2.856403155342192579e-01
5.936695659150287296e-01 7.674562642557201109e-01 -2.420068779206815957e-01
5.875606014493796048e-01 1.828646231912945952e-01 -7.882468326669946901e-01
-6.107509663748854623e-01 -6.977910820793342683e-01 3.742604211544350301e-01
-6.107509663748854623e-01 -6.977910820793342683e-01 3.742604211544350301e-01
5.716880621598393608e-01 5.345458033424619476e-02 -8.187278958391593919e-01
5.814938718456309497e-01 5.277014552863661806e-02 -8.118375383947599166e-01
5.814938718456309497e-01 5.277014552863661806e-02 -8.118375383947599166e-01
6.128480533785549689e-01 7.777760983593651201e-01 -1.395765176919056549e-01
-8.228502636229239053e-01 -1.141798014867455857e-01 5.566690368505615716e-01
-5.406825534519629217e-01 -7.091665317795837753e-01 4.524877971795280285e-01
-5.406825534519629217e-01 -7.091665317795837753e-01 4.524877971795280285e-01
-5.406825534519629217e-01 -7.091665317795837753e-01 4.524877971795280285e-01
7.841893368964321098e-01 -5.659370212712441228e-01 2.544845218329898073e-01
5.343810904062353817e-01 -4.188403324408246364e-02 -8.442052937381117061e-01
5.343810904062353817e-01 -4.188403324408246364e-02 -8.442052937381117061e-01
5.495568211858029573e-01 -5.432722579541826580e-02 -8.336881028451400555e-01
5.495568211858029573e-01 -5.432722579541826580e-02 -8.336881028451400555e-01
-7.334928950935455383e-01 -1.144336503745968514e-01 6.699948600618018668e-01
5.460943467563679210e-01 8.313101877932789208e-01 1.034617615925771394e-01
5.460943467563679210e-01 8.313101877932789208e-01 1.034617615925771394e-01
-5.527901529480024889e-01 -6.543697969209046894e-01 5.159682312714783947e-01
5.770470999429337944e-01 8.004319510842103913e-01 1.622508432365580844e-01
-6.675244184593227548e-01 -6.979393868006554813e-01 2.594065595023915538e-01
5.911418439853777240e-01 8.016938155824819834e-01 8.853443593522584976e-02
-6.792578064281901140e-01 -7.127612027643834836e-01 1.748722397644425219e-01
-6.126852384854318823e-01 -5.476799849443626522e-01 5.697924469781886492e-01
-6.126852384854318823e-01 -5.476799849443626522e-01 5.697924469781886492e-01
-6.167529120685073529e-01 -5.295539332413916611e-01 5.823988987314345778e-01
-6.167529120685073529e-01 -5.295539332413916611e-01 5.823988987314345778e-01
-6.044820277628869531e-01 -7.923370296978533567e-01 8.248338912321333261e-02
-6.044820277628869531e-01 -7.923370296978533567e-01 8.248338912321333261e-02
-5.687056792771686409e-01 -8.134646609654386795e-01 1.218568657002066513e-01
5.879030779364539105e-01 -7.794084072044409062e-02 -8.051678062991800555e-01
5.879030779364539105e-01 -7.794084072044409062e-02 -8.051678062991800555e-01
5.551025921516755668e-01 -8.317804465063345365e-01 -1.549514831615947212e-03
-6.241294494310956065e-01 -5.621325954069219533e-01 5.426503252868419835e-01
-6.241294494310956065e-01 -5.621325954069219533e-01 5.426503252868419835e-01
5.996421023255801286e-01 -8.000909955184214439e-01 -1.684482142676869618e-02
5.996421023255801286e-01 -8.000909955184214439e-01 -1.684482142676869618e-02
-5.471450991813049392e-01 -8.308793931055431514e-01 1.013492701228990711e-01
-6.751726832879355600e-01 -4.014096915497695761e-01 6.188797195511320792e-01
6.709956259568481407e-01 7.189169570782303342e-01 1.814477301377882268e-01
6.709956259568481407e-01 7.189169570782303342e-01 1.814477301377882268e-01
7.693504125520599368e-01 1.168850329857517995e-01 -6.280428582269642623e-01
5.830208437986957870e-01 -8.100791783888162678e-01 6.211618498553495710e-02
5.830208437986957870e-01 -8.100791783888162678e-01 6.211618498553495710e-02
6.716361937466637233e-01 6.942537165734766758e-01 2.586824313195786873e-01
5.903928459939254969e-01 -8.057193349499230939e-01 4.746199202568920916e-02
6.651798629425349496e-01 -7.451214418781336724e-01 4.826786497455111402e-02
-5.997653743137811855e-01 -7.653057983966528033e-01 -2.336418856170953684e-01
-5.997653743137811855e-01 -7.653057983966528033e-01 -2.336418856170953684e-01
-8.454923686668579519e-01 4.599441044298613335e-02 5.320029781252245682e-01
6.171576750507988818e-01 7.501212655190724332e-01 2.375594475956655238e-01
-5.917102714616311321e-01 -7.740384578347531130e-01 -2.252630028202587120e-01
6.470646705862593828e-01 -7.394101972553281943e-01 1.859566408438596274e-01
-8.371566941151783459e-01 1.163551538075189712e-01 5.344437741059149261e-01
-8.371566941151783459e-01 1.163551538075189712e-01 5.344437741059149261e-01
-8.371566941151783459e-01 1.163551538075189712e-01 5.344437741059149261e-01
6.837910516108973713e-01 -7.263989590872952373e-01 6.909667122052340349e-02
6.837910516108973713e-01 -7.263989590872952373e-01 6.909667122052340349e-02
6.837910516108973713e-01 -7.263989590872952373e-01 6.909667122052340349e-02
-7.890881986638292878e-01 3.015903619037585415e-01 5.351477070269788916e-01
-7.890881986638292878e-01 3.015903619037585415e-01 5.351477070269788916e-01
5.588487797829799764e-01 6.256114473743403792e-01 5.443329479732577081e-01
-6.065697403731186155e-01 -7.374750615427206890e-01 -2.969910498083199735e-01
-6.065697403731186155e-01 -7.374750615427206890e-01 -2.969910498083199735e-01
-8.386658441572220068e-01 -5.214445959442739476e-01 -1.572740767086775460e-01
6.121895801514785074e-01 -7.850564716054221348e-01 9.439414359165294865e-02
6.121895801514785074e-01 -7.850564716054221348e-01 9.439414359165294865e-02
-8.071490237138311263e-01 -5.117099870884810331e-01 -2.943863832308069584e-01
6.110356252067754568e-01 -7.862814103077925276e-01 9.163519265300690275e-02
6.110356252067754568e-01 -7.862814103077925276e-01 9.163519265300690275e-02
-6.152781192885163897e-01 5.468606250645042799e-01 5.677819059100474020e-01
-7.518657865000754059e-01 3.495787993297714280e-01 5.590102880536085284e-01
-7.518657865000754059e-01 3.495787993297714280e-01 5.590102880536085284e-01
5.346965979824351844e-01 -8.444945845449315369e-01 -3.047039186314907250e-02
-7.232669841008879663e-01 4.036068087010289407e-01 5.603449059996681303e-01
-3.236731243863879559e-01 -8.215436042438253872e-02 -9.425955493281382713e-01
5.248529236356131999e-01 -8.504464596309050384e-01 -3.564025606541976893e-02
5.248529236356131999e-01 -8.504464596309050384e-01 -3.564025606541976893e-02
-8.019467244636583336e-01 2.285266410874476073e-01 -5.519574489354214242e-01
-8.019467244636583336e-01 2.285266410874476073e-01 -5.519574489354214242e-01
-6.369214382692676146e-01 4.872597350478338751e-01 5.974186405479179340e-01
5.436095493853504435e-01 6.357842002626813427e-01 5.479663388506622601e-01
5.389354031918250909e-01 7.065433164029689683e-01 4.586340297369559393e-01
5.454464157407784564e-01 6.899468886824030589e-01 4.758797099614666681e-01
5.454464157407784564e-01 6.899468886824030589e-01 4.758797099614666681e-01
-1.346044020912489335e-02 -5.621657466517683277e-01 8.269150439076775605e-01
-1.346044020912489335e-02 -5.621657466517683277e-01 8.269150439076775605e-01
-1.346044020912489335e-02 -5.621657466517683277e-01 8.269150439076775605e-01
-5.334641319577558827e-01 5.482763137848641888e-01 6.440567549968240213e-01
-5.334641319577558827e-01 5.482763137848641888e-01 6.440567549968240213e-01
2.543214380909055716e-01 -3.871630904213178015e-01 8.862422623316879022e-01
5.604827521264665879e-01 7.770108470602958839e-01 2.865540579356423145e-01
5.604827521264665879e-01 7.770108470602958839e-01 2.865540579356423145e-01
-2.361144483742686206e-01 5.362029553154846750e-01 8.103927183655188493e-01
-8.587611417608626008e-02 -2.681897807486884333e-01 9.595308929450818702e-01
-1.587130209788852886e-01 5.446460020896484178e-01 8.235113292356813774e-01
5.438787534442605098e-01 -8.187611999694365261e-01 -1.839184574112278092e-01
-5.446887661566849337e-01 -2.986017464259986542e-02 -8.381065075472339254e-01
-1.079298952777257431e-01 5.509487788711772138e-01 8.275304107799893449e-01
-1.079298952777257431e-01 5.509487788711772138e-01 8.275304107799893449e-01
-4.113895155849625618e-01 -5.477739170425259818e-01 7.284932410631259625e-01
8.073141873240697874e-01 -4.830172180099858159e-01 -3.390253236134000980e-01
8.073141873240697874e-01 -4.830172180099858159e-01 -3.390253236134000980e-01
-4.799109848150520663e-02 5.635669261678888375e-01 8.246751931495306387e-01
-4.799109848150520663e-02 5.635669261678888375e-01 8.246751931495306387e-01
-4.799109848150520663e-02 5.635669261678888375e-01 8.246751931495306387e-01
6.121299093182664963e-01 7.282663403373077493e-01 -3.080991912513167952e-01
6.121299093182664963e-01 7.282663403373077493e-01 -3.080991912513167952e-01
6.121299093182664963e-01 7.282663403373077493e-01 -3.080991912513167952e-01
-6.246502736723209548e-01 -9.193821582648060986e-02 -7.754736617524400355e-01
-6.246502736723209548e-01 -9.193821582648060986e-02 -7.754736617524400355e-01
7.485439359337905385e-01 -5.476196591959063831e-01 -3.738912740876799701e-01
3.593164234921066014e-02 5.692556046145044180e-01 8.213750505664650925e-01
3.593164234921066014e-02 5.692556046145044180e-01 8.213750505664650925e-01
-2.215299734815388659e-03 -8.432054400408945938e-01 5.375869030515219027e-01
-3.089280288660030682e-01 -8.544129325984265444e-01 -4.177822561927715950e-01
3.640925743608749987e-02 -8.125311057193499442e-01 5.817796560652868099e-01
5.672320812486860708e-01 8.223336391441690152e-01 -4.489044368450331030e-02
3.909032615598780763e-02 -8.136976216256692762e-01 5.799725225920170368e-01
1.262479238159285033e-01 5.426352503408623518e-01 8.304266655278341736e-01
1.262479238159285033e-01 5.426352503408623518e-01 8.304266655278341736e-01
5.312463745869543397e-01 8.393149052570425539e-01 -1.154460016699536268e-01
5.312463745869543397e-01 8.393149052570425539e-01 -1.154460016699536268e-01
-2.034859881858182007e-01 2.572330155410108565e-01 -9.446822896231934497e-01
5.387849908235310403e-01 8.335303111392677877e-01 -1.222209232306934457e-01
5.387849908235310403e-01 8.335303111392677877e-01 -1.222209232306934457e-01
-3.862373469636917744e-01 2.071583725396890785e-01 -8.988359808647826688e-01
5.544802647527345973e-01 8.099474059934962389e-01 -1.911461104080959539e-01
5.429295218997557404e-01 8.202064887216450328e-01 -1.802466368857201240e-01
5.898495987985753475e-01 -7.735418183289424210e-01 -2.317552719864496014e-01
5.513047039444529673e-01 3.070272404225287202e-02 8.337388476885938537e-01
5.513047039444529673e-01 3.070272404225287202e-02 8.337388476885938537e-01
5.041200367079996525e-01 -6.840283671676692379e-01 5.272268785821311310e-01
5.533194242260510709e-01 4.531042252155446926e-02 8.317358837906836388e-01
5.533194242260510709e-01 4.531042252155446926e-02 8.317358837906836388e-01
3.708224403086894938e-01 5.778930025205667453e-01 7.270009596976283461e-01
5.430473192321755294e-01 -6.314097059497719711e-01 5.535534231735634858e-01
4.113370253432128143e-01 -7.179923647482623350e-01 5.615058465813115296e-01
9.222943919027827286e-01 1.895255130377242192e-01 3.368280489692977997e-01
8.957399511655939062e-01 2.826725642558493568e-01 3.431416053218876994e-01
8.324954342803507767e-01 1.781753231281952843e-01 5.245997580351455802e-01
8.599923572314457365e-01 1.050812788501932493e-01 4.993706742878572524e-01
-7.593466787687824793e-01 3.251166143304350942e-01 -5.636415603281349496e-01
-7.593466787687824793e-01 3.251166143304350942e-01 -5.636415603281349496e-01
8.197267662451399595e-01 1.821517234320852163e-01 5.430182118050983497e-01
6.140704328181166849e-01 2.778612810903537400e-01 7.387222834119722137e-01
6.140704328181166849e-01 2.778612810903537400e-01 7.387222834119722137e-01
5.041303475356182506e-01 5.539478954813833456e-01 6.625664659378434074e-01
5.041303475356182506e-01 5.539478954813833456e-01 6.625664659378434074e-01
-9.953867427158889780e-02 -8.350769934399520089e-01 5.410531095479857999e-01
-9.953867427158889780e-02 -8.350769934399520089e-01 5.410531095479857999e-01
6.750667084024539744e-01 2.995181039710183984e-02 7.371484438433091313e-01
6.747398922465169813e-01 1.154964519525324695e-01 7.289627201699240278e-01
6.426617854797654905e-01 1.752165518744721595e-01 7.458451511092502040e-01
6.286699982368563200e-01 2.121699402804233248e-01 7.481697332546088930e-01
6.064590702039175385e-01 2.565821450988234331e-01 7.525775700775872989e-01
5.876492317478168026e-01 1.347214848693042144e-01 7.978210964500815905e-01
6.195227874480719876e-01 1.812496101381120828e-01 7.637670421387356967e-01
5.573741722651175401e-01 -1.106663074670161395e-01 8.228529640727989536e-01
5.573741722651175401e-01 -1.106663074670161395e-01 8.228529640727989536e-01
-1.673891499073520417e-01 8.140005801874788949e-01 5.562229121024605538e-01
-3.853636818737015135e-01 -7.269642537894620560e-01 5.683465548457869998e-01
-3.853636818737015135e-01 -7.269642537894620560e-01 5.683465548457869998e-01
5.713698097676936927e-01 -1.459628856675853625e-01 8.076084301774102414e-01
-5.317393917174295659e-01 -6.268784722636824291e-01 5.694528956009703435e-01
-5.317393917174295659e-01 -6.268784722636824291e-01 5.694528956009703435e-01
-1.658813563449903772e-01 8.571590650411657908e-01 4.876081550127117636e-01
-7.097161574808664719e-01 4.477816583200299738e-01 -5.438699865618232820e-01
-7.097161574808664719e-01 4.477816583200299738e-01 -5.438699865618232820e-01
-6.331357663421849358e-01 -6.120090060865576373e-03 -7.740165669260193892e-01
6.071813592162625950e-01 -1.456426982732910713e-01 7.811011467537138930e-01
-2.593669995663971939e-01 9.076609172110258195e-01 3.299703303382953146e-01
5.417375834345216079e-01 -2.204742901136717004e-01 8.111174255885501561e-01
6.292891921359515806e-01 -2.301794467800925004e-01 7.423021857309136662e-01
5.398008768536726176e-01 -2.251266709809381095e-01 8.111306894459401340e-01
7.129199219002579913e-01 3.267364798352889177e-01 6.204743811815066623e-01
6.961776535912017616e-01 3.288620658455781443e-01 6.381116017500599868e-01
5.138439607245126606e-01 -6.377402486708673435e-02 8.555099401989422203e-01
5.138439607245126606e-01 -6.377402486708673435e-02 8.555099401989422203e-01
5.383249738712099219e-01 -1.399903490004462681e-01 8.310288350552551551e-01
5.383249738712099219e-01 -1.399903490004462681e-01 8.310288350552551551e-01
6.140714144077838998e-01 5.215247675663785970e-02 7.875255025555504274e-01
8.223584443207929695e-01 -3.715716757484620048e-01 4.308840665837680994e-01
3.479019142130339581e-01 8.327106295954552762e-01 4.307635841684475109e-01
3.228666774556647190e-01 7.995516781755738212e-01 5.064328410711169681e-01
3.228666774556647190e-01 7.995516781755738212e-01 5.064328410711169681e-01
8.028705935609741218e-01 5.410957541280702054e-01 2.502282854907181830e-01
3.762251568826025516e-01 1.142383542711255390e-01 9.194586612469785036e-01
3.762251568826025516e-01 1.142383542711255390e-01 9.194586612469785036e-01
2.600854296270929678e-01 1.083372097042968746e-01 9.594887275466958965e-01
7.867020481483261163e-01 -3.766836565281288518e-01 4.890902885396801181e-01
5.625767288376335440e-01 -5.172467157466574816e-01 6.449521371541024894e-01
2.625200759790168870e-01 -1.417838460850576188e-01 9.544530112568664348e-01
7.634223992187779695e-01 -4.112950860514776874e-01 4.980186668800201666e-01
7.634223992187779695e-01 -4.112950860514776874e-01 4.980186668800201666e-01
8.257401593257677197e-01 5.428909882429272526e-01 1.530443209050037223e-01
4.903494426301511777e-01 -4.304598425709879606e-01 7.578005991328194968e-01
4.903494426301511777e-01 -4.304598425709879606e-01 7.578005991328194968e-01
5.425514708010117371e-01 -4.480385285526859995e-01 7.105627195849799627e-01
8.229856828755229836e-01 5.607783095745622060e-01 9.067664138357507675e-02
6.024506673106986288e-01 -4.323139979698443214e-01 6.709380005754804754e-01
8.205726180811127035e-01 5.635772451426888097e-01 9.508557836436674904e-02
6.528016547670546510e-01 -5.203981678140239264e-01 5.504868267898896939e-01
6.893822152562759653e-01 -3.903283649488837881e-01 6.102425163856420864e-01
-5.481880023675824720e-01 4.153370118760731367e-01 -7.259373806507651850e-01
-5.481880023675824720e-01 4.153370118760731367e-01 -7.259373806507651850e-01
8.029345735053261546e-01 5.937621571900320028e-01 5.236956519639730800e-02
6.129162512324826118e-01 -3.694347056261881312e-01 6.984637909398111466e-01
8.083818360143981696e-01 5.871902783655854607e-01 4.154977972188218793e-02
7.699952048525233739e-01 3.069314060884240636e-01 5.593750946017381764e-01
7.699952048525233739e-01 3.069314060884240636e-01 5.593750946017381764e-01
6.747028127996116398e-01 -4.453194008347255983e-01 5.886142587811589166e-01
6.524943719339126869e-01 5.007203197014303830e-01 5.687972011470047162e-01
6.524943719339126869e-01 5.007203197014303830e-01 5.687972011470047162e-01
6.173774872116940537e-01 5.455199181613745729e-01 5.667918993540590478e-01
6.173774872116940537e-01 5.455199181613745729e-01 5.667918993540590478e-01
5.450978652047778761e-01 -3.007832586675533992e-01 7.825584634099368442e-01
5.450978652047778761e-01 -3.007832586675533992e-01 7.825584634099368442e-01
4.631315654827654060e-01 6.891725591972029941e-01 5.572704340830050285e-01
6.112369926277083643e-01 -2.554819088181422559e-01 7.490783224136668972e-01
6.112369926277083643e-01 -2.554819088181422559e-01 7.490783224136668972e-01
7.281247937719788066e-01 5.893131634511041828e-01 3.500632515385830312e-01
7.281247937719788066e-01 5.893131634511041828e-01 3.500632515385830312e-01
7.312070588654271397e-01 4.377127189609209545e-01 5.232053255894951738e-01
6.176345167874317532e-01 5.721221206834311568e-01 5.396331000758283203e-01
5.379030194325018499e-01 1.459500714509715802e-01 8.302764107987494757e-01
6.176934678618022367e-01 -1.765873886648091640e-01 7.663365278553569970e-01
5.953436723920237927e-01 5.940151898715839707e-01 5.410285259989575657e-01
5.953436723920237927e-01 5.940151898715839707e-01 5.410285259989575657e-01
5.285504559810073610e-01 1.983649971080602425e-01 8.254003534071138182e-01
6.608144022981602417e-01 -2.843037609305481550e-01 6.946191022683374516e-01
6.608144022981602417e-01 -2.843037609305481550e-01 6.946191022683374516e-01
6.912732851857298355e-01 6.509428830877770356e-01 3.137110264971593732e-01
6.912732851857298355e-01 6.509428830877770356e-01 3.137110264971593732e-01
5.461651309415270772e-01 2.500190016350947730e-01 7.994961842091649062e-01
5.461651309415270772e-01 2.500190016350947730e-01 7.994961842091649062e-01
5.596676997069149895e-01 2.683933089949152029e-01 7.840517186968793961e-01
5.425363726702113754e-01 6.817474802424352553e-01 -4.907898302867939044e-01
5.425363726702113754e-01 6.817474802424352553e-01 -4.907898302867939044e-01
5.385688803575071626e-01 2.711235652420879716e-01 7.977691229177025223e-01
5.385688803575071626e-01 2.711235652420879716e-01 7.977691229177025223e-01
5.538102157193833808e-01 6.442485874051175898e-01 -5.274827035944976705e-01
8.342479004734199011e-01 1.133151698273815317e-01 5.396203413907620927e-01
8.342479004734199011e-01 1.133151698273815317e-01 5.396203413907620927e-01
8.473888832865454912e-01 4.301584009789053559e-02 5.292274728158526953e-01
8.473888832865454912e-01 4.301584009789053559e-02 5.292274728158526953e-01
5.292722151509521300e-01 6.023300519568931533e-01 -5.975528686056245098e-01
8.550798340930797492e-01 -1.903830467511239809e-03 5.184928666403254560e-01
8.550798340930797492e-01 -1.903830467511239809e-03 5.184928666403254560e-01
7.768040504930109336e-01 -2.047843491041659858e-01 5.955156064282738360e-01
7.792889920043922780e-01 -2.474260406581716976e-01 5.757508326915377062e-01
7.792889920043922780e-01 -2.474260406581716976e-01 5.757508326915377062e-01
5.312762615395707488e-01 5.775122699145158744e-01 6.198589452631307894e-01
5.402887317355546948e-01 6.739838500228807483e-01 -5.038192694487982903e-01
5.478237430402295161e-01 7.075588643708851100e-01 -4.463738343715682455e-01
5.478237430402295161e-01 7.075588643708851100e-01 -4.463738343715682455e-01
5.478237430402295161e-01 7.075588643708851100e-01 -4.463738343715682455e-01
-6.012194774602015457e-01 4.355470264834070959e-01 -6.699506904570997623e-01
7.783616335162495403e-01 -5.218916067536487347e-02 6.256432361801066433e-01
5.705540084317890503e-01 6.901376140103292478e-01 -4.451720983962805800e-01
5.705540084317890503e-01 6.901376140103292478e-01 -4.451720983962805800e-01
5.328693364444266889e-01 5.728816772861553552e-01 6.227815460553384197e-01
7.764981475840018188e-01 5.722187146586500406e-01 -2.638491413535699603e-01
5.679412738423373908e-01 6.888503466141374654e-01 -4.504752040189622386e-01
5.551713229980461684e-01 7.857656177855278923e-01 -2.726851591611232362e-01
5.551713229980461684e-01 7.857656177855278923e-01 -2.726851591611232362e-01
7.790213481364596237e-01 5.645160578621107872e-01 -2.728504344205355259e-01
5.410022563876174528e-01 7.934121139449231697e-01 -2.789512072548798183e-01
5.410022563876174528e-01 7.934121139449231697e-01 -2.789512072548798183e-01
6.387676827018984316e-01 3.380118087903975499e-01 6.911757118518347953e-01
6.387676827018984316e-01 3.380118087903975499e-01 6.911757118518347953e-01
8.238455415996083220e-01 -1.964949822345731234e-01 5.316655391720275237e-01
8.238455415996083220e-01 -1.964949822345731234e-01 5.316655391720275237e-01
5.311174036410101218e-01 8.467364694704523354e-01 3.084890303310847126e-02
5.311174036410101218e-01 8.467364694704523354e-01 3.084890303310847126e-02
5.311174036410101218e-01 8.467364694704523354e-01 3.084890303310847126e-02
7.433143410795007844e-01 -3.473512699817676852e-01 5.716912502283034714e-01
5.252365463254041744e-01 8.475321659953098941e-01 7.626137952764677763e-02
6.088080571486741421e-01 4.239105138446382925e-01 6.705614258237879710e-01
6.581843931351314403e-01 -5.294108890687863056e-01 5.352732154411762311e-01
6.581843931351314403e-01 -5.294108890687863056e-01 5.352732154411762311e-01
7.676886779322150689e-01 6.358433567439021328e-01 7.973280039817283449e-02
7.946839509355951847e-01 5.995177489212427657e-01 9.516242353890616568e-02
6.174363185938026577e-01 2.943110931797767171e-01 7.294884323364264622e-01
6.174363185938026577e-01 2.943110931797767171e-01 7.294884323364264622e-01
8.848172112328593908e-01 -3.910504123377692709e-01 2.533339253170924232e-01
8.848172112328593908e-01 -3.910504123377692709e-01 2.533339253170924232e-01
7.574821318510851498e-01 5.986045798387210626e-01 2.605635755865417513e-01
9.517904564722146077e-01 2.898609864738136421e-01 -1.003769669238952361e-01
-5.784874252079869050e-01 -7.205386456441242871e-02 -8.125026396742148771e-01
-6.754657727632777942e-01 -2.943298707331878233e-02 -7.368036978037296736e-01
7.031254888988889284e-01 6.052128837566429498e-01 3.732719011600880710e-01
7.160512881198194401e-01 5.449714949740214198e-01 -4.362070866546386982e-01
7.372267050893660523e-01 6.206758799859498632e-01 2.669423857440846315e-01
7.999472157409349693e-01 -5.732595798857428315e-01 1.773637677135543322e-01
4.971931014883166911e-01 8.432568565825772078e-01 2.042471386798335453e-01
-5.971619181446146118e-01 -1.975087667963868476e-01 -7.774239066020642852e-01
-5.971619181446146118e-01 -1.975087667963868476e-01 -7.774239066020642852e-01
2.587906367853979872e-01 9.345842201915345315e-01 2.440896181347938509e-01
5.372878720332628921e-01 8.162180893461115083e-01 2.123906146470492806e-01
5.372878720332628921e-01 8.162180893461115083e-01 2.123906146470492806e-01
5.374203734180390546e-01 8.160687543450582115e-01 2.126290911820876706e-01
5.374203734180390546e-01 8.160687543450582115e-01 2.126290911820876706e-01
8.189847891550621206e-01 4.538674166054471049e-01 3.510958320409630073e-01
7.341415943039703018e-01 5.572317563669749729e-01 3.879805268425220999e-01
7.341415943039703018e-01 5.572317563669749729e-01 3.879805268425220999e-01
7.495379980910257256e-01 5.247124218239869187e-01 4.035711384642168276e-01
6.266137799888622517e-01 -7.619672574515514718e-01 1.635881086748991187e-01
4.874341663137998215e-01 8.155311433249983200e-01 -3.119565478988896579e-01
5.427742989721855427e-01 8.228210375113209629e-01 1.684090276797709784e-01
5.427742989721855427e-01 8.228210375113209629e-01 1.684090276797709784e-01
4.696794950147712422e-01 7.961074067404605437e-01 -3.815942464131875655e-01
5.768990546337982028e-01 -7.940448924397280894e-01 -1.915207287815354764e-01
5.768990546337982028e-01 -7.940448924397280894e-01 -1.915207287815354764e-01
2.061411214187529595e-01 5.640333133055271952e-01 -7.996075659608329333e-01
2.061411214187529595e-01 5.640333133055271952e-01 -7.996075659608329333e-01
6.648383802945940779e-01 5.105240979612933883e-01 5.453027356322983632e-01
6.648383802945940779e-01 5.105240979612933883e-01 5.453027356322983632e-01
6.478641349154775630e-01 6.186094949176086377e-01 4.445158664074894683e-01
6.478641349154775630e-01 6.186094949176086377e-01 4.445158664074894683e-01
6.446471398904267680e-01 6.643763665983657418e-01 3.781985041438510331e-01
6.839648812699195002e-01 -7.126201613260276790e-01 -1.560914695333842639e-01
4.111766137707241475e-02 5.660639502568476367e-01 -8.233352550100679901e-01
6.104385473873117363e-01 6.583698615459548931e-01 4.403565660594025433e-01
6.104385473873117363e-01 6.583698615459548931e-01 4.403565660594025433e-01
6.688587789120891136e-01 -7.156455512467556623e-01 -2.011948777999988669e-01
6.688587789120891136e-01 -7.156455512467556623e-01 -2.011948777999988669e-01
5.751518355902661694e-01 6.203071839646100427e-01 5.333098194661738400e-01
5.751518355902661694e-01 6.203071839646100427e-01 5.333098194661738400e-01
5.751518355902661694e-01 6.203071839646100427e-01 5.333098194661738400e-01
5.751518355902661694e-01 6.203071839646100427e-01 5.333098194661738400e-01
5.751518355902661694e-01 6.203071839646100427e-01 5.333098194661738400e-01
5.093515154311523130e-02 5.602529242733138570e-01 -8.267540572506918428e-01
3.354680252078345304e-01 5.946895523236654935e-01 -7.306199699024341632e-01
6.487335123534330172e-01 7.188476866195152581e-01 2.498055911931301998e-01
6.487335123534330172e-01 7.188476866195152581e-01 2.498055911931301998e-01
5.775929671281005984e-01 6.951674896073595233e-01 4.279351886876780475e-01
4.146815289688486339e-01 6.215036453356120871e-01 -6.646596485168960733e-01
6.888631455785897417e-01 -3.437857819065355813e-01 6.381840665689505476e-01
3.593456713108597600e-01 6.349594107568093948e-01 -6.838839340133037181e-01
3.593456713108597600e-01 6.349594107568093948e-01 -6.838839340133037181e-01
5.537433061620001817e-01 -6.766995706097826968e-01 -4.852278248589141363e-01
5.537433061620001817e-01 -6.766995706097826968e-01 -4.852278248589141363e-01
5.439326708309658587e-01 7.577349443905874171e-01 -3.605204621822251654e-01
5.439326708309658587e-01 7.577349443905874171e-01 -3.605204621822251654e-01
-1.317992068626616109e-01 5.244207853274438502e-01 -8.411966529812873183e-01
5.516031736108744088e-01 6.403886336476624086e-01 -5.344495642783250178e-01
-3.133766120906311681e-02 5.384167520631706338e-01 -8.420958093279482526e-01
-3.133766120906311681e-02 5.384167520631706338e-01 -8.420958093279482526e-01
5.536779722848742535e-01 -7.098262791750110656e-01 -4.354163024038824603e-01
6.510911234297175332e-01 -4.826648137307650854e-01 5.857602125249494751e-01
6.510911234297175332e-01 -4.826648137307650854e-01 5.857602125249494751e-01
6.617254147611166815e-01 -5.382920085698688073e-01 5.218823516550874508e-01
5.834536958021813158e-01 -6.146662019790637421e-01 5.308175251434418263e-01
5.834536958021813158e-01 -6.146662019790637421e-01 5.308175251434418263e-01
7.070378174626080758e-01 -4.293201294309616500e-01 5.619446157256905439e-01
5.802683577644773827e-01 -7.337303893488181794e-01 -3.534520458610309057e-01
-2.497449953026893710e-01 5.447078795961953768e-01 -8.005752701820588735e-01
5.333510944471947512e-01 -8.026630508600541836e-01 -2.669618640105916318e-01
5.333510944471947512e-01 -8.026630508600541836e-01 -2.669618640105916318e-01
7.617117596783039568e-01 1.324403171888858533e-01 6.342355694461554450e-01
7.617117596783039568e-01 1.324403171888858533e-01 6.342355694461554450e-01
6.741943629814475258e-01 7.384487673481520131e-01 -1.246510834429131499e-02
6.741943629814475258e-01 7.384487673481520131e-01 -1.246510834429131499e-02
7.617313853998439743e-01 1.987130693274415660e-01 6.166671813671468216e-01
7.617313853998439743e-01 1.987130693274415660e-01 6.166671813671468216e-01
5.391768210110090553e-01 -8.316273239227008895e-01 1.329825168570264171e-01
5.373881280860810516e-01 8.403789411942388377e-01 -7.054952153904245349e-02
7.852898465801165795e-01 4.443939682027925331e-02 6.175313731855465171e-01
7.679656547017729151e-01 1.672595040282296927e-02 6.402725949012652018e-01
7.679656547017729151e-01 1.672595040282296927e-02 6.402725949012652018e-01
-5.575363546240538204e-01 -5.550757958370515777e-01 6.172876753575963216e-01
-5.575363546240538204e-01 -5.550757958370515777e-01 6.172876753575963216e-01
-7.114255267992490861e-01 1.826366377049035150e-01 -6.786144548904471385e-01
-7.114255267992490861e-01 1.826366377049035150e-01 -6.786144548904471385e-01
-7.114255267992490861e-01 1.826366377049035150e-01 -6.786144548904471385e-01
8.077132478573725294e-01 4.031560390617046352e-02 5.881955128334246385e-01
8.077132478573725294e-01 4.031560390617046352e-02 5.881955128334246385e-01
-2.573525033773307880e-01 5.728068338129618242e-01 -7.782429056166145775e-01
-2.573525033773307880e-01 5.728068338129618242e-01 -7.782429056166145775e-01
5.304113937158144720e-01 8.429356747385124971e-01 -9.012880599217831801e-02
7.538913273030410922e-01 -1.144758239320268212e-01 6.469491110994298744e-01
-3.367749100762761905e-01 5.614089384409115535e-01 -7.559118095265907611e-01
-4.221059443579293080e-01 5.577063699256035179e-01 -7.146958630649170585e-01
9.560539477605429770e-01 -1.863571173781961854e-01 2.263445907769172372e-01
5.382904451960323078e-01 -5.398138940196809399e-01 6.471818573121205231e-01
-6.136004610501079037e-01 -1.768311292490472308e-01 -7.695617102790405228e-01
-5.476874326143806870e-01 5.508447029496857938e-01 -6.297686792692540614e-01
5.571561536386883118e-01 -6.411067602116270470e-01 5.277870237827883004e-01
5.571561536386883118e-01 -6.411067602116270470e-01 5.277870237827883004e-01
-1.671153615550231841e-01 8.323978850711127864e-01 -5.283807498967695304e-01
5.604426010955485538e-01 -6.492526925462381859e-01 5.141741262439366578e-01
-6.502954418200023179e-01 5.305829166932846119e-01 -5.436888879325886270e-01
-6.502954418200023179e-01 5.305829166932846119e-01 -5.436888879325886270e-01
7.151264606566120063e-01 6.924770215708077326e-02 6.955565404873362834e-01
5.391580449880950532e-01 -6.332291879057483364e-01 5.552741648130603558e-01
7.311415989181941910e-01 4.106292477807762520e-01 5.448078406175341781e-01
6.053823773208403258e-01 -7.162474718647666716e-01 3.471336000399530275e-01
6.053823773208403258e-01 -7.162474718647666716e-01 3.471336000399530275e-01
7.871324405208376396e-01 1.223615459537362726e-01 6.045247498254492369e-01
6.180852449393283710e-01 2.987385955316941288e-01 7.271353942203894194e-01
5.761194195870329438e-01 -7.386450989655327648e-01 3.499854741969992689e-01
5.818825518557287912e-01 -7.388786565075153856e-01 3.398102806030360301e-01
7.976171248432801786e-01 1.560261456520654066e-01 5.826343313174222605e-01
7.485065935655373925e-01 3.824461449344902508e-01 -5.417313223486918128e-01
5.562740614669714478e-01 1.317538804840224786e-01 8.204877107650315748e-01
7.865075093961094721e-01 3.696063744262798600e-01 -4.947697097104767350e-01
2.035177683434474805e-01 8.470824974327229029e-01 -4.909498553942588384e-01
2.785050353875799245e-01 8.923987070988530501e-01 -3.550485781298924892e-01
5.280389948315131754e-01 -3.520347541458020146e-02 8.484901503588949678e-01
5.280389948315131754e-01 -3.520347541458020146e-02 8.484901503588949678e-01
8.451198778264584766e-01 4.189116803289023167e-02 5.329329433835291452e-01
2.821059277021263356e-01 8.622638747521959024e-01 -4.206153300257278738e-01
5.523571719284772197e-01 -1.475842751964074329e-01 8.204391728421587260e-01
8.443817077538946503e-01 -2.440780479758408728e-02 5.351857534310676678e-01
1.620616854784359961e-01 9.299098375376323444e-01 -3.301570901110901235e-01
5.808208382648789581e-01 -3.889249812255270167e-02 8.131017940129454669e-01
5.808208382648789581e-01 -3.889249812255270167e-02 8.131017940129454669e-01
-2.382439094053266648e-01 7.756181322459474448e-01 -5.845137744848915018e-01
-3.553003002591145210e-01 8.050521520430107270e-01 -4.750291876576641092e-01
6.652349398491747001e-01 -8.145136765101733400e-02 7.421779769783281022e-01
-3.485344749568964340e-01 7.713558586910592707e-01 -5.324789751994899456e-01
6.759659139891377455e-01 -1.555118337889973557e-01 7.203375269111093049e-01
7.900499587735779761e-01 -9.479341726399846679e-02 6.056692750051642093e-01
6.014616314718805867e-01 -2.924623724200848818e-01 7.434444609959773853e-01
6.014616314718805867e-01 -2.924623724200848818e-01 7.434444609959773853e-01
-3.615118408745617851e-01 7.589187827986907386e-01 -5.416193035914056431e-01
8.360821450916908759e-01 -3.402320756010990266e-01 -4.303588983523457534e-01
6.161392316583850226e-01 -4.074483876446552966e-01 6.740610199508539901e-01
6.161392316583850226e-01 -4.074483876446552966e-01 6.740610199508539901e-01
8.077451360235881062e-01 -4.539066777967630528e-02 5.877818324078672996e-01
8.077451360235881062e-01 -4.539066777967630528e-02 5.877818324078672996e-01
9.051884539010424113e-01 -2.473651247345867166e-01 -3.456072308116295844e-01
5.579537740998474077e-02 -8.508332467742849570e-01 5.224649864279958811e-01
5.579537740998474077e-02 -8.508332467742849570e-01 5.224649864279958811e-01
5.338129273579677037e-01 -3.987558201620716170e-01 7.456792571021341187e-01
5.308364278971452466e-01 -3.393578931467156057e-01 7.765622365119368986e-01
5.308364278971452466e-01 -3.393578931467156057e-01 7.765622365119368986e-01
5.308364278971452466e-01 -3.393578931467156057e-01 7.765622365119368986e-01
5.366159283900353572e-01 -5.611544570242587016e-01 6.301976045336175059e-01
5.388175328674845721e-01 -4.976059949649175307e-01 6.797528521820057623e-01
5.622160327541101399e-01 -5.238961612101019627e-01 6.398796330432374724e-01
5.233717452929302905e-01 -5.975107997763633438e-01 6.075054406173188148e-01
6.123773166070475282e-01 -5.009033321666517269e-01 6.116288694375837665e-01
-3.917910691221530156e-02 -8.173421229820859724e-01 5.748189728781557539e-01
-3.917910691221530156e-02 -8.173421229820859724e-01 5.748189728781557539e-01
-3.917910691221530156e-02 -8.173421229820859724e-01 5.748189728781557539e-01
8.069979281644605873e-01 -2.165188344832026102e-01 -5.494305581711882436e-01
8.450580095162570915e-01 -9.880275956776779500e-02 -5.254664358969232119e-01
-1.586736181270397561e-01 8.275955262125745948e-01 -5.384313585810228675e-01
-8.269854022757212597e-01 5.325537238557992437e-01 -1.802267339497241605e-01
-7.402025453642150365e-01 -2.048929045235547142e-01 6.404054102771453705e-01
-7.402025453642150365e-01 -2.048929045235547142e-01 6.404054102771453705e-01
6.261112714219866371e-01 -2.606996725401338200e-01 -7.348607735726614409e-01
6.147223324087127683e-01 -2.824886764152900187e-01 -7.364214837544662551e-01
-7.423204909807216145e-01 2.460657439500247290e-01 -6.232270359383176306e-01
6.359454165954766536e-01 -1.780122184093396454e-01 -7.509228170778879941e-01
-8.070869044330379882e-01 5.904085499683431326e-01 -5.335992595092859010e-03
5.515276707526653999e-01 5.755606224902298784e-01 -6.037774409770527706e-01
5.796946990311993009e-01 5.857255835780560416e-01 -5.664623523741654232e-01
5.662177344839705029e-01 6.356665905925534821e-01 5.247146488904983475e-01
5.662177344839705029e-01 6.356665905925534821e-01 5.247146488904983475e-01
-2.815071986344861443e-01 -7.304242742552127243e-01 6.222813485038015680e-01
-8.906241269354116252e-02 -7.795927320340202415e-01 6.199218166873446956e-01
3.026015305818646403e-02 -8.423854736542997212e-01 5.380251266559176182e-01
5.428699864149347798e-01 5.247217126689485145e-01 6.557128198408307407e-01
5.969086186643142167e-01 5.249186121846692865e-01 6.067623517872390293e-01
5.969086186643142167e-01 5.249186121846692865e-01 6.067623517872390293e-01
5.938606747293464494e-01 4.862563756583363483e-01 6.410025242864680894e-01
5.938606747293464494e-01 4.862563756583363483e-01 6.410025242864680894e-01
5.938606747293464494e-01 4.862563756583363483e-01 6.410025242864680894e-01
-6.537244574455013391e-01 -2.361266818633029063e-01 -7.189495975726053478e-01
-6.537244574455013391e-01 -2.361266818633029063e-01 -7.189495975726053478e-01
-6.537244574455013391e-01 -2.361266818633029063e-01 -7.189495975726053478e-01
-7.446902336846566994e-01 5.823365853925516200e-01 -3.260683320533210305e-01
7.491299020321855462e-01 -6.588763591595464542e-01 -6.845679821543396160e-02
5.510760628636212077e-01 4.645331045753946508e-01 -6.931985052582526619e-01
7.657068767376036256e-01 -6.395072024418346768e-01 -6.872784691638747501e-02
5.524447641702797673e-01 2.929303884357493670e-01 -7.803823230133578592e-01
9.758022522672330501e-01 -2.177768581493892408e-01 -1.957561045729920915e-02
-6.912300346032096421e-01 6.380718110317319391e-01 -3.392129172498172807e-01
-6.912300346032096421e-01 6.380718110317319391e-01 -3.392129172498172807e-01
9.620125924655684724e-01 -2.715978963478657415e-01 2.768311104428087741e-02
9.620125924655684724e-01 -2.715978963478657415e-01 2.768311104428087741e-02
5.184609690962911355e-01 6.490041386177139437e-02 -8.526348337971569880e-01
5.184609690962911355e-01 6.490041386177139437e-02 -8.526348337971569880e-01
7.115095394337815904e-01 -6.929778399847874581e-01 1.163438377600914675e-01
7.115095394337815904e-01 -6.929778399847874581e-01 1.163438377600914675e-01
-8.362810224955257166e-01 5.469315972482056143e-01 3.872827578610429228e-02
-8.362810224955257166e-01 5.469315972482056143e-01 3.872827578610429228e-02
-7.996807220314244846e-01 -5.342152868787229947e-01 2.740889820412040212e-01
-8.344916473485156638e-01 5.459015683897933124e-01 7.493442556745275041e-02
5.457091729632018717e-01 6.837334006642309392e-02 -8.351805702433334755e-01
5.457091729632018717e-01 6.837334006642309392e-02 -8.351805702433334755e-01
7.272776109144873935e-01 -5.463467854114374411e-01 4.154184236803947217e-01
