1.000000000000000000e+00 0.000000000000000000e+00 0.000000000000000000e+00
1.000000000000000000e+00 -0.000000000000000000e+00 0.000000000000000000e+00
1.000000000000000000e+00 0.000000000000000000e+00 0.000000000000000000e+00
1.000000000000000000e+00 -0.000000000000000000e+00 0.000000000000000000e+00
1.000000000000000000e+00 0.000000000000000000e+00 0.000000000000000000e+00
9.937956542421793049e-01 7.816125244529029126e-02 7.912658355788133868e-02
1.000000000000000000e+00 -0.000000000000000000e+00 0.000000000000000000e+00
9.887983650810189262e-01 -1.353634322055746568e-02 -1.486423917505338144e-01
1.000000000000000000e+00 -0.000000000000000000e+00 0.000000000000000000e+00
1.000000000000000000e+00 0.000000000000000000e+00 0.000000000000000000e+00
1.000000000000000000e+00 0.000000000000000000e+00 -0.000000000000000000e+00
1.000000000000000000e+00 -0.000000000000000000e+00 0.000000000000000000e+00
1.000000000000000000e+00 0.000000000000000000e+00 -0.000000000000000000e+00
1.000000000000000000e+00 -0.000000000000000000e+00 0.000000000000000000e+00
1.000000000000000000e+00 0.000000000000000000e+00 -0.000000000000000000e+00
1.000000000000000000e+00 0.000000000000000000e+00 0.000000000000000000e+00
1.000000000000000000e+00 0.000000000000000000e+00 0.000000000000000000e+00
1.000000000000000000e+00 0.000000000000000000e+00 -0.000000000000000000e+00
1.000000000000000000e+00 0.000000000000000000e+00 0.000000000000000000e+00
1.000000000000000000e+00 0.000000000000000000e+00 0.000000000000000000e+00
9.999972510456667241e-01 2.220233603929120097e-03 7.539654194010615099e-04
1.000000000000000000e+00 0.000000000000000000e+00 0.000000000000000000e+00
1.000000000000000000e+00 -0.000000000000000000e+00 0.000000000000000000e+00
1.000000000000000000e+00 -0.000000000000000000e+00 0.000000000000000000e+00
9.131997507154094862e-01 -3.479192419271594505e-01 -2.121754377635277633e-01
8.972147841050149841e-01 -3.532338900312220753e-01 -2.650121697522622721e-01
8.786818208321091062e-01 -3.968074790054722523e-01 -2.654469482674284286e-01
8.730232396092906244e-01 -4.042287980064522834e-01 -2.728177083042042650e-01
8.975610866353500583e-01 -3.672834361742154385e-01 -2.438995146982272100e-01
1.000000000000000000e+00 0.000000000000000000e+00 -0.000000000000000000e+00
9.707578177709681455e-01 -2.343450403001875182e-01 -5.207361446309696079e-02
1.000000000000000000e+00 0.000000000000000000e+00 -0.000000000000000000e+00
1.000000000000000000e+00 0.000000000000000000e+00 0.000000000000000000e+00
9.964373539998212514e-01 -8.018575077345886648e-02 -2.613130166546945993e-02
1.000000000000000000e+00 0.000000000000000000e+00 0.000000000000000000e+00
1.000000000000000000e+00 0.000000000000000000e+00 0.000000000000000000e+00
1.000000000000000000e+00 0.000000000000000000e+00 0.000000000000000000e+00
9.997909895486329912e-01 1.858964259483018508e-02 8.508960310277344924e-03
1.000000000000000000e+00 0.000000000000000000e+00 0.000000000000000000e+00
1.000000000000000000e+00 -0.000000000000000000e+00 0.000000000000000000e+00
1.000000000000000000e+00 0.000000000000000000e+00 0.000000000000000000e+00
1.000000000000000000e+00 0.000000000000000000e+00 0.000000000000000000e+00
9.998752089726992143e-01 -1.285047744377099989e-02 -9.188672987353912330e-03
8.991079195872985208e-01 -3.741728668627138377e-01 -2.271554856021253954e-01
8.756318620041662060e-01 -4.098797869658937221e-01 -2.554748568448769186e-01
8.439348994318522923e-01 -4.559408785630963412e-01 -2.826513767453842085e-01
8.724209232708971529e-01 -4.222695067558749904e-01 -2.461101304361629216e-01
8.734942895792533468e-01 -4.296380817924858597e-01 -2.289516209728790219e-01
8.620580470772059023e-01 -4.474578689584109981e-01 -2.379860898805457037e-01
8.456989096680530560e-01 -4.707347245038803196e-01 -2.514004242886681562e-01
8.169130368329311498e-01 -5.108425858034409961e-01 -2.677553786239446620e-01
8.136881169021347171e-01 -5.246132913118520813e-01 -2.503847898559411478e-01
7.947820799865277230e-01 -5.559366169389523549e-01 -2.434253957145006142e-01
8.427873354377993786e-01 -4.886109339716006028e-01 -2.257628455460605199e-01
8.724423341640485940e-01 -4.416516364198302402e-01 -2.092563155703375255e-01
8.446988573407452350e-01 -4.985523132650669931e-01 -1.947547980032579285e-01
8.715168455946878945e-01 -4.564554997677403025e-01 -1.791836057692424156e-01
8.985318394437447065e-01 -4.030719807228623774e-01 -1.737052441982947226e-01
8.744051595971497060e-01 -4.537209258898788344e-01 -1.719096805869703148e-01
8.806976087596165570e-01 -4.493891285125282686e-01 -1.497368795582561252e-01
8.729509174630377677e-01 -4.608281292984413580e-01 -1.599816581603637211e-01
8.728265878334010575e-01 -4.667696632835735548e-01 -1.424774684265598390e-01
8.704440618470470348e-01 -4.754386268000596605e-01 -1.276136644003605658e-01
8.736379685220692082e-01 -4.742970192774454974e-01 -1.086233743775372601e-01
8.448384200362150098e-01 -5.218877437306059797e-01 -1.178186189635975628e-01
8.454913269495276662e-01 -5.164284126317613133e-01 -1.358164595318479828e-01
8.443235895312535266e-01 -5.123019421850354416e-01 -1.570490248123165566e-01
8.146383211659308232e-01 -5.548677994515417433e-01 -1.687783481959626297e-01
8.136322418351785712e-01 -5.494326110971061716e-01 -1.900694107669019250e-01
7.800033264401159405e-01 -5.979990767713810884e-01 -1.843689640989762124e-01
7.432664902519087180e-01 -6.396158545997696621e-01 -1.960777473687808636e-01
7.255905395812864978e-01 -6.539001608453955949e-01 -2.143197343141857725e-01
7.418483017992828499e-01 -6.487038063503144381e-01 -1.698365942432135400e-01
7.444890284245595513e-01 -6.454617133121558492e-01 -1.706319524696115753e-01
7.437373034035819064e-01 -6.518938454722246201e-01 -1.479501191665751336e-01
7.427057123628959534e-01 -6.540501860686985802e-01 -1.435499178927805985e-01
7.277798346055585066e-01 -6.695840285644070189e-01 -1.483028692674726035e-01
7.039173826306764914e-01 -6.885012554285118158e-01 -1.745460962145555794e-01
6.683802415037231048e-01 -7.244079597762026479e-01 -1.688222751306961977e-01
6.621606626073429647e-01 -7.325869847829574733e-01 -1.576691682670376127e-01
5.822827298458946865e-01 -7.964215613530564175e-01 -1.632774299625411873e-01
5.316867516314682796e-01 -8.106732962135068110e-01 -2.451897325458494703e-01
5.219357269777924468e-01 -8.264379424610734937e-01 -2.111478727453125481e-01
5.278736504810426222e-01 -8.478461788729306781e-01 -5.006262176902518540e-02
5.788519794748119285e-01 -8.102239294395431335e-01 -9.201940024602545121e-02
6.240139617816040651e-01 -7.796076608818645060e-01 -5.308927006405605997e-02
6.638883814496396862e-01 -7.457961622912683275e-01 -5.513892715490444768e-02
6.240001967642920810e-01 -7.814100348269807927e-01 -4.702330254396429494e-03
6.647156335208569411e-01 -7.470917869406146217e-01 -2.643565555267364704e-03
6.327802293530376820e-01 -7.733587524595513241e-01 3.879975945960632139e-02
5.653850806649467486e-01 -8.247249919309417310e-01 -1.297683497620574604e-02
4.857500775084107048e-01 -8.740309641982150213e-01 1.080443535365845434e-02
-6.369387712134838564e-02 -9.976955094346975361e-01 -2.338290980802107052e-02
-4.414513134049451448e-01 -8.971663747629595731e-01 1.460253018274167494e-02
-6.076110115004578205e-01 -7.926011498855831672e-01 5.091439780103365620e-02
-6.702599002469673550e-01 -7.319346258927660331e-01 1.225698557563883878e-01
-5.456056663556864139e-01 -8.291960472875389287e-01 1.214428754735697863e-01
-1.730171529452387835e-01 -9.590902808490510134e-01 2.240778837092411435e-01
4.856668701419484813e-01 -8.275301120021799628e-01 2.816409149541009294e-01
5.328383421648263951e-01 -7.889218380914305717e-01 3.060810913818073908e-01
-1.969139029155049792e-01 -8.998001024623919486e-01 3.893387862097122398e-01
-6.231052939988289685e-01 -7.227213557649692088e-01 2.990211271998648446e-01
-7.431896355607171545e-01 -5.753726736747668546e-01 3.414900466828846293e-01
-9.006930521618402574e-01 -3.552656332920964277e-01 2.500766994123089781e-01
-9.453219080840187249e-01 -2.625177020221318158e-01 1.935224695517528681e-01
-7.972442242562653991e-01 -4.041228877919402773e-01 4.484265139939077049e-01
-6.893650222247351689e-01 -4.972320845050896554e-01 5.268169703718871277e-01
-6.034445405189866607e-01 -4.018811938754930368e-01 6.887279524798143315e-01
-5.998472302184972849e-01 -3.672191988669841756e-01 7.108680330291179406e-01
-7.132548096120295833e-01 -3.561824818459791708e-01 6.036568695801830531e-01
-8.121991163565277505e-01 -2.665093725666647928e-01 5.189463842477350930e-01
-8.823661309107317940e-01 -1.960355065473654568e-01 4.277850993131282475e-01
-9.081080176527632775e-01 -1.912496303540270337e-01 3.725096068079543077e-01
-7.288158191300455613e-01 -3.190455923951299733e-01 6.058361261587504876e-01
-4.272107627413757047e-01 -4.840776918040715082e-01 7.636489720385764013e-01
-2.887337182445711137e-01 -6.184058969064363254e-01 7.308946480991709294e-01
-1.067137811916565038e-01 -7.926847121977349531e-01 6.002192232441188047e-01
-4.282859573376611717e-01 -7.604939648368425065e-01 4.880779325006430747e-01
-6.195928155729811815e-01 -6.075193837616925663e-01 4.970160372102283008e-01
-4.360267068753039266e-01 -6.967183712148842245e-01 5.696176104222520076e-01
-5.352509294294260922e-01 -6.863131313016507251e-01 4.924233223029333417e-01
-7.694181348520867658e-01 -5.117103397367605000e-01 3.822934239131312584e-01
-6.880747213942433049e-01 -6.104689326724355158e-01 3.922765096459533973e-01
-4.670188765559607491e-01 -7.764857911586451333e-01 4.230404059533098282e-01
-2.773106183661516178e-01 -7.845161272625462701e-01 5.546469751169287310e-01
-3.009829472309994425e-01 -7.373918467562082801e-01 6.047003636625413181e-01
4.730880899704646980e-01 -7.362383922283668447e-01 4.838808623381247731e-01
5.683442478934999098e-01 -6.596391209026197799e-01 4.917937027465792976e-01
6.611055122926711158e-01 -5.879256027807101548e-01 4.661362324591207806e-01
5.323260946647648817e-01 -8.415912307915974777e-01 9.139545499445919652e-02
5.092129960504281350e-01 -8.424393331725452683e-01 1.760627574961380615e-01
5.312893922922430345e-01 -8.357600346295818161e-01 1.386965974842180871e-01
4.853462064121650821e-01 -8.608431097274544808e-01 1.529320122017819306e-01
4.918679561619087592e-01 -8.674342716190241998e-01 7.499132031028375722e-02
4.988615344534036433e-01 -8.666364495249204714e-01 8.856285769751986309e-03
5.326566640709416989e-01 -8.434558746984436306e-01 6.970699862638857214e-02
5.774557216766019740e-01 -8.141172691201805645e-01 6.130221548406127735e-02
6.219779660157235268e-01 -7.748637039446577557e-01 1.128257510504987460e-01
7.074213816288874579e-01 -6.993140662099847082e-01 1.025418237361369195e-01
6.632871639871300573e-01 -7.444464341310460531e-01 7.648297065020480401e-02
6.685073944783112010e-01 -7.430716640936070316e-01 3.069797304347066103e-02
7.436378727551921086e-01 -6.685812542412019610e-01 1.349326274094946694e-03
7.020890072159385875e-01 -7.085939141488454274e-01 7.046765767184523521e-02
7.038015535040248460e-01 -6.985719081520610496e-01 1.290761884551515359e-01
7.037885792221446613e-01 -6.863762783296611936e-01 1.832191046337643958e-01
6.624403186975639235e-01 -6.755171028513957676e-01 3.238046755671183941e-01
7.099467166775615956e-01 -6.050347235911476274e-01 3.604284155386942579e-01
6.657321860506477673e-01 -5.873524533652846324e-01 4.602366260762032479e-01
6.229071268762402802e-01 -5.993397877012759389e-01 5.027708525411720419e-01
5.784239913832245339e-01 -6.296990893943746892e-01 5.185602597656271406e-01
6.207254856381635433e-01 -5.785837476104386257e-01 5.290942434768365343e-01
7.439645731797925876e-01 -5.681773981981202981e-01 3.516975377085025944e-01
7.439657058645442467e-01 -6.232677666483894541e-01 2.409404896537716279e-01
7.341072593439869065e-01 -6.628910800641181211e-01 1.471799842026330352e-01
7.429892391181884825e-01 -6.535528309887360665e-01 1.443457226979177332e-01
7.789510582173466702e-01 -5.929364546073728759e-01 2.041117578673861954e-01
8.139439869829463436e-01 -5.430463542489194495e-01 2.063876042577716674e-01
8.133510251160470661e-01 -5.675369928716008650e-01 1.279135319852269803e-01
8.446195616796334793e-01 -5.123274700943093451e-01 1.553652451961770320e-01
8.728697767375399597e-01 -4.719658761251488976e-01 1.238812521392080451e-01
8.741025747558210934e-01 -4.739526486744573552e-01 1.063652933043037069e-01
8.453398174234787454e-01 -5.248774031047680477e-01 9.952037373540402465e-02
8.731590113338557613e-01 -4.792087130142512197e-01 8.917595134176253824e-02
8.861669975508525976e-01 -4.617238600444101837e-01 3.897601207662826361e-02
8.708602771819893285e-01 -4.879246715436252324e-01 5.942972762476951554e-02
8.945906159792520462e-01 -4.416485286069363747e-01 6.822174859376198275e-02
9.019927369042203269e-01 -4.254644645178088935e-01 7.341043525690241212e-02
1.000000000000000000e+00 0.000000000000000000e+00 0.000000000000000000e+00
1.000000000000000000e+00 0.000000000000000000e+00 0.000000000000000000e+00
1.000000000000000000e+00 0.000000000000000000e+00 0.000000000000000000e+00
9.999970017811675715e-01 2.021252223144623297e-03 -1.382377707339671816e-03
1.000000000000000000e+00 0.000000000000000000e+00 -0.000000000000000000e+00
1.270511451433079669e-02 9.789232215733189024e-01 -2.038330354228491403e-01
3.749154264421198507e-02 9.900675436196707535e-01 -1.355014512876836774e-01
5.614294895669107860e-02 9.921153363860705232e-01 -1.120496701913953480e-01
-1.133761891110239388e-02 9.947801673396596822e-01 -1.014094525431679106e-01
6.498622817184776523e-02 9.960778590793581966e-01 -6.004738795217283431e-02
3.695415026393290003e-01 9.030206566467183782e-01 2.190725256539401422e-01
7.135309962656707361e-01 7.004625832737162439e-01 1.502287594410020403e-02
5.915284009638444146e-06 9.880961905679443991e-01 -1.538373106568289572e-01
-4.112059019667568349e-05 9.665942852928903761e-01 -2.563113067116303267e-01
7.197923490737415664e-01 6.481956013085616863e-01 -2.484782418223718814e-01
1.000000000000000000e+00 0.000000000000000000e+00 0.000000000000000000e+00
1.000000000000000000e+00 0.000000000000000000e+00 0.000000000000000000e+00
9.999702011668922808e-01 7.692511512676010119e-03 -6.496498075580541464e-04
8.979221446896631376e-01 -3.979865906491469318e-01 1.879959992643030209e-01
1.000000000000000000e+00 0.000000000000000000e+00 0.000000000000000000e+00
9.999446424386549959e-01 -1.045107436616583840e-02 -1.219468254431204865e-03
1.000000000000000000e+00 0.000000000000000000e+00 0.000000000000000000e+00
1.000000000000000000e+00 0.000000000000000000e+00 0.000000000000000000e+00
1.000000000000000000e+00 0.000000000000000000e+00 0.000000000000000000e+00
1.000000000000000000e+00 0.000000000000000000e+00 0.000000000000000000e+00
1.000000000000000000e+00 -0.000000000000000000e+00 0.000000000000000000e+00
9.999998395609857038e-01 -1.898988425977528045e-04 5.336819580636864785e-04
1.000000000000000000e+00 -0.000000000000000000e+00 0.000000000000000000e+00
1.000000000000000000e+00 0.000000000000000000e+00 -0.000000000000000000e+00
1.000000000000000000e+00 0.000000000000000000e+00 -0.000000000000000000e+00
8.929331483608765607e-01 -3.993944485162876368e-01 2.077365327830024422e-01
8.766200157600981813e-01 -4.235434338673050858e-01 2.283600394041328530e-01
8.770750540190161981e-01 -4.254974202833606833e-01 2.229154434976299837e-01
8.732232434915108144e-01 -4.402434897560548177e-01 2.089661138882950575e-01
8.723320473090513394e-01 -4.540413406047360545e-01 1.813374210124680252e-01
8.995073713428249906e-01 -4.077835226003023728e-01 1.568409627476510249e-01
8.726170262449605142e-01 -4.672801297629645689e-01 1.420873176469635568e-01
8.322564725396706109e-01 -5.248377321069614965e-01 1.785903661249561569e-01
8.448877197427889785e-01 -4.988328853574165445e-01 1.932110077449647190e-01
8.132869463540908228e-01 -5.344686464942569604e-01 2.300165402849007334e-01
7.829262520829535221e-01 -5.634482669058611393e-01 2.637281447250580668e-01
7.795763043234488210e-01 -5.556786113686797979e-01 2.889326333330471952e-01
7.782965691813232834e-01 -5.369679398897515554e-01 3.254533483176011988e-01
8.441470983064269795e-01 -4.748736715140378650e-01 2.488185534151680645e-01
8.626206252523894724e-01 -4.399553391770366084e-01 2.496496673716897818e-01
7.851101858773577025e-01 -5.037093533494850783e-01 3.603871298754499075e-01
7.790072611733035446e-01 -5.049866741658403102e-01 3.716667135407635825e-01
8.453418548344650008e-01 -4.210056112744207102e-01 3.288638376904302052e-01
7.872590002781990615e-01 -4.762964824209147130e-01 3.916183439452675108e-01
7.764494608135267262e-01 -4.749410259440742244e-01 4.141947086547266288e-01
7.790321115592813150e-01 -4.618724444589817901e-01 4.240080355476442131e-01
6.508473297953525361e-01 -4.956199184836490024e-01 5.751162053885463532e-01
6.636587575457176813e-01 -4.950956477815246504e-01 5.607471382723826503e-01
6.606332448338746444e-01 -5.166921068242752435e-01 5.446035095055462572e-01
4.631928211162785192e-01 -5.974858767347875910e-01 6.545708804772829570e-01
5.298370338894667908e-01 -5.798903336048042423e-01 6.188698720336293091e-01
6.639437915020767189e-01 -5.342467786584000899e-01 5.232198593507026985e-01
7.053774226166705796e-01 -4.874477204429867871e-01 5.146235629055462280e-01
7.054619975321106962e-01 -4.679957118678382266e-01 5.322625139076766487e-01
7.458640640848649417e-01 -4.504987548289414723e-01 4.906502520170368253e-01
7.416570839541539728e-01 -4.725369932300516607e-01 4.760814634594828232e-01
7.437250730774522811e-01 -4.808637515262588757e-01 4.643738452411277917e-01
7.436496315112018918e-01 -4.960992722477719497e-01 4.481860524698249026e-01
7.031565331752958059e-01 -5.219180211012608428e-01 4.828793525329520553e-01
7.083930321077837045e-01 -5.277224985253000655e-01 4.687091599396745467e-01
7.195017346767486055e-01 -5.332350576969383527e-01 4.449467687713806185e-01
7.622945243046100883e-01 -5.120037572735713916e-01 3.959282899123954813e-01
8.012795540019936880e-01 -4.941317315831068591e-01 3.373201864416751072e-01
7.798747770137940405e-01 -5.192512094500201236e-01 3.495332797637107913e-01
8.159258950585098757e-01 -4.654486595364489832e-01 3.429613376296112848e-01
8.427280881817018621e-01 -4.491873548111383618e-01 2.967155029104249775e-01
8.415542821750631175e-01 -4.539970151052973302e-01 2.926996761670480618e-01
8.448549281469531769e-01 -4.549099297282717669e-01 2.815619047748214032e-01
8.237835654156924203e-01 -4.901196649593015930e-01 2.848918239809480335e-01
8.115676655096123460e-01 -4.990981739185719190e-01 3.037415629946365048e-01
7.806680192034640697e-01 -5.427478778158538741e-01 3.098099173998897782e-01
7.828882343398133603e-01 -5.591082362624323343e-01 2.729175565547253823e-01
8.132992525059123956e-01 -5.255764084354914711e-01 2.496272516560916477e-01
8.134866597735592730e-01 -5.248127531614200647e-01 2.506212849891004124e-01
8.153201410131444282e-01 -5.169156115748505531e-01 2.608664757467013540e-01
8.445329471824346568e-01 -4.751846501702435832e-01 2.469081800304201157e-01
8.448321480400879935e-01 -4.835450858466857627e-01 2.290039117384073952e-01
8.726430858578811955e-01 -4.618888096355294182e-01 1.585962554346993236e-01
8.852886042143638390e-01 -4.447343903471490667e-01 1.359242777826434045e-01
8.972843986870259192e-01 -4.207083959757599301e-01 1.337353858496889703e-01
8.738745926012363441e-01 -4.543593879046285422e-01 1.729183131682545671e-01
8.631723081695318323e-01 -4.627561220811586828e-01 2.019661800542123242e-01
8.729851839378452993e-01 -4.327040638417654628e-01 2.250867871729209380e-01
8.730018064474295292e-01 -4.149301091222271642e-01 2.563217713799228470e-01
8.893633450682218999e-01 -3.954785175397045882e-01 2.294113829208581368e-01
8.975721087596800762e-01 -3.797609320569814151e-01 2.239329007982384656e-01
9.028962998728266021e-01 -3.753618851654667576e-01 2.094796573440622922e-01
8.963354023784327884e-01 -3.891494891944460854e-01 2.124747549776085376e-01
8.908171725988436318e-01 -4.099178753237935346e-01 1.959900520256809830e-01
8.980694057069167346e-01 -4.051566753321836911e-01 1.712291183385485083e-01
9.091034029122906368e-01 -3.840147168681732337e-01 1.614425595744513053e-01
1.000000000000000000e+00 0.000000000000000000e+00 -0.000000000000000000e+00
1.000000000000000000e+00 0.000000000000000000e+00 0.000000000000000000e+00
1.000000000000000000e+00 0.000000000000000000e+00 0.000000000000000000e+00
9.999985414569216857e-01 -5.245990868382695901e-04 1.625386054938669864e-03
1.000000000000000000e+00 0.000000000000000000e+00 0.000000000000000000e+00
1.000000000000000000e+00 0.000000000000000000e+00 0.000000000000000000e+00
1.000000000000000000e+00 0.000000000000000000e+00 0.000000000000000000e+00
1.000000000000000000e+00 -0.000000000000000000e+00 0.000000000000000000e+00
9.995881620809989876e-01 -2.714183092026890842e-02 9.318113640987326848e-03
1.000000000000000000e+00 0.000000000000000000e+00 0.000000000000000000e+00
1.000000000000000000e+00 0.000000000000000000e+00 0.000000000000000000e+00
1.000000000000000000e+00 0.000000000000000000e+00 0.000000000000000000e+00
1.000000000000000000e+00 0.000000000000000000e+00 0.000000000000000000e+00
7.352080162589090806e-01 6.521465505741844693e-01 -1.848622443952045447e-01
1.399009285298666305e-02 9.492630728926100270e-01 -3.141717615325164137e-01
2.266510720192396397e-02 9.524026284342536064e-01 -3.039992208329651557e-01
7.146589087435684107e-01 6.759741382135854293e-01 -1.797821142935322747e-01
9.999949797356914027e-01 -3.162251890539468594e-03 2.016591058905059736e-04
1.000000000000000000e+00 0.000000000000000000e+00 -0.000000000000000000e+00
1.000000000000000000e+00 0.000000000000000000e+00 0.000000000000000000e+00
9.994286240254011133e-01 -3.098689886151788017e-02 -1.349953990473157575e-02
1.000000000000000000e+00 0.000000000000000000e+00 -0.000000000000000000e+00
1.000000000000000000e+00 0.000000000000000000e+00 0.000000000000000000e+00
1.000000000000000000e+00 0.000000000000000000e+00 0.000000000000000000e+00
1.000000000000000000e+00 -0.000000000000000000e+00 0.000000000000000000e+00
1.000000000000000000e+00 0.000000000000000000e+00 0.000000000000000000e+00
1.000000000000000000e+00 0.000000000000000000e+00 0.000000000000000000e+00
8.930945546181433548e-01 -4.334770356496466803e-01 1.203319412118616649e-01
8.837302363691081908e-01 -4.525785635200124668e-01 1.191365316314110107e-01
8.977160112594150254e-01 -4.304194332530902889e-01 9.404825679710650255e-02
8.814294415638921354e-01 -4.645479241266128878e-01 8.530747759733788016e-02
8.731874141583848559e-01 -4.754094271602731236e-01 1.073760509728972218e-01
8.459386646397051290e-01 -5.150283225379682639e-01 1.383242663140459017e-01
8.366724399993501482e-01 -5.299641266271175599e-01 1.382651533608171002e-01
8.432695863295657235e-01 -5.242723223124846621e-01 1.184691387182213590e-01
8.152561621681492232e-01 -5.533033547260062246e-01 1.709174879753615206e-01
8.325639618967963784e-01 -5.209067079277540646e-01 1.883970567354474324e-01
7.799857308304619652e-01 -5.748404686779767792e-01 2.473473170886523187e-01
7.808782520370838309e-01 -5.840971014631540781e-01 2.214943149560516245e-01
7.791622148652589397e-01 -5.993753373108585691e-01 1.834542121341417031e-01
7.765149850165761203e-01 -6.127145824311449607e-01 1.469874774289781083e-01
7.759780462422105618e-01 -6.129741262324283069e-01 1.487306031713477028e-01
7.456801552493448337e-01 -6.381927821399473455e-01 1.914969422517940334e-01
7.460248156320593571e-01 -6.302322834903169024e-01 2.150679969398809066e-01
7.688508124343808037e-01 -5.869764629578095860e-01 2.536277984617065218e-01
7.453802987574240646e-01 -6.016719575067855930e-01 2.870523746187196856e-01
7.436236884823461679e-01 -5.813631928694823481e-01 3.302130341226885424e-01
7.447073455871112690e-01 -5.657109707949629085e-01 3.540933026065580247e-01
7.468147941831185799e-01 -5.424083737769958002e-01 3.847867191650736207e-01
7.438421889632262918e-01 -5.413247644355765331e-01 3.920029302532872517e-01
7.427535278335456459e-01 -5.295774162610057401e-01 4.097132620225271138e-01
6.672511199086071931e-01 -5.521230137668018401e-01 4.999361165686807551e-01
6.240863279520555418e-01 -5.624508881765112323e-01 5.423700338816414002e-01
5.798736006626137307e-01 -6.031053217583680626e-01 5.477322138794751272e-01
5.921561112909884406e-01 -6.204120128925116884e-01 5.142373713757066866e-01
7.063323930203894152e-01 -5.573849039678537842e-01 4.363675278922993228e-01
6.794549711326739461e-01 -6.118027589737619065e-01 4.050164519068212843e-01
7.030168271801570112e-01 -5.976710765295444316e-01 3.854304411713749268e-01
7.049636126332423647e-01 -6.162250156859632177e-01 3.511310793790866636e-01
7.064336032888718364e-01 -6.280191353826513057e-01 3.264100637810177785e-01
6.673854941640883220e-01 -6.590483011117669321e-01 3.467736134440588813e-01
6.807121730836134255e-01 -6.717166169356049155e-01 2.922802147740591328e-01
7.059525937935127171e-01 -6.510049152587076282e-01 2.789687000815946338e-01
6.230039190919355319e-01 -7.058641494546614714e-01 3.370785061535908622e-01
6.284779438881994418e-01 -7.175630579728663472e-01 3.001978212424102344e-01
6.698269794923025211e-01 -6.870437314147693764e-01 2.816074016567902127e-01
7.022979284238466402e-01 -6.758133956581863222e-01 2.237272312002394348e-01
6.998707418642425848e-01 -6.819852103021935008e-01 2.123137245009552032e-01
7.442824816428490475e-01 -6.605697143871228638e-01 9.844409557752499540e-02
7.425075585737309636e-01 -6.646800992087411597e-01 8.296319169810036087e-02
7.798487145818634447e-01 -6.259662438100221937e-01 -1.497990449547952942e-03
7.829653846015616203e-01 -6.218884597188373276e-01 -1.483071759089711443e-02
7.839305811624579512e-01 -6.208035114770550367e-01 7.472888066127581289e-03
7.433065174384654306e-01 -6.684706577470876931e-01 2.534562811761226567e-02
7.442251071715095811e-01 -6.640025686215242917e-01 7.231582620404031214e-02
7.042437100342963108e-01 -7.081425885376452234e-01 5.074318847228004303e-02
7.226997677497178918e-01 -6.909208826246270307e-01 1.825868691090228382e-02
6.676004088112423851e-01 -7.416110188720951291e-01 6.574793413146100274e-02
7.066463227920719570e-01 -6.944301778530518332e-01 1.357118365192279408e-01
6.512405920294294104e-01 -7.459781263982162569e-01 1.392922331954125625e-01
6.217588913334068934e-01 -7.815604773846236419e-01 5.078485244806846266e-02
5.608432218054572038e-01 -8.196632081976318318e-01 1.166494992789946228e-01
5.726907353489696373e-01 -8.010952300403422210e-01 1.739877985723927711e-01
6.577132398685543446e-01 -7.318860628890259123e-01 1.782023710572063768e-01
6.631833611634901926e-01 -7.229943909223149889e-01 1.935637883767685474e-01
6.650994339721550963e-01 -7.060113929832783075e-01 2.432912984628295971e-01
6.714210882086599774e-01 -7.019067665154674618e-01 2.377406431986334723e-01
5.783809348450114074e-01 -7.358234482432179924e-01 3.521922021045766349e-01
5.791949462702822293e-01 -7.237616229528436307e-01 3.751030889710596505e-01
6.219848144668800316e-01 -6.865352695698103691e-01 3.765690032508099971e-01
6.233827790119372825e-01 -6.782178384618405831e-01 3.891201285252445796e-01
6.650167157432638199e-01 -6.353448845559684921e-01 3.925425396700413794e-01
6.666893399305960921e-01 -6.086940031384354688e-01 4.301359489349995124e-01
6.197970125535741115e-01 -6.292591691568175660e-01 4.689185017268314160e-01
6.202062887643466915e-01 -6.384440441682183165e-01 4.557777548798163658e-01
6.221407120427804305e-01 -6.656726805740316166e-01 4.120932136741461416e-01
5.818183597448736144e-01 -6.664220520692908378e-01 4.662285327814464364e-01
5.308244863705456895e-01 -7.051016341704025026e-01 4.701670449528274065e-01
5.675728887369116960e-01 -7.238832263815982992e-01 3.922423874776987396e-01
4.870946823001214843e-01 -7.335737388090438627e-01 4.739286235338230902e-01
4.909989034334763525e-01 -7.026358369099298118e-01 5.149980170029845317e-01
5.266199740598311863e-01 -6.719001504811238368e-01 5.207893918895293295e-01
5.318514493975496915e-01 -6.560775789923399826e-01 5.354402358034701104e-01
5.376722989958623300e-01 -6.364444698950909585e-01 5.530342987848591019e-01
5.322523577725850608e-01 -6.089938778803741792e-01 5.880764273032441647e-01
4.940505762746730811e-01 -5.877546247637821519e-01 6.406703748039621615e-01
4.784165731781174213e-01 -6.351163043542811248e-01 6.064197081657778376e-01
4.326638643490389180e-01 -6.668981788069252570e-01 6.066702560621896057e-01
-6.671637536661970125e-02 -6.982892006131750096e-01 7.126998790268967987e-01
-1.734099538027061849e-01 -7.232926298015909250e-01 6.684136141618017835e-01
-3.113126523477879881e-01 -6.905246740088284430e-01 6.528859832108407923e-01
-4.133926808396859998e-01 -5.802375478598416070e-01 7.017341943227332068e-01
-3.963326757973064662e-01 -6.345203398333518763e-01 6.635543296770165522e-01
-3.709722317370905409e-01 -5.342594182931019731e-01 7.595699291343219750e-01
-4.997978475670492027e-01 -5.192073084113227877e-01 6.932718676389617585e-01
-6.412814619046223186e-01 -4.080263427984975322e-01 6.498250458392269557e-01
-5.699394262636154895e-01 -5.388940056585251881e-01 6.202921094578025540e-01
-5.957102567223065970e-01 -5.604645571083985978e-01 5.753336164879732095e-01
-7.021169503361311959e-01 -5.122690376731646733e-01 4.945828758581320983e-01
-6.924838809748022905e-01 -5.499217047274647108e-01 4.669605906923142147e-01
-8.684085304416729878e-01 -3.840000201764596222e-01 3.137046521182189629e-01
-8.401724034936077778e-01 -4.180975544327115712e-01 3.454052220004208973e-01
-9.048709252781519385e-01 -3.171971878961810654e-01 2.838917973049170373e-01
-5.956276747825177686e-01 -6.999012704989475697e-01 3.941647936931079177e-01
-5.001464922558188642e-01 -7.849125950865526447e-01 3.657399408851779721e-01
-6.960229312271293267e-01 -6.462428296241498060e-01 3.129253654873103141e-01
-4.449655653241361697e-01 -8.229308847149694461e-01 3.532568536603497567e-01
-3.722652974369066170e-01 -8.502360195604029558e-01 3.721790689524245299e-01
-2.749149409507616326e-01 -8.600976519085771210e-01 4.297136307163076929e-01
-2.841078802641734402e-01 -8.169638276612882777e-01 5.018493963977789241e-01
-9.913781303512829435e-02 -8.464931246561372413e-01 5.230880269481431588e-01
-3.194790509962777171e-03 -9.081376273215211459e-01 4.186595790811855067e-01
4.891901406513071704e-01 -7.722282928470417529e-01 4.054090157064813016e-01
5.335058720518041087e-01 -7.360349290226961827e-01 4.166822143370154108e-01
5.334129552250851392e-01 -7.500893422910606123e-01 3.909432155433903988e-01
4.912223612174855814e-01 -7.916541313919495115e-01 3.632964740951611371e-01
5.320864550514511349e-01 -7.792675790545334769e-01 3.310982400818020532e-01
5.785226652536581415e-01 -7.504248120344919615e-01 3.196468790255917458e-01
6.192814411910443351e-01 -7.332454388078580854e-01 2.807875051775173270e-01
6.226329659032960873e-01 -7.485834151632569933e-01 2.279277523975081210e-01
6.189460307727499000e-01 -7.632625670994734879e-01 1.852999316119140483e-01
5.785337288461782634e-01 -7.890650135837565804e-01 2.065795946491386648e-01
5.723916917319473718e-01 -7.910575582942324102e-01 2.158603499992676200e-01
5.323174495586600052e-01 -8.184258537120993049e-01 2.163729531872795875e-01
5.867861374751262016e-01 -7.737610072771440306e-01 2.386963185398586207e-01
5.372384457495871235e-01 -7.910308349759332947e-01 2.926517905734485892e-01
4.899069482569693434e-01 -8.032368434500292143e-01 3.388240773232865655e-01
-8.151605753980195601e-02 -9.432341534372528091e-01 3.219696634042973904e-01
4.934546498619254984e-01 -8.250719117273870307e-01 2.752432542464199328e-01
4.856948798658774491e-01 -8.449869718768873161e-01 2.238247104999787074e-01
4.893575052052526186e-01 -8.461076580025617133e-01 2.112606522017557997e-01
-3.014446820068143462e-01 -8.876105257485313871e-01 3.482508553761587966e-01
-2.873038488274157753e-01 -9.176315101657035456e-01 2.746068280286626528e-01
-3.321909799627090210e-01 -9.249034657793074876e-01 1.849398059392311777e-01
-1.729173118510471951e-01 -9.707556129505083842e-01 1.665327090612842009e-01
-1.689657542011869795e-01 -9.799957615446006631e-01 1.051612155779989566e-01
-4.011146490021106348e-01 -9.008915517677789087e-01 1.658356123073596311e-01
-5.050456493872643726e-01 -8.539238570183322885e-01 1.254708669370357133e-01
-4.047839181909080319e-01 -9.123350899458780860e-01 6.160083787955304702e-02
-2.814144024436746050e-01 -9.593330981812586700e-01 2.204406566894625760e-02
-2.911263390410067098e-01 -9.535961347040493585e-01 -7.681058907518525936e-02
-1.677972426168364839e-01 -9.857460804456364967e-01 -1.219632142291812715e-02
-1.201445911189101406e-01 -9.910654344124900650e-01 5.791875290139037596e-02
5.772814724977337608e-01 -8.162693872949735585e-01 2.122236734996794938e-02
7.040347953042250806e-01 -7.100814666606671821e-01 -1.092326443759052135e-02
7.068972308720020692e-01 -7.054085419117622768e-01 -5.191429459615785891e-02
6.362648674273232441e-01 -7.653313457064910841e-01 -9.713366953215753219e-02
6.653195300170446913e-01 -7.418276694566865448e-01 -8.391443145466660758e-02
5.970680244200251563e-01 -8.021480393844874213e-01 -8.264207571866150764e-03
5.782344527978132698e-01 -8.153559732413638850e-01 -2.897506682031399800e-02
6.192306675099917834e-01 -7.802452474932365378e-01 -8.815176787420581084e-02
5.753727748181767243e-01 -8.160988318686749343e-01 -5.411900424634579626e-02
5.000682862935795781e-01 -8.657204409164805936e-01 -2.144358232144803061e-02
4.880794507295140305e-01 -8.707204778864608974e-01 -6.020215249265781221e-02
-5.443657525082307852e-02 -9.899806663930261763e-01 -1.302879098112386114e-01
-6.418961471716282119e-02 -9.798760196503062403e-01 -1.890044430079216298e-01
4.890140828550243457e-01 -8.629753347905103622e-01 -1.270385701771943598e-01
5.323861614731785208e-01 -8.408925015004833359e-01 -9.728708029391347489e-02
5.365376827250074587e-01 -8.318239585024342908e-01 -1.421133951371925663e-01
5.378181457083780481e-01 -8.205100852118325516e-01 -1.936874859470098242e-01
5.655360462129046528e-01 -8.075508786577497711e-01 -1.674232923250883187e-01
5.818652270110735714e-01 -8.036462307711842445e-01 -1.248422739404421583e-01
7.022592180712742271e-01 -7.053694617888854879e-01 -9.636344228793769506e-02
7.431208435101924747e-01 -6.617663274588252431e-01 -9.918033969673066552e-02
7.808472932377912290e-01 -6.170856432972700034e-01 -9.737973854765369364e-02
7.419176567430405544e-01 -6.595088719941389899e-01 -1.208562715540006938e-01
7.794360443865983035e-01 -6.131372932567704659e-01 -1.286161433441921076e-01
7.800485603648870114e-01 -6.062136643504614231e-01 -1.550136659377266413e-01
7.925961295803040096e-01 -5.934504160701441489e-01 -1.400284936735898822e-01
8.102978983584808725e-01 -5.645810180197321504e-01 -1.570528255321498590e-01
8.130280011468525858e-01 -5.764492081926616551e-01 -8.180329898730601124e-02
7.355231211230726096e-01 -6.737000803416417494e-01 -7.165151806514223620e-02
7.509772843744021431e-01 -6.590082842016012910e-01 -4.172768514199805268e-02
7.458430636468544872e-01 -6.652715493073326769e-01 -3.364357430618239442e-02
7.422572026612899165e-01 -6.697658788248911366e-01 -2.163128889728815202e-02
8.149991709075901092e-01 -5.766854277430973896e-01 -5.665923445213098819e-02
8.298995497803574040e-01 -5.560562414221997818e-01 -4.547739713062352168e-02
7.858038681604601061e-01 -6.177807938905338636e-01 -2.931162711348089811e-02
8.136073151348240939e-01 -5.814147493219382623e-01 -1.613381873784744370e-04
8.135453587122855046e-01 -5.812039929758734402e-01 1.859752313077248434e-02
7.734578562917689970e-01 -6.310701802256863946e-01 5.927370555702492910e-02
7.837131862175094055e-01 -6.154835851750395381e-01 8.350807223783544841e-02
7.802091704579420250e-01 -6.149511190967530405e-01 1.144935432894834959e-01
8.572180392547640304e-01 -5.065492186873464808e-01 9.265593463700351473e-02
8.148267614745099419e-01 -5.732132607568276583e-01 8.650957448448726161e-02
8.143362833878668994e-01 -5.789704970983765575e-01 4.061503474938889247e-02
8.480952183803872613e-01 -5.291434226173117317e-01 2.723488316773799156e-02
8.434703792918870624e-01 -5.355950301041355610e-01 4.117867148112399484e-02
8.481460417957638054e-01 -5.256312876728382877e-01 6.603060809633831685e-02
8.729596369611218876e-01 -4.865419707079391420e-01 3.490534309158286469e-02
8.729921517339562786e-01 -4.874365292616889556e-01 1.703915937585791240e-02
8.979883688294312272e-01 -4.400173164694778927e-01 -1.284777823914946002e-03
8.856046085877024021e-01 -4.620957652872821897e-01 4.660451643117240889e-02
8.931793752451486768e-01 -4.479088312914940029e-01 4.010339745924049876e-02
1.000000000000000000e+00 0.000000000000000000e+00 0.000000000000000000e+00
1.000000000000000000e+00 0.000000000000000000e+00 0.000000000000000000e+00
1.000000000000000000e+00 0.000000000000000000e+00 0.000000000000000000e+00
9.986579327200074685e-01 3.947717044921300600e-02 -3.352441541212468346e-02
1.000000000000000000e+00 0.000000000000000000e+00 0.000000000000000000e+00
9.974429090367296080e-01 -5.994049047281409942e-02 -3.892018517716593073e-02
1.000000000000000000e+00 0.000000000000000000e+00 0.000000000000000000e+00
9.994884272324757735e-01 2.585967587684991423e-02 1.881916554729127014e-02
1.000000000000000000e+00 0.000000000000000000e+00 0.000000000000000000e+00
1.000000000000000000e+00 -0.000000000000000000e+00 0.000000000000000000e+00
1.000000000000000000e+00 0.000000000000000000e+00 0.000000000000000000e+00
1.000000000000000000e+00 -0.000000000000000000e+00 0.000000000000000000e+00
1.000000000000000000e+00 0.000000000000000000e+00 0.000000000000000000e+00
1.000000000000000000e+00 0.000000000000000000e+00 0.000000000000000000e+00
1.000000000000000000e+00 0.000000000000000000e+00 0.000000000000000000e+00
1.000000000000000000e+00 -0.000000000000000000e+00 0.000000000000000000e+00
9.999683895768531894e-01 -7.406529849733723726e-03 -2.891913321593699016e-03
1.000000000000000000e+00 0.000000000000000000e+00 -0.000000000000000000e+00
9.999183093966065305e-01 1.048664254093156084e-02 -7.307863001660693664e-03
1.000000000000000000e+00 0.000000000000000000e+00 0.000000000000000000e+00
1.000000000000000000e+00 0.000000000000000000e+00 -0.000000000000000000e+00
1.000000000000000000e+00 0.000000000000000000e+00 0.000000000000000000e+00
1.000000000000000000e+00 -0.000000000000000000e+00 0.000000000000000000e+00
1.000000000000000000e+00 0.000000000000000000e+00 0.000000000000000000e+00
1.000000000000000000e+00 0.000000000000000000e+00 0.000000000000000000e+00
1.000000000000000000e+00 0.000000000000000000e+00 0.000000000000000000e+00
9.091038571342616725e-01 -4.114203893356067621e-01 -6.529502417907386003e-02
8.981050480630069499e-01 -4.355506794450729746e-01 -6.085169084486563573e-02
8.731903545920925991e-01 -4.784205076853760841e-01 -9.301839857470436956e-02
9.229898106086253939e-01 -3.836647211068519581e-01 2.985282718027751012e-02
1.000000000000000000e+00 0.000000000000000000e+00 0.000000000000000000e+00
1.000000000000000000e+00 -0.000000000000000000e+00 0.000000000000000000e+00
1.000000000000000000e+00 0.000000000000000000e+00 0.000000000000000000e+00
1.000000000000000000e+00 0.000000000000000000e+00 -0.000000000000000000e+00
9.984161179883974668e-01 4.613927151916795422e-02 -3.219352364465290217e-02
9.999999376186565758e-01 -2.951992737566714155e-04 1.939589440965455312e-04
1.000000000000000000e+00 0.000000000000000000e+00 0.000000000000000000e+00
1.000000000000000000e+00 0.000000000000000000e+00 0.000000000000000000e+00
1.000000000000000000e+00 0.000000000000000000e+00 0.000000000000000000e+00
1.000000000000000000e+00 0.000000000000000000e+00 -0.000000000000000000e+00
9.134612811475747440e-01 -3.952552800734491223e-01 -9.675614408548376122e-02
8.975406845238750320e-01 -4.280567986743992193e-01 -1.057737998421098974e-01
8.948505877394236085e-01 -4.304802243573246368e-01 -1.180220405673255285e-01
8.998345303279551288e-01 -4.190497317841808123e-01 -1.212235138950964464e-01
8.979129845498028395e-01 -4.206750637853787222e-01 -1.295560221913014398e-01
8.985474169885309115e-01 -4.205503044933717738e-01 -1.254989275403225468e-01
1.000000000000000000e+00 0.000000000000000000e+00 0.000000000000000000e+00
1.000000000000000000e+00 0.000000000000000000e+00 -0.000000000000000000e+00
1.000000000000000000e+00 -0.000000000000000000e+00 0.000000000000000000e+00
9.995009761709673368e-01 3.136307732958532046e-02 3.762447833805158525e-03
2.509177152614356504e-02 9.580565360969822697e-01 2.854786798405993253e-01
3.131044867438938922e-02 9.649062719878743755e-01 2.607211960740259404e-01
6.313452504980628932e-01 7.493887802275824850e-01 1.995485673778540081e-01
1.000000000000000000e+00 0.000000000000000000e+00 0.000000000000000000e+00
1.000000000000000000e+00 0.000000000000000000e+00 0.000000000000000000e+00
1.000000000000000000e+00 0.000000000000000000e+00 0.000000000000000000e+00
1.000000000000000000e+00 0.000000000000000000e+00 0.000000000000000000e+00
1.000000000000000000e+00 0.000000000000000000e+00 0.000000000000000000e+00
1.000000000000000000e+00 0.000000000000000000e+00 0.000000000000000000e+00
1.000000000000000000e+00 0.000000000000000000e+00 -0.000000000000000000e+00
1.000000000000000000e+00 -0.000000000000000000e+00 0.000000000000000000e+00
1.000000000000000000e+00 0.000000000000000000e+00 0.000000000000000000e+00
8.758674120885404091e-02 9.853597786008975179e-01 1.462691679063072570e-01
4.313307370271216024e-02 9.968945927335883805e-01 6.588405673218275527e-02
-2.955166789205692507e-03 9.989051721402298911e-01 4.668751504144744158e-02
1.000000000000000000e+00 -0.000000000000000000e+00 0.000000000000000000e+00
1.000000000000000000e+00 0.000000000000000000e+00 0.000000000000000000e+00
1.000000000000000000e+00 0.000000000000000000e+00 0.000000000000000000e+00
1.000000000000000000e+00 -0.000000000000000000e+00 0.000000000000000000e+00
9.986003616226220014e-01 5.082554799260148581e-02 1.463152208145297034e-02
1.000000000000000000e+00 0.000000000000000000e+00 0.000000000000000000e+00
1.000000000000000000e+00 0.000000000000000000e+00 0.000000000000000000e+00
9.976862051214768767e-01 6.692328995413393544e-02 1.197953972493094078e-02
1.000000000000000000e+00 0.000000000000000000e+00 -0.000000000000000000e+00
1.000000000000000000e+00 -0.000000000000000000e+00 0.000000000000000000e+00
1.000000000000000000e+00 0.000000000000000000e+00 -0.000000000000000000e+00
1.000000000000000000e+00 0.000000000000000000e+00 -0.000000000000000000e+00
1.000000000000000000e+00 0.000000000000000000e+00 0.000000000000000000e+00
1.000000000000000000e+00 0.000000000000000000e+00 0.000000000000000000e+00
5.983297064045109415e-02 9.422719878814141969e-01 3.294594307017886248e-01
2.117630885083657147e-04 9.449441865439962562e-01 3.272314768983869415e-01
1.368651461837837096e-03 9.279542651571885958e-01 3.726915729792639187e-01
7.835473605895112713e-06 9.283251542732529060e-01 3.717692938936010272e-01
6.918441317310475291e-02 9.241494319659301349e-01 3.757144452518984545e-01
1.000000000000000000e+00 -0.000000000000000000e+00 0.000000000000000000e+00
1.000000000000000000e+00 0.000000000000000000e+00 0.000000000000000000e+00
1.000000000000000000e+00 -0.000000000000000000e+00 0.000000000000000000e+00
1.000000000000000000e+00 0.000000000000000000e+00 0.000000000000000000e+00
1.000000000000000000e+00 0.000000000000000000e+00 0.000000000000000000e+00
1.000000000000000000e+00 0.000000000000000000e+00 0.000000000000000000e+00
7.602816523208791311e-02 9.074084285718455600e-01 4.133154507736387373e-01
1.657690219797349450e-04 9.095246573451779559e-01 4.156499370886130307e-01
-1.029043904106555392e-02 9.298278659366714383e-01 3.678508482958786630e-01
-6.448869737344492536e-01 6.782853093641701969e-01 3.522070842677297864e-01
-3.701526057766398869e-01 9.105837651238445352e-01 1.839137165348099234e-01
-3.181249603199025160e-03 9.057667008110011908e-01 4.237647500122163624e-01
6.671808377762506273e-05 8.887080106379275923e-01 4.584736277875474664e-01
4.673244579864870019e-02 9.045801898145102715e-01 4.237343020158044204e-01
-1.334591010192359966e-03 8.829610478675005147e-01 4.694443596589069068e-01
-9.973417187916853166e-01 7.245746247132940632e-02 7.707923836082252247e-03
-1.000000000000000000e+00 0.000000000000000000e+00 -0.000000000000000000e+00
-1.000000000000000000e+00 0.000000000000000000e+00 0.000000000000000000e+00
-9.998859004088599400e-01 6.801974708115700319e-03 1.348774642530775440e-02
-1.000000000000000000e+00 0.000000000000000000e+00 0.000000000000000000e+00
-1.000000000000000000e+00 0.000000000000000000e+00 -0.000000000000000000e+00
-6.971005264147173142e-01 6.339780541351857091e-01 3.348472531577457167e-01
-7.443855771832807999e-01 5.757383759194332207e-01 3.382535069665459360e-01
-1.000000000000000000e+00 0.000000000000000000e+00 0.000000000000000000e+00
-1.000000000000000000e+00 0.000000000000000000e+00 0.000000000000000000e+00
8.221802700470415282e-02 1.662338050332075323e-01 -9.826527963119199294e-01
-3.230542046450180643e-02 5.313428717380160871e-01 -8.465406738378314921e-01
-4.225541587312321018e-02 8.157530804878947439e-01 -5.768547403843535815e-01
-9.992310120354638281e-01 3.537845437981251145e-02 1.690412826141654903e-02
-9.986238342656862388e-01 5.128330124505168369e-02 1.097545670614072377e-02
-9.920655550664158051e-01 1.189348712505025885e-01 4.074838464762156609e-02
-9.888417906601991714e-01 1.459548376336483322e-01 2.981775335712194552e-02
-9.993789284307774690e-01 3.505708477878088924e-02 3.571864410138335302e-03
-9.993970974689189157e-01 3.451925789781420950e-02 3.723225064965161001e-03
-9.965491186898738363e-01 8.256526642940621719e-02 8.534097367443692697e-03
-1.951977540573182901e-01 9.802278369652127621e-01 -3.242259165271938609e-02
-9.988258427217650004e-01 4.792315023359403764e-02 -7.092783857154746560e-03
-9.988878452679543773e-01 4.692029525886195346e-02 -4.643109816128252083e-03
-9.992947904181397334e-01 3.742093054448491357e-02 -3.097708887414145438e-03
-9.967511886212848671e-01 7.947918191607834804e-02 -1.304329804944265141e-02
-9.901651115032142902e-01 1.393306842263483114e-01 -1.264960058045091693e-02
-9.642285104950043539e-01 2.641046989742774076e-01 -2.262935103558072134e-02
-9.650992483312942349e-01 2.608879321579189448e-01 -2.282384114771339109e-02
-9.923766710931002377e-01 1.228367135916509228e-01 9.984210743937987909e-03
-9.680065348257989033e-01 2.493421467402732739e-01 2.813969426808858240e-02
-9.653362766470968692e-01 2.580967826831050971e-01 3.888346380853675149e-02
-9.647594380561452798e-01 2.624816175777716087e-01 1.851018950057778042e-02
-9.248659175337309302e-01 3.801040300509933023e-01 1.199837170135304755e-02
-8.847776301479753913e-01 4.606309558661769166e-01 7.062342166409477096e-02
-9.473971239835595748e-01 3.150992937109824976e-01 5.613487837805931219e-02
-9.246088015893134671e-01 3.785878052035865915e-01 4.206943991432273572e-02
-9.460902134439511668e-01 3.216888903073762962e-01 3.780960034683748805e-02
-9.460652691553343985e-01 3.211256666678992677e-01 4.288137946873921136e-02
-9.321869922053636071e-01 3.524182690222714687e-01 8.263640373626662816e-02
-9.234267782419427473e-01 3.776733302205085296e-01 6.816040541147259935e-02
-9.249495356781827216e-01 3.757001589773228956e-01 5.759988709301904625e-02
-8.985578616350929915e-01 4.337151986230893264e-01 6.696936446692007550e-02
-9.257729698640556615e-01 3.755646942909049435e-01 4.353812893620635782e-02
-9.248745825958482047e-01 3.795812243056733148e-01 2.291507413825218803e-02
-9.582093466834700202e-01 2.858678539242292538e-01 -1.069663597553613052e-02
-9.536220751892399150e-01 3.006736219308919211e-01 1.415311932850098035e-02
-9.466737138933817297e-01 3.213352063159060634e-01 2.350669277515845743e-02
-9.625606860566534584e-01 2.658533411875452779e-01 5.290488292741322290e-02
-9.792735333087413396e-01 2.012992533215159086e-01 2.240440968233091065e-02
-9.825902487627785620e-01 1.836838848825425030e-01 2.786814437234468034e-02
-9.795825919406039306e-01 2.004803928728424167e-01 1.501857651305900376e-02
-9.791579180976871521e-01 2.030643044456901525e-01 3.828797016150474724e-03
-9.750765465648796315e-01 2.205197828828548146e-01 2.442854265826715707e-02
-9.646697725077965080e-01 2.634512977776918841e-01 2.375649175733798250e-03
