1.204109863171148863e-05 9.999999991749876083e-01 -3.879480345029160337e-05
1.204109863171148863e-05 9.999999991749876083e-01 -3.879480345029160337e-05
1.204109863171148863e-05 9.999999991749876083e-01 -3.879480345029160337e-05
1.204109863171148863e-05 9.999999991749876083e-01 -3.879480345029160337e-05
1.204109863171148863e-05 9.999999991749876083e-01 -3.879480345029160337e-05
1.204109863171148863e-05 9.999999991749876083e-01 -3.879480345029160337e-05
1.204109863171148863e-05 9.999999991749876083e-01 -3.879480345029160337e-05
1.204109863171148863e-05 9.999999991749876083e-01 -3.879480345029160337e-05
1.204109863171148863e-05 9.999999991749876083e-01 -3.879480345029160337e-05
1.204109863171148863e-05 9.999999991749876083e-01 -3.879480345029160337e-05
1.204109863171148863e-05 9.999999991749876083e-01 -3.879480345029160337e-05
1.204109863171148863e-05 9.999999991749876083e-01 -3.879480345029160337e-05
1.204109863171148863e-05 9.999999991749876083e-01 -3.879480345029160337e-05
1.204109863171148863e-05 9.999999991749876083e-01 -3.879480345029160337e-05
1.204109863171148863e-05 9.999999991749876083e-01 -3.879480345029160337e-05
1.204109863171148863e-05 9.999999991749876083e-01 -3.879480345029160337e-05
1.204109863171148863e-05 9.999999991749876083e-01 -3.879480345029160337e-05
1.204109863171148863e-05 9.999999991749876083e-01 -3.879480345029160337e-05
1.204109863171148863e-05 9.999999991749876083e-01 -3.879480345029160337e-05
1.204109863171148863e-05 9.999999991749876083e-01 -3.879480345029160337e-05
1.204109863171148863e-05 9.999999991749876083e-01 -3.879480345029160337e-05
1.204109863171148863e-05 9.999999991749876083e-01 -3.879480345029160337e-05
1.204109863171148863e-05 9.999999991749876083e-01 -3.879480345029160337e-05
1.204109863171148863e-05 9.999999991749876083e-01 -3.879480345029160337e-05
1.204109863171148863e-05 9.999999991749876083e-01 -3.879480345029160337e-05
1.204109863171148863e-05 9.999999991749876083e-01 -3.879480345029160337e-05
1.558209791330368924e-04 9.999999875729297383e-01 2.395751995312406536e-05
1.558209791330368924e-04 9.999999875729297383e-01 2.395751995312406536e-05
1.558209791330368924e-04 9.999999875729297383e-01 2.395751995312406536e-05
1.558209791330368924e-04 9.999999875729297383e-01 2.395751995312406536e-05
1.558209791330368924e-04 9.999999875729297383e-01 2.395751995312406536e-05
1.558209791330368924e-04 9.999999875729297383e-01 2.395751995312406536e-05
1.558209791330368924e-04 9.999999875729297383e-01 2.395751995312406536e-05
8.273634125081236190e-01 -5.597814641625386001e-01 -4.598364951759297686e-02
9.859244338666343088e-01 -9.278769664678118700e-02 -1.390807465314355118e-01
9.713447922187348205e-01 4.400706320272172734e-02 -2.335651365632606669e-01
9.874928127526875210e-01 -7.408604262082177372e-02 -1.391732842558920102e-01
9.614471758283488212e-01 -2.684774280341102326e-01 -5.949116512458944850e-02
-9.802352910836334976e-01 -1.752371504554036952e-01 9.181892623231138750e-02
-9.802352910836334976e-01 -1.752371504554036952e-01 9.181892623231138750e-02
-6.661970148028002470e-01 -1.776104844501575630e-01 7.243176466725202989e-01
-8.372339082070403560e-01 -1.997897868875596616e-01 -5.090416721681912948e-01
-5.000214837780445620e-01 -1.066019129313282715e-01 -8.594268717696603721e-01
2.360966438295858949e-01 -1.588530173892589437e-01 -9.586574433230743431e-01
8.024831694441059149e-01 -1.077951143283635976e-01 -5.868568616672017457e-01
5.983941711084367343e-01 -1.435377727647800250e-01 -7.882393822774738101e-01
8.091308507766754587e-01 -1.436702827814430039e-01 5.697948018075573717e-01
8.305050663209655459e-01 -1.359710698842974130e-01 5.401603493128017686e-01
-9.455640953815835914e-02 -1.079837965747788148e-01 9.896456866437345345e-01
9.640217974819377256e-01 -2.201077229964520932e-01 -1.490455106905644034e-01
9.754493826106250820e-01 -2.140232371761939256e-01 5.188984402725626416e-02
-7.002010679657140191e-01 -2.485449872922017855e-01 -6.692860776316752469e-01
-9.705151636400757287e-01 -2.388860615120474706e-01 3.215224346665936095e-02
-9.535340839422707937e-01 -2.230674687260868760e-01 -2.025182835116640934e-01
-9.535340839422707937e-01 -2.230674687260868760e-01 -2.025182835116640934e-01
-8.725155279936283037e-01 -2.597619200975408438e-01 -4.138120325428429336e-01
-9.405572160428116169e-01 -2.792048133687414224e-01 1.933825109505045714e-01
-9.448901577326600520e-01 -2.677939626387240146e-01 1.883321093021536052e-01
-9.648226315600590963e-01 -2.584761013250536643e-01 -4.803534816489814230e-02
9.571902609248773564e-01 -2.681658903918022752e-01 -1.089672410448994100e-01
9.393362527862054723e-01 -2.597918884443485288e-01 2.239544125488243109e-01
9.223674176411412740e-01 -3.110957586025406840e-01 -2.290366255722481592e-01
9.282407480182306436e-01 -2.709271479392741933e-01 2.548874148090604086e-01
9.289898102723432860e-01 -2.774430771146365049e-01 2.449556518460383470e-01
-8.519459584476650749e-01 -2.704979775768248107e-01 -4.483513443846657287e-01
-9.292103718601923967e-01 -2.813273242545267783e-01 -2.396310110466322585e-01
-9.117882468260916085e-01 -2.715172846259779615e-01 -3.080917997921038820e-01
-9.117882468260916085e-01 -2.715172846259779615e-01 -3.080917997921038820e-01
-9.547120982965986435e-01 -2.749863380634218202e-01 -1.136104011284852500e-01
-9.556062580237838500e-01 -2.788423476315661786e-01 9.520307134277862515e-02
-9.200865344720717820e-01 -2.956165383288774651e-01 2.570051193062588002e-01
-9.637693792286173844e-01 -2.394325258155625136e-01 -1.175612574059395343e-01
-9.614626907602976669e-01 -2.730083850532640244e-01 -3.249486061790619884e-02
-9.508965521088883488e-01 -2.856826743214893050e-01 1.190846622363695012e-01
-9.508965521088883488e-01 -2.856826743214893050e-01 1.190846622363695012e-01
9.418021426625804438e-01 -2.939704016226827310e-01 -1.630647940113708894e-01
9.502430723026124015e-01 -3.066590808552217551e-01 -5.475684130702507951e-02
9.236682371399708158e-01 -2.781243948379638065e-01 2.635978161797914443e-01
9.613022910398848486e-01 -2.504362119040620671e-01 1.148024782337567495e-01
9.592583480464855761e-01 -2.758807694895281659e-01 6.093621853211272921e-02
-9.963081727739956373e-01 -4.253250026488582247e-02 -7.457218841471342785e-02
-9.891327013420485592e-01 -1.702721543577809596e-02 1.460362046558497662e-01
-9.490405373223189667e-01 -4.600820296094149803e-02 3.117776511863363798e-01
-9.936421996606631390e-01 -9.595349304951295011e-02 5.889062934895610002e-02
-9.721499027628499601e-01 -1.199414873440107915e-01 2.013420129329386854e-01
-9.569039075185202803e-01 -2.740474501398850737e-01 -9.608801614985298944e-02
-8.562459381706145622e-01 -1.988701491647208719e-01 4.767531406687594009e-01
-9.097341166675264601e-01 -1.199356634859685272e-01 3.974912245513553821e-01
9.965611972958207110e-01 -5.889337236648765905e-02 -5.828679726681462031e-02
9.548224163879940329e-01 -8.772500221521059571e-02 -2.839339309581251358e-01
9.590014774574061596e-01 -2.381191382117679167e-01 1.536731669869429995e-01
9.590014774574061596e-01 -2.381191382117679167e-01 1.536731669869429995e-01
9.590014774574061596e-01 -2.381191382117679167e-01 1.536731669869429995e-01
9.340775431965673281e-01 -1.464415637290303052e-01 -3.256593491801841322e-01
9.340246764257091883e-01 -1.431220419637889985e-01 -3.272827293518018044e-01
9.979414909571202585e-01 -3.467846000529319073e-02 5.394613088944612972e-02
-9.991218448258569751e-01 -3.124409382254673528e-03 -4.178249942007269957e-02
-8.353020647017759259e-01 2.005155229698175057e-01 5.119218551235048542e-01
-9.626909653018180801e-01 7.469896852185888003e-02 2.600887722067682373e-01
-8.797434672640661590e-01 8.827530746386236249e-02 4.671818723991326139e-01
-9.555659905643518748e-01 1.274098243964128518e-01 2.658201917162129058e-01
9.625242790155159600e-01 8.900550418126269847e-02 -2.561738326431885482e-01
8.293908330246885230e-01 2.355388869060204005e-01 -5.065888656984934846e-01
8.209490370744202403e-01 1.806578233882140117e-01 -5.416691142895402322e-01
8.849798082765067964e-01 7.132326834953121864e-02 -4.601344698398696642e-01
-9.739722643379289391e-01 2.058223866145149905e-01 9.494826732886009479e-02
-8.971224814133763603e-01 2.736023252271220230e-01 3.468616741195522657e-01
-8.095654651139462255e-01 3.018975138625915600e-01 5.034497480567711181e-01
-8.497306326706892676e-01 2.504550918984512209e-01 4.639289803873092866e-01
9.786627881330295375e-01 1.797799980985078927e-01 -9.949019754420779238e-02
8.149534102009932113e-01 2.645814811082324858e-01 -5.156040913882913301e-01
8.149534102009932113e-01 2.645814811082324858e-01 -5.156040913882913301e-01
8.662814732686442420e-01 2.970589248067714294e-01 -4.016371549846356470e-01
7.600211406060716213e-01 3.069824475348484349e-01 -5.728260143685514061e-01
7.847805925900259716e-01 2.419347702321479054e-01 -5.706023032259557315e-01
8.352808339241534208e-01 3.425116958379378906e-01 -4.301065759706435010e-01
7.770516518273624662e-01 2.484642908076231393e-01 -5.783219056769615118e-01
9.764371293439866317e-01 -1.538703868311702000e-02 2.152528082953597544e-01
9.962742926669257981e-01 8.343463736250378293e-02 -2.182189403337981420e-02
9.962742926669257981e-01 8.343463736250378293e-02 -2.182189403337981420e-02
-9.640311950392236318e-01 2.379585153352384297e-01 1.184043916866906881e-01
-8.643297401632170640e-01 3.312238604393684116e-01 3.784505972316959954e-01
-8.643297401632170640e-01 3.312238604393684116e-01 3.784505972316959954e-01
-8.996441236139012254e-01 3.345599221048704552e-01 2.805532202063603653e-01
-8.980104806281964391e-01 2.582216701194945951e-01 3.562285021760815407e-01
-9.180827654870101773e-01 1.211598646275098556e-01 3.774179684635683985e-01
-9.657455296027596114e-01 -2.046636920259379752e-02 2.586826236606327156e-01
-9.559072666361361215e-01 1.891141139569678387e-01 2.246712030824200013e-01
-9.181825735198245741e-01 1.200720925993174065e-01 3.775227864160423663e-01
8.954602902916941609e-01 3.865686298909700499e-03 -4.451246173602999012e-01
8.589046971320685175e-01 2.576966645839313119e-01 -4.425778466064319017e-01
8.853295841121247012e-01 2.082483243487564806e-01 -4.157212562544613244e-01
8.849452543144482597e-01 3.327470488551566019e-01 -3.258086836542586906e-01
9.263664735321819332e-01 1.399632217520955790e-01 -3.496504730045748577e-01
9.223387635101115700e-01 2.856031694340739335e-01 -2.602345767492287298e-01
9.179122855973126383e-01 1.482115079014702519e-01 -3.680630175324464126e-01
-9.587648909114322437e-01 1.734166745630640882e-01 2.251589237384957476e-01
-9.587648909114322437e-01 1.734166745630640882e-01 2.251589237384957476e-01
-9.674625957658479214e-01 2.003413870208074765e-02 2.522196643413699979e-01
-9.790714460179902323e-01 -1.696632946955670129e-01 1.123987100694969626e-01
-9.792127854833333478e-01 -2.017769316904223509e-01 -2.069759849764285856e-02
-9.986494654382749303e-01 -5.183030268267575097e-02 -3.586767858410906847e-03
9.806636775318819943e-01 -1.185336781477041440e-01 -1.557193588299838338e-01
9.785488031329292458e-01 9.103174466050760472e-02 -1.848119621430819037e-01
9.766715314972146400e-01 9.167954566855308907e-02 -1.941843981088412774e-01
9.982148755346177404e-01 2.879379240255345793e-02 -5.232570859994449541e-02
9.841258943566196793e-01 1.768388654782719616e-01 1.497463565970762536e-02
-9.800053551350688119e-01 2.438450705537165489e-02 -1.974712630289637838e-01
-9.876549398513347899e-01 -9.189256920068127055e-02 -1.268600627185498542e-01
-9.379203357124801244e-01 -1.444692383007744052e-01 -3.153317031980495955e-01
-9.691437995477821810e-01 -1.493110626089858839e-01 -1.961287902901138192e-01
9.539420895577177539e-01 -2.395465292148026559e-01 1.805877905933760963e-01
9.959126519670264965e-01 -3.873600168310218500e-02 8.159357711003439872e-02
9.969922135777024019e-01 -3.926004116842182062e-02 6.682196669424608770e-02
9.308597149791637548e-01 5.557900591126236495e-02 3.611248608595448717e-01
9.744458306558911875e-01 -6.415918302687385888e-02 2.152647726653722504e-01
9.744458306558911875e-01 -6.415918302687385888e-02 2.152647726653722504e-01
-6.394237968097314928e-01 -4.999274154566460959e-01 -5.841316524108801644e-01
-8.168264578371008389e-01 -3.686377566686510621e-01 -4.437349908848741142e-01
-7.276092055210596765e-01 -4.661361430190046340e-01 -5.032911088151453827e-01
-6.745999229488967019e-01 -4.160157257412613885e-01 -6.097916528563785965e-01
-7.880352503903108596e-01 -3.741153519341604561e-01 -4.889152764942604756e-01
-8.426598248375241074e-01 -1.668824932613630074e-01 -5.119322738875371481e-01
-9.379977570075622717e-01 -6.043446976359802963e-02 -3.413325104838024204e-01
-9.018728559743317552e-01 -2.271765737356268300e-01 -3.674454462943359534e-01
7.373280449192782804e-01 -4.289157882358416440e-01 5.218990331257009618e-01
8.557606938453450329e-01 -3.290558965920167833e-01 3.992441005041373892e-01
7.400255518954383938e-01 -4.741293219749984078e-01 4.770362340382332533e-01
7.335481282152775950e-01 -4.743507514462112495e-01 4.867222084457183406e-01
7.190684908990214730e-01 -2.560450753143185265e-01 6.460506364082376773e-01
8.059838895398473424e-01 -3.176425368721280118e-01 4.994929314531464937e-01
8.076496213250484724e-01 -3.068701460135999093e-01 5.035204093769164446e-01
8.457370505039192299e-01 -1.559138715856702717e-01 5.103133410485153343e-01
9.298078901039703581e-01 -3.782629154930106791e-02 3.660962430400373502e-01
9.190124833632947743e-01 -1.945778625412792340e-01 3.428636913283427123e-01
6.670964266249054253e-01 -5.336977608773082471e-01 5.197586532409339544e-01
-5.547324272867008021e-01 -7.527594441238902867e-01 -3.544363883673582460e-01
-4.616342904675489467e-01 -7.143696598010770282e-01 -5.258990121879068003e-01
-4.675875337997302261e-01 -6.955305756489573721e-01 -5.455264581782595101e-01
-5.520715157704005893e-01 -5.697757185791102463e-01 -6.087468045030139940e-01
-5.618667767686899017e-01 -4.976807093767612322e-01 -6.607720005249971829e-01
-4.365466728359221893e-01 -6.142122580493120099e-01 -6.573966112613082169e-01
-4.365466728359221893e-01 -6.142122580493120099e-01 -6.573966112613082169e-01
-4.914347537516710607e-01 -4.975631662397182464e-01 -7.147886249840164075e-01
-5.373501734593419954e-01 -3.773362633926944931e-01 -7.542361270928715777e-01
-6.643423868380416986e-01 -4.521755086655063205e-01 -5.951357008392492709e-01
-6.977152051107303743e-01 -3.363302915165941598e-01 -6.325151599492726540e-01
7.006441508142234875e-01 -3.224845719890436779e-01 6.364758241746962808e-01
6.734940847139095910e-01 -4.236501629514034528e-01 6.057443827941143555e-01
5.317531675673575764e-01 -3.651684773019359675e-01 7.641273139778914647e-01
4.839842300900559224e-01 -6.477545467116871958e-01 5.883649481728771002e-01
4.822452778506154392e-01 -6.544181865040575863e-01 5.823884692913514627e-01
4.720973450857097742e-01 -6.460121350524474781e-01 5.998269901629992296e-01
6.176868640022914470e-01 -5.302097794367410799e-01 5.808102339221109522e-01
5.360334875253519593e-01 -5.573554716775716011e-01 6.340528199152498656e-01
4.892148449582723879e-01 -4.726080152966495307e-01 7.330146651669496860e-01
5.524517507805641880e-01 -5.126410642837407883e-01 6.572641799683920372e-01
3.929758870128541859e-01 -7.185551405490386845e-01 5.738017621243524102e-01
4.390247582473646992e-01 -7.195202972530947427e-01 5.380964629940074850e-01
-9.824822099157852762e-01 -1.120170970505164204e-01 1.489324584077289515e-01
-8.904450443445066643e-01 -1.402934823300780731e-01 4.329265085646866740e-01
-8.813966944616671295e-01 -1.934869231702651127e-01 4.309323352385505679e-01
-4.241173106506263557e-01 -7.658613663080473533e-01 -4.833020529681734123e-01
-9.440919406247700874e-01 -1.546338688949387974e-01 2.911679485072802831e-01
-2.987212313099970040e-01 -7.233705524968790934e-01 -6.224955178513329468e-01
-2.742344816944784491e-01 -7.747571228082609229e-01 -5.696901348168371682e-01
-2.252773736907265067e-01 -7.219308442869515341e-01 -6.542674995520855186e-01
-9.549680388298822376e-01 -2.346082732621457001e-01 1.816452667436251334e-01
-9.630563271076579834e-01 -1.060006012488471233e-01 2.475608679755152697e-01
-2.938180877308289585e-01 -6.352889774459928862e-01 -7.141980442831129539e-01
-3.279373925826772340e-01 -7.179114579121248507e-01 -6.140522820937662773e-01
-3.279373925826772340e-01 -7.179114579121248507e-01 -6.140522820937662773e-01
-3.144634599524308571e-01 -6.340189207233301039e-01 -7.064932699747179523e-01
-3.144634599524308571e-01 -6.340189207233301039e-01 -7.064932699747179523e-01
-4.342156493234411996e-01 -6.195231587982681365e-01 -6.539478768183579760e-01
-3.875643993793717601e-01 -5.987036286530199591e-01 -7.009620541594341336e-01
-4.307043345057528505e-01 -4.119289060756330390e-01 -8.029995968724324973e-01
-4.502890411824906347e-01 -4.108818640717026849e-01 -7.927268591185213653e-01
3.529406589861766030e-01 -5.054474417110581541e-01 7.873727039351502421e-01
4.419148234241258577e-01 -4.015105949503960936e-01 8.021848483863321944e-01
3.855055581000932374e-01 -5.571063679524851375e-01 7.355392304022445593e-01
2.859770888249971721e-01 -6.031771676862667242e-01 7.445766643194996481e-01
3.289657832183760511e-01 -6.771869966207776370e-01 6.581787637710985184e-01
2.978891986868417718e-01 -6.038339940510889514e-01 7.393554848204082486e-01
9.294184448202670312e-01 -3.379367806025760368e-01 -1.482568269721250553e-01
3.351394703112759998e-01 -7.416112622755327566e-01 5.811146798228111754e-01
1.193672206808238101e-01 -7.272905242207869936e-01 6.758697803612677690e-01
2.769089518964866770e-01 -6.858005535837925493e-01 6.730520284968710687e-01
2.018213872972675627e-01 -7.535618318613672706e-01 6.256298371970017147e-01
2.067848107619334463e-01 -6.876369691164343489e-01 6.959852302617600683e-01
2.481117899482916667e-01 -7.383942280966645511e-01 6.270681809836836651e-01
9.712897643121533031e-01 -1.419994323315057205e-01 -1.908726144840371397e-01
9.695489318461533168e-01 -1.302129308745377800e-01 -2.074113338008455876e-01
9.905146096488905982e-01 -9.390848322270869963e-02 -1.003095451635387381e-01
-8.574167714066462942e-01 -5.145545773898206887e-01 -8.370603191272663404e-03
-9.550721948674535389e-01 -2.958905185633241008e-01 -1.690868461447936691e-02
-9.547899961727023266e-01 -2.971943749807255952e-01 7.180994941288944798e-03
-8.668896613762986370e-01 -4.869104773462893387e-01 -1.068667490349308746e-01
-8.662755422261226856e-01 -4.785560838828767927e-01 -1.433553609723827726e-01
-9.300012730336387756e-01 -3.542757271576104094e-01 9.790986315360628023e-02
8.307513035612043018e-01 -5.532523956800162734e-01 -6.135192177660311885e-02
9.191785736420169384e-01 -3.758100916129457625e-01 -1.178029065825485361e-01
8.681246997619221917e-01 -4.961629447881112931e-01 1.348472774891242704e-02
9.373158689912023389e-01 -3.451126830662573641e-01 -4.833422932122065363e-02
8.440438769519955642e-01 -5.302664476915359693e-01 8.004641298923984016e-02
9.566891906646884935e-01 -2.910699251125277720e-01 4.908274679639043625e-03
8.930803256759708431e-01 -4.295066473882686031e-01 1.339088187528780505e-01
-2.574894489186898006e-01 7.370002698774305028e-01 6.249238240746979312e-01
-1.631668147550835724e-01 7.531411870099726791e-01 6.373028659843682497e-01
-2.138777157450355015e-01 7.543734924832771194e-01 6.206262615667086369e-01
-7.730147852952192755e-01 -6.099025040175756196e-01 -1.745482091230878274e-01
-7.771031099315097723e-01 -5.872005044502203175e-01 -2.265089934377500225e-01
-1.870453485532378168e-01 6.981961023054614746e-01 6.910399701247817994e-01
-2.472910030089029709e-01 6.210883805431913762e-01 7.437045000435903441e-01
-3.026806941012272212e-01 5.533356626167581505e-01 7.760180680208885740e-01
2.670174511842262066e-01 9.563851847103711501e-01 1.184443296641445043e-01
2.670174511842262066e-01 9.563851847103711501e-01 1.184443296641445043e-01
2.670174511842262066e-01 9.563851847103711501e-01 1.184443296641445043e-01
3.452947063783768922e-01 9.231647787417395223e-01 1.689329957047637221e-01
2.560680315318646372e-01 9.575035681641111962e-01 1.327255822379062034e-01
3.777823461686183881e-01 8.996477119602965811e-01 2.188937945395832418e-01
4.045593480012450449e-01 8.912225464911801565e-01 2.050709793475997689e-01
4.045593480012450449e-01 8.912225464911801565e-01 2.050709793475997689e-01
4.045593480012450449e-01 8.912225464911801565e-01 2.050709793475997689e-01
9.203281667005229483e-02 9.948569477842321707e-01 4.230383081020534786e-02
-6.968007830549156900e-02 9.971686357259625932e-01 -2.827363810625318358e-02
-7.053629161627450461e-02 9.969331587350804824e-01 -3.389555397863958097e-02
1.068549247826062060e-01 9.929210290466317090e-01 5.186381326784243739e-02
1.084587471261753006e-01 9.927292944040040368e-01 5.220390985308032833e-02
-2.892310246783174055e-01 9.488431546860268684e-01 -1.266573415519168799e-01
-3.333622290446087155e-01 9.280540098926540749e-01 -1.660884672955212638e-01
-1.959063267737681524e-01 9.764949513295650974e-01 -8.987948129512088324e-02
-1.959063267737681524e-01 9.764949513295650974e-01 -8.987948129512088324e-02
-2.078850864358163242e-01 9.729995752137056142e-01 -1.002777017662524750e-01
-2.078850864358163242e-01 9.729995752137056142e-01 -1.002777017662524750e-01
-3.933159437607448017e-01 8.937594884862879452e-01 -2.156305755785190847e-01
3.877362178418162775e-01 4.690699560769155951e-01 -7.934948025536929794e-01
4.178756459419759595e-01 4.686536099024868895e-01 -7.782954056487447758e-01
2.533196449350242352e-01 6.226076796331349028e-01 -7.403977544211197692e-01
2.475368799112092066e-01 7.040178852046103941e-01 -6.656457844798923107e-01
3.360996738916293136e-01 6.646982672977277407e-01 -6.672430012082095629e-01
2.504924856504088249e-01 7.322176542144495093e-01 -6.333331046845480650e-01
6.715521673476179121e-01 -7.050995325503519595e-01 2.277110795020575174e-01
7.799834305379437227e-01 -6.154458227624793887e-01 1.133679290208451790e-01
-2.616932071624859524e-01 7.621887675580656385e-01 5.921021431588717743e-01
-3.303482872232418877e-01 6.951155746774138056e-01 6.385016421040429213e-01
-3.361616374622068415e-01 7.334600722596751332e-01 5.907890282491371492e-01
-4.267706524678622770e-01 6.450406482974068156e-01 6.338685764700883185e-01
-4.261996637898675111e-01 6.448775738918726130e-01 6.344184433611118612e-01
-4.301903048017140518e-01 5.033673540835963411e-01 7.493714756364080465e-01
-5.101961575790578962e-01 4.849651316307357352e-01 7.102877599212505944e-01
-3.862438430058133254e-01 5.870669653310219838e-01 7.114548980484464158e-01
-5.501996190774239848e-01 4.119671312738067415e-01 7.263356399882134884e-01
4.167127826433589255e-01 8.464878820641729140e-01 3.313739915867559560e-01
4.298222325470056338e-01 8.696471052205978491e-01 2.428307245587807972e-01
4.893866743979069511e-01 8.249085744213229265e-01 2.828896017317319989e-01
4.666411676994711155e-01 8.270843101515837903e-01 3.133329930108743056e-01
4.051616644038802950e-01 8.746604897555472213e-01 2.661072215443686662e-01
4.051616644038802950e-01 8.746604897555472213e-01 2.661072215443686662e-01
4.206006897035571845e-01 8.648411284051484849e-01 2.741256690640287985e-01
-4.373238096756099091e-01 8.663762879898897484e-01 -2.411224027328665309e-01
-5.197139786171792730e-01 7.893152316041120997e-01 -3.269233023013943251e-01
-4.536602277682578177e-01 8.502096233237173006e-01 -2.670879895259145043e-01
-4.026813240359964352e-01 8.792705139457240859e-01 -2.544231015026724441e-01
-4.632529209386875846e-01 8.140325051761352348e-01 -3.503538379387895474e-01
-4.296786295389573018e-01 8.614052150234602356e-01 -2.708455848780068065e-01
5.506441639438237612e-01 4.124938762051311714e-01 -7.256995292873444914e-01
-3.965817908029198868e-01 8.432040008585853785e-01 -3.629461339367366923e-01
-4.059545235720386502e-01 8.633132465047513859e-01 -2.998185504614842567e-01
-4.447322203424470266e-01 8.302034863106924067e-01 -3.361181689627165126e-01
-4.132659920833792189e-01 8.336874280193865561e-01 -3.663010949338816324e-01
3.893230818301213758e-01 5.905353250594821413e-01 -7.068914823444886197e-01
3.893230818301213758e-01 5.905353250594821413e-01 -7.068914823444886197e-01
5.139402542161141119e-01 5.022330818487233950e-01 -6.954332078589644528e-01
5.560798314789667796e-01 5.218444146068820233e-01 -6.468799177327463346e-01
2.708220989375434984e-01 7.627129172528142043e-01 -5.873026447946281259e-01
3.487791067897851871e-01 7.324819727144494808e-01 -5.846565609956566600e-01
3.553646982152651734e-01 7.013887752376503082e-01 -6.178751631462476857e-01
3.553646982152651734e-01 7.013887752376503082e-01 -6.178751631462476857e-01
-9.640182073892202830e-01 -6.302735738305483004e-02 2.582565546958744962e-01
-9.850854314805815859e-01 -2.488904555345957184e-02 1.702563599286499862e-01
-1.293269481970408252e-01 -9.282250895018240300e-01 -3.488161746384054740e-01
-1.381885007249123998e-01 -9.406804675731973431e-01 -3.098777116761897710e-01
-1.381885007249123998e-01 -9.406804675731973431e-01 -3.098777116761897710e-01
-1.167587048880976697e-01 -9.426202045658641504e-01 -3.127851575395838024e-01
-1.408962431896773615e-01 -9.342108410897331794e-01 -3.277168794027071619e-01
-9.251120995481432185e-01 2.123737150790755979e-01 3.147459426476184041e-01
-1.828667539800069020e-01 -8.747870908013870572e-01 -4.486728162659973096e-01
-1.600535157649058127e-01 -9.026235576519371362e-01 -3.995667469435526531e-01
-1.600535157649058127e-01 -9.026235576519371362e-01 -3.995667469435526531e-01
-2.057917296798837115e-01 -8.866390467008229415e-01 -4.141508962453390175e-01
-1.725891832643023371e-01 -9.111739518985562114e-01 -3.741323338094806883e-01
-2.220868064711492840e-01 -8.878681843473134050e-01 -4.029485545516342526e-01
-2.220868064711492840e-01 -8.878681843473134050e-01 -4.029485545516342526e-01
-1.714340386444169750e-01 -9.225866545226344417e-01 -3.456070533001283085e-01
-1.669242789289533124e-01 -9.208021105167611964e-01 -3.525049763789546153e-01
-1.669242789289533124e-01 -9.208021105167611964e-01 -3.525049763789546153e-01
7.186718192684647954e-01 -6.020141998592251076e-01 -3.479794812301614249e-01
7.235339881676089435e-01 -5.929130878691418749e-01 -3.534864045472658756e-01
-7.114758784018425652e-01 -6.144527165289533910e-01 3.409544450546381222e-01
-6.825022210087305918e-01 -6.514657280221536340e-01 3.313353641414014117e-01
-7.531123723264968595e-01 -5.778654972983854332e-01 3.144729267851932852e-01
1.724568119311320757e-01 -9.217624661758178073e-01 3.472932535596169878e-01
1.708164678927240887e-01 -9.097609591684827635e-01 3.783605839268885385e-01
1.708164678927240887e-01 -9.097609591684827635e-01 3.783605839268885385e-01
2.078189996838616938e-01 -8.748342066144206841e-01 4.375801347270193431e-01
1.718062796363353517e-01 -9.101107712873620637e-01 3.770689409965294336e-01
9.236371124423788936e-01 2.173615871110417541e-01 -3.156713876290871412e-01
1.377310482153277504e-01 -9.406363433602831225e-01 3.102151316543128590e-01
1.377310482153277504e-01 -9.406363433602831225e-01 3.102151316543128590e-01
1.408636618083442260e-01 -9.334455529780840699e-01 3.299042715809894499e-01
9.639258631658119691e-01 -6.282330855968025485e-02 -2.586506567199460815e-01
9.393788121176268602e-01 1.908419841706675835e-01 -2.848627466382341877e-01
-7.062461576322536239e-01 -7.045473134070155963e-01 -6.949422998087304015e-02
-9.193526099862024958e-01 -3.771056467090879161e-01 1.121700037072215494e-01
-8.218593166918907178e-01 -5.695915195476187742e-01 1.061905957103652723e-02
-7.968783886162550401e-01 -5.989865098129052434e-01 -7.874004583765005505e-02
8.019691768993488790e-01 -5.562428578306074511e-01 -2.178056987680066503e-01
8.152994019266179837e-01 -5.636752632956560927e-01 -1.325031424784777756e-01
7.778151807866741096e-01 -5.933553594450285962e-01 -2.072027074042569195e-01
7.736825671103279012e-01 -6.204583783192183510e-01 -1.282446338957646537e-01
8.313087385492456960e-01 -5.546434809604646743e-01 -3.600541958817433247e-02
8.133569861038062454e-01 -5.806849201958562690e-01 -3.543214096360444015e-02
9.089299810981352756e-01 -4.163035470887713752e-01 2.318719780936296174e-02
8.690189337699768535e-01 -4.914506635941915946e-01 -5.729169226093256545e-02
9.031514331478022184e-01 -4.268874265740306706e-01 -4.565757150870593251e-02
-7.685303834007521928e-01 -6.275852196395622640e-01 1.244903284591023646e-01
-8.160622006938688111e-01 -5.775896061777174850e-01 2.080219782015732891e-02
-8.228257246864554286e-01 -5.678624503234380727e-01 2.213739611766043017e-02
-9.087639513915563017e-01 -4.003882830561465433e-01 -1.176320680875589803e-01
-8.819470042244051955e-01 -4.708992266405258031e-01 2.057668799763251108e-02
-7.687291918219587572e-01 -5.699430609643018064e-01 2.902074032470578491e-01
-7.743151738986737698e-01 -6.199455918188514492e-01 1.268994667232327400e-01
-8.305370056310135141e-01 -5.440438343099274210e-01 1.192668798402222313e-01
7.727222483990907609e-01 -6.345086518191458413e-01 -1.729443828818620285e-02
9.204533167834801910e-01 -3.740322315599456382e-01 -1.134265461723024671e-01
8.191458612913414816e-01 -5.734770039771560635e-01 -1.114378026753959708e-02
7.975746563256734811e-01 -5.982977535034931238e-01 7.690556377569189583e-02
9.721373014781768962e-01 5.411982981309990809e-02 -2.280791772515174953e-01
9.891339530539049463e-01 -1.274223321232718087e-01 -7.333193160023791790e-02
7.070611336440596473e-01 -7.036875481374071928e-01 6.991700713232421038e-02
-6.076750307474912960e-01 -7.918224100224260376e-01 -6.122359016190092457e-02
-5.980191349861319061e-01 -7.976889477208773949e-01 -7.788104310034574262e-02
-8.474576457644216188e-01 -5.308579581718121387e-01 -2.316652990557253617e-03
-7.130700618783513134e-01 -6.875056903354948012e-01 -1.373572444726485486e-01
-5.792457226070716336e-01 -7.986221788880840666e-01 -1.633309775561890276e-01
-5.604997646471210349e-01 -8.207543527619896029e-01 -1.104640495942890016e-01
-5.558186570807042148e-01 -8.255997552492773117e-01 -9.721452861242516064e-02
-1.346654073239074989e-01 9.253777861811496308e-01 3.543179093875449825e-01
-1.346654073239074989e-01 9.253777861811496308e-01 3.543179093875449825e-01
-9.864615731468173720e-02 9.362092214975821225e-01 3.373147331942943361e-01
-9.864698452200272583e-02 9.362264764483863022e-01 3.372665966883690025e-01
-1.618651020363698623e-01 8.841297182564200607e-01 4.383084872992753511e-01
-9.671965906786575418e-02 9.353738937803426357e-01 3.401778746244323859e-01
-9.671965906786575418e-02 9.353738937803426357e-01 3.401778746244323859e-01
-1.395207043751608145e-01 9.093905952500810352e-01 3.918452734452237407e-01
-1.395207043751608145e-01 9.093905952500810352e-01 3.918452734452237407e-01
-1.251811899163775554e-01 9.213564791761467143e-01 3.680107443693109159e-01
-1.216137506305328686e-01 9.104603375278256250e-01 3.953126224221690244e-01
-1.841144055689779846e-01 8.818199997673045187e-01 4.341605390548212151e-01
8.468120453790320967e-01 -5.062005548427674917e-01 1.633106183867252259e-01
8.562517021484261637e-01 -4.885285880870687270e-01 1.678476725771846645e-01
7.876108341920611267e-01 -5.960713431255578731e-01 1.561029396513052003e-01
7.410484411658694315e-01 -6.544872148635251241e-01 1.499789766127948565e-01
5.982515555358607351e-01 -7.625709660725329408e-01 2.461312617326914531e-01
5.968661027804961217e-01 -7.796865198296549782e-01 1.893139882511144789e-01
5.968661027804961217e-01 -7.796865198296549782e-01 1.893139882511144789e-01
5.998034326998944454e-01 -7.604579884815290125e-01 2.488764550455701829e-01
4.678562226213691111e-01 -8.551153019569837088e-01 2.233570578994103772e-01
3.943330046761583940e-01 -8.873736043766879966e-01 2.388923767695359524e-01
-6.117179556867052836e-01 -7.603784277172219719e-01 -2.182333369418229807e-01
-5.862191747208855830e-01 -7.895575684279900752e-01 -1.815101245871517943e-01
-8.098130075153712193e-01 -5.795509568753053342e-01 -9.123366288726482420e-02
-7.271588676107644256e-01 -6.554554817717479498e-01 -2.040051290296310826e-01
-8.698839718193686066e-01 -4.789219582162781430e-01 -1.180492842419865601e-01
-8.312831518883497806e-01 -5.222069712951838971e-01 -1.904421185486070978e-01
-6.964029633818766829e-01 -6.999993623696110223e-01 -1.581891439861743687e-01
-6.964029633818766829e-01 -6.999993623696110223e-01 -1.581891439861743687e-01
1.873247069457737723e-01 8.809149282831176819e-01 -4.346243703425169969e-01
1.873247069457737723e-01 8.809149282831176819e-01 -4.346243703425169969e-01
1.405429786090406641e-01 9.095238091391245616e-01 -3.911701826222901412e-01
1.259351438103065712e-01 9.215155370785245159e-01 -3.673546712325242436e-01
1.259351438103065712e-01 9.215155370785245159e-01 -3.673546712325242436e-01
9.700472697715503689e-02 9.354403870272398613e-01 -3.399137615078494101e-01
9.700472697715503689e-02 9.354403870272398613e-01 -3.399137615078494101e-01
1.221684340098339594e-01 9.104740972557812118e-01 -3.951098479636455663e-01
1.632222171192540539e-01 8.836772386206920293e-01 -4.387175011124854196e-01
5.976208230461115267e-01 -7.976249395176060464e-01 8.150955601169301845e-02
7.151885868677645419e-01 -6.852119499963874594e-01 1.378037328820891361e-01
6.358162823436354083e-01 -7.636469155773502049e-01 1.121652505721715126e-01
5.585691020074053936e-01 -8.215500387084003764e-01 1.142632582279471398e-01
1.352750331981013021e-01 9.251856607612832795e-01 -3.545873073235424333e-01
1.352750331981013021e-01 9.251856607612832795e-01 -3.545873073235424333e-01
9.905901396489062705e-02 9.364971253984772925e-01 -3.363932904691949721e-01
-1.334907342561788002e-01 9.274320321763245278e-01 3.493566223231491241e-01
-1.386936515128934233e-01 9.328137450624712779e-01 3.325997415100423460e-01
-1.906276020274795813e-01 9.150540802589554046e-01 3.554393725330524112e-01
-1.906276020274795813e-01 9.150540802589554046e-01 3.554393725330524112e-01
-1.831126627438822707e-01 8.998743287780374134e-01 3.958483865687995040e-01
-1.780368464643556081e-01 8.983178801225947252e-01 4.016564048450801949e-01
-1.780368464643556081e-01 8.983178801225947252e-01 4.016564048450801949e-01
-1.780368464643556081e-01 8.983178801225947252e-01 4.016564048450801949e-01
-2.350590701366102875e-01 8.330038884999539928e-01 5.008510310366429685e-01
-2.350590701366102875e-01 8.330038884999539928e-01 5.008510310366429685e-01
-2.446627287033358855e-01 8.742870209137330040e-01 4.192402106731029088e-01
-2.684460394924577664e-01 8.450646208319915198e-01 4.623878355870708612e-01
-2.684460394924577664e-01 8.450646208319915198e-01 4.623878355870708612e-01
-2.684460394924577664e-01 8.450646208319915198e-01 4.623878355870708612e-01
-2.684460394924577664e-01 8.450646208319915198e-01 4.623878355870708612e-01
-2.684460394924577664e-01 8.450646208319915198e-01 4.623878355870708612e-01
-5.605849649638970922e-01 6.593724764010757688e-01 5.009714906271005574e-01
-4.181803484894119349e-01 7.532834802596035662e-01 5.076309629103147314e-01
-4.181803484894119349e-01 7.532834802596035662e-01 5.076309629103147314e-01
-3.750486675874623588e-01 8.035800594906663541e-01 4.621661875666004948e-01
-3.750486675874623588e-01 8.035800594906663541e-01 4.621661875666004948e-01
-3.750486675874623588e-01 8.035800594906663541e-01 4.621661875666004948e-01
-6.114330192890540250e-01 5.825166663007654844e-01 5.355595171453063630e-01
-5.930148380518291962e-01 6.432394185654009000e-01 4.843309325802017673e-01
-5.804712958521162092e-01 5.949083216676128716e-01 5.560010463141135117e-01
3.246466529580603888e-01 -9.245741136845083696e-01 1.994172987171236588e-01
2.925850257468425308e-01 -9.413170860156728770e-01 1.682740214165030779e-01
2.440425031781870147e-01 -9.591547311375703266e-01 1.430575352050350024e-01
2.440425031781870147e-01 -9.591547311375703266e-01 1.430575352050350024e-01
2.440425031781870147e-01 -9.591547311375703266e-01 1.430575352050350024e-01
1.340127203021178326e-01 -9.887362371560959318e-01 6.664265999816482156e-02
1.340127203021178326e-01 -9.887362371560959318e-01 6.664265999816482156e-02
1.922124896098168778e-01 -9.729160174193058896e-01 1.284086519162680184e-01
1.070275661535808609e-01 -9.902230224824843940e-01 8.946209157455568828e-02
1.706057144689095972e-01 -9.779942227288154211e-01 1.200874285660794433e-01
1.706057144689095972e-01 -9.779942227288154211e-01 1.200874285660794433e-01
1.887301147504603094e-01 -9.759226985835676160e-01 1.093427188963441571e-01
7.672477170061389740e-02 -9.966373589034475122e-01 2.876254935588036868e-02
7.672477170061389740e-02 -9.966373589034475122e-01 2.876254935588036868e-02
5.143218331430297191e-02 -9.969088708351089290e-01 5.939220293769392756e-02
1.165015222073566628e-02 -9.998131750991494648e-01 -1.542364585275755873e-02
1.165015222073566628e-02 -9.998131750991494648e-01 -1.542364585275755873e-02
1.165015222073566628e-02 -9.998131750991494648e-01 -1.542364585275755873e-02
1.165015222073566628e-02 -9.998131750991494648e-01 -1.542364585275755873e-02
-1.239256199880181888e-02 -9.997999142734553812e-01 1.570209622621242598e-02
-1.239256199880181888e-02 -9.997999142734553812e-01 1.570209622621242598e-02
-1.239256199880181888e-02 -9.997999142734553812e-01 1.570209622621242598e-02
-5.388432825636264856e-02 -9.968028977683277558e-01 -5.899544193431473932e-02
-5.388432825636264856e-02 -9.968028977683277558e-01 -5.899544193431473932e-02
-7.672908246936938070e-02 -9.966148712081414063e-01 -2.952027083528676113e-02
-7.672908246936938070e-02 -9.966148712081414063e-01 -2.952027083528676113e-02
-7.672908246936938070e-02 -9.966148712081414063e-01 -2.952027083528676113e-02
-1.751688448255509234e-01 -9.761009758210916765e-01 -1.286186642894203702e-01
-1.127081504906071036e-01 -9.894923270850007890e-01 -9.056383082056752853e-02
-1.127081504906071036e-01 -9.894923270850007890e-01 -9.056383082056752853e-02
-1.988332930686067535e-01 -9.730862276413880796e-01 -1.164839694642397644e-01
-1.988332930686067535e-01 -9.730862276413880796e-01 -1.164839694642397644e-01
-1.347904578246492957e-01 -9.883818906669008530e-01 -7.023368622779137260e-02
-1.811897554634842311e-01 -9.739186873530848443e-01 -1.365747522037921990e-01
-2.804695144087370196e-01 -9.450255938267793088e-01 -1.681174544765367540e-01
-2.804695144087370196e-01 -9.450255938267793088e-01 -1.681174544765367540e-01
-3.785694783087543702e-01 -9.005987609111399950e-01 -2.135580060273015723e-01
-2.871411817856151516e-01 -9.448398250637313200e-01 -1.575679113788655272e-01
6.422761388758605472e-01 5.681687449575238968e-01 -5.144566441247584443e-01
6.216163826665420666e-01 6.247519144706565886e-01 -4.725231403495628313e-01
5.486898839907657921e-01 6.949347384155837304e-01 -4.647635103463526596e-01
6.004162879788409457e-01 6.326808720290051369e-01 -4.890963047277368525e-01
4.408062668659501471e-01 7.402499623795274486e-01 -5.076611352948076084e-01
3.969259309988729667e-01 7.959642657324180748e-01 -4.570456136730015051e-01
3.969259309988729667e-01 7.959642657324180748e-01 -4.570456136730015051e-01
3.969259309988729667e-01 7.959642657324180748e-01 -4.570456136730015051e-01
2.377366006055394443e-01 8.294672120892738754e-01 -5.054359037517709430e-01
2.547241393182047564e-01 8.722956473580025794e-01 -4.173918020863406908e-01
2.547241393182047564e-01 8.722956473580025794e-01 -4.173918020863406908e-01
2.804739603269599257e-01 8.381783334994981072e-01 -4.677514712221814142e-01
2.804739603269599257e-01 8.381783334994981072e-01 -4.677514712221814142e-01
2.804739603269599257e-01 8.381783334994981072e-01 -4.677514712221814142e-01
2.804739603269599257e-01 8.381783334994981072e-01 -4.677514712221814142e-01
1.797186230398701845e-01 8.999657456961974722e-01 -3.971937475667767781e-01
1.797186230398701845e-01 8.999657456961974722e-01 -3.971937475667767781e-01
1.797186230398701845e-01 8.999657456961974722e-01 -3.971937475667767781e-01
1.894048876415304616e-01 9.122241951473056831e-01 -3.632806165010041277e-01
1.894048876415304616e-01 9.122241951473056831e-01 -3.632806165010041277e-01
1.816589071371034481e-01 9.004644733349795871e-01 -3.951756238931127263e-01
1.816589071371034481e-01 9.004644733349795871e-01 -3.951756238931127263e-01
1.816589071371034481e-01 9.004644733349795871e-01 -3.951756238931127263e-01
1.816589071371034481e-01 9.004644733349795871e-01 -3.951756238931127263e-01
1.409299042094349363e-01 9.348568385891905530e-01 -3.258549576767910683e-01
1.409299042094349363e-01 9.348568385891905530e-01 -3.258549576767910683e-01
-6.667514867162821490e-01 6.134028486834277594e-01 4.232958778309601766e-01
-7.270050760603639084e-01 5.030532615920825235e-01 4.673339655792549951e-01
-7.176326151457785851e-01 5.262898303864743665e-01 4.560947753601291565e-01
-9.093723341488767486e-01 2.103455543970075281e-01 3.588825791676704680e-01
-7.866538484673920584e-01 3.617303482540402682e-01 5.003267710641238208e-01
6.958417388379326551e-01 5.673078818319944316e-01 -4.404157600521331206e-01
6.953892369209654367e-01 5.292752903055761848e-01 -4.861085025448798058e-01
7.129145552586340084e-01 4.490083721565368280e-01 -5.386504605342143925e-01
7.857997094788856662e-01 4.096125063653591747e-01 -4.633966025037163927e-01
8.988597077212826525e-01 2.151022453405624923e-01 -3.818144181204513044e-01
8.815481397715491108e-01 3.265061259510284031e-01 -3.409789245419317383e-01
-8.595221530281766942e-01 3.446650097414824532e-01 3.773959452799029446e-01
-9.795541413953108290e-01 -2.699053257320508173e-02 1.993619703622289685e-01
-9.971415534281031778e-01 -2.300640492395215897e-02 7.196824132535481477e-02
9.607957661499429980e-01 1.030343405523659467e-01 -2.574012828547739273e-01
9.461357903102837197e-01 2.016177467739946050e-01 -2.533324899804844099e-01
9.904040537168024017e-01 -5.362793902425378595e-02 -1.273728956149474401e-01
9.893902552030915398e-01 -5.217843336684525879e-02 -1.355888417257972711e-01
-9.773269868895438917e-01 -2.068205478865731972e-01 4.535660557518697567e-02
-9.586209957905219570e-01 -2.735537640460908859e-01 -7.882971905191359097e-02
-9.110579464437197350e-01 -4.039094863767589416e-01 -8.264711148379716432e-02
9.131772465251054571e-01 -4.012296802870326529e-01 7.156856911796281862e-02
9.499884036140862076e-01 -2.416501887729934073e-01 1.978060142279214340e-01
9.463337020966419155e-01 -3.107683731698364649e-01 8.874425341078640006e-02
-6.198481225936355310e-01 -7.382421461846374600e-01 -2.660579608165218324e-01
-5.667801695863543543e-01 -7.483281679484412585e-01 -3.446232615750028372e-01
-6.071592051317974414e-01 -7.028651761678951226e-01 -3.705917480924227347e-01
-7.166046076242921226e-01 -6.361361988739240303e-01 -2.860219795992432479e-01
-8.135466060434531910e-01 -5.182379744570655422e-01 -2.637637610169684121e-01
-6.612049537366592178e-01 -6.934206502776548708e-01 -2.863141821891058703e-01
-7.094199266374107138e-01 -6.387938176042065042e-01 -2.977680746494065223e-01
-7.774041367551105530e-01 -5.839163098377488925e-01 -2.338472819202895292e-01
8.442533165981892518e-01 -5.034258576433265908e-01 1.838443452190977878e-01
7.300748651467018346e-01 -6.431376292568091735e-01 2.310079676438805407e-01
6.415703626248914215e-01 -7.044083744898285149e-01 3.036384556507338850e-01
5.614144865604239198e-01 -7.467676598408744537e-01 3.565835617297571924e-01
-2.327310323696445415e-01 -9.213165490657432288e-01 -3.114676275148819951e-01
-2.765655842323239133e-01 -8.912331826789502420e-01 -3.594647294383442326e-01
-2.765655842323239133e-01 -8.912331826789502420e-01 -3.594647294383442326e-01
-2.765655842323239133e-01 -8.912331826789502420e-01 -3.594647294383442326e-01
-2.859586869230016370e-01 -9.065648332056289727e-01 -3.104316874420568473e-01
-3.614945457380225879e-01 -8.697526770781116578e-01 -3.359344789049177327e-01
-3.618590874134575142e-01 -8.697481596484167854e-01 -3.355534825396571108e-01
-3.618590874134575142e-01 -8.697481596484167854e-01 -3.355534825396571108e-01
-3.618590874134575142e-01 -8.697481596484167854e-01 -3.355534825396571108e-01
-4.695485925086746448e-01 -8.022283782692137821e-01 -3.687190642924091377e-01
-4.764159355367679760e-01 -8.020625140993492552e-01 -3.601715977742515062e-01
-4.764159355367679760e-01 -8.020625140993492552e-01 -3.601715977742515062e-01
4.902900681749672862e-01 -7.828972494787024283e-01 3.829981015718852411e-01
4.902900681749672862e-01 -7.828972494787024283e-01 3.829981015718852411e-01
4.772727208610829108e-01 -7.995729082084125361e-01 3.645461759242581978e-01
3.755797131323073135e-01 -8.599021276032272620e-01 3.456995950632524295e-01
3.750376312298802084e-01 -8.598714114699923527e-01 3.463638706592875871e-01
3.750376312298802084e-01 -8.598714114699923527e-01 3.463638706592875871e-01
2.826024881007352385e-01 -8.869732880997225344e-01 3.652591133932736045e-01
2.826024881007352385e-01 -8.869732880997225344e-01 3.652591133932736045e-01
2.879890876060754445e-01 -9.051244863066968405e-01 3.127490203147863523e-01
2.879890876060754445e-01 -9.051244863066968405e-01 3.127490203147863523e-01
3.055851813148807716e-01 -8.913441185251252952e-01 3.348482631452922020e-01
3.055851813148807716e-01 -8.913441185251252952e-01 3.348482631452922020e-01
2.335947938702182258e-01 -9.204852818462820885e-01 3.132735516782430008e-01
2.335947938702182258e-01 -9.204852818462820885e-01 3.132735516782430008e-01
-8.021625533734704216e-01 5.277000823927460171e-01 2.794062651553169685e-01
-7.134349151890564955e-02 -9.774405802585507397e-01 -1.987964242176390173e-01
-7.134349151890564955e-02 -9.774405802585507397e-01 -1.987964242176390173e-01
-7.134349151890564955e-02 -9.774405802585507397e-01 -1.987964242176390173e-01
-7.134349151890564955e-02 -9.774405802585507397e-01 -1.987964242176390173e-01
-7.134349151890564955e-02 -9.774405802585507397e-01 -1.987964242176390173e-01
-7.949038867529596708e-02 -9.802124410742676375e-01 -1.812866472509097882e-01
-7.564070752933628461e-02 -9.721930414194948078e-01 -2.216284584162740712e-01
-7.564070752933628461e-02 -9.721930414194948078e-01 -2.216284584162740712e-01
-7.564070752933628461e-02 -9.721930414194948078e-01 -2.216284584162740712e-01
-7.564070752933628461e-02 -9.721930414194948078e-01 -2.216284584162740712e-01
-7.564070752933628461e-02 -9.721930414194948078e-01 -2.216284584162740712e-01
-9.164006829376906971e-02 -9.748661594027578925e-01 -2.030715862311363029e-01
-9.164006829376906971e-02 -9.748661594027578925e-01 -2.030715862311363029e-01
-9.164006829376906971e-02 -9.748661594027578925e-01 -2.030715862311363029e-01
-9.885896471639686600e-02 -9.662925322048440124e-01 -2.377091653688443718e-01
-9.885896471639686600e-02 -9.662925322048440124e-01 -2.377091653688443718e-01
-9.885896471639686600e-02 -9.662925322048440124e-01 -2.377091653688443718e-01
-1.096183455756663261e-01 -9.671294470431740509e-01 -2.294437860897920733e-01
-1.096183455756663261e-01 -9.671294470431740509e-01 -2.294437860897920733e-01
-1.096183455756663261e-01 -9.671294470431740509e-01 -2.294437860897920733e-01
-1.096183455756663261e-01 -9.671294470431740509e-01 -2.294437860897920733e-01
-1.186068184844915052e-01 -9.573867646135534315e-01 -2.633306012444801558e-01
-1.186068184844915052e-01 -9.573867646135534315e-01 -2.633306012444801558e-01
-1.303749386225127871e-01 -9.593527498034658541e-01 -2.502891863898730196e-01
-1.303749386225127871e-01 -9.593527498034658541e-01 -2.502891863898730196e-01
-1.303749386225127871e-01 -9.593527498034658541e-01 -2.502891863898730196e-01
-1.366430210234708120e-01 -9.474002909439815934e-01 -2.894155723606426367e-01
-1.366430210234708120e-01 -9.474002909439815934e-01 -2.894155723606426367e-01
-1.539541154574135540e-01 -9.502853148922575377e-01 -2.706583651651063294e-01
-1.539541154574135540e-01 -9.502853148922575377e-01 -2.706583651651063294e-01
-1.539541154574135540e-01 -9.502853148922575377e-01 -2.706583651651063294e-01
-2.345921268046466945e-01 -9.187500004456536917e-01 -3.175924601157653071e-01
-2.345921268046466945e-01 -9.187500004456536917e-01 -3.175924601157653071e-01
-1.936729637919833713e-01 -9.282342759848091207e-01 -3.176033878644656805e-01
-1.936729637919833713e-01 -9.282342759848091207e-01 -3.176033878644656805e-01
-1.682779515434869866e-01 -9.430793243755142274e-01 -2.868517368951276625e-01
-1.682779515434869866e-01 -9.430793243755142274e-01 -2.868517368951276625e-01
-1.682779515434869866e-01 -9.430793243755142274e-01 -2.868517368951276625e-01
2.256299869324814855e-01 -9.175169730252724642e-01 3.274961270112819456e-01
2.256299869324814855e-01 -9.175169730252724642e-01 3.274961270112819456e-01
