-9.676449192330718874e-02 -5.073091933177895640e-01 -3.954107211408807165e-01 3.343431509651224225e-05 -9.999999848811818026e-01 -1.706451953627802643e-04
-4.170833247485643963e-02 -5.078743604853946936e-01 -3.488747646272667979e-01 3.343431509651224225e-05 -9.999999848811818026e-01 -1.706451953627802643e-04
-9.068236756327024972e-02 -4.969733613592035026e-01 -3.732625040646820880e-01 3.343431509651224225e-05 -9.999999848811818026e-01 -1.706451953627802643e-04
-9.441002637073291071e-02 -5.006286431012426652e-01 -2.906546063289473514e-01 -1.198782632501993424e-04 -9.999999927917684328e-01 6.757581888256522920e-06
-1.150713671341859756e-01 -5.135445308843714640e-01 -3.575978779681655562e-01 -1.198782632501993424e-04 -9.999999927917684328e-01 6.757581888256522920e-06
-4.417942961990752038e-02 -4.898441954144611143e-01 -3.116783392376014095e-01 -1.198782632501993424e-04 -9.999999927917684328e-01 6.757581888256522920e-06
-1.060922163166035659e-01 -4.706381881382646903e-01 -3.512619213056518142e-01 -1.198782632501993424e-04 -9.999999927917684328e-01 6.757581888256522920e-06
-8.269993650962699505e-02 -4.859442439921937695e-01 -3.083856019354375144e-01 -1.198782632501993424e-04 -9.999999927917684328e-01 6.757581888256522920e-06
-8.469731319645526502e-03 -5.152860786552658778e-01 -3.438577286968233504e-01 1.142272152593525411e-04 -9.999999896435242119e-01 -8.755052634187668618e-05
-2.822029248786324385e-02 -4.929860815227458115e-01 -3.581640610300912964e-01 1.142272152593525411e-04 -9.999999896435242119e-01 -8.755052634187668618e-05
8.904907556144616571e-03 -4.804113600207646773e-01 -3.081498858522095929e-01 1.142272152593525411e-04 -9.999999896435242119e-01 -8.755052634187668618e-05
-2.504247532598840448e-02 -4.981610878429995615e-01 -3.375860454841974612e-01 3.545326687245375094e-04 -9.999999002333584963e-01 -2.717349073226404520e-04
-7.822113351629045308e-02 -5.016090280359783993e-01 -3.822985049588948359e-01 3.545326687245375094e-04 -9.999999002333584963e-01 -2.717349073226404520e-04
4.524485708793142547e-02 -5.067473704263714129e-01 -3.711657969652626399e-01 -1.046518663127411189e-04 -9.999999945180366723e-01 -3.451619218029664108e-06
3.228200169248824497e-02 -4.808870477611159600e-01 -3.614643089049406899e-01 -1.046518663127411189e-04 -9.999999945180366723e-01 -3.451619218029664108e-06
2.888726773766131170e-02 -5.015398705114129108e-01 -3.185767022113547009e-01 -1.269730768730659967e-05 -9.999999964936389096e-01 -8.277378959147530771e-05
3.607377498230390778e-02 -5.041935178316827582e-01 -3.536770434306979460e-01 -1.269730768730659967e-05 -9.999999964936389096e-01 -8.277378959147530771e-05
1.398680977028570194e-01 -4.999318362178516439e-01 -3.268668119789684412e-01 -1.669616699838184272e-05 -9.999999974160053151e-01 -6.992300826568508042e-05
1.547012752572548555e-01 -4.879792324855861119e-01 -3.495274317991115542e-01 -1.669616699838184272e-05 -9.999999974160053151e-01 -6.992300826568508042e-05
1.206402725876224158e-01 -4.733584623593731777e-01 -3.579081009938486213e-01 -1.669616699838184272e-05 -9.999999974160053151e-01 -6.992300826568508042e-05
9.657737601596400046e-02 -4.717399572061379276e-01 -3.117239696611385780e-01 -8.982760278168898946e-05 -9.999999959653145254e-01 -6.105169236233321799e-07
8.433618516229304807e-02 -4.828561487835553723e-01 -3.673246360993131510e-01 -8.982760278168898946e-05 -9.999999959653145254e-01 -6.105169236233321799e-07
8.449864155265332522e-02 -4.837243270610693813e-01 -3.697890653192198451e-01 -8.982760278168898946e-05 -9.999999959653145254e-01 -6.105169236233321799e-07
1.672152912344078701e-01 -4.883573828308065412e-01 -3.815574312955208880e-01 1.516108786338182901e-05 -9.999999969101921460e-01 -7.713466957721842898e-05
1.934118484218962375e-01 -4.792446062856183797e-01 -3.312098182715116357e-01 1.516108786338182901e-05 -9.999999969101921460e-01 -7.713466957721842898e-05
1.711993475780161644e-01 -4.819590879566795771e-01 -3.642136748492821874e-01 1.516108786338182901e-05 -9.999999969101921460e-01 -7.713466957721842898e-05
1.539821147483418362e-01 -4.930208636284315049e-01 -3.164114279446262334e-01 9.655029623113010588e-06 -9.999999973574490442e-01 -7.205471836423060718e-05
2.025681657290444027e-01 -5.033488033456703370e-01 -2.988877525575487359e-01 9.655029623113010588e-06 -9.999999973574490442e-01 -7.205471836423060718e-05
1.889007614594086504e-01 -4.841675250167200018e-01 -3.414027375180904156e-01 9.655029623113010588e-06 -9.999999973574490442e-01 -7.205471836423060718e-05
1.585583924293037794e-01 -4.967233644980394436e-01 -3.545085870165899933e-01 9.655029623113010588e-06 -9.999999973574490442e-01 -7.205471836423060718e-05
2.306917920777809550e-01 -4.893211011440244396e-01 -3.458209550373417263e-01 3.082755311736989370e-05 -9.999999960856555958e-01 -8.293582472671932220e-05
2.440701239469694195e-01 -4.909266389517673579e-01 -3.666319675737681472e-01 3.082755311736989370e-05 -9.999999960856555958e-01 -8.293582472671932220e-05
2.281320915781985814e-01 -5.073616138447940571e-01 -3.679823287648111840e-01 3.082755311736989370e-05 -9.999999960856555958e-01 -8.293582472671932220e-05
2.592889056209427556e-01 -4.773490854025362329e-01 -3.044891017654636212e-01 2.564989448446666407e-05 -9.999999966308524835e-01 -7.797677880741188514e-05
2.178244933975310438e-01 -4.857277750618438916e-01 -3.205698730740034197e-01 2.564989448446666407e-05 -9.999999966308524835e-01 -7.797677880741188514e-05
3.242303476401211526e-01 -4.773735909382997300e-01 -3.537112916594172263e-01 5.804870922699620030e-05 -9.999999933205067082e-01 -9.994665440714077607e-05
2.843386545817377931e-01 -4.821002924025850622e-01 -3.859925633942798973e-01 5.804870922699620030e-05 -9.999999933205067082e-01 -9.994665440714077607e-05
3.584597970403678446e-01 -4.967324315627121845e-01 -3.394695503572561779e-01 5.804870922699620030e-05 -9.999999933205067082e-01 -9.994665440714077607e-05
2.771724911257228974e-01 -5.016201859989444234e-01 -3.262582370600103920e-01 4.207557060875700782e-05 -9.999999956311169669e-01 -8.347102700001958486e-05
3.080972868705093015e-01 -5.018003055075638263e-01 -3.249976537486248818e-01 4.207557060875700782e-05 -9.999999956311169669e-01 -8.347102700001958486e-05
3.166812445216203309e-01 -4.885005379273414938e-01 -3.097691052352000707e-01 4.207557060875700782e-05 -9.999999956311169669e-01 -8.347102700001958486e-05
4.252629735468348438e-01 -4.813542891804161727e-01 -3.619795067840915759e-01 7.767845682182595625e-05 -9.999999931746500481e-01 -8.727403613823215515e-05
4.056022893676753394e-01 -5.107791565630100949e-01 -3.593134720604624355e-01 7.767845682182595625e-05 -9.999999931746500481e-01 -8.727403613823215515e-05
4.237146056106512737e-01 -5.060741445000980221e-01 -3.013947057177579492e-01 8.866708200360661981e-05 -9.999999908938828064e-01 -1.017368303341067320e-04
3.647587258580188285e-01 -4.712643004886625242e-01 -3.701877884667798546e-01 8.866708200360661981e-05 -9.999999908938828064e-01 -1.017368303341067320e-04
3.711908925686244198e-01 -4.838830942253639078e-01 -3.365621619325315228e-01 8.866708200360661981e-05 -9.999999908938828064e-01 -1.017368303341067320e-04
3.697122490744550460e-01 -5.003257397611620139e-01 -3.231474053766854038e-01 8.866708200360661981e-05 -9.999999908938828064e-01 -1.017368303341067320e-04
3.737374874081001996e-01 -4.857957800089626743e-01 -3.033955536393557750e-01 8.866708200360661981e-05 -9.999999908938828064e-01 -1.017368303341067320e-04
4.986853452005430842e-01 -5.055013600523834416e-01 -3.447254410636938493e-01 -5.036067432301924267e-05 -9.999999796596177326e-01 1.953063401406446168e-04
4.485971167244197644e-01 -4.847222997538491729e-01 -3.684244527025232752e-01 -5.036067432301924267e-05 -9.999999796596177326e-01 1.953063401406446168e-04
4.313982571083121442e-01 -4.941186726727544998e-01 -3.168111150277718724e-01 2.343894100954730102e-04 -9.999999672224100244e-01 -1.030377757063687366e-04
4.368787780252109676e-01 -4.947788295321333130e-01 -3.666379953322708718e-01 2.343894100954730102e-04 -9.999999672224100244e-01 -1.030377757063687366e-04
4.612418840457636060e-01 -4.737443091907552195e-01 -3.410676155015662792e-01 2.343894100954730102e-04 -9.999999672224100244e-01 -1.030377757063687366e-04
4.907100120212849470e-01 -4.774706700880650412e-01 -3.851931787263300766e-01 9.999999886740517097e-01 -6.456873294583451771e-08 -1.505054556183619370e-04
4.746519613558606299e-01 -4.947569096849366299e-01 -3.234150015753675667e-01 9.999999952392810698e-01 7.129585231698708963e-05 -6.662086467513450810e-05
4.959934153550180080e-01 -4.507304228753569175e-01 -3.396110118834158587e-01 9.999999952392810698e-01 7.129585231698708963e-05 -6.662086467513450810e-05
-4.859053313892484072e-01 -3.942900614293441408e-01 -3.687113284194817875e-01 -9.999999991112373809e-01 -4.025083407281202001e-05 -1.254573751150186387e-05
-4.961870528428872218e-01 -4.199105133523886590e-01 -3.901834194573030046e-01 -9.999999991112373809e-01 -4.025083407281202001e-05 -1.254573751150186387e-05
-4.952211104637012085e-01 -4.317902024256297100e-01 -3.310416398560105944e-01 -9.999999994001570469e-01 -3.462359773446498258e-05 -9.446868884611332181e-07
-4.928728339457323360e-01 -4.125326742494754839e-01 -3.538115651941894368e-01 -9.999999994001570469e-01 -3.462359773446498258e-05 -9.446868884611332181e-07
-4.983435114837558300e-01 -4.698254294823828725e-01 -3.311219398718069362e-01 -9.999999994001570469e-01 -3.462359773446498258e-05 -9.446868884611332181e-07
-4.836921912484078989e-01 -3.788856156833286248e-01 -3.425476859021189813e-01 -9.999999994001570469e-01 -3.462359773446498258e-05 -9.446868884611332181e-07
-5.023390616855382129e-01 -4.524549069322012507e-01 -3.312021520860652934e-01 -9.999999994001570469e-01 -3.462359773446498258e-05 -9.446868884611332181e-07
-4.907712887135300406e-01 -3.923695018742617835e-01 -3.454346690303843337e-01 -9.999999994001570469e-01 -3.462359773446498258e-05 -9.446868884611332181e-07
4.930916823265116822e-01 -4.065968367577003084e-01 -3.522512065334326148e-01 9.999999979903140268e-01 7.068889240904890512e-06 -6.300319710188913779e-05
4.807709664875021160e-01 -4.241047106303632575e-01 -3.757163533309674786e-01 9.999999979903140268e-01 7.068889240904890512e-06 -6.300319710188913779e-05
5.013505072979443922e-01 -4.275963842107736723e-01 -3.278913741820589922e-01 9.999999979903140268e-01 7.068889240904890512e-06 -6.300319710188913779e-05
4.971606233324251112e-01 -4.058470697936107374e-01 -3.491281578657254303e-01 9.999999985801669711e-01 2.271126738561539854e-05 -4.820648069660856127e-05
4.903692583392245674e-01 -3.923063613506176384e-01 -3.302929272759951851e-01 9.999999985801669711e-01 2.271126738561539854e-05 -4.820648069660856127e-05
-4.995743212192407245e-01 -3.181718999379241630e-01 -3.732520978650727961e-01 -1.000000000000000000e+00 0.000000000000000000e+00 0.000000000000000000e+00
-5.074286115553954257e-01 -3.344265273206601941e-01 -3.722275352669202619e-01 -1.000000000000000000e+00 0.000000000000000000e+00 0.000000000000000000e+00
-4.997885099708571088e-01 -3.631956913251381813e-01 -3.307057396352819367e-01 -1.000000000000000000e+00 0.000000000000000000e+00 0.000000000000000000e+00
-4.919155839278147035e-01 -3.259783308345491348e-01 -3.269086140834800425e-01 -9.999999998147987013e-01 -1.250955699562765354e-05 -1.462578958761080248e-05
-4.722975130063204463e-01 -3.033409135214496510e-01 -3.662046625582257020e-01 -9.999999998147987013e-01 -1.250955699562765354e-05 -1.462578958761080248e-05
4.840501915165810187e-01 -3.380437115146305849e-01 -3.502113089193924500e-01 9.999999986276817410e-01 -3.165354533718787940e-05 -4.174553089531219633e-05
4.838602709533029178e-01 -3.440172633156723392e-01 -3.395881631962053837e-01 9.999999986276817410e-01 -3.165354533718787940e-05 -4.174553089531219633e-05
5.021480729518094099e-01 -3.879369396767439193e-01 -3.496505460909079543e-01 9.999999986276817410e-01 -3.165354533718787940e-05 -4.174553089531219633e-05
4.849451021462358735e-01 -3.464138623999587496e-01 -3.214121493777610805e-01 9.999999998870315876e-01 1.490759826530609162e-05 -1.923620063412511960e-06
4.734397576913561556e-01 -3.041982743442313009e-01 -3.289624759074700755e-01 9.999999998870315876e-01 1.490759826530609162e-05 -1.923620063412511960e-06
4.915308402601863969e-01 -3.539866061248174156e-01 -3.147475604077322742e-01 9.999999998870315876e-01 1.490759826530609162e-05 -1.923620063412511960e-06
-4.797694947196772808e-01 -2.992602270262276765e-01 -3.660424556683852804e-01 -9.999999994565411665e-01 -2.908975662328901486e-05 -1.551463044783137860e-05
-5.030571751798031954e-01 -3.187145378091736370e-01 -3.181537518465830106e-01 -9.999999994565411665e-01 -2.908975662328901486e-05 -1.551463044783137860e-05
-4.968998784065528085e-01 -2.628680625558734163e-01 -3.480304580385315538e-01 -9.999999994565411665e-01 -2.908975662328901486e-05 -1.551463044783137860e-05
-4.881199587086009206e-01 -2.709160606958622153e-01 -3.617240677006738903e-01 -9.999999994565411665e-01 -2.908975662328901486e-05 -1.551463044783137860e-05
-5.006754565297865112e-01 -2.473605485768538004e-01 -3.605835696751443775e-01 -9.999999994213644161e-01 -2.985490350104527996e-05 -1.630814886292478484e-05
-5.172687882765732992e-01 -2.522801616526051949e-01 -3.312496870053264764e-01 -9.999999994213644161e-01 -2.985490350104527996e-05 -1.630814886292478484e-05
-5.026622393589538218e-01 -2.569087929927090230e-01 -3.709258163249449791e-01 -9.999999994213644161e-01 -2.985490350104527996e-05 -1.630814886292478484e-05
5.051052279533472245e-01 -2.899433141549476178e-01 -3.178550882515111531e-01 1.000000000000000000e+00 0.000000000000000000e+00 0.000000000000000000e+00
4.924038669336724960e-01 -2.597445937999958709e-01 -3.425643655659892928e-01 1.000000000000000000e+00 0.000000000000000000e+00 0.000000000000000000e+00
5.007117752512306730e-01 -2.840870322618934685e-01 -3.706647607277555601e-01 1.000000000000000000e+00 0.000000000000000000e+00 0.000000000000000000e+00
4.820870048712996292e-01 -2.775275751050508832e-01 -3.384766731315514421e-01 1.000000000000000000e+00 0.000000000000000000e+00 0.000000000000000000e+00
4.867742203740204054e-01 -2.491971604488849579e-01 -2.972447852061516071e-01 9.999999997870466784e-01 1.531420118579286796e-05 1.383408660071895979e-05
5.094125698058893370e-01 -2.347273787459021877e-01 -3.468857854173823529e-01 9.999999997870466784e-01 1.531420118579286796e-05 1.383408660071895979e-05
-4.841638359250010626e-01 -2.427425321831260252e-01 -3.314299646519723308e-01 -9.999999997783423078e-01 -1.469853677812044572e-05 -1.507542265180654034e-05
-4.916467428276796725e-01 -2.132983317907847787e-01 -3.450863164590636800e-01 -9.999999997783423078e-01 -1.469853677812044572e-05 -1.507542265180654034e-05
-4.848119480205959619e-01 -2.089510033793463284e-01 -3.027186875447488990e-01 -9.999999998348574337e-01 1.268709288335217063e-05 1.301240322941304194e-05
-5.170725272615463997e-01 -1.770636829715741267e-01 -3.452501852831958984e-01 -9.999999998348574337e-01 1.268709288335217063e-05 1.301240322941304194e-05
-4.993779558049973311e-01 -1.835988730896813970e-01 -3.286308357132265434e-01 -9.999999998348574337e-01 1.268709288335217063e-05 1.301240322941304194e-05
-5.176630452333016441e-01 -2.369264263188577135e-01 -3.062893409609666606e-01 -9.999999998348574337e-01 1.268709288335217063e-05 1.301240322941304194e-05
4.614364953088376797e-01 -2.194770786574439247e-01 -3.673497099180229597e-01 9.999999997958153308e-01 1.464006636828784614e-05 1.392975261089259131e-05
4.828351473623845314e-01 -1.916097410125364719e-01 -3.430557308970877406e-01 1.000000000000000000e+00 0.000000000000000000e+00 0.000000000000000000e+00
4.971272491024182894e-01 -1.759086487480896188e-01 -3.132713414495264526e-01 1.000000000000000000e+00 0.000000000000000000e+00 0.000000000000000000e+00
5.141301379559848339e-01 -1.845178471498717943e-01 -2.945192069254228828e-01 1.000000000000000000e+00 0.000000000000000000e+00 0.000000000000000000e+00
-4.885544776129250866e-01 -1.281769515752982647e-01 -3.404038866350108661e-01 -9.999999998074124985e-01 1.463599176260528943e-05 1.307526528047347049e-05
-4.872306675850583968e-01 -1.490932213894050895e-01 -3.236140803867773585e-01 -9.999999998074124985e-01 1.463599176260528943e-05 1.307526528047347049e-05
-5.119013251949158239e-01 -1.125631770226809825e-01 -2.839254290077010690e-01 -9.999999978013730528e-01 -4.945201614619738927e-05 -4.417864127375608458e-05
-5.098167103197078776e-01 -1.656871809546884289e-01 -3.194415211783676045e-01 -9.999999978013730528e-01 -4.945201614619738927e-05 -4.417864127375608458e-05
-4.997500072807231630e-01 -1.024365611524568342e-01 -3.438786783236096878e-01 -9.999999978013730528e-01 -4.945201614619738927e-05 -4.417864127375608458e-05
4.949189693791404832e-01 -1.142258864821129039e-01 -3.557590002029450971e-01 9.999999998907854737e-01 -1.367085123539858329e-05 5.615774808731645643e-06
4.893011356142682455e-01 -1.500254686514538582e-01 -3.470552936553209511e-01 9.999999998907854737e-01 -1.367085123539858329e-05 5.615774808731645643e-06
4.913774658395228534e-01 -1.189950279471778810e-01 -3.489545368437454442e-01 9.999999999062961775e-01 -1.161927303956138888e-05 7.238800216110858810e-06
4.797741748304142351e-01 -9.868399293069725353e-02 -3.658433651901012440e-01 9.999999999062961775e-01 -1.161927303956138888e-05 7.238800216110858810e-06
-4.885190223421627675e-01 -1.087749525161670894e-01 -3.556140893881178933e-01 -9.999999987653881428e-01 -1.517775665756259376e-05 -4.731658552321309777e-05
-5.029794696000147169e-01 -5.563079477801614880e-02 -3.740662897236465279e-01 -9.999999987653881428e-01 -1.517775665756259376e-05 -4.731658552321309777e-05
-5.148141006493687222e-01 -9.580102311559096639e-02 -3.308729026666116790e-01 -9.999999893649941241e-01 -8.597341649285178834e-05 -1.178073998071446312e-04
-4.825800200263142270e-01 -5.673901418799381924e-02 -3.260729565171808786e-01 -9.999999893649941241e-01 -8.597341649285178834e-05 -1.178073998071446312e-04
5.104652047918420976e-01 -4.660524112897185267e-02 -3.505097634679515406e-01 9.999999993901311779e-01 -2.964274421336656975e-05 1.846741207365042438e-05
4.742652739676348483e-01 -7.727670325239634208e-02 -3.180394404994988933e-01 9.999999993901311779e-01 -2.964274421336656975e-05 1.846741207365042438e-05
4.977893914517114715e-01 -6.154298354104865976e-02 -3.165784460324742589e-01 9.999999964465726698e-01 4.050459653637173590e-05 7.393397314135041884e-05
-4.844375729840400546e-01 -2.510901184893168589e-02 -3.520710155226257076e-01 -9.999999914740597129e-01 -1.184686243798563637e-06 -1.305774753224595811e-04
-5.007340397413246880e-01 -1.264402694440586866e-02 -3.590832574165728763e-01 -9.999999914740597129e-01 -1.184686243798563637e-06 -1.305774753224595811e-04
-4.941556244715774593e-01 1.258126047101609975e-02 -3.505855133306982063e-01 -9.999999960089245299e-01 7.793731324870003271e-05 -4.367981364779814375e-05
-5.025386430854091868e-01 4.049309616572033949e-02 -3.619591198372253404e-01 -9.999999960089245299e-01 7.793731324870003271e-05 -4.367981364779814375e-05
4.873941834842790422e-01 7.528906166521810370e-03 -3.829844419143563772e-01 9.999999961105322521e-01 1.370286620030883744e-05 8.712730384455381395e-05
4.756192019145401018e-01 -9.684593392015111366e-03 -3.694878100991088044e-01 9.999999961105322521e-01 1.370286620030883744e-05 8.712730384455381395e-05
4.660929513129007384e-01 -1.455408251847561951e-03 -3.288493972947509891e-01 9.999999961105322521e-01 1.370286620030883744e-05 8.712730384455381395e-05
4.893915168992570286e-01 3.316139160534922053e-02 -3.246242015652675006e-01 9.999999932771000966e-01 -1.152130720067970056e-04 -1.310526256169577292e-05
-4.975662600645314182e-01 5.104733642486109640e-02 -3.769033228803166935e-01 -9.999999993461627934e-01 -2.924011259494156087e-08 -3.616176927576822371e-05
-4.873402612974607195e-01 9.359003228644729999e-02 -3.677573000725323782e-01 -9.999999993461627934e-01 -2.924011259494156087e-08 -3.616176927576822371e-05
-5.053517971568040057e-01 7.238395255250222593e-02 -3.277727381202855672e-01 -9.999999900143271558e-01 -7.513882831363161738e-05 -1.196891905241335101e-04
-4.891360820782709173e-01 7.168206818930068780e-02 -3.348458529064718414e-01 -9.999999900143271558e-01 -7.513882831363161738e-05 -1.196891905241335101e-04
4.876686306583515318e-01 4.210798040441954965e-02 -3.247551575703985782e-01 9.999999960247448749e-01 4.108033485350629156e-05 -7.913858944037809907e-05
4.873329000947501655e-01 5.715065534220241383e-02 -3.479171211968524191e-01 9.999999960247448749e-01 4.108033485350629156e-05 -7.913858944037809907e-05
4.874171453330882753e-01 1.036537799781248465e-01 -3.598308689331345955e-01 9.999999941895120203e-01 1.185171589855813567e-05 -1.071471540774461507e-04
-4.946572954879357442e-01 1.211527808504370279e-01 -3.761165216622088248e-01 -9.999999926540132922e-01 -1.226934038833397150e-05 -1.205878797705503178e-04
-5.037908896909730760e-01 1.326571351366953588e-01 -3.806288622161491664e-01 -9.999999926540132922e-01 -1.226934038833397150e-05 -1.205878797705503178e-04
-4.927773433029243866e-01 1.752929151315499035e-01 -3.505337836480749703e-01 -9.999999977603388768e-01 4.197544434115007335e-05 -5.212853889238918786e-05
-4.978545231026760831e-01 1.433235483000801780e-01 -3.137408891777119790e-01 -9.999999977603388768e-01 4.197544434115007335e-05 -5.212853889238918786e-05
-5.158953531635982470e-01 1.336205190767417450e-01 -3.336905740383040997e-01 -9.999999977603388768e-01 4.197544434115007335e-05 -5.212853889238918786e-05
4.949224845141435569e-01 9.711599068525625378e-02 -3.399108304691444982e-01 9.999999954284037873e-01 -1.317050785385257333e-05 -9.470865833217747046e-05
4.819709526842484992e-01 9.391920320959395996e-02 -3.625900892100004658e-01 9.999999954284037873e-01 -1.317050785385257333e-05 -9.470865833217747046e-05
4.672481374751504268e-01 1.096937315141547770e-01 -3.326708943056823631e-01 9.999999980668224930e-01 4.800979148135682084e-05 -3.951474632557070186e-05
5.102576869764118284e-01 1.612468014233759406e-01 -3.663238937218898927e-01 9.999999980668224930e-01 4.800979148135682084e-05 -3.951474632557070186e-05
4.840113762655590679e-01 1.513469535346324280e-01 -3.229769411267129353e-01 9.999999980668224930e-01 4.800979148135682084e-05 -3.951474632557070186e-05
-4.919298263715325970e-01 1.833178003269308187e-01 -3.676721842446022959e-01 -9.999999987886681874e-01 1.358106942781765068e-05 -4.730981106630607354e-05
-4.887902061684489818e-01 2.384126620313050393e-01 -3.483038193976188968e-01 -9.999999987886681874e-01 1.358106942781765068e-05 -4.730981106630607354e-05
-4.906851638874393795e-01 2.049955448935465441e-01 -3.088874048034617736e-01 -9.999999987886681874e-01 1.358106942781765068e-05 -4.730981106630607354e-05
-4.884050517258401447e-01 2.500177446926008518e-01 -3.593010358006583083e-01 -9.999999989712353710e-01 3.726676515230306771e-05 -2.585957386478798944e-05
-4.986422734788131805e-01 2.290704034092747865e-01 -3.359767041394396414e-01 -9.999999989712353710e-01 3.726676515230306771e-05 -2.585957386478798944e-05
4.718127055578075213e-01 2.007920889772301376e-01 -3.551158407231302938e-01 9.999999982696257117e-01 4.492822475248403315e-05 -3.797635067792072653e-05
4.815751558206596283e-01 2.388225744342785950e-01 -3.611795972866954640e-01 9.999999982696257117e-01 4.492822475248403315e-05 -3.797635067792072653e-05
4.840894398608753812e-01 2.058512491870696792e-01 -3.492376799694031364e-01 9.999999982696257117e-01 4.492822475248403315e-05 -3.797635067792072653e-05
4.889310748464522627e-01 1.924201947615921948e-01 -2.906503503030514191e-01 9.999999983228271550e-01 4.251682676553350082e-05 -3.932766330736472770e-05
4.833743763322948528e-01 2.312246068755482165e-01 -3.334369775193323782e-01 9.999999983228271550e-01 4.251682676553350082e-05 -3.932766330736472770e-05
-5.057465666474927346e-01 2.562091268736878535e-01 -3.370551465928643964e-01 -9.999999996373272193e-01 1.548306542349893510e-05 -2.203679180397975421e-05
-5.034749636609229251e-01 2.513531727577943409e-01 -3.871839068051746158e-01 -9.999999996373272193e-01 1.548306542349893510e-05 -2.203679180397975421e-05
-4.903008701484067866e-01 2.912055362499346711e-01 -3.520903510035203188e-01 -9.999999995056101376e-01 7.783040183029368782e-06 -3.046643899384017675e-05
-4.805586750653295658e-01 3.196217762795895978e-01 -3.684046546436982594e-01 -9.999999995056101376e-01 7.783040183029368782e-06 -3.046643899384017675e-05
-4.978017078055386735e-01 3.217327187172275837e-01 -3.233602322793170392e-01 -9.999999995056101376e-01 7.783040183029368782e-06 -3.046643899384017675e-05
4.728751451827253871e-01 2.479353490553334038e-01 -3.564234726002646902e-01 9.999999989126175937e-01 3.171584922552291475e-05 -3.418873624645313861e-05
4.900166904179845129e-01 2.858908453596987198e-01 -3.643818274916267308e-01 9.999999989126175937e-01 3.171584922552291475e-05 -3.418873624645313861e-05
4.877455433891889625e-01 2.588665726544145396e-01 -3.550040383556596346e-01 9.999999989245785814e-01 2.692601756101570045e-05 -3.776019491281006497e-05
-4.795588432058424666e-01 3.515153280991683005e-01 -3.552597265017936046e-01 -9.999999990372608893e-01 3.182287084197268548e-05 -3.021229757012503970e-05
-5.084410627099200664e-01 3.206566160981413893e-01 -3.325057091957876465e-01 -9.999999990372608893e-01 3.182287084197268548e-05 -3.021229757012503970e-05
-5.032618842245766277e-01 3.649229749862167860e-01 -3.067340016545876957e-01 -9.999999983210396959e-01 9.052276460214973020e-06 -5.723614892583547543e-05
-5.008926639842398165e-01 3.774577154368205512e-01 -3.132116819017990994e-01 -9.999999983210396959e-01 9.052276460214973020e-06 -5.723614892583547543e-05
-5.014118542636948339e-01 3.776424984646551963e-01 -3.485237428061437326e-01 -9.999999983210396959e-01 9.052276460214973020e-06 -5.723614892583547543e-05
4.984272596806374467e-01 3.321512939428800659e-01 -3.658093861390245838e-01 9.999999991770958108e-01 -3.164918102261749053e-05 -2.537986706401584698e-05
4.828664086631491159e-01 3.458269619267222428e-01 -3.516304089049171466e-01 9.999999991770958108e-01 -3.164918102261749053e-05 -2.537986706401584698e-05
4.956065625525609697e-01 3.441055304840967000e-01 -3.255115410249997954e-01 9.999999997622843750e-01 1.701048882396749101e-05 1.364091995738211477e-05
4.834804707783774136e-01 3.700614706414654953e-01 -3.257921714902077825e-01 9.999999997622843750e-01 1.701048882396749101e-05 1.364091995738211477e-05
-4.944138027335316932e-01 4.246268176097721114e-01 -3.425119543648860176e-01 -9.999999969479159700e-01 -5.140677689038781182e-05 -5.883460886801367146e-05
-5.015093238951281451e-01 3.540098942651405678e-01 -3.815330057614931825e-01 -9.999999969479159700e-01 -5.140677689038781182e-05 -5.883460886801367146e-05
-5.005357206660605573e-01 3.878898651559920530e-01 -3.199068060920366996e-01 -9.999999969479159700e-01 -5.140677689038781182e-05 -5.883460886801367146e-05
-5.120038618804043651e-01 4.511603791114655593e-01 -2.786316471892602009e-01 -9.999999999352436886e-01 -9.921416536037351875e-06 5.574798697531704824e-06
-5.044560236484926241e-01 3.738381470213559821e-01 -3.118595858803449583e-01 -9.999999999352436886e-01 -9.921416536037351875e-06 5.574798697531704824e-06
-4.786902086130818135e-01 4.657016343038110073e-01 -3.274564378623697758e-01 -9.999999999352436886e-01 -9.921416536037351875e-06 5.574798697531704824e-06
4.819832091383002837e-01 3.770629430294907825e-01 -3.449906566649748041e-01 9.999999993455259695e-01 -2.966826829849872132e-05 2.070608464266483005e-05
4.790738503376968938e-01 3.872087934837987744e-01 -3.806544237738339609e-01 9.999999993455259695e-01 -2.966826829849872132e-05 2.070608464266483005e-05
5.033075764844946454e-01 4.273077033386121215e-01 -3.700595295146457131e-01 9.999999993611010662e-01 -1.750275294914398189e-05 3.116812086651725834e-05
4.826494017339618137e-01 3.835348947503850470e-01 -3.031717563230643675e-01 9.999999993611010662e-01 -1.750275294914398189e-05 3.116812086651725834e-05
-4.990005563410744305e-01 4.987031470416612433e-01 -3.236066401997743092e-01 -9.999998671536116657e-01 5.154539347906666666e-04 7.382938055579263690e-09
-4.277617893024816542e-01 5.026681504056528249e-01 -3.584870787119497915e-01 8.424663811496812551e-05 9.999999963633221522e-01 -1.326120588773740491e-05
-4.257952839447002868e-01 4.810122047033542070e-01 -3.314439109810070061e-01 8.424663811496812551e-05 9.999999963633221522e-01 -1.326120588773740491e-05
-4.780236906327281488e-01 4.979573621624462376e-01 -3.741391259340457465e-01 8.424663811496812551e-05 9.999999963633221522e-01 -1.326120588773740491e-05
-4.679452866325216065e-01 4.827085196907107134e-01 -3.531553255760215282e-01 8.424663811496812551e-05 9.999999963633221522e-01 -1.326120588773740491e-05
-4.621716613413728858e-01 4.815265070601179587e-01 -3.734849751186060662e-01 8.424663811496812551e-05 9.999999963633221522e-01 -1.326120588773740491e-05
-4.675507182976331721e-01 4.999338552111047829e-01 -3.524104661620476864e-01 6.225987252915182279e-05 9.999999979592774091e-01 1.432317718849319359e-05
-4.514732759857398858e-01 5.064706399684306692e-01 -3.057926793415232103e-01 6.225987252915182279e-05 9.999999979592774091e-01 1.432317718849319359e-05
-3.319939511912987640e-01 4.975864583618057613e-01 -3.699783468855243340e-01 -1.254893692296370764e-05 9.999999975182847223e-01 -6.932499249461244420e-05
-3.597567349196619246e-01 4.880621035074597103e-01 -3.573126915014616101e-01 -1.254893692296370764e-05 9.999999975182847223e-01 -6.932499249461244420e-05
-3.609949298389963923e-01 5.131075464871202030e-01 -3.340212175381852555e-01 -1.254893692296370764e-05 9.999999975182847223e-01 -6.932499249461244420e-05
-3.687215754899061393e-01 4.846625167358541431e-01 -3.421105321412978850e-01 -4.738875929057677068e-05 9.999999982203453541e-01 -3.624382266534220524e-05
-4.069138911175256834e-01 4.896913166344790125e-01 -2.993682460442964599e-01 -4.738875929057677068e-05 9.999999982203453541e-01 -3.624382266534220524e-05
-3.830947915385796154e-01 4.896769948584246968e-01 -3.463993998261115648e-01 -4.738875929057677068e-05 9.999999982203453541e-01 -3.624382266534220524e-05
-2.878127289005723566e-01 4.865186226492199117e-01 -3.587703151525020728e-01 -5.919720788945100417e-05 9.999999982271333687e-01 -6.436135233603016624e-06
-3.001127946610277486e-01 4.959878264505477308e-01 -3.622189649556808444e-01 -5.919720788945100417e-05 9.999999982271333687e-01 -6.436135233603016624e-06
-2.756893961978649221e-01 4.969515758347358703e-01 -3.024723895241318017e-01 1.341309635321977558e-05 9.999999976546959379e-01 -6.716172186640188889e-05
-3.238730057714525601e-01 4.905427940597448244e-01 -3.035580488440736135e-01 1.341309635321977558e-05 9.999999976546959379e-01 -6.716172186640188889e-05
-3.064504359717268867e-01 4.950754824131200493e-01 -3.248804330474910351e-01 1.341309635321977558e-05 9.999999976546959379e-01 -6.716172186640188889e-05
-2.134479755965225933e-01 4.767999032834651096e-01 -3.359749528645639693e-01 -1.134654496566447116e-05 9.999999953029485855e-01 -9.625673530509791867e-05
-2.336304576432590430e-01 4.811264398200590375e-01 -3.626392039744637530e-01 -1.134654496566447116e-05 9.999999953029485855e-01 -9.625673530509791867e-05
-2.085188207107293856e-01 4.936104566773667490e-01 -3.765741924632184934e-01 -1.134654496566447116e-05 9.999999953029485855e-01 -9.625673530509791867e-05
-2.525627019614470892e-01 4.902007622684361743e-01 -3.908689506255280666e-01 -1.499623776679853031e-04 9.999999886227249890e-01 -1.630445382536020079e-05
-2.584310739441446070e-01 4.880340487261115578e-01 -3.288439199484828879e-01 -1.499623776679853031e-04 9.999999886227249890e-01 -1.630445382536020079e-05
-2.556893935229204162e-01 5.012757136403538372e-01 -3.209290358910036889e-01 -1.499623776679853031e-04 9.999999886227249890e-01 -1.630445382536020079e-05
-2.256626889560494620e-01 4.871479214720169648e-01 -3.015978722103488940e-01 -1.499623776679853031e-04 9.999999886227249890e-01 -1.630445382536020079e-05
-1.607963878799928137e-01 4.913950755781618662e-01 -3.501658551472714986e-01 -1.344468381170531082e-05 9.999999985015969317e-01 -5.306643360244452074e-05
-1.896406071970418439e-01 4.987045958019717951e-01 -3.632576626051141067e-01 -1.344468381170531082e-05 9.999999985015969317e-01 -5.306643360244452074e-05
-1.567508424456799943e-01 5.061664664853600115e-01 -3.543485244450637062e-01 -1.344468381170531082e-05 9.999999985015969317e-01 -5.306643360244452074e-05
-1.667924037989824693e-01 4.930265416555256186e-01 -3.027220740971343638e-01 -1.344468381170531082e-05 9.999999985015969317e-01 -5.306643360244452074e-05
-1.937959579554179301e-01 5.158432361675459044e-01 -3.480811629595670365e-01 4.048350892114028820e-05 9.999999961888386135e-01 -7.735249464482253905e-05
-1.907524635040224736e-01 4.911087170445981309e-01 -3.045671083446006011e-01 4.048350892114028820e-05 9.999999961888386135e-01 -7.735249464482253905e-05
-8.659641609050133804e-02 4.952617163250194743e-01 -3.781870488707389510e-01 -6.101197780838042326e-05 9.999999953605169800e-01 -7.454196656692123107e-05
-7.982666788398012914e-02 5.047575040588833106e-01 -3.481620593847765677e-01 -6.101197780838042326e-05 9.999999953605169800e-01 -7.454196656692123107e-05
-6.021511083389431002e-02 4.970187681911551469e-01 -3.244600555808878628e-01 -6.101197780838042326e-05 9.999999953605169800e-01 -7.454196656692123107e-05
-1.072698889066407701e-01 5.119991187731832705e-01 -3.069382583747047311e-01 -6.476532629752417762e-05 9.999999952880758158e-01 -7.231390395519571442e-05
-1.562068040315384709e-01 5.097090869648557288e-01 -3.253248972892384128e-01 -6.476532629752417762e-05 9.999999952880758158e-01 -7.231390395519571442e-05
-9.074634189191152500e-02 4.974812657361500357e-01 -3.247038362409809253e-01 -6.476532629752417762e-05 9.999999952880758158e-01 -7.231390395519571442e-05
-1.162521394580378342e-01 5.004746698816858741e-01 -3.041833950933395814e-01 -6.476532629752417762e-05 9.999999952880758158e-01 -7.231390395519571442e-05
-1.405906670087747057e-01 4.892839674382602477e-01 -3.522873368421123863e-01 -6.476532629752417762e-05 9.999999952880758158e-01 -7.231390395519571442e-05
-2.153854521680605150e-02 4.838991022827159316e-01 -3.131204350177065332e-01 -2.683026535703640634e-07 9.999999966352730585e-01 -8.203280911812528661e-05
-3.174854117389802610e-02 5.011379672442720645e-01 -3.760775044975732673e-01 -2.683026535703640634e-07 9.999999966352730585e-01 -8.203280911812528661e-05
-4.256068868333155036e-02 4.891306927724879960e-01 -3.557425237294679632e-01 -2.683026535703640634e-07 9.999999966352730585e-01 -8.203280911812528661e-05
-8.066418558011544115e-02 5.003801263910090391e-01 -3.627337733928329699e-01 -2.799392242147833950e-05 9.999999972268370785e-01 -6.901207132017397850e-05
-5.858101295771145356e-02 5.104240369980485026e-01 -3.193193121327006501e-01 -2.799392242147833950e-05 9.999999972268370785e-01 -6.901207132017397850e-05
-2.390008184486821022e-02 5.050514184552019614e-01 -2.906363827889378859e-01 -2.799392242147833950e-05 9.999999972268370785e-01 -6.901207132017397850e-05
4.979293824813130903e-02 5.010826509462561473e-01 -3.506270701403709777e-01 4.425517904530300691e-05 9.999999977529442363e-01 -5.035464760734674927e-05
4.752445377535750165e-02 4.822287198509005446e-01 -3.590011621748922521e-01 4.425517904530300691e-05 9.999999977529442363e-01 -5.035464760734674927e-05
7.636238564063356493e-02 5.049494851406155504e-01 -3.828628513562835622e-01 4.425517904530300691e-05 9.999999977529442363e-01 -5.035464760734674927e-05
2.084462563288103087e-02 5.008139368935735636e-01 -3.477496344631429426e-01 4.425517904530300691e-05 9.999999977529442363e-01 -5.035464760734674927e-05
2.128766427573360390e-02 4.963542137705117541e-01 -3.320462722262427779e-01 7.496433814871123044e-05 9.999999952788325430e-01 -6.182784751479754814e-05
-9.130086270795747735e-03 5.003200909636156268e-01 -3.043651127988623029e-01 7.496433814871123044e-05 9.999999952788325430e-01 -6.182784751479754814e-05
2.063268272219887650e-02 4.981910176993238348e-01 -2.972060322989590331e-01 7.496433814871123044e-05 9.999999952788325430e-01 -6.182784751479754814e-05
-5.343377298438244452e-03 4.886583634045970070e-01 -3.313021875435563923e-01 7.496433814871123044e-05 9.999999952788325430e-01 -6.182784751479754814e-05
1.054525789661493185e-01 5.030049950842713224e-01 -3.646072232977399241e-01 9.541923469172948446e-10 9.999999975807283281e-01 -6.955963983344309366e-05
1.233169156327514893e-01 4.846081686264915311e-01 -3.669344896097924136e-01 9.541923469172948446e-10 9.999999975807283281e-01 -6.955963983344309366e-05
1.398127239986406145e-01 4.688507590055179808e-01 -3.321436700535719821e-01 9.541923469172948446e-10 9.999999975807283281e-01 -6.955963983344309366e-05
5.170430685653144842e-02 4.739337432848939047e-01 -2.933471679459024317e-01 -1.539066466351091261e-06 9.999999976481209751e-01 -6.856667875765153205e-05
8.136305454724429564e-02 4.939773110601630712e-01 -3.258186020389061133e-01 -1.539066466351091261e-06 9.999999976481209751e-01 -6.856667875765153205e-05
7.715941746901916476e-02 4.825866896354060742e-01 -2.987489243211808865e-01 -1.539066466351091261e-06 9.999999976481209751e-01 -6.856667875765153205e-05
1.714638656403500994e-01 4.931767842390269996e-01 -3.466361933130033268e-01 2.762808145247750113e-05 9.999999966010143515e-01 -7.768307722620772314e-05
1.817597767028625300e-01 4.848376731112875593e-01 -3.713540382518397687e-01 2.762808145247750113e-05 9.999999966010143515e-01 -7.768307722620772314e-05
2.074234674532758893e-01 4.811936402748485109e-01 -3.449065718397895663e-01 2.762808145247750113e-05 9.999999966010143515e-01 -7.768307722620772314e-05
1.586109117123133683e-01 4.951803981046160041e-01 -3.724988015530326102e-01 2.762808145247750113e-05 9.999999966010143515e-01 -7.768307722620772314e-05
1.922334475684621680e-01 5.237934366346532755e-01 -3.500547895629887440e-01 2.762808145247750113e-05 9.999999966010143515e-01 -7.768307722620772314e-05
1.789465423975523106e-01 4.885146758497744823e-01 -3.310194075475517694e-01 1.226624484333391702e-05 9.999999978200054818e-01 -6.488087735916241486e-05
1.525402453397052827e-01 4.950861196973216916e-01 -3.436642829122666387e-01 1.226624484333391702e-05 9.999999978200054818e-01 -6.488087735916241486e-05
1.501770192278957250e-01 4.842560101253326477e-01 -3.300342531290597625e-01 1.226624484333391702e-05 9.999999978200054818e-01 -6.488087735916241486e-05
2.656895601338482016e-01 4.978205620392119335e-01 -3.528540007572096293e-01 2.980483146779968251e-05 9.999999974190219021e-01 -6.537299184738312534e-05
2.760255767759742795e-01 5.148883367983909665e-01 -3.380039593426713562e-01 2.980483146779968251e-05 9.999999974190219021e-01 -6.537299184738312534e-05
2.888978685538775015e-01 4.947600420834274426e-01 -3.853341824501023694e-01 2.980483146779968251e-05 9.999999974190219021e-01 -6.537299184738312534e-05
2.217164039366611994e-01 4.944852996863922101e-01 -3.215299282712847928e-01 4.182425057715703748e-05 9.999999962734134051e-01 -7.552420373550923439e-05
3.605501749404100842e-01 4.853039152992500438e-01 -3.620256873012321353e-01 5.741997231026292972e-05 9.999999953474708603e-01 -7.751132362691901564e-05
3.102925354364037824e-01 4.959367887293948396e-01 -3.368535967409838627e-01 4.271204566886638721e-05 9.999999970196812304e-01 -6.431421617961676396e-05
3.293247781656136186e-01 4.908378593155095504e-01 -3.278851938463944182e-01 4.271204566886638721e-05 9.999999970196812304e-01 -6.431421617961676396e-05
2.760154152348964773e-01 5.003924751401118698e-01 -3.270572679473814914e-01 4.271204566886638721e-05 9.999999970196812304e-01 -6.431421617961676396e-05
3.335065126659366164e-01 4.922772787594820731e-01 -3.085996390223333385e-01 4.271204566886638721e-05 9.999999970196812304e-01 -6.431421617961676396e-05
3.087959277467648422e-01 4.924586789938687481e-01 -3.548963597014239135e-01 4.271204566886638721e-05 9.999999970196812304e-01 -6.431421617961676396e-05
3.977872247461492483e-01 5.040443782461703215e-01 -3.581705677375175423e-01 5.095661244699103509e-05 9.999999986285807996e-01 -1.209387398574471340e-05
4.151984798083858119e-01 4.749394106596359078e-01 -3.304326635537330747e-01 5.095661244699103509e-05 9.999999986285807996e-01 -1.209387398574471340e-05
4.409781287763787638e-01 4.862882125237953379e-01 -3.553705397460162341e-01 5.095661244699103509e-05 9.999999986285807996e-01 -1.209387398574471340e-05
4.198463257757992229e-01 5.260940146315162824e-01 -3.664494141409975758e-01 5.095661244699103509e-05 9.999999986285807996e-01 -1.209387398574471340e-05
3.978206026195749145e-01 4.980615942038780775e-01 -3.183780388963418084e-01 1.087502831721602544e-04 9.999999913424713061e-01 -7.408396101015138238e-05
3.980980530605282564e-01 4.900643546748123525e-01 -2.946500186021642209e-01 1.087502831721602544e-04 9.999999913424713061e-01 -7.408396101015138238e-05
4.020047333486412300e-01 5.182650426325230431e-01 -2.903534467358343529e-01 1.087502831721602544e-04 9.999999913424713061e-01 -7.408396101015138238e-05
3.894002602480435282e-01 4.753361057294866465e-01 -3.481457534124606790e-01 1.087502831721602544e-04 9.999999913424713061e-01 -7.408396101015138238e-05
4.800675433543079018e-01 4.853300758339691434e-01 -3.798907780053393801e-01 6.045580657592782795e-04 9.999997827640968451e-01 -2.626429217593466360e-04
4.494258740864851553e-01 4.938653519595861408e-01 -3.699519121909691788e-01 6.045580657592782795e-04 9.999997827640968451e-01 -2.626429217593466360e-04
4.984793663521770446e-01 4.972780770510397130e-01 -3.421614992469387828e-01 6.045580657592782795e-04 9.999997827640968451e-01 -2.626429217593466360e-04
4.690691350693616535e-01 5.036420512506959435e-01 -3.134287248962771000e-01 2.363519094746673033e-04 9.999999720473982112e-01 -6.555742876934192501e-06
4.867117991346708306e-01 4.510917242636208191e-01 -3.592154820907113022e-01 9.999999975801525665e-01 -6.018417856078005874e-05 3.489354151864696693e-05
4.785907238840240718e-01 4.455026576436134089e-01 -3.132103203687581217e-01 9.999999975801525665e-01 -6.018417856078005874e-05 3.489354151864696693e-05
4.731036480525648846e-01 4.810044712144088130e-01 -3.612525860076147843e-01 9.999999975801525665e-01 -6.018417856078005874e-05 3.489354151864696693e-05
4.902255862807257669e-01 4.329008583942028920e-01 -3.824436877824902159e-01 9.999999975801525665e-01 -6.018417856078005874e-05 3.489354151864696693e-05
4.731074580942923880e-01 4.645559328652588138e-01 -3.135219644850129606e-01 9.999999902795562168e-01 -1.363608545984722859e-04 -2.909647194672044016e-05
-4.298341826469492255e-01 -4.795327812261400147e-01 -2.668220481599007932e-01 -6.874610094273939207e-05 -9.999999966154081710e-01 4.520129779306196162e-05
-4.622700673098008584e-01 -5.055422209788574817e-01 -2.523745882830251697e-01 -6.874610094273939207e-05 -9.999999966154081710e-01 4.520129779306196162e-05
-4.183285065495087052e-01 -4.742082444899364257e-01 -2.360107996310338019e-01 -6.874610094273939207e-05 -9.999999966154081710e-01 4.520129779306196162e-05
-4.765227942153358320e-01 -4.873874632125971829e-01 -2.689831775224311716e-01 -6.874610094273939207e-05 -9.999999966154081710e-01 4.520129779306196162e-05
-4.939413995782956923e-01 -4.853843214187809618e-01 -2.535514390335485979e-01 -9.729530173145608705e-05 -9.999999913436981025e-01 8.857893769031175476e-05
-5.060753898146578278e-01 -4.980629231282135416e-01 -2.637844044673470778e-01 -9.729530173145608705e-05 -9.999999913436981025e-01 8.857893769031175476e-05
-4.477193041425303610e-01 -4.758599836569247787e-01 -2.560102939040780901e-01 -9.729530173145608705e-05 -9.999999913436981025e-01 8.857893769031175476e-05
-3.806288865729569038e-01 -4.876020232994706660e-01 -2.773723315028053804e-01 4.207173078064919416e-05 -9.999999948182479725e-01 -9.270098969891664160e-05
-3.522498658503951940e-01 -4.952659348453374299e-01 -2.582375075924515095e-01 4.207173078064919416e-05 -9.999999948182479725e-01 -9.270098969891664160e-05
-4.007001061524752550e-01 -4.932746761284272918e-01 -2.689674728135479365e-01 4.207173078064919416e-05 -9.999999948182479725e-01 -9.270098969891664160e-05
-3.951776924349139630e-01 -4.652311927767944777e-01 -2.416085637718829449e-01 -5.663173043940350216e-05 -9.999999973681158449e-01 4.534992184313978907e-05
-3.789679293729025233e-01 -4.881822857676593186e-01 -2.617923658864658720e-01 -5.663173043940350216e-05 -9.999999973681158449e-01 4.534992184313978907e-05
-3.317088502141252171e-01 -4.977387310804537446e-01 -3.025509255988012014e-01 -8.533358929702655900e-05 -9.999999924436434595e-01 -8.849232525628817660e-05
-2.844252774488700286e-01 -4.910901614469252441e-01 -2.558232743258335162e-01 -8.533358929702655900e-05 -9.999999924436434595e-01 -8.849232525628817660e-05
-2.943244466675046245e-01 -4.726666322401414932e-01 -3.116903115250547196e-01 -8.533358929702655900e-05 -9.999999924436434595e-01 -8.849232525628817660e-05
-2.744961669166555152e-01 -5.088452065906231558e-01 -2.858177520479745493e-01 -8.533358929702655900e-05 -9.999999924436434595e-01 -8.849232525628817660e-05
-3.007517116659215173e-01 -4.929844037688473346e-01 -2.889974159473191473e-01 -8.069759101271079330e-05 -9.999999923309417227e-01 -9.394687457751126698e-05
-2.608501520761281056e-01 -4.879230431771280907e-01 -3.047629461972414244e-01 -3.421793650362141786e-05 -9.999999885539335720e-01 -1.473813607999074785e-04
-2.311174408334754904e-01 -4.903527228140384664e-01 -3.137017763149342886e-01 -3.421793650362141786e-05 -9.999999885539335720e-01 -1.473813607999074785e-04
-2.364131667737268683e-01 -4.983186176055623418e-01 -2.662658590512591572e-01 -3.421793650362141786e-05 -9.999999885539335720e-01 -1.473813607999074785e-04
-2.152589438979671532e-01 -5.098406730891464900e-01 -2.311421208487997037e-01 -9.255039353641700891e-05 -9.999999917007683647e-01 -8.962637924528422321e-05
-2.358575751924539277e-01 -4.902760115972589205e-01 -2.967300229989112692e-01 -9.255039353641700891e-05 -9.999999917007683647e-01 -8.962637924528422321e-05
-1.738971691252329532e-01 -4.634211081856273728e-01 -2.549152038989212499e-01 5.243345485858571520e-01 2.725889719804708289e-02 8.510759270962914291e-01
-1.642284858314543849e-01 -4.727408870710053113e-01 -2.571222455580513544e-01 5.243345485858571520e-01 2.725889719804708289e-02 8.510759270962914291e-01
-1.278517082163485863e-01 -4.827435690757451159e-01 -2.769752057256569810e-01 1.737987418983821678e-03 -9.999980241012548232e-01 9.649835840104986932e-04
-1.823077705419113292e-01 -5.043086257820961205e-01 -2.337206074292810798e-01 8.566492129860844612e-05 -9.999999805984957080e-01 -1.773824385887455795e-04
-1.642202481150396021e-01 -4.908961981170180122e-01 -2.813895135066539210e-01 8.566492129860844612e-05 -9.999999805984957080e-01 -1.773824385887455795e-04
-1.791619121752134336e-01 -4.898635011632345160e-01 -3.032354870327170215e-01 8.566492129860844612e-05 -9.999999805984957080e-01 -1.773824385887455795e-04
-2.249353815020596892e-01 -4.864313472420008777e-01 -3.252231305172426090e-01 8.566492129860844612e-05 -9.999999805984957080e-01 -1.773824385887455795e-04
-1.891373637830685295e-01 -4.750611471240536732e-01 -2.658437909435622526e-01 8.566492129860844612e-05 -9.999999805984957080e-01 -1.773824385887455795e-04
-1.152957125450983777e-01 -5.254845940496079004e-01 -3.163615220360010971e-01 4.074714033046372068e-04 -9.999987278713047267e-01 1.542148769655150289e-03
-1.190826456296630725e-01 -4.868432555721984856e-01 -2.917358003559008539e-01 4.074714033046372068e-04 -9.999987278713047267e-01 1.542148769655150289e-03
1.049315614852006258e-02 -4.942850646354473576e-01 -2.928524183020637661e-01 1.920127704550994921e-02 3.251405844553635627e-02 9.992868191681614221e-01
6.585754119788195249e-02 -4.859806427467959211e-01 -3.263942481688580366e-01 4.080597741882375563e-04 -9.999994177843838372e-01 9.989585147044267432e-04
7.449645572397796400e-02 -4.787404775819370517e-01 -3.012265333055098582e-01 -1.367887242642169788e-04 -9.999999696951324957e-01 2.046914242432187436e-04
1.578292101513716350e-01 -4.837884902653877828e-01 -2.920579224144328467e-01 -1.367887242642169788e-04 -9.999999696951324957e-01 2.046914242432187436e-04
