1.350321858904852401e-01 7.001601153116180365e-01 -3.288144034180201514e-01 7.872630131245910157e-01 3.647886838780049490e-01 -4.971379730824663778e-01
1.617857673884148251e-01 6.869467547745797820e-01 -3.366401330262120406e-01 8.153873986275479435e-01 3.601088283865056527e-01 -4.532824967693970808e-01
2.016733545823007900e-01 6.564605169202304413e-01 -2.924271385491314379e-01 9.310480822430382553e-01 3.434856992294313405e-01 -1.231545491503636680e-01
-1.447257010020575885e-01 7.808191881469457307e-01 -3.291303088931794019e-01 -8.351974532855503952e-01 3.227741304600880712e-01 -4.452662964239094689e-01
-1.477939575818478790e-01 8.152406476297759941e-01 -2.896181121627481314e-01 -8.327757958121398962e-01 3.254581260436614221e-01 -4.478409115987565525e-01
1.464465959426924091e-01 7.629587081328909060e-01 -2.942695991390140708e-01 8.779377304496781553e-01 2.848818159353723178e-01 -3.847956501862165868e-01
1.432511462364787214e-01 7.143480796766670249e-01 -3.218769700615176088e-01 8.037707808040686075e-01 3.202364953377405121e-01 -5.013991613270002423e-01
1.883926865619865443e-01 7.191966910287403980e-01 -2.910206335733602767e-01 8.999698542347394081e-01 2.806225513659939552e-01 -3.336244072809152472e-01
-1.197657409207472101e-01 8.476405353929209463e-01 -3.355591525422693122e-01 -7.024307278851597003e-01 3.821448798447812933e-01 -6.004634571155371692e-01
-1.519478864341211044e-01 7.896242207442424332e-01 -3.207156132977572738e-01 -8.255615317426038269e-01 3.567610057139615765e-01 -4.372296217192612744e-01
8.457913699878047420e-02 8.440428417899934477e-01 -2.953377713612189148e-01 7.344197235019584991e-01 4.052513932023283361e-01 -5.444253649848421750e-01
1.549394381092600304e-01 8.100738564791085672e-01 -3.076227318305754799e-01 6.949611416175950351e-01 3.244934474020904069e-01 -6.416642535116598989e-01
1.023091072836059406e-01 8.355365898664820490e-01 -3.203662052073013577e-01 7.758440573637852555e-01 3.711276111822203183e-01 -5.102257293311246444e-01
-1.078404104498469074e-01 8.762607233162619247e-01 -3.339874041433795182e-01 -6.357425013871385033e-01 4.266337589753938508e-01 -6.432846241225960160e-01
-9.606292779392021364e-02 8.737568037553760103e-01 -3.052132532556016131e-01 -6.512985814399286921e-01 4.928158652785966654e-01 -5.770118549423786103e-01
-5.475047089690663477e-02 9.308129814621515230e-01 -3.107862837082917551e-01 -5.456290061902542288e-01 6.766296315560619279e-01 -4.944303078333114887e-01
-5.153968122565036336e-02 9.026324258804215850e-01 -3.187851189030443955e-01 -5.148493068509771842e-01 5.284693048825668260e-01 -6.750188034655072444e-01
-7.287563812015269982e-02 8.797573029255102428e-01 -3.137032172031740118e-01 -3.383319378730248461e-01 4.680181581645517785e-01 -8.163886962981199424e-01
-1.149196179825875443e-02 8.883957081171406367e-01 -3.489566154441015589e-01 -9.810487472819186261e-02 4.819745811924691092e-01 -8.706755633638226799e-01
-6.048481631312418311e-02 9.184238175188008668e-01 -3.234129348588575814e-01 -2.532526813444913594e-01 6.361232120417190661e-01 -7.288417787788730173e-01
5.466344609958002920e-02 8.959281799859034612e-01 -3.174015886810227505e-01 2.535588878233163146e-01 5.277615568116135192e-01 -8.106636969530489623e-01
6.462456478485296973e-02 8.665286133095539967e-01 -3.655006233338253252e-01 4.161881505985755569e-01 4.671977521276933221e-01 -7.800728707679609464e-01
7.022873916609627398e-02 8.882314011761586192e-01 -3.258219219024611202e-01 5.443139105064950245e-01 5.419586379836259793e-01 -6.403149237243034309e-01
-5.361873648410099558e-02 9.407877609619438308e-01 -3.056673873659035978e-01 -3.942637171794378670e-01 7.622877239830706531e-01 -5.132967437852707926e-01
3.663926280075245623e-03 9.564412906173995754e-01 -3.397358593137275173e-01 -2.802656039686864456e-02 7.198204545528694709e-01 -6.935942799069358955e-01
-1.370591032484777538e-02 9.778179524264233313e-01 -2.599365076463149293e-01 -2.879667339254540423e-02 8.910687836444339816e-01 -4.529538325436181512e-01
1.445579929939256811e-02 9.228160517405175067e-01 -3.162130195093745266e-01 2.078623710057041218e-01 6.963085717552222054e-01 -6.869844304058787543e-01
5.521481927112520394e-02 9.010827987289504737e-01 -2.498420096768426690e-01 3.691254182589831512e-01 7.801159002252113783e-01 -5.051391964705755910e-01
-1.172123263355392409e-01 -9.162229261772514288e-01 -2.451699966636112504e-01 -6.535144964714914018e-01 -7.567380149421124580e-01 -1.632114098597928567e-02
-1.081754897405012433e-01 -9.160250103779734587e-01 -2.899684793028975971e-01 -7.587617532733822445e-01 -6.396604734741913045e-01 -1.229434034191191349e-01
-8.159023651023189494e-02 -9.153865660503528456e-01 -2.524819819220621708e-01 -6.096256921029787890e-01 -7.249728691350290077e-01 -3.205789365290369619e-01
-6.348302660813673337e-02 -9.483303799631556119e-01 -2.265608998329167734e-01 -3.526524467914851635e-01 -9.215796336396741006e-01 -1.622566813186523960e-01
-2.647708254853099047e-02 -9.686536278045723147e-01 -1.906723729474416040e-01 -2.727013633866864906e-01 -9.575475254325505059e-01 9.347033189756825955e-02
-5.707987969222162901e-03 -9.728374805329760289e-01 -2.688074059281599371e-01 8.972271328395717283e-02 -9.491572673683513761e-01 -3.017454498792129791e-01
1.360107974191029738e-02 -9.578839915837927821e-01 -2.097451161320144919e-01 1.034839177160388896e-01 -9.938536746470453265e-01 -3.931859820371286229e-02
-1.442996675225459088e-02 -9.688525187078147471e-01 -2.391730938685495411e-01 -8.918212330269278953e-02 -9.958624108458810076e-01 -1.745300969613059611e-02
6.795234038475891913e-02 -9.332038172247791863e-01 -2.702412990286316430e-01 6.326263788985183600e-01 -7.270169409907458746e-01 -2.668899253141762129e-01
2.992955998007142127e-02 -9.342625382763800612e-01 -2.899797275798684515e-01 3.680234715159141357e-01 -8.231957888365052378e-01 -4.323279052469538586e-01
1.459365586514344698e-02 -9.560162279091356519e-01 -2.535482880609015166e-01 3.393726263129986376e-01 -9.326743783222628537e-01 -1.222486177042440558e-01
1.023734359899689111e-01 -8.986445771951913075e-01 -2.792613398789185464e-01 7.400350346412704061e-01 -6.165650688778748778e-01 -2.686925070468376697e-01
-1.639719700758720533e-01 -8.587457068742729849e-01 -2.883796886697236328e-01 -8.045603888404438964e-01 -4.581709362780705952e-01 -3.778385552838535721e-01
-1.057867734307504776e-01 -8.978900608386026772e-01 -2.343574119199979822e-01 -8.160198208855874435e-01 -5.324038784564183446e-01 -2.250727929502305269e-01
-1.022932661041691532e-01 -9.174769688432379278e-01 -2.579189055956871979e-01 -6.954807424807788463e-01 -5.905651586967487487e-01 -4.093156852258030276e-01
8.331135247461333992e-02 -9.053294214337869183e-01 -2.831793881157441684e-01 6.303492202329450400e-01 -5.878329527998740200e-01 -5.070624026234830106e-01
8.919861667825394747e-02 -8.838142569889412270e-01 -2.795361434358109021e-01 7.416320946601562270e-01 -5.177917594220562414e-01 -4.264663293210855244e-01
1.260258985191543279e-01 -8.964972630805438936e-01 -2.282112852924931268e-01 8.142895353842504180e-01 -5.636275320221642016e-01 -1.387679995903446928e-01
1.327901620655112247e-01 -8.674853243166749106e-01 -2.113910173432656248e-01 8.564803629711218447e-01 -4.945596825491777593e-01 -1.478245860529019406e-01
-1.351248007564469777e-01 -7.945554428535152036e-01 -2.118768166086603122e-01 -9.209256120710161975e-01 -3.406024563766424373e-01 -1.894359621133788474e-01
-1.666956561949528570e-01 -7.946247525093722563e-01 -1.834765927712752598e-01 -9.360726166723070119e-01 -3.310883852329938870e-01 -1.189476249450532597e-01
-1.456560343113433298e-01 -8.341105990334424236e-01 -2.412317361286551998e-01 -9.064611639358605144e-01 -3.952295846167682147e-01 -1.487337679200720908e-01
-1.316452005996273655e-01 -8.348360902650012738e-01 -2.522021564733283872e-01 -9.029403783255183225e-01 -3.496411416512100745e-01 -2.498994702959738134e-01
-1.050006394934513837e-01 -8.368580821659595825e-01 -2.863824948008193427e-01 -8.409069731102791767e-01 -3.991076703531815095e-01 -3.654976471056474163e-01
1.624937337242320923e-01 -8.090683465397416896e-01 -2.107781680337545427e-01 9.069307809688856858e-01 -3.740015366436214572e-01 -1.939056706735955704e-01
1.355290324125018597e-01 -8.465767003419900627e-01 -2.722751145092019986e-01 8.488226685751937284e-01 -4.304669394716536535e-01 -3.069174014857981025e-01
1.187561297226401302e-01 -8.448494597307484311e-01 -2.747832798936349352e-01 8.539085245678224023e-01 -4.240522077455627925e-01 -3.016951388016035907e-01
1.536482172476923702e-01 -7.964024001111686957e-01 -2.163109530687537252e-01 9.259674714786167993e-01 -3.165436019528228284e-01 -2.058746944775625143e-01
1.701536782212164922e-01 -7.871213005808103125e-01 -2.092733256557559041e-01 9.259674714786167993e-01 -3.165436019528228284e-01 -2.058746944775625143e-01
-1.622859219184058233e-01 -7.579519205600591114e-01 -2.548755831207928924e-01 -9.280325646876395052e-01 -2.735691304620208597e-01 -2.528151295661237863e-01
-1.819469074710759471e-01 -7.192059747546639681e-01 -2.750977733540880266e-01 -9.280325646876395052e-01 -2.735691304620208597e-01 -2.528151295661237863e-01
-1.741899683372425400e-01 -7.231151308280163725e-01 -2.420733260201445025e-01 -9.347968159045088044e-01 -2.624245275878577255e-01 -2.393497029350181715e-01
-1.453831710606762195e-01 -8.128983820077362310e-01 -2.671647077445746810e-01 -8.772051492315193766e-01 -3.294508556703167335e-01 -3.492467034344116650e-01
1.572084471118210536e-01 -8.028889560131814429e-01 -2.887587217114773730e-01 8.918554317803760734e-01 -2.980219567670633340e-01 -3.402599037332630916e-01
1.703037722970826562e-01 -7.475619290853104948e-01 -2.829441982964313040e-01 8.997665029861563468e-01 -2.870704679236991685e-01 -3.286499453067527332e-01
1.644795328203867979e-01 -7.407387437264355556e-01 -2.454472790866794041e-01 9.417101812831721874e-01 -2.638169953879820895e-01 -2.087642867256573609e-01
1.844614010551842709e-01 -7.075615372335115616e-01 -2.241427144290970841e-01 9.519404550913992402e-01 -2.437223578713620942e-01 -1.854960437152328723e-01
1.632154749024569418e-01 -7.605460892314813703e-01 -2.234188451538282605e-01 9.519404550913992402e-01 -2.437223578713620942e-01 -1.854960437152328723e-01
-2.116771643636959355e-01 -6.801018145022463823e-01 -2.841958222209857721e-01 -9.143300541960911465e-01 -3.169358769104902995e-01 -2.520956205901867531e-01
-1.630748636796507944e-01 -7.121279394528726714e-01 -2.681666340526530079e-01 -9.541114602601670214e-01 -2.382224641231006357e-01 -1.814424949876125848e-01
2.043745492482709480e-01 -7.196803249038818961e-01 -2.810791380540891282e-01 9.475099941735168896e-01 -2.572418639987296696e-01 -1.898721526389824943e-01
1.751634153858369902e-01 -6.941875230993960200e-01 -2.434535539488393852e-01 9.669343282656321925e-01 -2.094309053792390574e-01 -1.455221656433238198e-01
-2.238237454258619474e-01 -6.804338467556462211e-01 -2.474061390844238817e-01 -9.567538576618715984e-01 -2.778129337018108158e-01 -8.626719954374446886e-02
-2.093004801210853194e-01 -6.345756092723290331e-01 -2.646590526894685436e-01 -9.567538576618715984e-01 -2.778129337018108158e-01 -8.626719954374446886e-02
2.178454398920073865e-01 -6.234782301960417605e-01 -2.540173864910359458e-01 9.676267706298223858e-01 -2.456609828546104657e-01 -5.787153240936432352e-02
1.853993032726769241e-01 -5.846474264653310771e-01 -2.654355714780173292e-01 9.629165891664848154e-01 -2.664280841977451075e-01 4.251727012288228358e-02
-7.439525691537599572e-01 -5.475350587189812268e-01 -2.542883978516529142e-01 -1.064075943734752311e-01 -9.775324558259972374e-01 -1.819552738077267751e-01
-6.890244179952852432e-01 -5.741685424583218289e-01 -2.333845430224949224e-01 -1.303276136083522663e-01 -9.911116854316549540e-01 -2.668970085962909730e-02
-7.617093593515570360e-01 -5.306446931443735693e-01 -2.411563040321429152e-01 -2.602377622651840250e-01 -9.511506732458379076e-01 -1.660984764385233237e-01
-6.980007888372639080e-01 -5.783429349955613308e-01 -2.273701396705571365e-01 4.344696146665068259e-02 -9.888541979193119502e-01 -1.424069408303877127e-01
-7.016944008611539774e-01 -5.508940340739980623e-01 -1.995997363735574903e-01 -8.802016659080549865e-02 -9.955459622225842908e-01 -3.377406365298016300e-02
-6.050792421018424960e-01 -5.567714649138767458e-01 -2.943058146360473804e-01 1.646287933196232678e-01 -9.550469125267558868e-01 -2.465415893581362206e-01
-6.178895275190755543e-01 -5.587643974266066627e-01 -2.252312798646362579e-01 1.077686185251057055e-01 -9.659209674832626158e-01 -2.353351003088752225e-01
-6.597895554102490845e-01 -5.367525850032957013e-01 -2.156078538064812866e-01 8.178422011452596285e-02 -9.849845450532760394e-01 -1.520420578210172902e-01
-6.002361141526616484e-01 -5.194593846190834752e-01 -2.218628270105046651e-01 2.166208287310763814e-01 -9.626397201674853354e-01 -1.624813395923576653e-01
-2.533229379383442614e-01 -5.879426968066971959e-01 -2.834227885790333579e-01 -8.960510341494288822e-01 -3.783881601076087287e-01 2.321959183321660458e-01
-2.442245859693902565e-01 -5.038980797490781871e-01 -2.436159099477553103e-01 -8.020762679030863929e-01 -4.537273143234341055e-01 3.883364323669618035e-01
-2.157571634579888153e-01 -6.215760575191940918e-01 -2.716238982240355981e-01 -9.559182600222531079e-01 -2.895016888556464218e-01 4.908209760958364559e-02
-2.036677774457673895e-01 -6.063892589859337656e-01 -2.838075049240781356e-01 -8.876580969492881001e-01 -4.272442447828577183e-01 1.718297361352041086e-01
-2.328358638115211043e-01 -5.583411447923846138e-01 -2.568117923723131080e-01 -9.649124911070586785e-01 -2.280081586837519880e-01 1.302158365146706964e-01
-2.336047416184827419e-01 -5.874433420316046428e-01 -2.550104373411385406e-01 -9.729266442853574670e-01 -2.149810783852843243e-01 8.483443154718456336e-02
2.159407242083528078e-01 -6.152994078274575118e-01 -2.095692698866893910e-01 9.776763198658718901e-01 -2.094124264974693006e-01 1.718863583787809401e-02
2.239406448768728741e-01 -5.568253122911910324e-01 -2.538304736402195450e-01 9.533951123992633336e-01 -2.744149300924546009e-01 1.254360625799038620e-01
2.251848196755601994e-01 -5.779308046241671271e-01 -2.885954440736881454e-01 8.864408466475173221e-01 -4.170006647261142452e-01 2.008309513317391437e-01
2.631792048730584588e-01 -5.555001346409196294e-01 -2.329676828049500881e-01 7.204672468112730543e-01 -4.951753262159693803e-01 4.855186325766420175e-01
5.940524865361088702e-01 -5.094310545270180901e-01 -2.600072030597033179e-01 -1.851033576930255498e-01 -9.641471149872365975e-01 -1.901501712661765042e-01
6.243350802992800874e-01 -5.194304349133981313e-01 -2.592410460401947669e-01 -1.470472440599713548e-01 -9.691135258905824168e-01 -1.979800039152703750e-01
6.360774005505511752e-01 -5.423466085676996729e-01 -2.104658808797194025e-01 -8.410296832615472840e-02 -9.869797647973783672e-01 -1.371044660076452815e-01
6.960981057599000543e-01 -5.626993936178263933e-01 -2.273941256255528065e-01 -2.614181935620119371e-02 -9.885128612548526039e-01 -1.488587532343737807e-01
7.381767152645299923e-01 -5.486361127908842006e-01 -2.262414553590216260e-01 1.838307187647615915e-01 -9.723012188030327740e-01 -1.443489063088745639e-01
-8.049354244552934246e-01 -5.171662071505694902e-01 -1.868599263015820744e-01 -6.748446589070171697e-01 -7.343414868309426913e-01 7.298812960743704392e-02
-8.390922977109250835e-01 -4.454835979758809406e-01 -1.983202772859010143e-01 -8.428510547570106093e-01 -5.369469908589119544e-01 -3.591696677831200668e-02
-8.110574486888818546e-01 -4.845948399610973678e-01 -2.743533239955229797e-01 -7.859580673911584769e-01 -4.342484108781587415e-01 -4.401116153347341409e-01
-8.186504050742002825e-01 -5.303354723950212124e-01 -2.243751539433052333e-01 -5.437284491048013368e-01 -8.184610094344786368e-01 -1.856904673632492619e-01
-7.647189311240403242e-01 -5.356300757254189859e-01 -2.399485306022246245e-01 -4.053948480141176258e-01 -9.117961006723561690e-01 -6.544377741464046938e-02
-5.807743742386681784e-01 -5.168898503831079738e-01 -3.010953224691131913e-01 1.912882962932158371e-01 -9.334444230295244616e-01 -3.034638311501338115e-01
-6.056713422678361436e-01 -5.202228027339637073e-01 -2.517618223015932188e-01 1.908142157134175287e-01 -9.335528403833188715e-01 -3.034287878463590160e-01
-5.503309080538376641e-01 -5.234046876403670723e-01 -2.660864307434804843e-01 2.553428028230514957e-01 -9.412500989080320180e-01 -2.210165250656338787e-01
-5.333002865493553513e-01 -4.970568568634602946e-01 -2.836649238461174671e-01 2.327504985217072053e-01 -9.243470700254184935e-01 -3.023403703995232727e-01
-4.938048691014191305e-01 -5.054713607335009629e-01 -2.902922879804815115e-01 1.336081240460920971e-01 -9.860238772619075442e-01 -9.952779841973059816e-02
-4.773467029348278379e-01 -5.039067522405399346e-01 -2.372545049441455445e-01 3.026730234414991005e-01 -9.420064888582646567e-01 -1.449579795309866026e-01
-5.437361344488736981e-01 -4.919180040921828367e-01 -2.074630746814897231e-01 2.898067329704319128e-01 -9.377330042727509696e-01 -1.914911753126123384e-01
-4.523242153862448989e-01 -4.763390771713062466e-01 -2.871868736812905887e-01 1.018980795635809761e-01 -9.944743226727801311e-01 2.525080049759313716e-02
-4.149764628573942016e-01 -4.745248122125518830e-01 -2.531224435571885478e-01 2.290262465961175053e-01 -9.734018133388659955e-01 5.990672641856760287e-03
-4.470524129014398773e-01 -4.799542358826207611e-01 -2.966197399747341201e-01 1.995548377312391652e-01 -9.798429024096939610e-01 9.260309681952199126e-03
-3.850741286289534604e-01 -4.572621576929212783e-01 -2.567532106528294111e-01 1.719231798573344072e-01 -9.687881816617086583e-01 1.785829759533173466e-01
-3.796849524595018455e-01 -4.778564573662970050e-01 -2.414660064253788818e-01 -5.094586142417361491e-02 -9.025536576817992929e-01 4.275528203730556420e-01
-3.972376459579746166e-01 -5.032849096767878505e-01 -2.856572203663602094e-01 -5.235128445939037090e-02 -9.815480628532272656e-01 1.839096063954492322e-01
-2.986585504298942539e-01 -4.760488605891040614e-01 -2.387754516832118201e-01 -2.280447490385780762e-01 -7.710873738220078710e-01 5.944912567634708100e-01
-3.551977880646630115e-01 -4.800563892462518245e-01 -2.175011816272953702e-01 2.712181446916810124e-02 -9.239315783896162593e-01 3.815951331376915001e-01
-3.435671570690035370e-01 -4.878426416145587030e-01 -2.359507129770052059e-01 -9.464388233556049468e-02 -8.959050881720590498e-01 4.340467814923498202e-01
-2.727070690820295740e-01 -4.802793965730518533e-01 -2.108760771557882385e-01 -2.424397941253760291e-01 -7.758866113140130416e-01 5.824284613650871911e-01
-2.613388095599079586e-01 -4.877513060564908631e-01 -2.098870132775530473e-01 -4.298605349004177012e-01 -6.532122108715371356e-01 6.233247372786078211e-01
-2.500748527351598915e-01 -5.460055196213045026e-01 -2.567362665415053868e-01 -5.467895854213412621e-01 -6.102165258005239901e-01 5.732860899365134211e-01
-2.267782131826227288e-01 -4.665730977477358099e-01 -2.306201884610515895e-01 -5.770616446520379084e-01 -5.808706986349281287e-01 5.740985017737424423e-01
-2.413476524561332104e-01 -4.933401120943354812e-01 -2.333065855368799124e-01 -7.124699920677624032e-01 -4.991952384513145824e-01 4.931436142854306315e-01
2.743409219225594886e-01 -4.687775043990238255e-01 -2.706975487916478684e-01 3.971510173801773846e-01 -6.709215120353221318e-01 6.262071494977737851e-01
2.834627120752515328e-01 -4.748819102301238271e-01 -2.108996909342667203e-01 4.234846220259087524e-01 -6.641965525439225138e-01 6.160387280815561306e-01
2.611940620869638852e-01 -5.016676440287307637e-01 -2.266874761543708761e-01 5.809720111744011151e-01 -5.769056593650797593e-01 5.741527518217727222e-01
3.215441135738461020e-01 -4.928727559664469737e-01 -2.670677532476585236e-01 2.773109031960204196e-01 -7.587634651102393990e-01 5.893866871439410460e-01
3.456927582691969314e-01 -4.637181892827956231e-01 -2.269742053683425631e-01 -1.107500392619802099e-01 -9.490085372165109057e-01 2.951562723264538612e-01
3.492694126407700494e-01 -4.581409159941748355e-01 -2.537048155861367227e-01 -9.058329340694080533e-04 -9.065670033426826979e-01 4.220609528456333859e-01
3.902103050581142707e-01 -5.074398148437211375e-01 -2.619959483816889922e-01 3.527843912278374322e-02 -9.295509255843846796e-01 3.670020551417576549e-01
4.196868589645255665e-01 -5.130485074325503714e-01 -2.588677417698733163e-01 -3.059777830241262597e-01 -9.520364113874782985e-01 2.065838351091585888e-03
3.937735827013003065e-01 -4.816206294531721332e-01 -2.210535850880723796e-01 -3.077538933502807494e-01 -9.482475677386399404e-01 7.819265570050176750e-02
4.820043823882027012e-01 -5.100152628715151071e-01 -3.114805926241837053e-01 -2.155992735335059418e-01 -9.736062243983730768e-01 -7.488573338473374086e-02
5.008759545453672635e-01 -5.144577686363650537e-01 -2.502226589484720098e-01 -2.965720087295759533e-01 -9.459043662203342473e-01 -1.315673728680941124e-01
4.627817425096289461e-01 -4.907435603961881609e-01 -2.266173421049323955e-01 -2.966506918065311971e-01 -9.529991578475842662e-01 -6.157087129886648635e-02
5.586427696605199555e-01 -5.059604597448201790e-01 -2.470503895239349046e-01 -2.618675240654874670e-01 -9.387152899581311383e-01 -2.241405903414926959e-01
5.418509749450539648e-01 -5.240875236568417472e-01 -2.478117204810326990e-01 -2.618675240654874670e-01 -9.387152899581311383e-01 -2.241405903414926959e-01
5.378064928107226805e-01 -5.175258424565781779e-01 -2.764395774612636303e-01 -2.022779693674139345e-01 -9.368549733936466506e-01 -2.852829857110045775e-01
5.374678731889114269e-01 -5.124694754293422916e-01 -3.157525599420933360e-01 -2.136300947080781720e-01 -9.283861187283224403e-01 -3.040746572596584318e-01
5.985671224650102040e-01 -5.199872446646361945e-01 -3.035701482657816586e-01 -1.566959453816345049e-01 -9.201783575908191182e-01 -3.587731468803347923e-01
7.149248455653917089e-01 -5.558908761880294591e-01 -2.843219194929965665e-01 2.721551099606518975e-01 -9.276657705462661996e-01 -2.556713012426456988e-01
8.025624241940283454e-01 -4.867515507286413468e-01 -2.568166611103231967e-01 4.431180346842892304e-01 -8.865152400537916755e-01 -1.331808413019719417e-01
7.784722023957131309e-01 -5.214662964347532847e-01 -2.196529623782826623e-01 3.198757767972015276e-01 -9.460832858872252338e-01 -5.104805170834515043e-02
8.164938842577116329e-01 -5.142085837816287031e-01 -2.745995318297898558e-01 3.732550431733135388e-01 -8.504383629939776812e-01 -3.707226233908735846e-01
7.790331671967453131e-01 -4.851782682109843092e-01 -2.751775712395710949e-01 6.835062105348049810e-01 -6.101358223075156184e-01 -4.006913257078101309e-01
8.280981620875382809e-01 -5.033449729733128208e-01 -2.456604829708118332e-01 7.825014507452304757e-01 -5.551142140852731721e-01 -2.820278158304588279e-01
-8.377166158365265680e-01 -4.274609969485559380e-01 -2.322668869184849882e-01 -9.749363351639959152e-01 -2.220600690105410946e-01 -1.372836945999589622e-02
-8.453138268106381581e-01 -4.477876149676563444e-01 -2.347270422600558071e-01 -9.012390005316679442e-01 -2.114757379340122256e-01 -3.782145901283358036e-01
-3.296652362786404722e-01 -4.556996370154058340e-01 -2.151411318724560928e-01 2.091612490225586707e-01 -9.359585684208383549e-01 2.832545323678652971e-01
2.623595565321071299e-01 -4.617266203025399141e-01 -2.017665704816617167e-01 4.920908047001158470e-01 -7.051708044602977843e-01 5.104711318638976980e-01
3.338535073844109968e-01 -4.809200862347622896e-01 -2.420203477282695526e-01 1.249712620158903303e-01 -8.354137037085950235e-01 5.352253051996359590e-01
3.043347575518041692e-01 -4.205898550270763536e-01 -1.860447228574581557e-01 -4.087130683755774152e-02 -9.014670745882240599e-01 4.309137381318209892e-01
8.180927993438907864e-01 -3.944777971436195241e-01 -2.294729430464410858e-01 9.846194738419461467e-01 1.156578322367457640e-01 -1.309494466330650142e-01
8.777371940044930154e-01 -4.514018461690579298e-01 -2.243264537083752841e-01 9.507675178486858503e-01 -3.091994684097241763e-01 -2.090013729602659825e-02
8.323690196969956157e-01 -4.489936526231351754e-01 -2.750990577454784924e-01 9.390367296658806984e-01 -1.204472183182258987e-01 -3.220287066983462676e-01
-8.541359041478664427e-01 -4.216320826811413847e-01 -2.387729903440745927e-01 -9.878756893735096689e-01 7.826782246426935985e-02 -1.340737495243374267e-01
-8.430611528117344378e-01 -3.796077666289505159e-01 -2.486609031460473851e-01 -9.542001168937541689e-01 2.798566676684524634e-01 -1.057467847334148253e-01
-8.245676427281714016e-01 -4.008864761908379482e-01 -2.807974240819147704e-01 -9.218063322718614838e-01 2.370008204917589123e-01 -3.067632586698278985e-01
8.362679442596699930e-01 -4.182830762439734285e-01 -2.589149784272222754e-01 9.412543962906954054e-01 1.250429896218862302e-01 -3.136947755539758464e-01
8.084442671759939358e-01 -3.649647053080654069e-01 -2.926586347212726813e-01 8.848060111575291042e-01 3.231577436628658706e-01 -3.356894328545774187e-01
8.428505609713463631e-01 -3.824006991093137353e-01 -2.307785067681698277e-01 9.441030675207363609e-01 2.916412990941090744e-01 -1.536709164436660391e-01
-8.122538290797247651e-01 -3.480551377001538937e-01 -2.756847327134381853e-01 -8.001548846291346440e-01 4.861421301628858216e-01 -3.513089664167823312e-01
-8.590147579976219472e-01 -3.464492559787970549e-01 -2.155768042163428988e-01 -8.799098204727778816e-01 4.644659918535614107e-01 -1.001501385273686068e-01
-7.911902038144092986e-01 -3.073186275678457813e-01 -2.245219974566228793e-01 -8.900491971073054565e-01 4.408181404163794004e-01 -1.161541811924396428e-01
-8.000797545175173386e-01 -3.179759981413141645e-01 -3.017598888778706412e-01 -7.551609984834570799e-01 5.337905065985529829e-01 -3.805253755463996468e-01
-9.126319201085983379e-02 -2.970638869349271349e-01 -1.874674490444719621e-01 3.441249319735312784e-01 9.387982988619415492e-01 1.535530032715351142e-02
-7.463610998303388255e-02 -2.953260491351806238e-01 -2.672295529281987214e-01 3.797757454275359490e-01 9.249526949988265967e-01 1.526090427749879699e-02
-8.261561451195240102e-02 -2.779911693491033398e-01 -2.939014368216968376e-01 3.536077312033993336e-01 9.353918177981040971e-01 -1.928634113331971663e-03
-4.318599024755174348e-02 -2.987662031767365778e-01 -2.796547377878139118e-01 2.671718443458137582e-01 9.317026379308512851e-01 -2.460678769395744092e-01
-5.538752449413372747e-02 -3.052136570287592443e-01 -2.294484281299252748e-01 3.040819605862169484e-01 9.487379079481548239e-01 -8.620059900140399078e-02
-2.643027541365410016e-03 -3.243224204164305013e-01 -2.593770947852945818e-01 -7.312618332496378937e-02 9.312548013317302198e-01 -3.569552581331779662e-01
3.732549767664837537e-02 -2.962828090063245878e-01 -2.774673262812981100e-01 -4.322417263604895754e-01 8.471331619177198125e-01 -3.090833155836623103e-01
9.569477443477883427e-02 -3.062462333486885568e-01 -2.749098594468808443e-01 -3.623114805494890289e-01 9.317657328636753666e-01 -2.330257760539136344e-02
9.998882938627119688e-02 -2.755412133763613380e-01 -2.162343157551395167e-01 -3.622314657940924332e-01 9.319611676192881555e-01 1.538659281180062427e-02
8.080106082373647025e-01 -2.728119716194921662e-01 -2.688088285581243242e-01 8.170745463108726181e-01 5.458915629590602725e-01 -1.854496892987315126e-01
7.897983142421209912e-01 -3.273942507875313157e-01 -2.694022063521170907e-01 8.057059871757245029e-01 5.044911929416546759e-01 -3.103651051157290119e-01
8.219996955125941085e-01 -3.779388299209541779e-01 -2.538238489458263247e-01 8.918088376773498638e-01 4.196535112626140207e-01 -1.690204943950087690e-01
-7.765370945042011641e-01 -2.952545875970556399e-01 -2.385166077764009629e-01 -8.214330250386290277e-01 5.449389683442320553e-01 -1.681942512567271286e-01
-8.004530687116344634e-01 -2.866040005975089011e-01 -2.616539307863101071e-01 -7.562916634380909553e-01 5.987665588581138065e-01 -2.636314241649851953e-01
-7.422864851574197953e-01 -2.266834385803049301e-01 -2.843260773014043008e-01 -7.105916328171639762e-01 6.437253460625853574e-01 -2.840373394588143197e-01
-7.759670175061541553e-01 -2.338179729204762913e-01 -2.981459426141542246e-01 -7.051118088450307742e-01 6.483177834376645521e-01 -2.872305497431675292e-01
-2.414958409858704858e-01 -2.383539322164136831e-01 -2.586093507488899657e-01 6.395119799015239748e-01 7.687133524092192305e-01 1.020830006476846491e-02
-2.524377909532550257e-01 -2.087818396889964123e-01 -2.237621298600357411e-01 6.845070372729558095e-01 7.286427946798763600e-01 -2.301724755264768912e-02
-1.691192679909407914e-01 -2.638358780057800113e-01 -2.356535787040052732e-01 6.069055651987181887e-01 7.947730350358316320e-01 1.207356930276199530e-03
-1.563465353031080196e-01 -2.446793988354193927e-01 -2.598585500405583004e-01 6.069055651987181887e-01 7.947730350358316320e-01 1.207356930276199530e-03
-1.927603223769713270e-01 -2.741419816064222803e-01 -2.128613466506427410e-01 5.900414535845264208e-01 8.072472929624581184e-01 1.424398317334167954e-02
-1.845299685360893283e-01 -2.394947139204119946e-01 -2.055094589267767724e-01 5.900414535845264208e-01 8.072472929624581184e-01 1.424398317334167954e-02
-1.507525923871156082e-01 -2.579584282096305525e-01 -2.677483892762384521e-01 4.895082760542710520e-01 8.719912914176926044e-01 -3.582647914616082958e-03
-1.278675523596674024e-01 -2.930859150817194392e-01 -1.987839054296367536e-01 4.701224620210089356e-01 8.824578251968617781e-01 1.590777961030156659e-02
-1.735083418951912093e-01 -2.749881728654406943e-01 -2.433998501992039598e-01 4.701224620210089356e-01 8.824578251968617781e-01 1.590777961030156659e-02
1.178135658011541798e-01 -2.880219332761597695e-01 -2.023820459659387005e-01 -4.783005954093667023e-01 8.779688761721401447e-01 1.997981241339756575e-02
1.316954680255028598e-01 -2.697890986618157183e-01 -2.687470309937216029e-01 -4.783005954093667023e-01 8.779688761721401447e-01 1.997981241339756575e-02
1.480203285212632613e-01 -2.493001298919491626e-01 -2.636676202758726495e-01 -4.738751106085749010e-01 8.804656353904675159e-01 1.492127481722026888e-02
2.307433614450769832e-01 -2.324154351343984404e-01 -3.131329384581486575e-01 -6.070380630290505009e-01 7.945274502435607511e-01 -1.519607986965267575e-02
1.636554116426383321e-01 -2.703973053035988450e-01 -2.729275037035575058e-01 -6.063308851979617442e-01 7.949811259034830213e-01 1.917986215504697070e-02
1.500930503598471855e-01 -2.447508354343783943e-01 -2.162406277073517791e-01 -5.644642450317870486e-01 8.254035811401966294e-01 -9.436329881543277856e-03
2.094143751215107319e-01 -2.097601890137124614e-01 -2.788495062694911208e-01 -5.960993728271229974e-01 8.010526494651474261e-01 -5.459112107273735720e-02
2.097490139676790322e-01 -2.346892407877464171e-01 -2.220134336650789741e-01 -6.459469648403103337e-01 7.632053362565280885e-01 -1.643573311874630891e-02
2.205168252990322986e-01 -1.922664326114589817e-01 -2.269894428457049085e-01 -6.713540204940148248e-01 7.403954978013400634e-01 -3.314039833840242560e-02
7.851973765761695034e-01 -2.580925624050898204e-01 -2.198740128214389522e-01 7.817033007177259796e-01 6.080862069093891931e-01 -1.384597942132077542e-01
7.602726609426269100e-01 -2.864094459210552168e-01 -2.983324446931637786e-01 7.477795972506006139e-01 5.600062084856334277e-01 -3.566773337251400444e-01
7.321913870464836771e-01 -2.666738384508817727e-01 -2.993823844234304588e-01 6.964226551632469731e-01 6.085749905354455036e-01 -3.803050962979007688e-01
7.753289284228369604e-01 -2.959368331446201039e-01 -2.217929460184269175e-01 8.057209047388030898e-01 5.737465934279531998e-01 -1.470668902122542476e-01
-7.379384632323230386e-01 -2.513580880770579506e-01 -2.417353222169230931e-01 -6.984858140962888484e-01 6.888433863262741763e-01 -1.939390538823881349e-01
-7.107742063396246257e-01 -1.701768377128372867e-01 -2.795645229202097237e-01 -7.056204015399858420e-01 6.711081013284256880e-01 -2.274066077797752550e-01
-6.584029810438480901e-01 -1.928735607264781549e-01 -2.924779791825521391e-01 -7.047020548201305967e-01 6.722679950985869235e-01 -2.268275924538545041e-01
-7.002152807684403069e-01 -1.812789337025314529e-01 -2.717427095952655303e-01 -6.669330082832900519e-01 7.380286516452703172e-01 -1.025381480857993910e-01
-2.841421147084301491e-01 -1.745840931333507706e-01 -2.574656637311252272e-01 7.431735060821141881e-01 5.528166066332359518e-01 -3.769442124348535983e-01
-2.671024634199718473e-01 -1.851242691073791691e-01 -2.585988658202159618e-01 5.512924617428235363e-01 8.183426186740242469e-01 -1.624560866427535999e-01
2.873976180687211057e-01 -1.971329308749941445e-01 -2.713850642252494394e-01 -3.986069375497364176e-01 7.062428414323547177e-01 -5.850927774830027017e-01
2.403373203907161193e-01 -1.854886373935317467e-01 -2.622556119407151720e-01 -7.289378734077160971e-01 6.415627215161907593e-01 -2.388448263466787513e-01
7.001331737461432558e-01 -1.744446552027665576e-01 -2.815577240236468715e-01 6.919918981048104323e-01 6.977258534855407257e-01 -1.852723571803831515e-01
6.718025877542938007e-01 -1.737280059867618021e-01 -2.923464119898211422e-01 7.415222676802276647e-01 6.540753828900243150e-01 -1.494326605252044582e-01
7.567515051117417180e-01 -2.335593610362019512e-01 -2.702706799493576617e-01 7.094796624049204414e-01 6.535857828947077008e-01 -2.635606818774604010e-01
7.136720352925773891e-01 -2.053201752287492354e-01 -2.553098807246043100e-01 6.841289543329703848e-01 7.066848349003617136e-01 -1.804553073897394166e-01
-6.630216144126619415e-01 -1.334225945759571763e-01 -2.366938496807978742e-01 -6.852325613479166577e-01 7.209070256002874100e-01 -1.036793002904635719e-01
-6.671903321956831334e-01 -1.361328523400451573e-01 -2.674603680358591529e-01 -7.473658053963980752e-01 6.643690087071596473e-01 -7.627135350787800014e-03
-6.376274008668516569e-01 -1.116597450860267599e-01 -3.082210353626591570e-01 -8.882864123921010435e-01 4.394650051491998388e-01 1.334831779992673995e-01
-5.856311153042103035e-01 -1.102923416836691789e-01 -2.588074343008494593e-01 -7.069933079114455454e-01 6.890512914392658006e-01 1.592757995877340516e-01
-6.532971666789878507e-01 -8.010659581745992186e-02 -2.736716542453371259e-01 -7.928347637924179070e-01 6.004752961220470864e-01 1.041271149574436172e-01
-2.794642738629205536e-01 -1.323484052452869597e-01 -2.232097011266213349e-01 9.122230865833718116e-01 3.314454371061258398e-01 -2.408172803721427002e-01
-2.982429161346927260e-01 -1.521296253094230055e-01 -2.441084839146852592e-01 9.193299436861234186e-01 7.812302260288196687e-02 -3.856543115037853742e-01
3.043750388391855410e-01 -1.349431671431882973e-01 -2.491308727227687092e-01 -8.895988099429101847e-01 3.390289056811232604e-01 -3.060610371491571668e-01
6.540296840262244116e-01 -1.352365409345260561e-01 -2.613855845708271119e-01 7.600907004486633367e-01 6.497082004592000803e-01 1.189038887203740236e-02
6.044863275795758772e-01 -1.263292394609041025e-01 -2.010207612863063598e-01 7.551592818454199163e-01 6.474018519755178058e-01 1.029820426160762414e-01
6.228107547139268840e-01 -1.151587536209512652e-01 -1.937342282925918202e-01 6.652161470983528613e-01 7.462174955168705548e-01 -2.543476015518657263e-02
6.304999151929185919e-01 -1.028540415492904675e-01 -2.972045604916952466e-01 8.437703021356476318e-01 5.166372855273870801e-01 1.453877313833968898e-01
-5.805327945069949092e-01 -6.505497309999092037e-02 -2.150596440419424993e-01 -7.876574436109484711e-01 4.389166941716157733e-01 4.323747068246775460e-01
-5.588790805388009764e-01 -6.207349479941625531e-03 -2.177121746843216354e-01 -8.052201499094658876e-01 2.093290219106292427e-01 5.547989462550524387e-01
-5.628535310267815950e-01 -3.051856494528611824e-02 -2.352103554048262379e-01 -8.215932609473669546e-01 2.874569201026906939e-01 4.922936447395467319e-01
-5.940892429146997777e-01 -6.863357362950832374e-02 -2.703627276160920356e-01 -7.023673263680215717e-01 6.654529966191847778e-01 2.526904195674703479e-01
-6.174765664921716413e-01 -5.863671402693795137e-02 -2.311135719541198841e-01 -7.956636154083771562e-01 5.014295768319547708e-01 3.398349461038353558e-01
-5.619814638127338391e-01 -7.320182100398951730e-02 -2.616441548358505731e-01 -8.549767776051173662e-01 3.223116513542784167e-01 4.063617958879099934e-01
-6.038025929803207958e-01 -7.961917308825862405e-02 -2.706663993499845433e-01 -7.908726478131460347e-01 5.124172112036546878e-01 3.345878907003247416e-01
-2.850712342430378743e-01 -9.202986852338304602e-02 -2.566173191750777405e-01 9.910186046175101238e-01 1.280585012346890650e-01 -3.851162893839230050e-02
-2.758687545910621930e-01 -4.866486858753741457e-02 -2.352327948515320621e-01 9.867515939247826218e-01 1.608715397663842139e-01 2.101522258016121775e-02
-2.799228501600129482e-01 -5.500253666707529548e-02 -2.597296205211664932e-01 9.867515939247826218e-01 1.608715397663842139e-01 2.101522258016121775e-02
-2.892054730554019515e-01 -7.896655655496873094e-02 -2.259022375316767917e-01 9.867515939247826218e-01 1.608715397663842139e-01 2.101522258016121775e-02
2.705342997139993377e-01 -9.223057268259218788e-02 -2.643750260285498421e-01 -9.860401954976799610e-01 1.373671040876498495e-01 -9.410107107503956625e-02
3.102746716673031591e-01 -4.012037539608592773e-02 -3.032166713877773034e-01 -9.924702059379473251e-01 1.224690542261140380e-01 2.054527305633744444e-03
2.926696194642727789e-01 -7.816656612420076755e-02 -2.919075774845281135e-01 -9.893957329699397674e-01 1.452063239093258074e-01 3.347697360192444186e-03
2.948205053217172189e-01 -9.552024654026620987e-02 -2.637783362724686054e-01 -9.839901506748515159e-01 1.780231318422532683e-01 8.434921692515579342e-03
2.945809764264895048e-01 -1.067374940168774877e-02 -2.526717857250265764e-01 -9.908443769197551321e-01 1.342965025126233169e-01 1.385171972642235301e-02
5.458981982544830469e-01 -6.753711765627169739e-02 -2.212559725706697289e-01 7.810545409935741867e-01 3.976592775820843584e-01 4.814778322479777439e-01
5.824796398835724309e-01 -2.428850627635683462e-02 -2.581301790075975489e-01 7.732650797092206485e-01 5.092912592977995034e-01 3.777347345759378139e-01
5.623158861097380390e-01 -7.426513606193230199e-04 -2.820938390286714670e-01 7.833293810707456784e-01 2.441345317200099008e-01 5.716584742424223320e-01
6.054363548195345057e-01 -1.079778193711131984e-01 -2.618984910444890901e-01 8.366622391016146354e-01 4.610762836280464239e-01 2.956432957758755031e-01
6.167955263473550165e-01 -1.012043470096343906e-01 -2.970302696906840234e-01 8.904498497916693012e-01 3.414348183059726094e-01 3.008676284586978555e-01
-5.624665550668375147e-01 1.715837941237722403e-02 -2.542597045562094982e-01 -8.003350981440350287e-01 -5.959016400090989818e-02 5.965842296215367879e-01
-5.955657415983254266e-01 3.403240985839851851e-02 -2.536420353230209312e-01 -8.057361122293673628e-01 -2.593542271000072730e-01 5.324703769552462385e-01
-6.165905122701974550e-01 4.149564477785834538e-02 -3.201232140513678992e-01 -8.300935060285543621e-01 -1.988944631300014754e-01 5.209469875001204731e-01
-5.968487767602241867e-01 2.057543244229785573e-02 -2.647242185318157137e-01 -7.776307662980369573e-01 -6.653083882016282147e-02 6.251912017875916883e-01
-5.397401326735981053e-01 8.350391988692763487e-03 -2.105326444555991883e-01 -8.005313443934946038e-01 -1.691405178985502800e-01 5.749269969731412022e-01
-2.919064749206342069e-01 -1.999918959411006031e-02 -2.773601638018486915e-01 9.993327244926820674e-01 3.576880789398571847e-02 -7.395819080813527402e-03
-3.154660833383022833e-01 1.514156092306025853e-02 -2.395204292771117294e-01 9.982419299573274118e-01 5.630157992361072006e-02 1.852515514578688058e-02
-2.878484709656830010e-01 1.900995162202212541e-03 -2.490485426091431642e-01 9.995614306607949473e-01 -2.944911309726759574e-02 -3.113851815563751461e-03
-3.279259144619834365e-01 1.443912267030155600e-02 -2.046108287220972100e-01 9.993138168164065194e-01 -3.306687238558872477e-02 1.668764424538994595e-02
3.175179714786434682e-01 -4.205701243323280852e-03 -2.464894542231105545e-01 -9.990575165573956085e-01 4.273471031573193579e-02 7.604153102075818932e-03
3.082484798264797932e-01 2.127772626546887980e-02 -2.730481390026838762e-01 -9.994674266071857938e-01 -3.225103691745190987e-02 4.973305636978140286e-03
3.281757378427568872e-01 -6.304098494558581754e-03 -2.301374096394446789e-01 -9.992618627933520514e-01 -3.390849471692339995e-02 1.805390685676079229e-02
5.348194001092496652e-01 -8.363248032550955197e-03 -2.102304029106797367e-01 7.822811472055983817e-01 1.493507101687325256e-01 6.047566222033357031e-01
5.848528878634497996e-01 -3.087926254228063466e-02 -2.567067135462340888e-01 7.721434051207488602e-01 2.954399134760072113e-02 6.347611476010389664e-01
5.672253032962212282e-01 2.942388509423630658e-02 -2.861848335507126140e-01 8.127035081479753176e-01 -1.149991676115096340e-01 5.712164207134049487e-01
5.838283611856108779e-01 7.954486057882880976e-03 -2.597705077955715369e-01 8.085855318830112992e-01 3.433539530659270034e-02 5.873759598916249436e-01
5.761885992880221297e-01 -4.348014298504992992e-02 -2.425987007679505925e-01 7.696679912471042773e-01 1.345827544148414656e-01 6.240982818945762789e-01
-5.694718608605546795e-01 9.248247370215451069e-02 -2.556635493582401497e-01 -8.333930580824333578e-01 -3.368997690236456566e-01 4.381261877265771876e-01
-6.267752346538885133e-01 9.842434455922899339e-02 -3.073151934464890545e-01 -8.939944557978585227e-01 -3.608163519020269883e-01 2.656792675441637108e-01
-5.454522524259493022e-01 1.362235528362344683e-02 -2.229089011827756761e-01 -7.992295286453765524e-01 -3.289100326359316040e-01 5.030411026672867436e-01
-5.489975627703842509e-01 6.374687133163468855e-02 -2.206535497797109946e-01 -7.705403826498274933e-01 -3.923572391167681195e-01 5.023179427598865043e-01
-2.828294186884117156e-01 7.859166773063396005e-02 -2.457576016520591211e-01 9.920753305031735358e-01 -1.252765547962950698e-01 9.608507968986948478e-03
-2.937684596446561991e-01 8.593466718140212179e-02 -2.656143949513665170e-01 9.884998550780309534e-01 -1.511967656132968962e-01 -2.752195267382528693e-03
-3.242975670934671317e-01 5.885690652141405133e-02 -2.098520721636105146e-01 9.915894222294897586e-01 -1.281137003324277213e-01 1.836566115661840415e-02
-3.200201998928395297e-01 8.712105216136636909e-02 -2.350320977738516726e-01 9.844151612992222411e-01 -1.757203040831299135e-01 7.011771328172225481e-03
2.961059145383204694e-01 5.595759124015409897e-02 -2.317408145938336106e-01 -9.913640050344348920e-01 -1.298353381926261874e-01 1.844436169920833299e-02
3.077319502788115058e-01 9.961775641000888970e-02 -2.845410386697643790e-01 -9.886221069281659890e-01 -1.503766058205718570e-01 -3.634021848898824798e-03
2.872222323882416273e-01 3.375317814522766496e-02 -2.416136629783610934e-01 -9.912218723086503314e-01 -1.321691607135342117e-01 3.242346868201932339e-03
2.913233134934620772e-01 1.164609874825204561e-01 -2.552601544254758381e-01 -9.666440539588803116e-01 -2.354130831499522125e-01 -1.008957542603997476e-01
5.524928962741546545e-01 3.882055085111328629e-02 -2.158438362572200342e-01 7.962950218281281689e-01 -3.405335873880301345e-01 4.999511116823120993e-01
5.485464300816780270e-01 2.465892857565101653e-02 -2.308403517825344253e-01 8.024321282958294388e-01 -2.374390557330757767e-01 5.474718022795429517e-01
5.727290586778404080e-01 6.141308998527624657e-02 -2.715839941521736023e-01 8.356199039189761146e-01 -3.208284138558614718e-01 4.458794736665651071e-01
6.091524047993656099e-01 6.173239773031421324e-02 -2.469132675051720627e-01 7.292743000061198133e-01 -5.944031161696021748e-01 3.388863096061131563e-01
5.989318932771825477e-01 6.420863248319763628e-02 -2.865026923204555542e-01 7.918734091789362273e-01 -4.639145549008302782e-01 3.971395089719653160e-01
5.976937089982727880e-01 1.010597013421902363e-01 -2.193432066300105288e-01 6.943196422684488889e-01 -6.894422992704257735e-01 2.063723584614024775e-01
-6.620705216091032907e-01 1.439721034369688402e-01 -2.770674674079202648e-01 -6.806029969356374165e-01 -7.316689060636221154e-01 -3.794960423892852069e-02
-5.925815209011031648e-01 1.256240313455319890e-01 -2.577512595852601840e-01 -7.637983932769837336e-01 -6.174025616842123698e-01 1.882182011742498107e-01
-6.194792739677105198e-01 1.165239312685617812e-01 -2.320455818071819609e-01 -7.510380295957136410e-01 -6.539782741173039149e-01 9.085315120313931792e-02
-2.880262491308220874e-01 1.705265532636466019e-01 -2.712069958301064898e-01 7.505279990964472958e-01 -4.954632657646352856e-01 -4.372915215850013970e-01
-2.837161512125190854e-01 1.237768799706108064e-01 -2.653692061170466188e-01 9.940904754115941211e-01 -8.539962811010617938e-02 -6.701514914261055833e-02
2.784850343722576893e-01 1.340064888350603334e-01 -2.249714018826632356e-01 -9.632459355342652962e-01 -2.071775097733383475e-01 -1.709817157500662099e-01
2.865953981133331774e-01 1.389792259714859035e-01 -2.371024669823079967e-01 -9.260839863050785992e-01 -3.329384937051964588e-01 -1.775398820507931852e-01
6.337663836756127766e-01 1.143154875634531525e-01 -2.689513966331598116e-01 7.728921410066381670e-01 -6.200428574533671799e-01 1.348502624811620809e-01
6.561922331596174995e-01 1.198557481370371852e-01 -2.460463223913292585e-01 6.949995218035561750e-01 -7.073168127367368552e-01 1.291456197970813624e-01
6.243793886945196991e-01 1.478723240585435861e-01 -2.906958444063758029e-01 7.904218821901473069e-01 -6.124414511712847897e-01 -1.219495970455709323e-02
6.718510786716765937e-01 1.884342250854999234e-01 -2.979661878881376125e-01 7.228337331573104763e-01 -6.778161442744953247e-01 -1.344495026793431081e-01
-7.436142102253552322e-01 1.893234197238684580e-01 -2.266853009787785367e-01 -6.836568757087347903e-01 -7.105536773127424377e-01 -1.665135068200500612e-01
-6.947643121999933502e-01 1.913527976326825919e-01 -2.731864816693826414e-01 -6.883008364361540288e-01 -6.444937522122556883e-01 -3.329711127420192374e-01
-7.292374937107004573e-01 2.249577764747271724e-01 -2.950532203418773092e-01 -7.046057069264266559e-01 -6.600403710263170742e-01 -2.605331195494196006e-01
-6.766027382494440578e-01 1.998546055010063938e-01 -2.804096311932306462e-01 -6.989580605555957282e-01 -7.035405439407105277e-01 -1.284069025246278306e-01
-7.083688118545278245e-01 1.916165724225241673e-01 -2.478804610370227979e-01 -6.774869209547835780e-01 -7.170907378312502134e-01 -1.636836755814088384e-01
-7.031244440709845112e-01 1.774738789345221557e-01 -2.223259925710892870e-01 -6.774869209547835780e-01 -7.170907378312502134e-01 -1.636836755814088384e-01
-2.494141691030203334e-01 1.770640892819297374e-01 -2.673003748158444548e-01 5.607153988857539462e-01 -7.458514586853857153e-01 -3.595884356167087792e-01
2.936772737835960934e-01 1.790051612293611649e-01 -2.686728259105614636e-01 -4.290255875930286122e-01 -7.810794502530282735e-01 -4.537090891561282313e-01
6.644747911517582262e-01 1.567614877752316060e-01 -2.513209506091858003e-01 6.748022174614133339e-01 -7.289341606125953055e-01 -1.153124312516680960e-01
6.937682993216377492e-01 2.113034744030420353e-01 -3.112606964554237576e-01 7.429342097034681291e-01 -6.230909358235555695e-01 -2.445535641670531779e-01
7.464328219012448251e-01 2.440256249250680187e-01 -2.404329344471390351e-01 6.978636539192326627e-01 -6.885895418006937607e-01 -1.970552294693241335e-01
7.326393905091125314e-01 2.398605987750651869e-01 -2.914609427982250422e-01 6.893829859898876755e-01 -6.762149123075886781e-01 -2.597777723372541869e-01
6.771703370446614523e-01 1.917167042886691319e-01 -2.539091151838308025e-01 6.893829859898876755e-01 -6.762149123075886781e-01 -2.597777723372541869e-01
-8.206941179966885658e-01 2.868195218410264924e-01 -2.496769814470058413e-01 -7.928138949943185354e-01 -5.877292387968053866e-01 -1.613086165313722675e-01
-7.594377225997250846e-01 2.691265484948716091e-01 -2.461436787645265023e-01 -7.481940739455072986e-01 -6.395106632712080907e-01 -1.767250386200115431e-01
-7.868646573763616869e-01 2.744624018972451340e-01 -2.234062256540528812e-01 -7.788256686575435461e-01 -6.093462056207160638e-01 -1.487540908202735213e-01
