7.291961681376997184e-01 -3.147865087196464323e-02 9.881454371636884393e-02 1.339525835404920262e-01 9.909877417662189547e-01 3.212346608285247894e-05
7.645974602497794814e-01 -4.012673913299970307e-02 1.899895098732582999e-01 1.340068496297671108e-01 9.909804051863974061e-01 -2.808751772592290067e-05
7.973231639253444136e-01 -3.964761037704886415e-02 2.415881572049239367e-01 1.356655296942352040e-01 9.907025148826089644e-01 1.016813936060213114e-02
8.440954792410229057e-01 -4.576493599969659598e-02 2.203542681080020160e-01 1.346447446478218624e-01 9.908289996500633245e-01 1.134399361678617782e-02
8.689903107301718554e-01 -5.543562810995911194e-02 2.097604954474450445e-01 1.340228419556216966e-01 9.909782425079110002e-01 -2.664714364494320394e-05
8.643971518513252628e-01 -6.205431236518851174e-02 1.713585358963141125e-01 1.340266787469262810e-01 9.909777239552236550e-01 -2.931342972422542621e-06
8.095288565870980557e-01 -2.573357372242678076e-02 1.625395855205730433e-01 1.340187912387762748e-01 9.909787906185874018e-01 -1.179064198701923715e-05
7.997416680725467630e-01 -6.106820215345810932e-02 1.414410012127223226e-01 1.340154270082780930e-01 9.909792456291598439e-01 -7.486681459743560687e-06
8.332553431741859251e-01 -5.865851878221909482e-02 1.564022211600047674e-01 1.340077449709645152e-01 9.909802841041129851e-01 -2.836773735039565381e-05
8.188237615528648483e-01 -5.283187519821149619e-02 1.559528574226627107e-01 1.339976141623681061e-01 9.909816543227820684e-01 1.394544213904641995e-05
7.353997478560841961e-01 -3.108466202644733292e-02 5.055816129417589622e-02 1.340097749185241716e-01 9.909800099099668191e-01 1.360619087529346250e-05
7.675208906946872078e-01 -3.878044480128349514e-02 1.067299869458246536e-01 1.339803296520313269e-01 9.909839913416613744e-01 -1.307222413922584224e-05
7.884443058363600487e-01 -5.131689994085784912e-02 1.271828604575053756e-01 1.339875657062759573e-01 9.909830128676494487e-01 -2.106804860210021802e-05
7.869942371711441398e-01 -5.248818331310112911e-02 9.986322728202136345e-02 1.339824391073298759e-01 9.909837057877072253e-01 -2.956540995619118549e-05
7.545650089663972215e-01 -6.284882049367394863e-02 6.226371865928419930e-02 1.339949046108105390e-01 9.909820206573083379e-01 -1.650144894517554004e-05
7.600843927534417510e-01 -4.482621325036340726e-02 3.926254719331954274e-02 1.339538403774439002e-01 9.909875718852391158e-01 3.189251070758650339e-05
7.489948189121237165e-01 -2.022656403075597659e-02 4.383690486703156752e-02 1.340046359642169116e-01 9.909807048031094023e-01 1.574897481270376919e-05
7.415833248555522283e-01 -4.691631968445544865e-02 -3.137820641628509544e-02 1.339769217726635153e-01 9.909844521634422199e-01 -1.626052616240037112e-06
7.178650248836121461e-01 -5.988666322893289318e-02 -3.854532611159168509e-02 1.339702560751197813e-01 9.909853523030643929e-01 4.481002419777761775e-05
8.008550474692350818e-01 -4.062258620420917260e-02 -2.362750552312452637e-02 1.340030089889344134e-01 9.909809246366083624e-01 -2.425456873115592861e-05
8.054757957744494989e-01 -4.827839301926396126e-02 5.650691942056319111e-02 1.339571206636251399e-01 9.909871289737417488e-01 5.647272567808290750e-06
8.696957738781230240e-01 -5.671008767189426869e-02 1.308515145014877146e-01 1.340057634165874034e-01 9.909805520837243753e-01 2.762199083108044385e-05
8.658375628291112847e-01 -8.637146467985304388e-02 1.845853278716120260e-01 1.316851153392150364e-01 9.912884340011743900e-01 2.504199192715509271e-03
8.736605957411814893e-01 -5.477953295486728824e-02 1.175443803723997399e-01 1.339751717122348862e-01 9.909846886995683501e-01 1.130029699710099518e-05
8.137577897641334879e-01 -5.845949516576327831e-02 3.451356371376114451e-02 1.339552182682673120e-01 9.909873853871651317e-01 -3.875836720560254465e-05
8.241733964106369159e-01 -4.273194984746385428e-02 2.225915510420042875e-02 1.340089984455760108e-01 9.909801149611152660e-01 9.341751695747860500e-06
8.118004031926523423e-01 -5.885766911268362073e-02 4.693303798364353158e-02 1.339566656506347986e-01 9.909871904894391736e-01 3.689465181853613339e-06
8.192143058543386314e-01 -7.215584873916043585e-02 1.022221915540668935e-01 1.340101109988914019e-01 9.909799645302462823e-01 -7.049608050270570699e-06
8.430310267467843177e-01 -6.513411128308443931e-02 1.159557929478143706e-01 1.339611682186126751e-01 9.909865817700853619e-01 -1.269435394837027810e-05
8.215042469015330084e-01 -6.404168348118868814e-02 9.316769216262384135e-02 1.340292014562947387e-01 9.909773820334831784e-01 3.814514426331084608e-05
8.325881913018067237e-01 -4.888370121297031662e-02 6.298047728821055957e-02 1.340336566583617273e-01 9.909767798664591565e-01 2.546157066892384803e-05
8.832257830730908532e-01 -7.941924657753532402e-02 8.972152023866764026e-02 1.319160371251308361e-01 9.912606575596973890e-01 -6.840493530392256164e-04
8.666926108818332475e-01 -6.817184968766255848e-02 6.329938431032811064e-02 1.339735178015766526e-01 9.909849120446112547e-01 -2.505603687726326562e-05
8.731620589200210780e-01 -5.944505152104102852e-02 1.014582086032764369e-01 1.321246699091232490e-01 9.912329183469699156e-01 -6.108901328417540907e-04
8.905907542400589572e-01 -8.022336450339070946e-02 1.340808982274836747e-01 1.423285446978726221e-01 9.897829179229279406e-01 -8.506512338213027824e-03
8.513261617775008672e-01 -6.608104452571803011e-02 2.666233460199351341e-02 1.339864802426646573e-01 9.909831596633628115e-01 -1.938556182494092820e-05
8.303247287305663971e-01 -7.343720890448920957e-02 -1.346882685108016613e-02 1.339916660056428288e-01 9.909824585300195388e-01 -1.807845363910438142e-05
8.135487038965991680e-01 -4.574455119333013103e-02 9.353199878079504481e-06 1.339408536069570388e-01 9.909893275351370212e-01 2.113046659209208381e-05
8.048653858208096867e-01 -8.132340338308728656e-02 2.854810777936971425e-02 1.339836419825044533e-01 9.909835433080405043e-01 -2.395297711938623066e-05
7.732284909549835827e-01 -6.836090158014802853e-02 -5.596519260854743508e-03 1.340493704524182428e-01 9.909746546659374822e-01 -9.541300494290273868e-06
7.801497859509040067e-01 -5.386430107344878510e-02 -6.493765987641808915e-03 1.340012476286600585e-01 9.909811629563824997e-01 -1.730832552784616888e-05
7.673516874863756110e-01 -4.193265302358984564e-02 -1.554029015047397183e-02 1.340365979254667383e-01 9.909763823704007546e-01 8.000815604255383372e-07
6.965020720213266348e-01 -4.016144730393549772e-02 -6.266457743690369286e-02 1.436021910758245312e-01 9.895118772758052517e-01 1.564146567091051140e-02
8.286130954175071617e-01 -4.704913004752721978e-02 -1.819147959478400675e-02 1.339908060207471163e-01 9.909825746231541999e-01 2.636616955161448286e-05
8.941271222220986692e-01 -4.826396843922110824e-02 -1.916425191539911088e-02 1.339792200583569959e-01 9.909841414418436578e-01 1.823747239372663526e-06
8.811519897597632767e-01 -4.705790463807528468e-02 -2.569895292366801767e-02 1.402432231367998494e-01 9.900959426679255548e-01 6.470137302530932534e-03
8.491436426039282725e-01 -6.261397352218037171e-02 4.019369858836441267e-02 1.339954281482932941e-01 9.909819499381873342e-01 1.149188940919383846e-05
8.829686113646021406e-01 -7.004796887174873088e-02 7.570097757197679147e-03 1.924894106008497863e-01 9.812619487461176071e-01 8.533155893883493867e-03
8.758912819414091944e-01 -6.073530563174529134e-02 2.011399824652509716e-01 1.620764983704872375e-01 9.866248448179690822e-01 -1.739609909951140773e-02
8.725555991006526124e-01 -7.001454123254802209e-02 1.073660513632390540e-01 1.946775921297574652e-01 9.807521428369149197e-01 1.502895350181432388e-02
8.853111609228890844e-01 -8.063888804280316958e-02 -1.270700741684352986e-01 9.997754413412772712e-01 2.052217307241925234e-02 -5.282736340179663634e-03
8.752938675407884173e-01 -9.490604296185828348e-02 -1.399476395482104896e-01 9.995853482592084172e-01 2.825934237867813031e-02 5.526401527376202834e-03
8.793061226655108920e-01 -6.182130826869898510e-02 -1.498733034609177617e-01 9.093937128252276708e-03 2.711047051327405391e-04 -9.999586125484125620e-01
8.801580770195479575e-01 -3.784314628333654285e-02 -1.680699322358941983e-01 9.953562171005168047e-01 9.178076438028373585e-02 -2.902227367246903306e-02
9.021884790833498702e-01 -4.707051781034431170e-02 -1.222513676250218811e-01 9.940027821198295088e-01 1.092784794983103352e-01 -4.084489757127958594e-03
8.865549671795851516e-01 -5.619160215665811378e-03 -7.255664934924907494e-02 9.812101087866187399e-01 1.925443656894988420e-01 1.238505777863853699e-02
8.673706822995771448e-01 6.184626527493450321e-02 -8.990170147101463061e-02 9.580547976787407993e-01 2.865717357013408129e-01 2.764948800205942019e-03
8.561767944311781120e-01 7.258834432163324690e-02 -1.057045012785493843e-01 9.366574649101002681e-01 3.498650783031349021e-01 1.634687774853099684e-02
8.532491339238171824e-01 1.105064465543754704e-01 -7.245972228524139025e-02 9.208821885454969713e-01 3.894298363139651054e-01 1.789964826844796936e-02
8.405713138414093732e-01 7.629987062867246705e-02 -1.063775436480147440e-01 9.249430786472639943e-01 3.799072819266069434e-01 1.227837129504913243e-02
8.080937214156689308e-01 1.326294112752178234e-01 -1.306081450947172984e-01 8.430349904242000481e-01 5.378562659944678970e-01 -1.625438696788257618e-03
8.060257810353187446e-01 1.750778354220695610e-01 -1.831473147172817117e-01 8.266454341221731728e-01 5.626854486026074964e-01 -6.512463116679488573e-03
8.140772206807477263e-01 1.908801593684947284e-01 -1.458241108332661573e-01 7.905382167952531569e-01 6.124093148764320205e-01 -2.039323113293873852e-03
7.947193282458148156e-01 1.896412679458281680e-01 -1.056062442515280642e-01 7.843936991338507081e-01 6.202491056102326095e-01 -4.191866985092447540e-03
8.119303231974167590e-01 1.961015366917585045e-01 -1.462936411368232770e-01 7.698442880178170133e-01 6.380897642479950171e-01 -1.346198233094246174e-02
7.397638859869376526e-01 2.166107338502240576e-01 -1.532354410719844184e-01 7.528180279221183269e-03 7.470308325428358896e-03 -9.999437589160735662e-01
7.870860140520705706e-01 2.048778574588601686e-01 -1.603407914759304720e-01 0.000000000000000000e+00 0.000000000000000000e+00 -1.000000000000000000e+00
7.668583394981268730e-01 1.455386266250481009e-01 -1.671486664845828751e-01 0.000000000000000000e+00 0.000000000000000000e+00 -1.000000000000000000e+00
8.193468337488971631e-01 1.553466681189397680e-01 -1.636260948801334103e-01 8.794449964968604344e-03 6.161871654123610501e-03 -9.999423428315913354e-01
4.679254564278545470e-01 -1.003044087521939298e-01 3.352440155136096611e-03 9.352767418836190668e-04 4.654310031495856640e-04 -9.999994543155498183e-01
8.031734363412965649e-01 1.854082156608803308e-02 -1.744645445811626727e-01 0.000000000000000000e+00 0.000000000000000000e+00 -1.000000000000000000e+00
8.346193541898413448e-01 2.153322152779345994e-02 -1.663158926725836484e-01 0.000000000000000000e+00 0.000000000000000000e+00 -1.000000000000000000e+00
8.124357535167007205e-01 4.440956198069506700e-02 -1.385373056686675652e-01 0.000000000000000000e+00 0.000000000000000000e+00 -1.000000000000000000e+00
8.598511981062386678e-01 3.333794198545681625e-02 -1.514101543863063670e-01 5.801379299516634322e-03 3.355162600303274179e-03 -9.999775431889200705e-01
8.514757091057043592e-01 8.582334671620862887e-02 -1.643376049990999954e-01 9.913967053791002126e-03 4.665708030646944365e-03 -9.999399704111386900e-01
8.556387933322108230e-01 6.719088211011581269e-02 -1.545374477793792223e-01 1.222663408347428142e-02 8.109651945674006823e-03 -9.998923656895819523e-01
8.191076678331797867e-01 5.621343235235389674e-02 -1.610413076001857291e-01 0.000000000000000000e+00 0.000000000000000000e+00 -1.000000000000000000e+00
8.667458103240093248e-01 1.077482739348814417e-01 -1.505322730971034584e-01 8.986864866420595649e-03 3.497125054779362269e-03 -9.999535021070850016e-01
3.834136771764847795e-01 -1.163402838285739274e-02 -1.591232779660396376e-02 -3.703241482836562419e-04 -2.213888894739492359e-04 -9.999999069234880578e-01
4.407478093873978264e-01 -1.457130871723190946e-01 -4.162560541184768918e-03 3.801844979389493412e-04 -2.289658282857096332e-04 -9.999999015171937566e-01
8.073284940985095970e-01 1.443350221913167197e-01 -1.509262034147704490e-01 0.000000000000000000e+00 0.000000000000000000e+00 -1.000000000000000000e+00
8.421435527361973428e-01 1.298017026356401427e-01 -1.850986750362504929e-01 8.166985995176899091e-03 5.657930957351738066e-03 -9.999506428604546526e-01
3.174071907346481258e-01 -7.678151238764538422e-02 1.124893943629426581e-02 -1.025208120210801708e-03 -3.747568444105777059e-03 -9.999924523110497177e-01
3.620924450550264129e-01 -1.229172053290020911e-01 -2.414572355737410955e-02 -5.331385976657373798e-04 -5.732503246843467662e-04 -9.999996935736035208e-01
7.853971033217703734e-01 1.996375153483647691e-01 -1.742659701355077084e-01 9.530743175335894615e-03 6.702518631743176192e-03 -9.999321182852949352e-01
7.720181001190389303e-01 1.314161437674754018e-01 -1.501252375748564627e-01 0.000000000000000000e+00 0.000000000000000000e+00 -1.000000000000000000e+00
4.208202504663099419e-01 -1.712691233694837722e-01 -1.213600095672788017e-02 -6.690948924986104586e-04 -5.536823968623701174e-04 -9.999996228738430304e-01
7.943690096623319263e-01 1.818630518144710995e-01 -1.554248985481377909e-01 0.000000000000000000e+00 0.000000000000000000e+00 -1.000000000000000000e+00
7.638699523834003857e-01 1.747995601715986724e-01 -1.554785241814204688e-01 0.000000000000000000e+00 0.000000000000000000e+00 -1.000000000000000000e+00
7.174391561400530470e-01 1.365740926938138478e-01 -1.672234236949082797e-01 0.000000000000000000e+00 0.000000000000000000e+00 -1.000000000000000000e+00
7.279760550011974418e-01 1.715304145002894687e-01 -1.631006783873254207e-01 0.000000000000000000e+00 0.000000000000000000e+00 -1.000000000000000000e+00
7.510407192439179092e-01 1.915429906858765741e-01 -1.581987539373515828e-01 0.000000000000000000e+00 0.000000000000000000e+00 -1.000000000000000000e+00
4.349997832088536298e-01 -1.655433546323627492e-01 -6.496380563138852773e-03 -7.355884616864978619e-04 -4.956286951809543793e-04 -9.999996066308284304e-01
7.433817555910022801e-01 2.625985168913176904e-01 -1.576420439392305917e-01 6.661513967429697099e-03 8.955097318970260331e-03 -9.999377132920177491e-01
7.094999433562169111e-01 2.610308746766011323e-01 -1.686499858411514285e-01 6.886948347973818538e-03 8.894780642375692270e-03 -9.999367244079879757e-01
6.823629078476451948e-01 2.783693453918053562e-01 -1.796951931442071215e-01 0.000000000000000000e+00 0.000000000000000000e+00 -1.000000000000000000e+00
5.176460588095528337e-01 -2.730953554966580321e-01 6.755902718122623607e-02 -3.807870632638688524e-01 9.246256633362728294e-01 -8.282218956034044510e-03
6.240411499530379436e-01 2.746732649125023795e-01 -1.618122457387699276e-01 0.000000000000000000e+00 0.000000000000000000e+00 -1.000000000000000000e+00
6.265952490255211060e-01 2.765578946210734967e-01 -1.789839965006437827e-01 0.000000000000000000e+00 0.000000000000000000e+00 -1.000000000000000000e+00
6.366703600079087755e-01 3.434205013309700183e-01 -1.677091413176425572e-01 7.051028260052039781e-03 8.167711800264250074e-03 -9.999417840476634289e-01
4.812471661349229102e-01 2.863203293724397858e-01 -1.625895125165299493e-01 0.000000000000000000e+00 0.000000000000000000e+00 -1.000000000000000000e+00
3.917991105311311451e-01 -1.882419354897597874e-01 2.162406198052489303e-03 -4.557546369599289209e-04 -4.504214885654071548e-04 -9.999997947040756285e-01
5.305376872100648900e-01 -2.771374197931121830e-01 1.151068004458973004e-01 -3.506582268643277378e-01 9.364057281661399834e-01 1.353219087978288493e-02
5.696016216264427889e-01 2.452646742804087676e-01 -1.520123906905517241e-01 0.000000000000000000e+00 0.000000000000000000e+00 -1.000000000000000000e+00
5.334000832247330903e-01 2.253388089777570991e-01 -1.570733294946095038e-01 0.000000000000000000e+00 0.000000000000000000e+00 -1.000000000000000000e+00
5.389113822100189966e-01 2.516071381611615920e-01 -1.527030089163387838e-01 0.000000000000000000e+00 0.000000000000000000e+00 -1.000000000000000000e+00
5.410519542978278196e-01 2.848329731714695501e-01 -1.617781489054024857e-01 0.000000000000000000e+00 0.000000000000000000e+00 -1.000000000000000000e+00
5.237000070021642362e-01 2.740729312924460315e-01 -1.689441826579947126e-01 0.000000000000000000e+00 0.000000000000000000e+00 -1.000000000000000000e+00
5.092587314403368426e-01 2.571173838884604490e-01 -1.605767996817510368e-01 0.000000000000000000e+00 0.000000000000000000e+00 -1.000000000000000000e+00
4.843929004912738701e-01 2.609410165514910451e-01 -1.556456565454845675e-01 0.000000000000000000e+00 0.000000000000000000e+00 -1.000000000000000000e+00
4.942859322309598458e-01 2.652561782054601580e-01 -1.577835482099495812e-01 0.000000000000000000e+00 0.000000000000000000e+00 -1.000000000000000000e+00
4.455965770201246734e-01 2.093677090142670727e-01 -1.735129024546992471e-01 0.000000000000000000e+00 0.000000000000000000e+00 -1.000000000000000000e+00
4.199569520788392074e-01 2.144857425630076198e-01 -1.537324922638003133e-01 0.000000000000000000e+00 0.000000000000000000e+00 -1.000000000000000000e+00
3.008627026797263682e-01 1.943248311316186083e-01 -1.545544793716332743e-01 0.000000000000000000e+00 0.000000000000000000e+00 -1.000000000000000000e+00
2.326548486521775594e-01 1.758096303269599814e-01 -1.540101674544399057e-01 0.000000000000000000e+00 0.000000000000000000e+00 -1.000000000000000000e+00
2.818525706592557856e-01 1.910770731570963499e-01 -1.524952092991160024e-01 0.000000000000000000e+00 0.000000000000000000e+00 -1.000000000000000000e+00
1.914208856861262520e-01 1.854858848629388768e-01 -1.561127280720439048e-01 0.000000000000000000e+00 0.000000000000000000e+00 -1.000000000000000000e+00
1.989655299392540377e-01 1.965700404028938864e-01 -1.602737642769084536e-01 0.000000000000000000e+00 0.000000000000000000e+00 -1.000000000000000000e+00
1.955995538484667784e-01 1.471140826596631646e-01 -1.467214566313240487e-01 0.000000000000000000e+00 0.000000000000000000e+00 -1.000000000000000000e+00
1.938177600927151745e-01 1.475415964450904893e-01 -1.697682747285121918e-01 0.000000000000000000e+00 0.000000000000000000e+00 -1.000000000000000000e+00
2.910099056336935552e-01 1.524729666907695125e-01 -1.501821683235129712e-01 0.000000000000000000e+00 0.000000000000000000e+00 -1.000000000000000000e+00
6.130395071945199392e-01 2.103360313883139709e-01 -1.563743513813912744e-01 0.000000000000000000e+00 0.000000000000000000e+00 -1.000000000000000000e+00
2.727332591001144224e-01 2.339927785724058712e-02 -1.762149255069843379e-01 0.000000000000000000e+00 0.000000000000000000e+00 -1.000000000000000000e+00
2.864543139320488430e-01 1.472746066094155620e-02 -1.681712404997833810e-01 0.000000000000000000e+00 0.000000000000000000e+00 -1.000000000000000000e+00
2.634549333183492381e-01 -4.926031279263702600e-02 -1.769216909586888709e-01 0.000000000000000000e+00 0.000000000000000000e+00 -1.000000000000000000e+00
3.004645920313532836e-01 -9.267728764147858955e-02 -1.792064652470774511e-01 0.000000000000000000e+00 0.000000000000000000e+00 -1.000000000000000000e+00
1.797538527666605601e-01 -1.263715977412982749e-01 -1.695261038209770477e-01 0.000000000000000000e+00 0.000000000000000000e+00 -1.000000000000000000e+00
1.518850799532650009e-01 -1.097184175725108152e-01 -1.633065305103106046e-01 0.000000000000000000e+00 0.000000000000000000e+00 -1.000000000000000000e+00
1.372779278091137423e-01 -1.548332731734106682e-01 -1.527254646555201989e-01 0.000000000000000000e+00 0.000000000000000000e+00 -1.000000000000000000e+00
1.720402439036833875e-01 -1.745629520350048258e-01 -1.655586367141404502e-01 0.000000000000000000e+00 0.000000000000000000e+00 -1.000000000000000000e+00
1.603147097310562708e-01 -2.076419513935958971e-01 -1.462332879077208880e-01 0.000000000000000000e+00 0.000000000000000000e+00 -1.000000000000000000e+00
1.031994355772384020e-01 -2.247959039509540291e-01 -1.519187971572631968e-01 0.000000000000000000e+00 0.000000000000000000e+00 -1.000000000000000000e+00
9.802212922705672016e-02 -2.660228813695748040e-01 -1.619428175267098313e-01 0.000000000000000000e+00 0.000000000000000000e+00 -1.000000000000000000e+00
1.120807349314099088e-01 -3.012240325175505884e-01 -1.604084975009022196e-01 0.000000000000000000e+00 0.000000000000000000e+00 -1.000000000000000000e+00
1.499928363127114583e-01 -2.951492648895614468e-01 -1.404121035524993344e-01 0.000000000000000000e+00 0.000000000000000000e+00 -1.000000000000000000e+00
4.546598421223869285e-02 -2.700215098406530956e-01 -1.657626792568263896e-01 0.000000000000000000e+00 0.000000000000000000e+00 -1.000000000000000000e+00
5.990999630712822571e-02 -2.619996926981007501e-01 -1.580299498447617912e-01 0.000000000000000000e+00 0.000000000000000000e+00 -1.000000000000000000e+00
7.311381021360663715e-03 -2.587851307996884009e-01 -1.579225256071977168e-01 0.000000000000000000e+00 0.000000000000000000e+00 -1.000000000000000000e+00
8.064568836299950555e-03 -2.141097619437120070e-01 -1.656373120049416947e-01 0.000000000000000000e+00 0.000000000000000000e+00 -1.000000000000000000e+00
-6.031636408948767847e-02 -2.289001806451754495e-01 -1.519019360471056401e-01 0.000000000000000000e+00 0.000000000000000000e+00 -1.000000000000000000e+00
-6.973212871929106160e-02 -2.528467315095717649e-01 -1.613162802087027836e-01 0.000000000000000000e+00 0.000000000000000000e+00 -1.000000000000000000e+00
-4.974887294093027074e-02 -2.809445797649144372e-01 -1.774364994721619737e-01 0.000000000000000000e+00 0.000000000000000000e+00 -1.000000000000000000e+00
-8.989238392824662471e-02 -3.176874217868193018e-01 -1.572208772942212118e-01 0.000000000000000000e+00 0.000000000000000000e+00 -1.000000000000000000e+00
-4.049974922461886673e-02 -3.404540870621301507e-01 -1.686143533722258836e-01 0.000000000000000000e+00 0.000000000000000000e+00 -1.000000000000000000e+00
-6.832998474798718247e-02 -3.177343348346755580e-01 -1.889759663481731522e-01 0.000000000000000000e+00 0.000000000000000000e+00 -1.000000000000000000e+00
-1.176587556997398254e-01 -2.935518348545378964e-01 -1.574666692892381370e-01 0.000000000000000000e+00 0.000000000000000000e+00 -1.000000000000000000e+00
-1.256685387654361274e-01 -2.945441775809919394e-01 -1.390273441286304368e-01 0.000000000000000000e+00 0.000000000000000000e+00 -1.000000000000000000e+00
-1.144408673645188890e-01 -2.768398416537370399e-01 -1.658276088788486202e-01 0.000000000000000000e+00 0.000000000000000000e+00 -1.000000000000000000e+00
-1.445941151238937794e-01 -2.725946078052442489e-01 -1.485722146472734095e-01 0.000000000000000000e+00 0.000000000000000000e+00 -1.000000000000000000e+00
-1.407516962707276997e-01 -2.875220049348279350e-01 -1.762257178908896715e-01 0.000000000000000000e+00 0.000000000000000000e+00 -1.000000000000000000e+00
-1.623281320560455432e-01 -2.503985691823246151e-01 -1.638241618181978665e-01 0.000000000000000000e+00 0.000000000000000000e+00 -1.000000000000000000e+00
-2.081685051588243185e-01 -2.022520612962245279e-01 -1.790704364040004160e-01 1.684241364561554072e-03 9.223826156656770095e-03 -9.999560412148414956e-01
-2.861525754985690950e-01 -1.256906236451467429e-01 -1.498449578683877237e-01 7.462708246511472014e-03 3.062026193171152929e-03 -9.999674654613617264e-01
-3.417083299914197014e-01 -1.286288903200667189e-01 -1.545676022164236552e-01 0.000000000000000000e+00 0.000000000000000000e+00 -1.000000000000000000e+00
-3.634446844261548515e-01 -1.750482886113143011e-01 -1.412605034954893535e-01 0.000000000000000000e+00 0.000000000000000000e+00 -1.000000000000000000e+00
-4.582003844786418645e-01 -1.148278732415008718e-01 -1.646145711420551050e-01 0.000000000000000000e+00 0.000000000000000000e+00 -1.000000000000000000e+00
5.321672962892320946e-01 -2.788806959916905748e-01 1.933438540194062916e-01 -3.672051226878805252e-01 9.301352494517325376e-01 -2.969107465529122539e-03
4.887768140405953643e-01 -3.125137875063556669e-01 2.853061159723576864e-02 -2.947277882600127241e-01 9.555810740307734141e-01 5.846208639426303229e-04
4.985609431306585737e-01 -2.781429984376125875e-01 1.867235977066359631e-01 -3.166069147751537916e-01 9.482555317901039116e-01 -2.390623236785351796e-02
5.387661578376716776e-01 -2.915686220553863617e-01 1.290121818053767411e-01 -3.023001082237737336e-01 9.531292233770007893e-01 -1.262252402056262407e-02
-4.502302048883941588e-01 -6.824380983151642766e-02 -1.784704195646664993e-01 0.000000000000000000e+00 0.000000000000000000e+00 -1.000000000000000000e+00
-4.459851015568483956e-01 -1.121846503214588842e-01 -1.772965167388589891e-01 0.000000000000000000e+00 0.000000000000000000e+00 -1.000000000000000000e+00
-3.886072721811302255e-01 -9.740133651631029121e-02 -1.786812505284126606e-01 0.000000000000000000e+00 0.000000000000000000e+00 -1.000000000000000000e+00
-3.536130666428433100e-01 -8.249986096421342563e-02 -1.617021091089956841e-01 0.000000000000000000e+00 0.000000000000000000e+00 -1.000000000000000000e+00
-3.196911444161051885e-01 5.260641014112540925e-04 -1.729922720941067804e-01 0.000000000000000000e+00 0.000000000000000000e+00 -1.000000000000000000e+00
-3.149603098914771082e-01 -3.146789476052275214e-02 -1.471906676145039450e-01 0.000000000000000000e+00 0.000000000000000000e+00 -1.000000000000000000e+00
-2.456505540089858886e-01 1.447416669522586311e-02 -1.770634932293625452e-01 5.334770516969951186e-03 -6.463852837173113784e-03 -9.999648787982658993e-01
-2.679408416988391939e-01 4.045475364362877829e-02 -1.421900016567068936e-01 0.000000000000000000e+00 0.000000000000000000e+00 -1.000000000000000000e+00
-2.907150471939653480e-01 1.007091518705831718e-01 -1.652930295204246003e-01 0.000000000000000000e+00 0.000000000000000000e+00 -1.000000000000000000e+00
-2.905038349907909656e-01 1.073408131955864847e-01 -1.696723777222994833e-01 0.000000000000000000e+00 0.000000000000000000e+00 -1.000000000000000000e+00
-2.556410815603205045e-01 1.129249185845735831e-01 -1.670366208982712319e-01 0.000000000000000000e+00 0.000000000000000000e+00 -1.000000000000000000e+00
-2.557235464410300696e-01 1.344950671959632971e-01 -1.462508941959746456e-01 0.000000000000000000e+00 0.000000000000000000e+00 -1.000000000000000000e+00
-2.949818554713439234e-01 1.826420816083620668e-01 -1.605439999180812705e-01 0.000000000000000000e+00 0.000000000000000000e+00 -1.000000000000000000e+00
-2.914731185643531508e-01 2.253142403961599372e-01 -1.480126136154178151e-01 0.000000000000000000e+00 0.000000000000000000e+00 -1.000000000000000000e+00
-2.612644276328973669e-01 2.266832318894618503e-01 -1.760055090214905915e-01 0.000000000000000000e+00 0.000000000000000000e+00 -1.000000000000000000e+00
-2.755583034646367224e-01 1.984892174847225632e-01 -1.674401248704030232e-01 0.000000000000000000e+00 0.000000000000000000e+00 -1.000000000000000000e+00
-2.359980126174809900e-01 1.619736066279622300e-01 -1.702741912984449546e-01 0.000000000000000000e+00 0.000000000000000000e+00 -1.000000000000000000e+00
-2.446606477980501904e-01 1.822449908609058977e-01 -1.507174917171961170e-01 0.000000000000000000e+00 0.000000000000000000e+00 -1.000000000000000000e+00
-2.137697509423854558e-01 1.022265974119526410e-01 -1.811159432112654510e-01 0.000000000000000000e+00 0.000000000000000000e+00 -1.000000000000000000e+00
-2.034223998410442102e-01 1.362205958482516632e-01 -1.368114735444081742e-01 0.000000000000000000e+00 0.000000000000000000e+00 -1.000000000000000000e+00
-2.275319885678447618e-01 1.371960900367164005e-01 -1.648333157984376296e-01 0.000000000000000000e+00 0.000000000000000000e+00 -1.000000000000000000e+00
-1.718525303238676027e-01 7.498226321315679122e-02 -1.786597561370721621e-01 0.000000000000000000e+00 0.000000000000000000e+00 -1.000000000000000000e+00
-1.800126920933838581e-01 1.027554160752611051e-01 -1.501685023333991509e-01 0.000000000000000000e+00 0.000000000000000000e+00 -1.000000000000000000e+00
-1.554626126039633238e-01 7.242104432855341056e-02 -1.647252021523994414e-01 0.000000000000000000e+00 0.000000000000000000e+00 -1.000000000000000000e+00
-1.282911119453559734e-01 6.916680558794094380e-02 -1.543396407079096755e-01 0.000000000000000000e+00 0.000000000000000000e+00 -1.000000000000000000e+00
-1.595412109443224979e-01 2.378662085911583887e-02 -1.592458556258666003e-01 1.300717145674270669e-03 -7.132656117561566624e-03 -9.999737163303922260e-01
-7.754860554989496946e-02 3.711359219628678971e-03 -1.490224819798194600e-01 -6.127555810159235512e-03 -7.636030806201749704e-03 -9.999520708980605965e-01
-1.578081885618637381e-02 -4.204886704713093129e-03 -1.669389779952580033e-01 0.000000000000000000e+00 0.000000000000000000e+00 -1.000000000000000000e+00
-4.823298142379942727e-02 -4.811208008362201360e-02 -1.379882491701866221e-01 0.000000000000000000e+00 0.000000000000000000e+00 -1.000000000000000000e+00
-5.276863541214742159e-02 -5.459005046814074252e-02 -1.441577259525332055e-01 -9.729724370270384157e-03 -2.622463389015001860e-03 -9.999492262857408997e-01
-4.132770350475164362e-02 -2.720063637687404959e-02 -1.513795514157228461e-01 0.000000000000000000e+00 0.000000000000000000e+00 -1.000000000000000000e+00
-6.598832578931601578e-02 -7.693268192103919212e-03 -1.580537514656047138e-01 -8.175986835636797276e-03 -5.183878061628347661e-03 -9.999531392257868800e-01
-5.070133536010837383e-02 2.636852013265526123e-02 -1.795236838927277423e-01 0.000000000000000000e+00 0.000000000000000000e+00 -1.000000000000000000e+00
-7.213992655342332805e-02 -1.440308685634241782e-02 -1.503391013528067310e-01 -7.960447740988575022e-03 -5.320692744893803887e-03 -9.999541596995721315e-01
-6.014443960782277915e-02 1.371925278026400394e-02 -1.383514514102792692e-01 0.000000000000000000e+00 0.000000000000000000e+00 -1.000000000000000000e+00
-1.041157357401733402e-01 2.786350051045140969e-02 -1.818437434996887092e-01 -6.066748944086917429e-03 -7.664345562013155123e-03 -9.999522250409544899e-01
-1.394149241913832660e-01 5.437698215618230746e-02 -1.677477474547241776e-01 0.000000000000000000e+00 0.000000000000000000e+00 -1.000000000000000000e+00
-1.141333954215271174e-01 7.232744349524541927e-02 -1.606142501832812375e-01 0.000000000000000000e+00 0.000000000000000000e+00 -1.000000000000000000e+00
-1.119109961641206463e-01 5.848323872266399104e-02 -1.635305569904086931e-01 0.000000000000000000e+00 0.000000000000000000e+00 -1.000000000000000000e+00
-5.054362521373617634e-02 2.637797874987549834e-02 -1.618644052919244458e-01 0.000000000000000000e+00 0.000000000000000000e+00 -1.000000000000000000e+00
-6.890265662687231063e-02 1.010890350293525142e-01 -1.526923503799506310e-01 0.000000000000000000e+00 0.000000000000000000e+00 -1.000000000000000000e+00
-6.876636103592674576e-02 1.142437798037618246e-01 -1.547441253017622642e-01 0.000000000000000000e+00 0.000000000000000000e+00 -1.000000000000000000e+00
-8.033435606900339587e-02 9.457449583992086350e-02 -1.386609186780972669e-01 0.000000000000000000e+00 0.000000000000000000e+00 -1.000000000000000000e+00
-1.003069157690305857e-01 9.569877975016734262e-02 -1.727467603317659472e-01 0.000000000000000000e+00 0.000000000000000000e+00 -1.000000000000000000e+00
-9.795387432653983317e-02 1.089002823454697927e-01 -1.657234800262568086e-01 0.000000000000000000e+00 0.000000000000000000e+00 -1.000000000000000000e+00
-7.663988255690638851e-02 1.459073662503776736e-01 -1.689475182393026242e-01 0.000000000000000000e+00 0.000000000000000000e+00 -1.000000000000000000e+00
-5.097435601479605172e-02 1.564730401855451702e-01 -1.586979480307393886e-01 0.000000000000000000e+00 0.000000000000000000e+00 -1.000000000000000000e+00
-2.406448413124698954e-02 1.677482193407453803e-01 -1.747683148408628595e-01 0.000000000000000000e+00 0.000000000000000000e+00 -1.000000000000000000e+00
-4.959920264255595485e-02 1.591450025954368741e-01 -1.574132926987042158e-01 0.000000000000000000e+00 0.000000000000000000e+00 -1.000000000000000000e+00
-3.961120687840376242e-02 2.137334558678148089e-01 -1.690505891669538685e-01 0.000000000000000000e+00 0.000000000000000000e+00 -1.000000000000000000e+00
-1.546826898159714067e-02 2.070889716384589074e-01 -1.578798706788563100e-01 0.000000000000000000e+00 0.000000000000000000e+00 -1.000000000000000000e+00
-3.203033922474715633e-02 2.536956755101587579e-01 -1.566231704603901764e-01 0.000000000000000000e+00 0.000000000000000000e+00 -1.000000000000000000e+00
5.155076229274992150e-02 2.517583872425834257e-01 -1.712392723934308969e-01 0.000000000000000000e+00 0.000000000000000000e+00 -1.000000000000000000e+00
6.378246826159481020e-02 2.834992634192476380e-01 -1.530213179384511402e-01 0.000000000000000000e+00 0.000000000000000000e+00 -1.000000000000000000e+00
3.883094157277896391e-02 2.701984714550149103e-01 -1.725049741615218013e-01 0.000000000000000000e+00 0.000000000000000000e+00 -1.000000000000000000e+00
1.347815952201542045e-01 3.487256313024435506e-01 -1.524665083594318460e-01 2.623232918993153792e-03 5.591532904147569066e-03 -9.999809265225184651e-01
1.172699905665275932e-01 3.259350374543237838e-01 -1.885458380230979614e-01 0.000000000000000000e+00 0.000000000000000000e+00 -1.000000000000000000e+00
8.649965259218868330e-02 3.718693199281780104e-01 -1.521201408810428091e-01 0.000000000000000000e+00 0.000000000000000000e+00 -1.000000000000000000e+00
-4.877132424248326742e-02 3.947266409545824306e-01 -1.692049470714690751e-01 0.000000000000000000e+00 0.000000000000000000e+00 -1.000000000000000000e+00
-3.864979929174570950e-02 4.138832631970439380e-01 -1.833492384312206402e-01 0.000000000000000000e+00 0.000000000000000000e+00 -1.000000000000000000e+00
-7.431637826471078345e-02 4.201673587951050837e-01 -1.492786860656791503e-01 0.000000000000000000e+00 0.000000000000000000e+00 -1.000000000000000000e+00
-7.812921341307621503e-02 4.337101557502872629e-01 -1.509418005211353997e-01 5.413410839509726069e-03 5.305150351677640798e-03 -9.999712747688449532e-01
-1.329496297528885707e-01 4.954240145615741997e-01 -1.731846972211321389e-01 0.000000000000000000e+00 0.000000000000000000e+00 -1.000000000000000000e+00
-1.301541761136623399e-01 4.873176810195777864e-01 -1.728318072150077100e-01 0.000000000000000000e+00 0.000000000000000000e+00 -1.000000000000000000e+00
-1.445768713214266032e-01 4.719366244089198692e-01 -1.441563092190922268e-01 0.000000000000000000e+00 0.000000000000000000e+00 -1.000000000000000000e+00
-1.951058726545092381e-01 4.713054538303041441e-01 -1.660218337391304866e-01 0.000000000000000000e+00 0.000000000000000000e+00 -1.000000000000000000e+00
-2.117382623911622241e-01 5.073146369102286002e-01 -1.614942178254198113e-01 0.000000000000000000e+00 0.000000000000000000e+00 -1.000000000000000000e+00
-2.384007682922314741e-01 5.298750398210914092e-01 -1.709196618309977711e-01 0.000000000000000000e+00 0.000000000000000000e+00 -1.000000000000000000e+00
5.409945894508421116e-01 -1.273127221753316274e-01 4.455918795289656731e-03 6.535434848599135311e-04 -7.359486495800413356e-05 -9.999997837323312266e-01
-3.396914894078380542e-01 6.442890061738133500e-01 -1.455040720506773355e-01 5.400944430629630449e-03 4.780952130891698293e-03 -9.999739858096206024e-01
-3.753106796922989208e-01 6.808915579137039265e-01 -1.658635181226799371e-01 2.006724830778151229e-03 1.026423258869198045e-02 -9.999453077967909165e-01
-3.988845740827753339e-01 6.944874473746847077e-01 -1.693512612912222992e-01 6.652676749371701573e-04 9.962853559480825197e-03 -9.999501482413376552e-01
-4.533556648883099172e-01 6.506350429143108460e-01 -1.536906990613241264e-01 0.000000000000000000e+00 0.000000000000000000e+00 -1.000000000000000000e+00
-4.862425600625427391e-01 6.896480731738511283e-01 -1.664374456246911216e-01 0.000000000000000000e+00 0.000000000000000000e+00 -1.000000000000000000e+00
-4.938189712844524570e-01 6.023073187016213526e-01 -1.651012402891586794e-01 0.000000000000000000e+00 0.000000000000000000e+00 -1.000000000000000000e+00
-5.006216371819700584e-01 5.806154423308128587e-01 -1.423718484771501480e-01 0.000000000000000000e+00 0.000000000000000000e+00 -1.000000000000000000e+00
-5.306748437275107255e-01 5.524823996972250129e-01 -1.612227141556619170e-01 0.000000000000000000e+00 0.000000000000000000e+00 -1.000000000000000000e+00
-5.193523050219757131e-01 4.929889687503031248e-01 -1.651902869127296614e-01 0.000000000000000000e+00 0.000000000000000000e+00 -1.000000000000000000e+00
-6.361510940894102850e-01 5.016206962214244669e-01 -1.773943292110441994e-01 0.000000000000000000e+00 0.000000000000000000e+00 -1.000000000000000000e+00
-6.433575584466991737e-01 4.869621290195894625e-01 -1.728963407143030706e-01 0.000000000000000000e+00 0.000000000000000000e+00 -1.000000000000000000e+00
-6.655522699506998263e-01 4.803598593982513210e-01 -1.841358000203488776e-01 0.000000000000000000e+00 0.000000000000000000e+00 -1.000000000000000000e+00
-6.473378945107729487e-01 4.644954236343030174e-01 -1.456680329918261796e-01 0.000000000000000000e+00 0.000000000000000000e+00 -1.000000000000000000e+00
4.754892992219180159e-01 -2.775751750968273868e-01 7.539511825718164806e-02 -3.217449237105000637e-01 9.467038600549241290e-01 1.523172425010757038e-02
-5.678449027341543331e-01 3.500483895738348838e-01 -1.668319747016887566e-01 0.000000000000000000e+00 0.000000000000000000e+00 -1.000000000000000000e+00
-5.950777573927751307e-01 3.291153868217480127e-01 -1.558242380278442585e-01 0.000000000000000000e+00 0.000000000000000000e+00 -1.000000000000000000e+00
-6.489622117305561266e-01 3.166724476538576027e-01 -1.798745733611692987e-01 0.000000000000000000e+00 0.000000000000000000e+00 -1.000000000000000000e+00
-6.382900706740232133e-01 2.875426506115570380e-01 -1.480075723791265951e-01 0.000000000000000000e+00 0.000000000000000000e+00 -1.000000000000000000e+00
-6.490925740644351016e-01 2.981612262373891653e-01 -1.456619000183883295e-01 0.000000000000000000e+00 0.000000000000000000e+00 -1.000000000000000000e+00
-6.893781267419077929e-01 2.799755627974967465e-01 -1.649255387382404237e-01 0.000000000000000000e+00 0.000000000000000000e+00 -1.000000000000000000e+00
-6.923024802344184270e-01 2.391486132169591272e-01 -1.669523044154873626e-01 0.000000000000000000e+00 0.000000000000000000e+00 -1.000000000000000000e+00
-7.257022640296904026e-01 2.757987594272402476e-01 -1.715283817076269646e-01 0.000000000000000000e+00 0.000000000000000000e+00 -1.000000000000000000e+00
-7.375587407216283031e-01 2.450626480392299744e-01 -1.519496722366693031e-01 0.000000000000000000e+00 0.000000000000000000e+00 -1.000000000000000000e+00
-7.856063619485823546e-01 2.631067731582285574e-01 -1.634678934554558150e-01 0.000000000000000000e+00 0.000000000000000000e+00 -1.000000000000000000e+00
-6.901998963338842330e-01 1.130628135809655377e-01 -1.740237973696952267e-01 0.000000000000000000e+00 0.000000000000000000e+00 -1.000000000000000000e+00
-6.078620928240272558e-01 1.166930767257990664e-01 -1.503926653499909616e-01 0.000000000000000000e+00 0.000000000000000000e+00 -1.000000000000000000e+00
4.939511326270420444e-01 -2.859153565875611203e-01 1.970772113212835852e-01 -2.809274044012337601e-01 9.597290187338783918e-01 6.369060150533288264e-05
-6.286981808116212100e-01 1.586795089374464993e-02 -1.830108944612314215e-01 0.000000000000000000e+00 0.000000000000000000e+00 -1.000000000000000000e+00
-6.188107127888675674e-01 -1.001896386439150161e-02 -1.681878278696372908e-01 0.000000000000000000e+00 0.000000000000000000e+00 -1.000000000000000000e+00
-5.499931761378396011e-01 9.644675620511851399e-02 -1.820119915146347911e-01 0.000000000000000000e+00 0.000000000000000000e+00 -1.000000000000000000e+00
-6.808063969431122908e-01 -5.013932206872707964e-02 -1.495781292104221283e-01 0.000000000000000000e+00 0.000000000000000000e+00 -1.000000000000000000e+00
-6.658622018051569835e-01 -1.113102751323727935e-01 -1.722699114752885285e-01 0.000000000000000000e+00 0.000000000000000000e+00 -1.000000000000000000e+00
-6.908163876489039623e-01 -7.698984148481255452e-02 -1.701803147243339531e-01 0.000000000000000000e+00 0.000000000000000000e+00 -1.000000000000000000e+00
-7.079913740331683636e-01 -9.226644007078246834e-02 -1.803071715462925551e-01 0.000000000000000000e+00 0.000000000000000000e+00 -1.000000000000000000e+00
-7.020685300289155606e-01 -1.404845517880583539e-01 -1.594611536862138024e-01 -8.604673187180994845e-03 -4.813719005992786286e-03 -9.999513926730004831e-01
-6.892550104936323585e-01 -8.083386373304760064e-02 -1.589805570029506621e-01 0.000000000000000000e+00 0.000000000000000000e+00 -1.000000000000000000e+00
-6.651089784114166958e-01 -8.613982874412040580e-02 -1.477755033657069950e-01 0.000000000000000000e+00 0.000000000000000000e+00 -1.000000000000000000e+00
-6.677201031284359933e-01 -5.630208090094912521e-02 -1.501077150771676361e-01 0.000000000000000000e+00 0.000000000000000000e+00 -1.000000000000000000e+00
-6.498934164115567347e-01 -3.840228512470129918e-02 -1.760690413695314427e-01 0.000000000000000000e+00 0.000000000000000000e+00 -1.000000000000000000e+00
5.024092191387529160e-01 -2.830303673279435661e-01 1.738138579770431569e-01 -2.761535763419934453e-01 9.611134064967754576e-01 -4.713021228483949714e-04
4.996413912241396416e-01 -3.030665369274475052e-01 9.312848634841244810e-02 -2.780628449401347235e-01 9.605456649861373597e-01 5.751498947028835414e-03
4.794261871380033901e-01 -2.994266171480601257e-01 6.881648724848082876e-02 -1.549388309152550935e-01 9.878534249766437458e-01 -1.181395092797141513e-02
-5.930426556384736925e-01 8.841132990596153873e-02 -1.572639243034036072e-01 0.000000000000000000e+00 0.000000000000000000e+00 -1.000000000000000000e+00
-5.527727673863656044e-01 1.109199821566144023e-01 -1.829516279076502938e-01 0.000000000000000000e+00 0.000000000000000000e+00 -1.000000000000000000e+00
-5.163006890579747710e-01 1.248658194201550525e-01 -2.027448889093405315e-01 0.000000000000000000e+00 0.000000000000000000e+00 -1.000000000000000000e+00
-5.210264370925241639e-01 1.675572088494927669e-01 -1.480511291708047628e-01 4.546763122935753264e-03 4.150319663155478851e-03 -9.999810507163611195e-01
-5.693209465306057204e-01 1.124594343022155551e-01 -1.591022108576170546e-01 0.000000000000000000e+00 0.000000000000000000e+00 -1.000000000000000000e+00
-6.365823120011434577e-01 1.135668682607914384e-02 -1.681951864977362099e-01 0.000000000000000000e+00 0.000000000000000000e+00 -1.000000000000000000e+00
-6.574706928890594604e-01 2.382615557092574582e-03 -1.681777777176184929e-01 0.000000000000000000e+00 0.000000000000000000e+00 -1.000000000000000000e+00
-7.119383750210002137e-01 -8.153027636839500769e-02 -1.466958909382017062e-01 0.000000000000000000e+00 0.000000000000000000e+00 -1.000000000000000000e+00
-7.365302477722616148e-01 -1.039052316743916127e-01 -1.422157204112401430e-01 -7.064492993005684097e-03 -6.710878008892622731e-03 -9.999525274007269315e-01
-7.580162308991008624e-01 -1.003220247378023011e-01 -1.669376459153835146e-01 -6.882031961519716537e-03 -6.414445274571575067e-03 -9.999557452847100958e-01
-7.275528285757260072e-01 -6.527318646175987726e-02 -1.514543405812771859e-01 0.000000000000000000e+00 0.000000000000000000e+00 -1.000000000000000000e+00
-7.291505168236074308e-01 -6.891761214460699614e-02 -1.694844676332770139e-01 0.000000000000000000e+00 0.000000000000000000e+00 -1.000000000000000000e+00
-6.981103508161959903e-01 -2.071941626020976784e-02 -1.532720101938006563e-01 0.000000000000000000e+00 0.000000000000000000e+00 -1.000000000000000000e+00
-6.923247176654715451e-01 -1.315061325000702747e-02 -1.444926688182077978e-01 0.000000000000000000e+00 0.000000000000000000e+00 -1.000000000000000000e+00
4.942928845412312699e-01 -3.057772350773304004e-01 1.638527353802751163e-01 -2.219870651666030481e-01 9.749922473937052692e-01 1.057640869530876264e-02
4.919761228790001106e-01 -2.755855059261284046e-01 1.811027444744729986e-01 -2.371427155113997876e-01 9.712805274600034844e-01 -1.942857320794430520e-02
-7.002389179478637482e-01 1.143567615339848367e-02 -1.649289941692076711e-01 0.000000000000000000e+00 0.000000000000000000e+00 -1.000000000000000000e+00
-6.699722414913128476e-01 3.555564741216886426e-02 -1.609477330644029369e-01 0.000000000000000000e+00 0.000000000000000000e+00 -1.000000000000000000e+00
-5.660078419886348522e-01 1.597188386148591654e-01 -1.866302870302727901e-01 0.000000000000000000e+00 0.000000000000000000e+00 -1.000000000000000000e+00
-5.227816038231426488e-01 1.572846243136607758e-01 -1.689415804351291628e-01 0.000000000000000000e+00 0.000000000000000000e+00 -1.000000000000000000e+00
-5.359435427484084968e-01 1.077246134290988366e-01 -1.527587326211192476e-01 0.000000000000000000e+00 0.000000000000000000e+00 -1.000000000000000000e+00
-5.940408578229209313e-01 9.764589483676355819e-02 -1.499382158430430101e-01 0.000000000000000000e+00 0.000000000000000000e+00 -1.000000000000000000e+00
-6.775551007449728269e-01 2.310395433337916055e-02 -1.798823287115729752e-01 0.000000000000000000e+00 0.000000000000000000e+00 -1.000000000000000000e+00
-7.044179849038014751e-01 -1.612183643779106085e-03 -1.668215473682174155e-01 0.000000000000000000e+00 0.000000000000000000e+00 -1.000000000000000000e+00
-7.348736783991691723e-01 -8.746474334652603114e-03 -1.486113982370863285e-01 0.000000000000000000e+00 0.000000000000000000e+00 -1.000000000000000000e+00
-8.227475547948477352e-01 -5.375389260080194048e-02 -1.488618637974589987e-01 -7.511068542270975534e-01 -6.601806397253086045e-01 1.283158442518545091e-04
-7.967825908998129592e-01 -7.220494201099569853e-02 -1.413177870905227007e-01 -7.267865838292899561e-01 -6.868426989558108486e-01 5.326204732051155986e-03
-8.258433511361118473e-01 -4.194798180894752926e-02 -1.626278749498070719e-01 -8.035645499217368704e-01 -5.951392292423207664e-01 -9.659809829033571063e-03
-8.753287970871406198e-01 5.509932892506157198e-02 -1.352603319949251537e-01 -9.278713270057233897e-01 -3.727375582116926878e-01 -1.102330345326982090e-02
-8.932235718043374240e-01 7.206744099839158813e-02 -1.260168861716669808e-01 -9.254241286094638808e-01 -3.788248526254041071e-01 9.050592287546658024e-03
-8.762580890563506086e-01 8.887858197217676781e-02 -1.101118976691394108e-01 -9.320270389725322513e-01 -3.623209243368787913e-01 -7.010450182650402283e-03
-9.121356086796891249e-01 1.992529911109909291e-01 -1.247235130517718865e-01 -9.863969183054263068e-01 -1.643763976639634472e-01 -1.232659148716227148e-03
-9.151121782708687702e-01 1.895107292298428836e-01 -1.112112033242264181e-01 -9.932208802641053769e-01 -1.159108535244903621e-01 -8.772516322003515166e-03
-9.244164143889501695e-01 2.557215507427632040e-01 -1.393618714857611518e-01 -9.998635845907174469e-01 -1.614502407784568910e-02 -3.485743382241646669e-03
-9.455367123415600039e-01 1.987328343062222669e-01 -1.283409899892113959e-01 -9.994182679876562059e-01 -3.362320484226465067e-02 5.710140864165253079e-03
-9.076061823688382768e-01 2.736876564661549494e-01 -1.690585221154556617e-01 -9.970269908906571610e-01 7.559309092885259374e-02 -1.492863152949717477e-02
-9.154866113081252532e-01 3.333116748118423178e-01 -1.088327732161305517e-01 -9.795748431564690328e-01 2.005846562153549284e-01 1.410398333617301873e-02
-8.745933231646995099e-01 4.021480868100041350e-01 -9.129544268010485186e-02 -9.448818150595764687e-01 3.273134569988819798e-01 8.016011299965486447e-03
-8.803658643954216378e-01 4.255386444062929097e-01 -1.006767790385304645e-01 -9.170016797106972373e-01 3.988538958157915038e-01 4.846565828070369814e-03
-8.731539225383081471e-01 4.668487893877727446e-01 -1.323192382199705752e-01 -8.673833464690021700e-01 4.976305896819652741e-01 -3.150631843685778883e-03
-8.398751834116697790e-01 4.759173207383066706e-01 -9.911223228110760397e-02 -8.635877116455892288e-01 5.041141663195550793e-01 -9.228846660042359928e-03
-8.349203496301144112e-01 5.013769347476093596e-01 -9.239383292733466257e-02 -8.291316169155351634e-01 5.590506349547269549e-01 1.774651443755827793e-03
-8.248824244740888822e-01 4.974663609611182924e-01 -1.111153784253204602e-01 -7.759569554813523506e-01 6.307824348713858553e-01 2.079206059148282302e-03
