7.417538149495425670e-02 -2.022564914794945656e-02 -4.759500992664142394e-01 -8.272410071383903274e-01 -2.067200271162439318e-01 5.224357821758776055e-01
8.228620814087474200e-02 -3.709203503125841489e-02 -4.641818206477671960e-01 -8.272410071383903274e-01 -2.067200271162439318e-01 5.224357821758776055e-01
1.735333108201561336e-01 1.613352710868638795e-01 -3.634758589103261328e-01 8.730415237779628468e-01 -3.214521575664799347e-01 3.666974340724349912e-01
1.842925234638646548e-01 1.387532049275958246e-01 -4.038520823154666539e-01 9.384138417675784716e-01 -2.193969186501129598e-01 2.669165668628493138e-01
1.961764812989059970e-01 1.541154027762135503e-01 -3.934863683123460132e-01 9.413489460315039858e-01 -2.169202519257121264e-01 2.584719832203523082e-01
1.944102557273134080e-01 2.121223207631898755e-01 -3.370523058466113886e-01 9.826676619777231503e-01 -4.433668193601596891e-02 1.799959020037396329e-01
1.786731382036566562e-01 2.160110731561763753e-01 -3.483365711744410564e-01 9.826676619777231503e-01 -4.433668193601596891e-02 1.799959020037396329e-01
1.899450715154749059e-01 1.979635698736468830e-01 -3.700637973440838446e-01 9.851047120160825177e-01 -3.923566134983174497e-02 1.674194410519654064e-01
2.099459607914767045e-01 2.198032013353413971e-01 -3.661347531734967520e-01 9.851047120160825177e-01 -3.923566134983174497e-02 1.674194410519654064e-01
1.864292612248971415e-01 1.739352583705291999e-01 -3.781281210230889589e-01 9.824684901206988119e-01 -1.057683489271811772e-01 1.535210809145514943e-01
1.798903970554879272e-01 1.421489006740361272e-01 -3.656165994315470069e-01 9.824684901206988119e-01 -1.057683489271811772e-01 1.535210809145514943e-01
1.634508495863816468e-01 2.293083449588092515e-01 -3.278967933541894197e-01 9.810800274978069835e-01 1.333743409707562576e-02 1.931426739397804349e-01
1.753444531540405416e-01 2.216088916691214550e-01 -3.731091895565114003e-01 9.853684996396433471e-01 1.469662094099481175e-01 8.631253216995529720e-02
1.952156150182674244e-01 2.338229954750212225e-01 -3.584741607879728953e-01 9.837742059887162327e-01 1.371500350079622454e-01 1.156640805461480598e-01
1.668863226054645432e-01 2.435306101445573190e-01 -3.062596009446684198e-01 9.682599539962842838e-01 2.490357189557942386e-01 2.130427589203831573e-02
1.552637874712900212e-01 2.950685528495698984e-01 -3.125736380412586501e-01 9.530688961994463471e-01 2.292077883306424813e-01 -1.977965340084205936e-01
1.565879967409347095e-01 2.692884738102903075e-01 -3.182750898967441899e-01 9.599357334153272303e-01 2.792685785100909035e-01 2.307485144765514945e-02
1.697499853931992431e-01 2.638492819478500118e-01 -3.000445567232076782e-01 8.828335572367963513e-01 1.983567321367312453e-01 -4.257458361894585486e-01
1.716305439076638295e-01 2.650244578060373390e-01 -2.901324197245975234e-01 8.926459197131009216e-01 2.596366984397598388e-01 -3.684725862840453336e-01
1.803748006201498222e-01 2.881443632045690983e-01 -2.648742462335158532e-01 8.967902870399657722e-01 2.499378737205293910e-01 -3.651003154625268587e-01
1.761962254092671876e-01 2.653264748721004262e-01 -2.696641920766043032e-01 8.853748188010286402e-01 3.239950308911584975e-01 -3.333746393937051522e-01
1.555351494839798676e-01 2.931935773703683301e-01 -2.662326452885406813e-01 8.598084193519570650e-01 3.835417659940337232e-01 -3.370833661717336782e-01
1.475595404136274547e-01 3.100685493042301677e-01 -3.030577743226280374e-01 8.812604992034606122e-01 3.968597799466996867e-01 -2.566753739732824946e-01
1.628142470642156836e-01 3.270578593915273169e-01 -2.814992531714834989e-01 8.812604992034606122e-01 3.968597799466996867e-01 -2.566753739732824946e-01
1.704986304886852710e-01 2.744489621604712104e-01 -2.500671079639805172e-01 8.931596344673173871e-01 3.231697363544130952e-01 -3.127733825996502626e-01
1.918692541127448858e-01 2.796913630603062861e-01 -2.528865388412441795e-01 8.997047538906839392e-01 3.568867442895004571e-01 -2.513229149459803580e-01
2.017033194641182081e-01 3.121125184897321492e-01 -2.496222605276030293e-01 8.714302957272908046e-01 4.206219225825770236e-01 -2.523617204165147787e-01
2.005163264127673428e-01 2.846241375270167628e-01 -2.408396553513969252e-01 8.714302957272908046e-01 4.206219225825770236e-01 -2.523617204165147787e-01
2.022728826659873913e-01 2.734392321217511412e-01 -2.126682023647800124e-01 8.983158881916470939e-01 4.309764610651498629e-01 -8.536893480776019949e-02
1.742975821699594974e-01 3.168755659232048716e-01 -2.271498888798889615e-01 8.838202190895445565e-01 4.573338155355053392e-01 -9.852716121073187838e-02
1.699290337685692709e-01 3.050846388817001764e-01 -2.266815516751155002e-01 8.838202190895445565e-01 4.573338155355053392e-01 -9.852716121073187838e-02
2.055061025307972633e-01 2.826776707622795093e-01 -2.038873025202390943e-01 9.021429063954810035e-01 4.295009398880655360e-01 -4.083036952542506981e-02
1.942731196589020104e-01 2.810132179387058726e-01 -1.941864667920571996e-01 9.021429063954810035e-01 4.295009398880655360e-01 -4.083036952542506981e-02
1.906330868375042398e-01 3.114075638621491282e-01 -2.176777350729752758e-01 8.715891852972701415e-01 4.901331109294084776e-01 -1.009086931344812046e-02
1.905739079557797477e-01 3.257583300018063177e-01 -2.193759646865805768e-01 8.715891852972701415e-01 4.901331109294084776e-01 -1.009086931344812046e-02
1.846954841834486105e-01 2.902502656789452407e-01 -2.019605296813388462e-01 8.715891852972701415e-01 4.901331109294084776e-01 -1.009086931344812046e-02
1.728361344199184080e-01 3.492151899137808657e-01 -2.102239483131214670e-01 8.725890601616556053e-01 4.884082015104908026e-01 -6.764671720510661429e-03
1.690623487584521356e-01 3.531174757194309732e-01 -1.686257131774648310e-01 8.765683888035114002e-01 4.800392154688678525e-01 3.449944003095836015e-02
1.599725755352404410e-01 3.493617911365664019e-01 -1.778716950772731009e-01 8.765683888035114002e-01 4.800392154688678525e-01 3.449944003095836015e-02
1.623627450488043800e-01 3.241556644822177757e-01 -2.073816269763074649e-01 8.765683888035114002e-01 4.800392154688678525e-01 3.449944003095836015e-02
1.379091818175674777e-01 3.321949756965110190e-01 -2.140182596260076786e-01 8.747600926961108803e-01 4.844405990023782915e-01 -1.058708007471813144e-02
1.690259323729434993e-01 3.352413062031996960e-01 -2.166092447825893330e-01 8.738688454647729476e-01 4.861048196190658754e-01 -7.439440112016737321e-03
1.623057966218911241e-01 3.537441707256511192e-01 -1.677275958663586586e-01 8.797877354133599725e-01 4.746526021775793747e-01 2.604703173653729123e-02
1.428309627620971411e-01 3.868366732917804529e-01 -2.070781035124094061e-01 9.117353265854600819e-01 4.077778584687505314e-01 4.955716294083058887e-02
1.387672548533057659e-01 3.725138363949304088e-01 -1.890264994006654042e-01 9.117353265854600819e-01 4.077778584687505314e-01 4.955716294083058887e-02
1.498230911350005579e-01 3.866349631990405045e-01 -2.202701095985395985e-01 9.170592307827268863e-01 3.951968304289565359e-01 -5.312092295037666723e-02
1.161889902130263108e-01 4.063267157955180453e-01 -1.808672507793772366e-01 9.474972934476666442e-01 3.149684329036580577e-01 5.517032883316948938e-02
1.466699036604782180e-01 3.969088242168193892e-01 -1.920961676554530373e-01 9.474972934476666442e-01 3.149684329036580577e-01 5.517032883316948938e-02
1.246627605872009936e-01 4.279824394285778322e-01 -1.793429245966937369e-01 9.474972934476666442e-01 3.149684329036580577e-01 5.517032883316948938e-02
1.353825380699670289e-01 4.007015856110405783e-01 -2.023437119442399734e-01 9.553903030521946338e-01 2.906066176970258375e-01 -5.269879111071094913e-02
1.283007956707042097e-01 4.298367282516974974e-01 -2.234795554274569274e-01 9.553903030521946338e-01 2.906066176970258375e-01 -5.269879111071094913e-02
1.247530779755480490e-01 4.017843545075992506e-01 -2.113577945098992217e-01 9.456476925059857930e-01 3.245487782317382219e-01 -2.045805969270932806e-02
1.348643423105244932e-01 3.952090061313080493e-01 -2.067689965134765218e-01 9.456476925059857930e-01 3.245487782317382219e-01 -2.045805969270932806e-02
1.337077638077340813e-01 4.067653257819559554e-01 -1.876283138835752873e-01 9.467790930231141378e-01 3.167826363867120021e-01 5.707985895404282806e-02
1.305245091606079821e-01 4.173615084302966793e-01 -2.139164673590217836e-01 9.467790930231141378e-01 3.167826363867120021e-01 5.707985895404282806e-02
1.058233013486861024e-01 4.471938754624482648e-01 -1.995466865182076999e-01 9.427039680447117931e-01 3.297400301736513883e-01 5.080099540200243291e-02
1.142658473270680569e-01 4.617002787793740293e-01 -2.460048328513650129e-01 9.533866307992686639e-01 2.972737598504224255e-01 -5.179038441267268256e-02
1.190359980404666895e-01 4.516903209384358076e-01 -2.367127190654571556e-01 9.533866307992686639e-01 2.972737598504224255e-01 -5.179038441267268256e-02
1.152090199230381279e-01 4.446939558891393474e-01 -2.336195240055603528e-01 9.533866307992686639e-01 2.972737598504224255e-01 -5.179038441267268256e-02
1.096335593029611061e-01 4.872659726384295786e-01 -2.055897951295657944e-01 8.949860597689401898e-01 4.412026928450648033e-01 6.587971345968665626e-02
1.118414253049817286e-01 4.847025783644867136e-01 -2.312458527113871731e-01 8.949860597689401898e-01 4.412026928450648033e-01 6.587971345968665626e-02
8.907544309561675477e-02 5.023425711239684066e-01 -2.362567273640633347e-01 8.949860597689401898e-01 4.412026928450648033e-01 6.587971345968665626e-02
9.965743467620807872e-02 4.838533756896126192e-01 -2.409003472827435932e-01 9.150722399151476338e-01 3.861241562255927628e-01 -1.164084692612553235e-01
1.135273052938329807e-01 4.762554088181747414e-01 -2.370105026411367666e-01 9.166415615405792972e-01 3.812952319822563441e-01 -1.199257842336079738e-01
1.311539514169858256e-01 4.563053720111008849e-01 -2.458752066123132130e-01 9.166415615405792972e-01 3.812952319822563441e-01 -1.199257842336079738e-01
1.117833745559178305e-01 4.870133533396471814e-01 -2.321010718467200196e-01 8.781840783321583910e-01 4.693021936108858205e-01 9.245634448704895259e-02
9.905684682561380350e-02 5.033111057801340493e-01 -2.141337860944034499e-01 8.781840783321583910e-01 4.693021936108858205e-01 9.245634448704895259e-02
7.563599258894181110e-02 5.196788101493882150e-01 -2.279816795459868872e-01 8.431404636243239326e-01 5.345343839365130911e-01 5.819923529542619239e-02
8.309138286429319786e-02 5.304860945589573440e-01 -2.444889161392897192e-01 8.431404636243239326e-01 5.345343839365130911e-01 5.819923529542619239e-02
8.540710472730517200e-02 5.092326381129438362e-01 -2.557914140206151710e-01 8.315033808713557795e-01 5.185049638845754538e-01 -1.993858822147646093e-01
8.516016464420443632e-02 5.224815329838091715e-01 -2.631980930941512642e-01 8.315033808713557795e-01 5.185049638845754538e-01 -1.993858822147646093e-01
7.636665595627681324e-02 5.381361816336426296e-01 -2.147257033446635099e-01 7.021540952368225952e-01 7.090296527497718104e-01 6.524245599069011803e-02
9.210601226808425024e-02 5.305950938952133100e-01 -2.263312703525587333e-01 7.021540952368225952e-01 7.090296527497718104e-01 6.524245599069011803e-02
5.916110295873159425e-02 5.478936374536941267e-01 -2.263538337511594445e-01 6.645912852542980032e-01 7.471372593676788298e-01 -1.021465753679672191e-02
7.044846756122458142e-02 5.418944969864381012e-01 -2.317226710407285228e-01 6.645912852542980032e-01 7.471372593676788298e-01 -1.021465753679672191e-02
5.342094322263628292e-02 5.497010427820087086e-01 -2.620977045700403352e-01 7.152476374207092924e-01 6.492418510890611838e-01 -2.586616244411663601e-01
6.363420167537008065e-02 5.510202944965583161e-01 -2.186016776666437622e-01 6.438479017357769951e-01 7.301442316347548367e-01 2.287996513129569309e-01
4.579731125273255044e-02 5.414660657753076478e-01 -1.643030651160660993e-01 5.490306193721479211e-01 8.006791831295863027e-01 2.397461672160243751e-01
4.900770463723994053e-02 5.664479735620693290e-01 -1.893850315880531987e-01 4.919457825824080088e-01 8.460670129414146201e-01 2.053288986279674377e-01
5.272281267452733067e-02 5.517442782253806355e-01 -1.914881276378576913e-01 4.919457825824080088e-01 8.460670129414146201e-01 2.053288986279674377e-01
3.093861929745867975e-02 5.476496187899647650e-01 -2.240668087157474120e-01 5.109999497242673216e-01 8.588215616948270403e-01 -3.611892232410395670e-02
8.011993180601437170e-02 5.421525767699424403e-01 -2.485324736196118656e-01 5.109999497242673216e-01 8.588215616948270403e-01 -3.611892232410395670e-02
4.709224730643322282e-02 5.668835682356445638e-01 -2.519833273768236070e-01 5.377548926141111352e-01 7.571503726482127217e-01 -3.708678857332597945e-01
5.970053414116302526e-02 5.320688029079116976e-01 -2.625530365844382930e-01 5.377548926141111352e-01 7.571503726482127217e-01 -3.708678857332597945e-01
4.693868112687353544e-02 5.363009144656130101e-01 -2.832859311963917270e-01 6.500869457135880491e-01 6.717919072667924985e-01 -3.550811123442413342e-01
7.214857655323513030e-02 5.343447932770838404e-01 -2.722368434219872291e-01 6.500869457135880491e-01 6.717919072667924985e-01 -3.550811123442413342e-01
1.650332215970230221e-01 3.036688839918563754e-01 -3.117421916905901980e-01 8.448348609835553136e-01 4.607158852655050540e-01 -2.720200925132528758e-01
1.488108187320751341e-01 3.125710004860817182e-01 -2.843162371625646556e-01 8.486791104755314619e-01 4.479615154195324411e-01 -2.812014369548930248e-01
1.455847652448693796e-01 3.539633121520838199e-01 -2.977006886714665956e-01 8.181291481159322920e-01 4.940034975047478683e-01 -2.943216632464819571e-01
1.405844314859390487e-01 3.285581986583139824e-01 -2.787130503019270011e-01 8.181291481159322920e-01 4.940034975047478683e-01 -2.943216632464819571e-01
1.464887568683043706e-01 3.361178171374132329e-01 -2.738785946647773195e-01 8.503769643931667899e-01 3.843363094198037344e-01 -3.593669707847782502e-01
1.470145792339467572e-01 3.565180694901024516e-01 -2.943729803902139230e-01 8.672253867856705156e-01 3.549136115978917538e-01 -3.492226464835647692e-01
1.466555771037784672e-01 3.478014427829953514e-01 -2.990530607336136515e-01 8.470399709846284653e-01 3.399275093289175209e-01 -4.086227795360882209e-01
1.630175939236107319e-01 3.316644672264691396e-01 -2.479417802716708252e-01 8.778431007883440440e-01 4.240357630733928018e-01 -2.226772598023212257e-01
1.671644663543216391e-01 3.043738479524498719e-01 -2.260684675778865671e-01 8.737605474700385066e-01 4.417344871143913942e-01 -2.035022077979604660e-01
1.638576221632642438e-01 3.375531893785800874e-01 -2.587028870102370259e-01 8.737605474700385066e-01 4.417344871143913942e-01 -2.035022077979604660e-01
1.500716930885769573e-01 3.564741130092750621e-01 -2.537629156603374292e-01 9.077419761988207991e-01 3.760550839898257891e-01 -1.859760157979100381e-01
1.751995551750100411e-01 3.454361172588756856e-01 -2.191070312058830405e-01 8.723460997241303527e-01 4.870030859261400003e-01 -4.289844512933386339e-02
1.651000575819600025e-01 3.387541372888874247e-01 -2.293403143271019462e-01 8.723460997241303527e-01 4.870030859261400003e-01 -4.289844512933386339e-02
1.565198123772315875e-01 3.814333941046229581e-01 -2.607983037124696479e-01 9.098488011801632025e-01 4.138075868118682998e-01 -3.063396951030095128e-02
1.449202908279233482e-01 3.610263043121447191e-01 -2.375329295329568213e-01 9.008234720451386845e-01 4.094744367785702610e-01 -1.443875265991280965e-01
1.350065932301757476e-01 3.878626326475299591e-01 -2.097993667897500858e-01 9.008234720451386845e-01 4.094744367785702610e-01 -1.443875265991280965e-01
1.333129471054734227e-01 3.996959492349137499e-01 -2.161131679880645695e-01 9.453414874454193484e-01 3.256538417906096883e-01 -1.670471315224054260e-02
1.302927940414016217e-01 4.025631395909744503e-01 -2.439946040100486047e-01 9.453414874454193484e-01 3.256538417906096883e-01 -1.670471315224054260e-02
1.175298953343121011e-01 3.892726425065912155e-01 -2.354681466980454996e-01 9.378614287307739383e-01 3.410276838691799206e-01 -6.415652214618611238e-02
1.244159117484216481e-01 4.031157442591244977e-01 -2.639845340365844506e-01 9.378614287307739383e-01 3.410276838691799206e-01 -6.415652214618611238e-02
1.292464166068395814e-01 3.813607730594964496e-01 -2.438148581548246763e-01 9.404647352162053275e-01 3.211749597958279967e-01 -1.112327605288158799e-01
1.203922012663223851e-01 4.291487673081625931e-01 -2.628267882821641588e-01 9.134791668489490313e-01 3.424482286434837874e-01 -2.197385319689979521e-01
1.177434740025971316e-01 4.385173450480798762e-01 -2.696257181610021703e-01 9.134791668489490313e-01 3.424482286434837874e-01 -2.197385319689979521e-01
1.260940504672242446e-01 4.205830040150305149e-01 -2.588337489171396166e-01 9.067122634678300708e-01 3.165605590487191034e-01 -2.786795359042476550e-01
1.099842610833563633e-01 4.388264294771431206e-01 -2.803129150767577626e-01 9.067122634678300708e-01 3.165605590487191034e-01 -2.786795359042476550e-01
1.325407377768696993e-01 4.174443231302108481e-01 -2.597898991718850525e-01 8.945873867809748248e-01 3.391369650543299974e-01 -2.910318304689792357e-01
1.222714830350314086e-01 3.979667315470745703e-01 -2.713520272015529367e-01 8.945873867809748248e-01 3.391369650543299974e-01 -2.910318304689792357e-01
1.088004918081852263e-01 4.514317438280143757e-01 -2.561457245778451797e-01 9.140843918287581138e-01 3.409028466869223895e-01 -2.196246200584121566e-01
1.011312725974549964e-01 4.486324023486469859e-01 -2.447188196976890495e-01 8.578432164536072824e-01 3.786553989109643914e-01 -3.474551839591802915e-01
1.097991737502553022e-01 4.478568267227589494e-01 -2.629395190655227643e-01 8.578432164536072824e-01 3.786553989109643914e-01 -3.474551839591802915e-01
9.276944335516064399e-02 4.750363721856005750e-01 -2.775595834342465817e-01 8.578432164536072824e-01 3.786553989109643914e-01 -3.474551839591802915e-01
9.437426115327754439e-02 4.279471342918787502e-01 -2.826462192705215259e-01 8.406388436039192724e-01 3.244378329633053060e-01 -4.336662624257736076e-01
9.830629272368833493e-02 4.647879810908897014e-01 -2.793373273898089315e-01 8.406388436039192724e-01 3.244378329633053060e-01 -4.336662624257736076e-01
8.352451580880976278e-02 4.721528256926109113e-01 -2.950572716171906418e-01 7.415769217652787848e-01 4.467164948334841901e-01 -5.005077845037170237e-01
8.105599357916298819e-02 4.939390164535816807e-01 -2.927157676084187199e-01 7.415769217652787848e-01 4.467164948334841901e-01 -5.005077845037170237e-01
7.827670432172104120e-02 4.739064014851964157e-01 -2.947288294514092133e-01 7.496159792101612096e-01 3.672720632034079946e-01 -5.506242959615049726e-01
9.852809967392484047e-02 4.829676982135110430e-01 -3.082724794549153158e-01 7.717400889659847829e-01 3.409529001907635748e-01 -5.368131471324831816e-01
1.001015350225842176e-01 4.566775581859640609e-01 -2.871128461400350163e-01 7.717400889659847829e-01 3.409529001907635748e-01 -5.368131471324831816e-01
1.016424801323518451e-01 4.510690051611600526e-01 -3.146762458575137478e-01 7.717400889659847829e-01 3.409529001907635748e-01 -5.368131471324831816e-01
8.492604718065957514e-02 4.638268602429329590e-01 -2.974236738298054461e-01 7.717400889659847829e-01 3.409529001907635748e-01 -5.368131471324831816e-01
7.343723795885633010e-02 5.210680264342222312e-01 -2.659974826822713023e-01 6.373339393020291954e-01 5.300714491395118744e-01 -5.593118169866388989e-01
4.360115942531204991e-02 5.095743793814421219e-01 -2.952416412427063541e-01 6.373339393020291954e-01 5.300714491395118744e-01 -5.593118169866388989e-01
5.931092998544959527e-02 5.139375844018037043e-01 -2.872624201158697210e-01 6.373339393020291954e-01 5.300714491395118744e-01 -5.593118169866388989e-01
7.769775791330157944e-02 4.857580440790361664e-01 -3.099771655113300328e-01 5.782888187881188857e-01 4.519930551857915813e-01 -6.791791517180546522e-01
5.788131409886655698e-02 4.741126007394804720e-01 -2.953402323313720212e-01 5.874266718182152847e-01 4.390704718942195495e-01 -6.798139642190076382e-01
5.691939733614129193e-02 4.695762102378360781e-01 -3.154467364928580930e-01 5.874266718182152847e-01 4.390704718942195495e-01 -6.798139642190076382e-01
5.884701949350840122e-02 4.809393660334982390e-01 -3.339366629191307112e-01 4.474584790004496049e-01 4.168017806796811553e-01 -7.912377551613997140e-01
3.660341901639357909e-02 4.686138291161465741e-01 -3.490778160856319867e-01 4.474584790004496049e-01 4.168017806796811553e-01 -7.912377551613997140e-01
3.283394853382322343e-02 4.383728033110970701e-01 -3.634062688769302274e-01 4.732671682294222748e-01 3.933546130518290052e-01 -7.882197256266488816e-01
5.922213805305752421e-02 4.643193542291338960e-01 -3.263380307756504339e-01 5.477032541870902049e-01 3.630087230432733070e-01 -7.538208091764009300e-01
1.861645965569770633e-02 4.508577352942438887e-01 -3.534282424167517478e-01 3.472088470471390020e-01 4.416033320245579818e-01 -8.273043658031815628e-01
2.546830322598784765e-02 4.594663748344419152e-01 -3.613897846235440414e-01 3.472088470471390020e-01 4.416033320245579818e-01 -8.273043658031815628e-01
2.598365044094442730e-02 4.391060166721361679e-01 -3.833117069783678610e-01 3.471978958563388673e-01 4.909478747987051084e-01 -7.990142710512534441e-01
3.351324299261398965e-02 4.516110325322739150e-01 -3.644909275110712055e-01 3.471978958563388673e-01 4.909478747987051084e-01 -7.990142710512534441e-01
3.121014834017372258e-02 4.526117430790162488e-01 -3.484260006959444267e-01 4.270634754864232607e-01 4.368649824420688388e-01 -7.916854015461874949e-01
2.392819316330500531e-02 4.220529708343978559e-01 -3.773443600260513731e-01 4.270634754864232607e-01 4.368649824420688388e-01 -7.916854015461874949e-01
3.092186077950415807e-02 4.189415693622490222e-01 -3.690040360304231992e-01 4.913141561121692757e-01 4.138375358336104370e-01 -7.663869087732071428e-01
5.471799088667403388e-02 4.283106355853835145e-01 -3.505682491253259703e-01 4.913141561121692757e-01 4.138375358336104370e-01 -7.663869087732071428e-01
4.145202950698245736e-02 4.178334636429339999e-01 -3.809658292687633785e-01 5.891241540982685709e-01 3.900527502984371120e-01 -7.076662935611843785e-01
4.991747082253309570e-02 4.321740794102508221e-01 -3.462537073855931347e-01 5.891241540982685709e-01 3.900527502984371120e-01 -7.076662935611843785e-01
6.586131017480838235e-02 4.603529765427286091e-01 -3.165056967747363892e-01 5.783566855837370957e-01 3.271587821354899894e-01 -7.473089558624447237e-01
6.232865811799714190e-02 4.323513586802338327e-01 -3.525880582472830649e-01 5.783566855837370957e-01 3.271587821354899894e-01 -7.473089558624447237e-01
7.196543205372758767e-02 4.053375387940624242e-01 -3.340213568344469475e-01 6.981178819480285958e-01 3.569651176606030152e-01 -6.206507292172871448e-01
6.269273288723570259e-02 4.305053951355369279e-01 -3.375932583045377355e-01 6.819111464051715865e-01 2.903953021202707041e-01 -6.713179253638782429e-01
7.312067372002011012e-02 4.346755178379057560e-01 -3.259442009119822292e-01 6.819111464051715865e-01 2.903953021202707041e-01 -6.713179253638782429e-01
9.340001770049730090e-02 4.381160777828200792e-01 -3.194048778582627146e-01 6.819111464051715865e-01 2.903953021202707041e-01 -6.713179253638782429e-01
6.912936465018960919e-02 4.535416308022090504e-01 -3.292675134122169389e-01 6.812169262832522554e-01 2.913504212805492211e-01 -6.716088380633808974e-01
6.441401824829560974e-02 4.051813790942480065e-01 -3.390292397859302476e-01 6.810881262716546036e-01 3.822808604445430691e-01 -6.244840334144232674e-01
8.402375527190703020e-02 4.196017721149555846e-01 -3.416574915781367960e-01 7.570747208721211319e-01 3.434192793023819745e-01 -5.557886879199976926e-01
7.618715510103386823e-02 4.045715310187693037e-01 -3.165720228345664800e-01 7.570747208721211319e-01 3.434192793023819745e-01 -5.557886879199976926e-01
7.978013617227884546e-02 4.266965372013960534e-01 -2.902694190498459892e-01 7.264246709721602357e-01 2.934207077266589025e-01 -6.214591584973024885e-01
1.010641270111008738e-01 4.171154244709368575e-01 -3.226627164955270244e-01 7.264246709721602357e-01 2.934207077266589025e-01 -6.214591584973024885e-01
8.755363248354935957e-02 4.098793151111356781e-01 -3.067067862096907738e-01 7.264246709721602357e-01 2.934207077266589025e-01 -6.214591584973024885e-01
1.065613837453266710e-01 4.331042668204273527e-01 -3.085842544534384557e-01 7.264246709721602357e-01 2.934207077266589025e-01 -6.214591584973024885e-01
1.138856167346530279e-01 3.878570565295032524e-01 -3.280995432918024646e-01 7.368634865867800254e-01 4.364998326597974709e-01 -5.162364750994870022e-01
8.960414968549348935e-02 3.944145585346577887e-01 -3.071300937547334353e-01 7.368634865867800254e-01 4.364998326597974709e-01 -5.162364750994870022e-01
8.791887318817967478e-02 4.007449930309967545e-01 -3.257132508473766230e-01 7.312451886189086370e-01 4.351878517448840022e-01 -5.252542316015831325e-01
1.223459137411672532e-01 3.778971035265573652e-01 -3.131588125951293433e-01 7.312451886189086370e-01 4.351878517448840022e-01 -5.252542316015831325e-01
1.240992633956916891e-01 3.960137840214424387e-01 -3.034853079461001801e-01 7.330175498079604113e-01 2.888894773638221447e-01 -6.158150221795436474e-01
1.517421393323404311e-01 3.645552634147813942e-01 -3.001754751077522765e-01 8.362469763855355787e-01 3.560842359440160032e-01 -4.170072078492357837e-01
1.241401450457880751e-01 3.770356403279996327e-01 -2.864284259752750694e-01 8.261802462163960747e-01 3.028309427686503574e-01 -4.750995904688464222e-01
1.066894700473698110e-01 3.852633209366750910e-01 -2.962361098039498764e-01 8.239816519642088055e-01 3.056567182753896494e-01 -4.771039800708570255e-01
1.258617016233553598e-01 4.073218522369587147e-01 -2.901289746626429800e-01 8.239816519642088055e-01 3.056567182753896494e-01 -4.771039800708570255e-01
6.558411150328234684e-02 5.149491013690628005e-01 -2.550315525384205251e-01 6.314475173245670536e-01 5.379246223015706763e-01 -5.584900478847883987e-01
5.205036832796366281e-02 5.217009848591105392e-01 -2.976291416146574775e-01 6.314475173245670536e-01 5.379246223015706763e-01 -5.584900478847883987e-01
7.116408872125490337e-02 5.302098435479239980e-01 -2.900495927372780947e-01 6.314475173245670536e-01 5.379246223015706763e-01 -5.584900478847883987e-01
4.780169936097595357e-02 5.282427831151059738e-01 -3.151705383190270826e-01 5.519049213312944291e-01 5.729733880630424325e-01 -6.058898038272766406e-01
3.586724445294821317e-02 5.334040632922540937e-01 -2.872222547691892225e-01 5.519049213312944291e-01 5.729733880630424325e-01 -6.058898038272766406e-01
4.894139381425333113e-02 4.910848356257824787e-01 -3.206668853353709658e-01 4.780116238605716661e-01 4.950930372926981016e-01 -7.255258588627081506e-01
3.835183055757980519e-02 5.131039840355303694e-01 -3.300429367037731043e-01 4.780116238605716661e-01 4.950930372926981016e-01 -7.255258588627081506e-01
4.030827547405332889e-02 5.390679792391832592e-01 -2.918748371514894302e-01 3.870870490457666291e-01 6.687566761546049898e-01 -6.347661967682945994e-01
3.803116877688782205e-02 5.453252373117151164e-01 -2.788422761078881429e-01 3.870870490457666291e-01 6.687566761546049898e-01 -6.347661967682945994e-01
2.165678063622102426e-02 5.061899041095063723e-01 -2.987442251774809487e-01 2.792293620064022486e-01 6.438638667714460251e-01 -7.123694859127664980e-01
3.462103879184955102e-02 5.165883455896506105e-01 -3.040740447786716705e-01 3.403352702173256250e-01 5.437047629572587804e-01 -7.671747092961881398e-01
4.477189921775134862e-02 5.157276746261406641e-01 -3.107398487993908165e-01 3.403352702173256250e-01 5.437047629572587804e-01 -7.671747092961881398e-01
5.985333884698931101e-03 5.362527542359599719e-01 -3.063334085157601860e-01 3.175925504662628629e-02 6.259712781835213846e-01 -7.791991456669928873e-01
-6.354488625144644534e-03 5.349373519483614503e-01 -3.055550818429900173e-01 3.175925504662628629e-02 6.259712781835213846e-01 -7.791991456669928873e-01
6.993612667904543917e-03 5.306710670835470545e-01 -3.133898569949413182e-01 4.463151571470803242e-02 5.619113428543845989e-01 -8.259925366349203379e-01
2.348027469986819354e-02 5.047932283270664122e-01 -3.144224977464903925e-01 4.463151571470803242e-02 5.619113428543845989e-01 -8.259925366349203379e-01
2.041811928457962916e-02 4.932932334501572980e-01 -3.093282006555913011e-01 2.453571019536292808e-01 5.272214160146513340e-01 -8.135339396831715586e-01
2.207494273182715461e-02 4.953239748920275076e-01 -3.242425616386901965e-01 2.453571019536292808e-01 5.272214160146513340e-01 -8.135339396831715586e-01
1.156266574714350133e-02 4.533980161158318589e-01 -3.561878644207838729e-01 -7.572855386274692652e-03 5.419703978302202740e-01 -8.403634569262583565e-01
-2.969367542945834659e-03 4.886824828806184406e-01 -3.499653525589703218e-01 2.577108530527202901e-01 4.915257882943402379e-01 -8.318578698674833349e-01
2.702577393337464006e-03 -4.989459899092098250e-02 -6.714943141981296604e-01 1.547552948135235418e-01 -1.186702727654798811e-03 -9.879521195198761596e-01
1.647146553641051780e-02 -1.684648286662088212e-02 -6.870360968247132272e-01 4.530590439555881033e-01 4.097956027176334615e-02 -8.905381397391025633e-01
-5.961767032364529220e-03 -9.873512508230087442e-03 -6.454629712630809424e-01 1.514442641841471371e-01 5.755436393280597557e-02 -9.867887970776788586e-01
-1.731643276076166860e-02 9.414182158888284579e-03 -6.610742458534365484e-01 2.303526529128156197e-01 -2.843045113498873788e-02 -9.726918138569322636e-01
5.035861142969579735e-03 1.052006153684677398e-01 -6.758417034431589698e-01 4.627460345254110763e-01 -4.958592668145819782e-02 -8.851030128782457762e-01
9.208106188843406814e-03 1.674144701887861075e-01 -6.593026426958221720e-01 5.294098286373611906e-01 1.737386295164784489e-01 -8.303855260997120569e-01
1.163407917750749684e-02 2.160761961474227943e-01 -6.741586774469254806e-01 7.507871162045420821e-02 4.384003438198149638e-01 -8.956385016289108991e-01
8.092377668637063676e-03 2.186480045696733154e-01 -6.454470792913699073e-01 3.880490417644091306e-01 5.427709317266056210e-01 -7.448608305303457966e-01
3.092228127847060359e-02 2.057461332929451658e-01 -6.496729457378037642e-01 6.120552531019551878e-01 4.631220622357854477e-01 -6.410197521299750845e-01
8.302342215452198498e-03 2.618244792159246104e-01 -6.175934891029857265e-01 5.563757418954328182e-01 5.453145098197471619e-01 -6.269594238946851750e-01
2.210686750343629145e-02 2.715045307855422640e-01 -5.976534802924846623e-01 3.634771407756955397e-01 6.198700581098044449e-01 -6.954462446461789904e-01
6.716849112589618614e-03 2.617883091784621863e-01 -5.799144848791152329e-01 3.410914961223803776e-01 6.315143115913574023e-01 -6.963090301929812931e-01
-1.753188161518139804e-02 2.766496071721152861e-01 -5.931006839513364159e-01 1.453315098831589602e-01 6.881719085149458071e-01 -7.108432855179672716e-01
-1.025310943275293228e-02 2.603690490709824612e-01 -6.465528741672414981e-01 1.454692873098139272e-01 6.881243360838000811e-01 -7.108611570052228990e-01
2.928825452001648094e-02 2.786785716703386595e-01 -6.231330248094109070e-01 3.237215092974063402e-01 6.530848773994147871e-01 -6.846053807343327469e-01
1.348816286345099480e-01 8.696923848464675755e-02 -3.802856058223395563e-01 3.824868856052614507e-01 -6.788518099824831786e-01 6.267886425450719390e-01
1.420177575612804610e-01 1.365545784394927853e-01 -3.583715356645597039e-01 4.260265318947939472e-01 -6.694012443723048600e-01 6.086077292924432225e-01
1.437595166899281462e-01 1.076169441113606906e-01 -3.768075649143491912e-01 5.025156613697773222e-01 -5.712823730249053655e-01 6.489333250412775422e-01
1.495842082193094558e-01 1.392759767811318217e-01 -3.820257982638503580e-01 6.074739113118752254e-01 -5.616658553622292382e-01 5.617000213598601910e-01
1.726050095939453688e-01 1.086118615849287761e-01 -3.969336018040664493e-01 6.053050169109353007e-01 -5.164958226560437682e-01 6.056714469754279628e-01
1.370007307678038910e-01 1.147042848216139055e-01 -3.713502103337318339e-01 5.023578197395132117e-01 -5.700871706284745821e-01 6.501055597604000758e-01
1.945193806754782484e-01 1.523278413929884945e-01 -3.575871472274337881e-01 6.648457528440512299e-01 -4.787483078192562580e-01 5.733935670073614377e-01
1.606810496940821315e-02 -3.987741162322297472e-01 -1.390071145384587023e-02 -8.172317380991394042e-01 -8.522126919307043344e-03 -5.762461796803783898e-01
-7.449637396124320250e-03 -4.030132316609729148e-01 -1.079804335613942720e-02 -9.590129664589632785e-01 -6.848751986016644866e-02 -2.749610695843733299e-01
1.466963424728827577e-02 -3.662378038184481155e-01 -1.365360595588290503e-02 -8.298445828124340062e-01 1.396701968621697210e-01 -5.402316211453567218e-01
-7.075366739234003471e-03 -4.120464393209601339e-01 -2.946976251496146587e-02 -9.637604056172973666e-01 1.122466573724014427e-01 -2.420053067044297124e-01
-4.120084984379923480e-03 -3.777842537304437198e-01 -3.149018307552326618e-02 -9.278550180107905110e-01 3.079067643937674070e-01 -2.104245470299425935e-01
2.787246898639612544e-03 -3.603062434558718663e-01 -3.171583588014169341e-02 -7.782536450755905832e-01 4.499110298612791214e-01 -4.380654393303812788e-01
1.839392354542851438e-02 -3.148558469309581942e-01 -6.874994625221434244e-03 -8.229983341912100459e-01 2.889181496792345705e-01 -4.890808161279900368e-01
2.463389141770508384e-02 -3.105341588791962204e-01 -4.116589207625934166e-05 -8.379058106166623610e-01 2.490305567396127462e-01 -4.856929424490254998e-01
2.078922508311260159e-02 -3.111967311130625635e-01 1.608492539722251521e-02 -9.457506868945985135e-01 2.490187435003060334e-01 -2.086751150087713391e-01
1.759359132673322251e-02 -3.375934968323667240e-01 3.069354251475440130e-03 -9.457506868945985135e-01 2.490187435003060334e-01 -2.086751150087713391e-01
3.685779888205437810e-02 -2.218335917859918238e-01 5.850928145244484874e-03 -9.272353263032251380e-01 9.719492728448693442e-02 -3.616459536141871656e-01
4.028040764283106340e-02 -1.755496404799858357e-01 3.308989599929682002e-02 -9.267693974235500232e-01 9.709481284941968993e-02 -3.628651007150259789e-01
4.714140061723127301e-02 -2.404066237679763351e-01 2.635678110881600408e-02 -9.948010433999590063e-01 4.982401411147348996e-02 -8.881695597222626082e-02
3.773579817683755250e-02 -1.543408193282415353e-01 3.808097993414263915e-02 -9.305436494134784464e-01 5.215138941467660494e-02 -3.624482709551308246e-01
5.252220735195762408e-02 -1.442678074115126552e-01 3.156960310757100929e-02 -9.305436494134784464e-01 5.215138941467660494e-02 -3.624482709551308246e-01
4.632291459072841733e-02 -1.910533501076172869e-01 3.224192095519190504e-02 -9.952009451937057216e-01 4.981462241426820592e-02 -8.422340576869651041e-02
4.803344506238077516e-02 -1.107681981300934621e-01 1.765763772496030046e-02 -9.250656757564348354e-01 1.643115547120397313e-01 -3.424254787912296982e-01
4.972257210996194193e-02 -1.354746647595271858e-01 2.015636983762721102e-02 -9.916739826572843475e-01 1.082142541206702058e-01 -6.980248796244421794e-02
5.073924440031805233e-02 -6.992699176545619233e-02 3.617554171286448822e-02 -9.977113490985537458e-01 3.190006222046447293e-02 -5.961920756160667828e-02
4.687812533331298798e-02 -1.460687274097283161e-01 4.764796545685483220e-02 -9.924590688451715437e-01 1.099571681883853985e-01 -5.417026703798235449e-02
4.622321487428529552e-02 -8.889809481159317850e-02 4.813279887539809176e-02 -8.450452834512421907e-01 1.368938127500849422e-01 -5.168738269128688723e-01
5.506936280244661280e-02 -8.466640228799361678e-02 8.006844076820954920e-03 -5.768056950320782361e-01 2.116679774659971369e-01 -7.889815317825984442e-01
6.526539417154116063e-02 -6.408472833702444360e-02 2.752443020317814001e-02 -5.768056950320782361e-01 2.116679774659971369e-01 -7.889815317825984442e-01
5.827989673234044293e-02 -1.007861583819300438e-01 2.333108226194017393e-02 -5.768056950320782361e-01 2.116679774659971369e-01 -7.889815317825984442e-01
4.672313570745773720e-02 -1.348436040512736023e-01 2.186752504599569560e-02 -8.267537729311048578e-01 2.059763510678278009e-01 -5.234997055825016954e-01
5.646846657823714061e-02 -1.183571442164413484e-01 2.156623648491914902e-02 -8.267537729311048578e-01 2.059763510678278009e-01 -5.234997055825016954e-01
8.759028824874867669e-02 -1.209678842990030700e-01 1.617487655916948278e-02 -6.238758569071242155e-01 2.425619216736028816e-01 -7.429284146688768242e-01
7.116473483815047296e-02 -1.148829329537423422e-01 9.842728735947631202e-03 -6.221178408508513114e-01 2.465384678555085640e-01 -7.430936522152058465e-01
5.154720756921236935e-02 -1.588328490358870970e-01 1.615058826892377258e-02 -8.360663013948855804e-01 8.615159658236527795e-02 -5.418219652968914168e-01
3.146527090211159727e-02 -1.642078598861059224e-01 4.437269397209358049e-03 -6.815308296078316230e-01 1.249800019404795626e-01 -7.210379514346096919e-01
6.954997794100044317e-02 -2.094894487084127122e-01 7.176568123627536733e-04 -8.610743924698537333e-01 1.254483774986994427e-01 -4.927611949165802696e-01
6.557291078586797994e-02 -1.983392275912652103e-01 -3.274137804733818526e-03 -6.139073180232722526e-01 1.486288605867417678e-01 -7.752594834493544695e-01
5.126359006675997032e-02 -1.554641238505578560e-01 -2.579212617086652781e-02 -6.154626745213790384e-01 9.431297405448710314e-02 -7.825028812700874914e-01
6.778631132937971981e-02 -1.712979771048760147e-01 2.902540762981528112e-03 -6.154626745213790384e-01 9.431297405448710314e-02 -7.825028812700874914e-01
3.766753100194635689e-02 -2.545354429437979293e-01 -1.238823000867653006e-02 -8.485918941509078550e-01 2.336436993856501054e-01 -4.746603195115031704e-01
3.660350465740016407e-02 -2.778433598544720051e-01 1.203770822939766953e-03 -8.485918941509078550e-01 2.336436993856501054e-01 -4.746603195115031704e-01
5.438674765026713792e-02 -2.562017476663550619e-01 2.930106731042863427e-03 -7.730185262108518751e-01 2.086415529303469185e-01 -5.990918631776063208e-01
3.321051534533872585e-02 -2.186921316242275981e-01 7.682334755025957418e-06 -7.730185262108518751e-01 2.086415529303469185e-01 -5.990918631776063208e-01
4.734327937979903450e-02 -2.458971294438033472e-01 -1.214247169117263492e-02 -5.728478732773288895e-01 2.041125922474320564e-01 -7.938408932321859846e-01
1.380671484557819632e-03 -4.235724619271548641e-01 4.284545814327757850e-03 -9.976635184452067318e-01 -6.798298444271960728e-02 -6.768883939885403725e-03
9.451524933816695187e-03 -3.909471281893948658e-01 2.814494723667872872e-03 -9.552260139062055400e-01 7.167132662436631607e-02 2.870652944832672304e-01
-2.289969736838372641e-03 -3.716424661365802518e-01 1.225400201648014359e-02 -8.846475935829224424e-01 3.533404657553400607e-01 3.042189185894653702e-01
2.423050064614750559e-03 -3.448890439560277077e-01 4.120969180056263670e-03 -9.338619830055329141e-01 3.562589263881432711e-01 3.132689045757807572e-02
4.281408478252461680e-02 -2.979745232542651556e-01 1.459150030024830916e-02 -9.745674189687713040e-01 2.193517019476272922e-01 4.586040489601662939e-02
3.611478564593851442e-02 -3.183523207584725845e-01 1.470973214091684730e-02 -9.553005207477848204e-01 1.775950566370290140e-01 2.363491292920317510e-01
3.387079066710299569e-02 -2.390309438899066441e-01 2.845146315190364220e-02 -9.841022289677006096e-01 1.641513339115620862e-01 6.780223090620432491e-02
2.710593508252565759e-02 -2.498235552365619117e-01 1.883261560475274835e-02 -9.841022289677006096e-01 1.641513339115620862e-01 6.780223090620432491e-02
3.599034738524144877e-02 -2.831794232192852978e-01 4.798447173276352423e-02 -9.721284456175453004e-01 1.273123609338590312e-01 1.968701297166791653e-01
3.413689886937310708e-02 -2.901256885794786244e-01 3.708584068623804048e-02 -9.623593329696518150e-01 1.816174974455453672e-01 2.021870393171238123e-01
3.609056573918287270e-02 -3.130697681240778296e-01 2.294536359220640184e-02 -9.623593329696518150e-01 1.816174974455453672e-01 2.021870393171238123e-01
4.867695732215713417e-02 -2.231013974565007607e-01 2.780954728847940052e-02 -9.985593851410298205e-01 1.976737337587741034e-02 4.988391821606536630e-02
3.585430230948422753e-02 -1.613118486687236675e-01 3.076052187208759559e-02 -9.985593851410298205e-01 1.976737337587741034e-02 4.988391821606536630e-02
3.522285248272523372e-02 -2.038877142952073285e-01 3.220856813034413124e-02 -9.985615971175770822e-01 1.976651238076270259e-02 4.983996137934674359e-02
2.247405896182768162e-02 -1.969071849391731965e-01 2.954909954755579465e-02 -9.985615971175770822e-01 1.976651238076270259e-02 4.983996137934674359e-02
2.946675943550064458e-02 -1.487872336978546817e-01 3.213021872459151385e-02 -9.980636407232228446e-01 -3.333805086113254129e-02 5.251231694646575632e-02
3.963008971415429155e-02 -1.660640462819541752e-01 6.042706586178103745e-02 -9.771004608026696570e-01 -7.523384270144668762e-02 1.990340634453922619e-01
5.786329955650304502e-02 -1.494682481765234883e-01 5.265134476675746578e-02 -9.771004608026696570e-01 -7.523384270144668762e-02 1.990340634453922619e-01
3.995207136256778702e-02 -2.198674691738604081e-01 3.586748925261892817e-02 -9.782754191732287996e-01 -2.284366396145168232e-02 2.060470122526892045e-01
4.415418196242585497e-02 -2.015523146464746618e-01 5.569720416787422163e-02 -9.782754191732287996e-01 -2.284366396145168232e-02 2.060470122526892045e-01
4.874471003785365436e-02 -1.200190486421423564e-01 6.586766692191405037e-02 -9.946545888817966974e-01 7.980056618697975446e-02 6.552952351895580119e-02
4.653593058828325163e-02 -1.573600370494828149e-01 5.750623629158489736e-02 -9.946195666200290386e-01 7.988299609322777051e-02 6.595926494249949867e-02
6.263317747551488957e-02 -1.206002163004475380e-01 7.978303954927490338e-02 -9.696269946141752305e-01 3.085397981289034544e-02 2.426345466853141730e-01
1.814525922603358807e-02 -1.409526142808563143e-01 8.491241127532928035e-02 -9.696269946141752305e-01 3.085397981289034544e-02 2.426345466853141730e-01
3.015002409115111540e-02 -1.003753719475014572e-01 7.717374339679115847e-02 -9.997223089712314881e-01 2.134051985699931750e-02 9.994356280544491530e-03
4.968055006784334593e-02 -9.888460869578635792e-02 7.432809829608387486e-02 -9.422172588493227252e-01 -4.804514426139995520e-02 3.315392906419532548e-01
2.771471324004280007e-02 -1.090707053333935111e-01 7.310686435634511371e-02 -9.507887453086761864e-01 4.878477785416136109e-02 3.059751742283568499e-01
5.185816155510124953e-02 -1.305293271596943971e-01 8.262046849630468037e-02 -9.507887453086761864e-01 4.878477785416136109e-02 3.059751742283568499e-01
6.296366879352724433e-02 -1.327159165404401819e-01 8.429138120319606964e-02 -9.507887453086761864e-01 4.878477785416136109e-02 3.059751742283568499e-01
3.661951982648848497e-02 -2.970822965646506830e-01 4.716306574578020550e-02 -9.168786869087507396e-01 6.864572095340569502e-02 3.932190718763169945e-01
3.156890354492986744e-02 -3.322283979297263601e-01 9.243462479871183621e-03 -8.237055071548475826e-01 7.771287112063722524e-02 5.616671141743682094e-01
1.354952304324913946e-02 -3.785906199622225965e-01 3.651458046623783094e-02 -8.012411675840007685e-01 2.590266257002694084e-01 5.393679621065380347e-01
1.354449715017511449e-02 -3.588610435915858821e-01 2.144291155113712058e-02 -8.704060108793044703e-01 2.353092033876760802e-01 4.324615069878859908e-01
1.992434468557623475e-02 -3.946232518267948630e-01 3.255456995357216415e-02 -9.088606320179045683e-01 6.977708238975534327e-02 4.112219721041038833e-01
1.491415201122972198e-02 -4.311723986775711226e-01 1.916875651469569092e-02 -8.102132273962957543e-01 -3.356428832754179692e-01 4.805188664960436395e-01
2.685178963160557777e-02 -4.526289806740512733e-01 -4.323623016879309111e-03 -8.287855663999984523e-01 -4.389568918981346379e-01 3.470321771567629887e-01
3.877854752305454761e-02 -4.717432617801710082e-01 1.548378649570721945e-02 -9.588254633808153127e-01 -1.336366273966076990e-01 2.505892707013311904e-01
-1.134691449762322175e-02 -1.856855222324294702e-02 1.156508350219382225e-01 2.401805065387954963e-01 -9.423758526564203208e-01 2.328971373994374316e-01
4.796557619966661246e-04 -1.922444261768866541e-02 9.779089195340479046e-02 3.436592062030010553e-01 -9.273632556366099289e-01 1.479720990152905147e-01
3.266863308646442837e-02 -2.610546474352343216e-02 9.961861603209404281e-02 3.436592062030010553e-01 -9.273632556366099289e-01 1.479720990152905147e-01
7.770759765097676186e-02 -6.776154361506248058e-02 2.361282004377950050e-02 -1.686152621051349720e-02 -2.623460441291083564e-02 -9.995135989395793619e-01
9.122306651478562234e-02 -6.245741334863137706e-02 1.771188581687726995e-03 1.015331647559411382e-01 -3.583030960010957777e-01 -9.280678358022501628e-01
9.691524091127043383e-02 -3.254284536510009679e-02 6.482435726111661183e-03 5.223599542942621854e-01 -3.705796948636601029e-01 -7.679913853061458573e-01
1.172561142993734234e-01 -1.392946974779266274e-02 -1.643986803970596405e-02 7.187598233185876762e-01 -6.311475958656457275e-01 -2.916110913803657279e-01
9.580658620667373282e-02 -3.445423236762713143e-02 -1.239652310637033746e-02 4.272321731177389226e-01 -8.165374304266417305e-01 -3.882515872026172654e-01
6.754499616403306095e-02 -3.356576361878960135e-02 -2.541727737645680350e-03 4.279346519406921900e-01 -8.100012155704792161e-01 -4.009613004302842731e-01
1.201214731192020713e-01 -2.728530743874093417e-02 1.507211597547866364e-02 7.530651948035002041e-01 2.153670858131016483e-02 -6.575933261211294178e-01
1.296626129912164527e-01 -1.260945190543114047e-02 3.035804210223295302e-02 7.530651948035002041e-01 2.153670858131016483e-02 -6.575933261211294178e-01
1.475227777846948030e-01 -4.813910686203066308e-02 4.170362355157923584e-02 7.428949883085587125e-01 7.401047342038782895e-02 -6.653040554288817132e-01
1.174031021811224318e-01 -4.246452071742774087e-02 3.762919850128067928e-02 7.428949883085587125e-01 7.401047342038782895e-02 -6.653040554288817132e-01
1.211273568556265751e-01 -7.705620709384056188e-02 1.670674937423725914e-02 5.135650090360024400e-01 1.031858014144053023e-02 -8.579886411822218450e-01
1.268858802502690064e-01 -4.922015059654703123e-02 2.822552616825486568e-02 7.092318471777130373e-01 2.973598247873458778e-02 -7.043478957836910581e-01
1.512151012163567010e-01 -6.350054167289324869e-02 3.036985332073449673e-02 7.298717881578384858e-01 -3.071212987302108718e-02 -6.828937969625599180e-01
1.499774763829384849e-01 -9.209850997501911607e-02 3.528026831940200142e-02 7.298717881578384858e-01 -3.071212987302108718e-02 -6.828937969625599180e-01
1.449721093171489339e-01 -8.274762747797559381e-02 2.783028674554720305e-02 7.668681453028602935e-01 4.361771939830616507e-03 -6.417898586494616975e-01
1.287244755430840271e-01 -1.113962847727601596e-01 3.965126457100957846e-02 7.830025129315179022e-01 -4.835336722248738395e-02 -6.201362887472201546e-01
1.458031419625849812e-01 -1.166471586216404899e-01 3.260289965098592951e-02 7.830025129315179022e-01 -4.835336722248738395e-02 -6.201362887472201546e-01
1.236515483175660290e-01 -9.866216386672105321e-02 3.885560071357828382e-02 6.332641557160025858e-01 9.532584690416029405e-02 -7.680426368355490752e-01
1.154850846472864345e-01 -1.091830127478315288e-01 5.905818531629423822e-03 6.332641557160025858e-01 9.532584690416029405e-02 -7.680426368355490752e-01
1.330726655572723183e-01 -1.306754892286271785e-01 3.498845311129676269e-03 8.346340836608855396e-01 -2.785261620917539593e-02 -5.501001528466051838e-01
1.223001135703662701e-01 -1.379850789093403640e-01 -1.537293662113526325e-02 6.261678698406455412e-01 1.963268530971314790e-02 -7.794410538628037122e-01
1.057085016302438951e-01 -1.578434728501887929e-01 2.500915534890663788e-02 7.294912928258897589e-01 -6.663695695523945417e-02 -6.807363437182983867e-01
1.197196171601905695e-01 -1.745716456825675833e-01 -1.381554456287669916e-02 7.294912928258897589e-01 -6.663695695523945417e-02 -6.807363437182983867e-01
1.009967550983829065e-01 -1.443610626801142827e-01 2.760099281743271307e-03 8.352616644488169984e-01 -8.831163238917298652e-02 -5.427144806313457526e-01
8.956632905730289862e-02 -2.228993719219247438e-01 6.157855030844767985e-03 7.634098575232531880e-01 -1.455410933362951686e-01 -6.293037260232948737e-01
