-9.477797207245337585e-01 -8.549725322971142571e-02 -2.233807676627941330e-01 -8.327976764829925216e-01 -1.401594530564199137e-01 -5.355402485000118062e-01
-5.716127992987073414e-01 -5.144084843335014479e-02 -2.314175010451016423e-01 -9.704798729267796187e-01 -1.542995373259341829e-01 -1.853657709099078010e-01
-3.758027625086339252e-01 -9.269901103008533483e-02 -2.449201277202120997e-01 4.275308987167154573e-01 -6.287731819419564716e-02 -9.018113846582240800e-01
-9.724136465521224792e-01 -4.672761944267867645e-02 -2.456311600994873223e-01 -9.849579823484977403e-01 -1.458715124178701361e-01 -9.262437515524357678e-02
9.063753443819569378e-02 -4.998614612461799861e-02 -2.264400683600004127e-01 -5.998962960744947948e-01 -6.367764893382567015e-01 -4.843966727612271095e-01
-8.989649429601128672e-01 -3.884229498549982701e-02 -2.560082258185226167e-01 9.121554544262777675e-01 -1.151065656043048641e-01 -3.933483259341171712e-01
-3.868269029460958963e-01 -4.022588885706269990e-02 -2.502479212379915552e-01 3.729379918727269705e-01 3.933149196864003765e-03 -9.278479318052788027e-01
-9.723479494060836004e-01 -4.114720728436927627e-02 -2.143371999583520982e-01 -9.958105215214028139e-01 2.092271831331914481e-02 -8.901485879140150215e-02
8.593904415341005465e-02 -4.744058730773103444e-02 -2.332118918436502653e-01 -7.221373728122141289e-01 -5.364005480374381962e-01 -4.367975124162330469e-01
-3.690743485377210309e-01 -3.140403333293949328e-02 -2.287722528042556713e-01 3.424918679847411829e-01 1.477893401269547713e-01 -9.278241381367279272e-01
-3.652205480370682156e-01 -7.473362284758275007e-03 -2.444597033849064682e-01 3.436677159629622502e-01 1.366951394482323057e-01 -9.290893067170824526e-01
-5.539738079701409523e-01 -6.516071480244190785e-03 -2.395677489252166226e-01 -9.855947297426895792e-01 -1.358576672707506941e-02 -1.685777436255214146e-01
6.177059457733954234e-02 -8.666797195540205945e-03 -2.316976518880609071e-01 -8.053225797961138799e-01 -3.563557368893477406e-01 -4.737785677471932910e-01
-9.772751236294319188e-01 2.199433377319729051e-03 -2.269415853714168985e-01 -9.993382963056134383e-01 2.459228560498631297e-02 -2.679904897037684725e-02
-3.876926654413965778e-01 1.341775348607354354e-02 -2.289314583821521476e-01 3.196406844368079869e-01 1.981879017136396193e-01 -9.265804813760722958e-01
-8.783754313985902007e-01 1.902397977634996684e-02 -2.520908604333846892e-01 7.147824236458929503e-01 -6.929772288696411930e-02 -6.959051030489608047e-01
-3.917691146945970204e-01 2.650601676896421552e-02 -2.476496493882931749e-01 2.476687850880116004e-01 2.094238236008167942e-01 -9.459396571671166987e-01
6.706024398323320312e-01 4.283755169532131590e-02 -2.482207446190080324e-01 5.223627602744103093e-01 9.968347019370076001e-02 -8.468768224769411823e-01
-8.828682666025156056e-01 5.250861138558977209e-02 -2.436250794327093905e-01 6.446902043308214703e-01 1.092795445082867523e-01 -7.565927052198857528e-01
-4.216449422196935082e-01 3.815223380260097247e-02 -2.371523691129072409e-01 2.227703033285320378e-01 1.107944165580648371e-01 -9.685545876276007160e-01
1.956608712077339413e-02 5.716940994440765367e-02 -2.468192274680867659e-01 -7.936546859474961080e-01 -2.327261338007894920e-01 -5.620949974156667084e-01
-4.235432638278209816e-01 6.016974486805706096e-02 -2.400515651093274860e-01 2.827430738733361926e-01 9.940775987400668479e-02 -9.540306344418344464e-01
-4.269724344817292794e-01 7.487338724653580524e-02 -2.428533397462034338e-01 2.824870269218865970e-01 1.201337747694461167e-01 -9.517189478940077940e-01
-5.627703443698685026e-01 7.594736455878951797e-02 -2.374633956036733273e-01 -9.730931462922269848e-01 4.742097067274021749e-02 -2.254794451375771169e-01
-8.955562045896392487e-01 1.074866472376696108e-01 -2.191283611320775648e-01 8.143396888140843615e-01 1.597892191740925005e-01 -5.579590277591304215e-01
6.672004096839995180e-01 9.423968920410381866e-02 -2.224560561458631680e-01 5.201911213101414466e-01 3.701575013567509065e-01 -7.696652658782417999e-01
-4.359470154503810591e-01 1.178602214613845844e-01 -2.420999047416630690e-01 2.741594208049532577e-01 1.437509687788743884e-01 -9.508797352762481392e-01
-4.380870350149511649e-01 9.260334243699734624e-02 -2.301194624842753389e-01 2.416532407844954045e-01 1.487762500549570099e-01 -9.588896384036775800e-01
2.558379767477891864e-02 1.160218183262403807e-01 -2.291839081345813378e-01 -5.710538978871231297e-01 9.834043440901521493e-02 -8.150009844584049645e-01
6.504396388702702314e-01 1.209899648941945571e-01 -2.592817636614229704e-01 4.214433110909153735e-01 4.473355944901978298e-01 -7.888449793456425718e-01
-4.599399761737897885e-01 1.376477642611758923e-01 -2.411428100405583197e-01 2.379580923077503629e-01 1.621328905357638517e-01 -9.576475719761284866e-01
6.135672216054140898e-02 1.359788921983345056e-01 -2.342045168475517802e-01 -3.985327343156624402e-01 3.297394864183480490e-01 -8.558291481221269592e-01
6.913517392290122188e-02 1.267109368494613864e-01 -2.397344867766716958e-01 2.107786861955693314e-01 3.944748676638015206e-01 -8.944059057426307913e-01
-9.232518502249877912e-01 1.409501593086149029e-01 -2.367098919713164495e-01 -6.798761060394747924e-02 5.184649701293051471e-01 -8.523917875913544773e-01
-9.147273671727452760e-01 1.401986202235778745e-01 -2.311101281500224369e-01 4.592735239409628106e-02 5.047448653900225013e-01 -8.620459959680091266e-01
-4.745845850433372259e-01 1.633013414651645345e-01 -2.277507593781794570e-01 3.146887521959780831e-01 2.261132405006578971e-01 -9.218697259980012104e-01
-4.822474687069667754e-01 1.697588762560658937e-01 -2.310495155378107235e-01 3.130609438890240015e-01 2.061900761179654151e-01 -9.270806318340281127e-01
-5.484682757784493656e-01 1.735767827587773315e-01 -2.291315760575163563e-01 -8.607151828691460560e-01 3.400844203659406650e-01 -3.788297256062340135e-01
6.347204367100044431e-01 1.599799355624892117e-01 -2.383535650853856880e-01 8.574062236451117647e-01 1.378437389977113237e-01 -4.958363351689341059e-01
-4.804316130985059052e-01 1.888937388654606808e-01 -2.540003988635357590e-01 3.005786119083299068e-01 2.630380223507821080e-01 -9.167679623880031770e-01
1.883362087375953786e-01 1.849445433180391951e-01 -2.574757685669689100e-01 2.817935528894917607e-01 8.277853986149403820e-01 -4.851429968471374088e-01
-5.054012255159436862e-01 1.791539888470750075e-01 -2.490781704421106968e-01 2.592255225650806350e-01 3.027206460102295216e-01 -9.171490276558167398e-01
-4.874027768850681674e-01 2.162865562703929767e-01 -2.418728873335818375e-01 3.129265055123887085e-01 2.783794396419937978e-01 -9.080649149330759506e-01
3.538036549035558087e-01 2.202997097906108648e-01 -2.443315599185540143e-01 -2.825659581380413621e-01 7.187369735825823724e-01 -6.352744620295079914e-01
-5.356584901874853477e-01 1.796021043286824270e-01 -2.436929914589953117e-01 -6.464907077314226980e-01 4.292309706570306416e-01 -6.307222357311874639e-01
4.001970967596216733e-01 2.188635025290061042e-01 -2.276444041750894931e-01 -3.084452838863803170e-01 7.173533824182952712e-01 -6.247124391120134623e-01
5.107832045047350222e-01 2.234133981287680093e-01 -2.389208568578926606e-01 1.936230656953529250e-01 6.791561966466154177e-01 -7.079950345780942067e-01
4.175998816198912555e-01 2.376831702087693621e-01 -2.515166698109690957e-01 -1.592530272489326437e-01 7.604835358709801652e-01 -6.295262226319268128e-01
5.914934477441076144e-01 2.456683011436732733e-01 -2.524104142204049439e-01 8.113065059086646547e-02 5.682655075456854998e-01 -8.188358385345301249e-01
5.764055069990768887e-01 2.333960180288868758e-01 -2.350155655016477885e-01 4.847373091478783813e-01 6.093500973950500832e-01 -6.274728678793349834e-01
5.710830247263822823e-01 2.538639651870668867e-01 -2.392088608424930707e-01 2.560234900316077367e-01 5.834453450113616935e-01 -7.707421760463146754e-01
-4.765712549113221841e-01 -1.847447090097696365e-01 -2.408769858766181549e-01 2.492148436574202208e-01 -4.847375087036692731e-01 -8.384041444056486991e-01
4.550993641461910100e-01 -1.890616843781059153e-01 -2.568933421466819134e-01 -2.342141234751871914e-01 -6.443017241802418971e-01 -7.280240604424537132e-01
4.848543054283391829e-01 -1.856516243543173683e-01 -2.156998855377344204e-01 4.315395807439104114e-02 -6.411197365052037078e-01 -7.662266109748550047e-01
-4.290405016452222275e-01 -2.091264322652423291e-01 -2.427169650163258086e-01 2.144915461155292580e-01 -4.453570295077601826e-01 -8.692815958669514176e-01
4.307667314750191490e-01 -1.780023440356814923e-01 -2.349620026732902878e-01 -9.249356814472472488e-01 -2.086981425217297736e-01 -3.177090972787782186e-01
-4.400875960926718955e-01 -1.626565513632282356e-01 -2.529525448223354789e-01 2.513309199562623331e-01 -4.320695982783202549e-01 -8.661112116336733280e-01
-3.810408857312285180e-01 -1.267174699507098434e-01 -2.459432809820767951e-01 3.351062402912237115e-01 -2.427472793981807486e-01 -9.103722129231879290e-01
3.917819331461016574e-01 -1.495187682572782506e-01 -2.340254269095423389e-01 -5.885839012228859524e-01 -3.491485074250196274e-01 -7.291531464542473362e-01
3.693376126325072506e-01 -1.260268388751374369e-01 -2.379437134823871036e-01 -1.978834838371810179e-01 -5.982702700164266307e-01 -7.764758919882392973e-01
-5.527630713944108320e-01 -1.110425963129945404e-01 -2.359167997020067686e-01 -9.480497711280917450e-01 -2.743521953407623282e-01 -1.610357239114254546e-01
1.797966608925452847e-01 -1.116616903892602153e-01 -2.439443385616893722e-01 -1.781344182486883643e-01 -6.996468148521127750e-01 -6.919266315892854680e-01
-3.519402143768408098e-01 -9.995839638895707979e-02 -2.328933427414097701e-01 3.870218627456848415e-01 -1.144800338230044651e-01 -9.149362817228006151e-01
1.579238355544163863e-01 -9.300450717904300280e-02 -2.355462609168642585e-01 -2.251326977887731229e-01 -7.258220636566503625e-01 -6.499981540708791306e-01
6.544897992306050183e-01 -1.031494712602332858e-01 -2.379983544412085095e-01 8.225253060623258783e-01 -1.295813425744525293e-01 -5.537696240709485407e-01
-8.824621277871865788e-01 -8.165838802840194588e-02 -2.296586484569052011e-01 8.992632531011105490e-01 -1.817099639742348616e-01 -3.978782359145699998e-01
1.024967336729566969e-01 -6.200567543297053064e-02 -2.275328356461669976e-01 -5.573689966880294167e-01 -6.423889853295740027e-01 -5.260001835153861327e-01
-5.656876657451250789e-01 -4.152834425406426444e-02 -2.235313888602001309e-01 -9.722187806315085723e-01 -1.118521049885077973e-01 -2.056204007315962645e-01
-3.492864251347778115e-01 -2.936348680632821714e-02 -2.488009621991097708e-01 3.928922427119019845e-01 2.100536000699367370e-02 -9.193445820081763697e-01
-3.404879533589341145e-01 -2.316353554302447854e-02 -2.415464500815092674e-01 3.809721837382309961e-01 3.443798309966510096e-02 -9.239449228919172086e-01
-8.822272998748639239e-01 2.947163853387673935e-04 -2.473590846551979860e-01 7.764410790340772195e-01 -8.763378139856975446e-02 -6.240669604667320458e-01
6.738951553127275895e-01 -2.571286285674375966e-03 -2.470016487647966330e-01 9.017679028289765641e-01 -2.894070978473745615e-01 -3.210267607894857766e-01
-3.504185772464797344e-01 -2.626561914006201367e-03 -2.488909236461806507e-01 2.753909789485514681e-01 1.600741195269242412e-01 -9.479114330840400227e-01
3.881778908282893653e-02 4.283850861071968052e-02 -2.271075024943468301e-01 -8.507568144177427572e-01 -2.110263991828585650e-01 -4.813322153873469400e-01
-3.844031457319504463e-01 1.376023982621585318e-02 -2.436210971536997005e-01 2.898213171692372025e-01 1.982074330236536785e-01 -9.363318950075674163e-01
-9.739752149770156686e-01 3.444700370599358685e-02 -2.203223637566067983e-01 -9.988944979656723122e-01 4.535473326217761419e-02 -1.235840218734651601e-02
-3.901945575294905044e-01 4.249464053771787042e-02 -2.397764865058647776e-01 3.022514054156503760e-01 1.709031102851817363e-01 -9.377826053084558078e-01
-5.711949407420805480e-01 4.995573015816816981e-02 -2.449391768498017097e-01 -9.842669369090434328e-01 -7.261742089749134710e-02 -1.610754701681350320e-01
-8.826271551581125197e-01 7.800715364276124275e-02 -2.360768997154331361e-01 7.150279990657899543e-01 1.405623638233101380e-01 -6.848190873715305216e-01
6.690922415569729997e-01 7.034114527136063610e-02 -2.332722512574544327e-01 9.087289329973369245e-01 -1.028421121965065882e-01 -4.045185116808411308e-01
2.914735547411836936e-02 9.889663236102226584e-02 -2.412983065492087797e-01 -7.317190785393427044e-01 -1.446893229803142278e-01 -6.660722107377198276e-01
-4.290991229076647762e-01 1.059103489257517822e-01 -2.136565088791732570e-01 2.862075046291263081e-01 1.588760386848876993e-01 -9.449040526031025067e-01
-9.649145233541219779e-01 1.296957489302008604e-01 -2.327131033429888363e-01 -9.724685833903645715e-01 5.431155408119577206e-03 -2.329707210566819564e-01
-5.770616724787313023e-01 1.120877066587715881e-01 -2.581351177676091124e-01 -9.805436540172368654e-01 8.074494383775626671e-02 -1.789256734266021498e-01
-4.417753879657631555e-01 1.198245658655394258e-01 -2.348225208290738442e-01 2.543173747465879986e-01 2.280894211753382306e-01 -9.398392888413970025e-01
8.973756646207586840e-02 1.127878834847823031e-01 -2.444295510071446131e-01 -3.626371316042634185e-01 4.233581628929565244e-01 -8.302181500628211808e-01
6.723441494992500322e-01 1.151871949278674284e-01 -2.504355639872736239e-01 3.766882883010632121e-01 3.992924115709527433e-01 -8.358657209855347991e-01
6.331490357339861763e-01 1.179877894374702363e-01 -2.510378267874157077e-01 8.800565518526048958e-01 2.511761076338823728e-01 -4.030025167355606452e-01
-4.576579047901924158e-01 1.535169873672878327e-01 -2.228192380333000322e-01 2.956997621603698057e-01 2.242764072186771152e-01 -9.285804993770776505e-01
6.315514340290134809e-01 1.240596002594867853e-01 -2.235536571143134366e-01 8.261794049798575346e-01 3.022630113797079576e-01 -4.754625776428668682e-01
-9.456627672432926790e-01 1.520504711620208338e-01 -2.445956462618571470e-01 -4.177893609894494098e-01 4.653284922739143181e-01 -7.803341874620853824e-01
-9.143058391772382887e-01 1.551120758130147548e-01 -2.523591220957699388e-01 3.435371096072866171e-01 4.788552059053745591e-01 -8.078860972315295985e-01
6.449985460703840934e-01 1.674786012632467624e-01 -2.417803442827389793e-01 6.881677817492641847e-01 3.446021027766095202e-01 -6.384939270848519755e-01
3.256664520258129580e-01 1.673726866134106761e-01 -2.367499326618888178e-01 -3.261442583794651462e-01 9.354739994828813465e-01 1.360820304728392605e-01
1.101125280720332555e-01 1.618569125042560453e-01 -2.142901481260288121e-01 -3.296635419120457766e-01 9.181841488717854549e-01 -2.196811732820993790e-01
3.238961259736600207e-01 1.713855233144820078e-01 -2.449213159630344583e-01 -7.523278309493395266e-01 6.584576993081658891e-01 2.088762793758394687e-02
2.395181074895061935e-01 1.775819655429492494e-01 -2.376766417632422135e-01 2.437242836085080910e-01 8.068849568887950241e-01 -5.380846958668189517e-01
5.980654079242484489e-01 2.007397902476555085e-01 -2.239604915971927235e-01 4.489222407771005785e-01 6.613371542290871208e-01 -6.009176234492042967e-01
-5.194820848419502424e-01 2.078403919499743069e-01 -2.404290756456077260e-01 2.576205401950601437e-01 4.109011436898038494e-01 -8.745238175052848506e-01
6.082375667685271381e-01 2.183741068185665324e-01 -2.603274895209002349e-01 7.886628791311686149e-01 3.086029203573799617e-01 -5.317660205649025196e-01
3.718725851714652642e-01 2.123999065147024190e-01 -2.190658831235678949e-01 -4.018943809546365875e-01 6.698664970943986052e-01 -6.243074423932245542e-01
5.043025427009547590e-01 2.153079842518864639e-01 -2.477320818529047952e-01 5.202047699668436304e-02 7.397908705217567382e-01 -6.708228811435243966e-01
4.645956410950986548e-01 2.365563940158108280e-01 -2.155242814788587147e-01 3.355831292989217007e-02 8.158941714918314103e-01 -5.772265937731536622e-01
4.546225703508139371e-01 -2.175692247653644995e-01 -2.319279795084884521e-01 2.299389661371718518e-01 -7.318869046953121460e-01 -6.414589858964356850e-01
-4.868335135557642634e-01 -2.153533704038463337e-01 -2.205130186494413946e-01 3.185548080376639918e-02 -6.277912701876182666e-01 -7.777296120239847177e-01
-4.823385907749420110e-01 -2.265598236003182331e-01 -2.314751271464274285e-01 1.862453058060668520e-01 -5.535769607837002226e-01 -8.117051401553930789e-01
-4.711277384086640652e-01 -1.912386304573801821e-01 -2.407183499148987382e-01 1.906494999570628179e-01 -5.213793600240899107e-01 -8.317549705934987880e-01
4.431879711884377793e-01 -2.081067785983173046e-01 -2.264380520186820012e-01 -1.129468961483801326e-01 -6.671680650685356539e-01 -7.362946228264561910e-01
-5.383840762219133103e-01 -1.758574485456972925e-01 -2.450646212066649454e-01 -8.510113857651417923e-01 -5.177983426693046898e-01 -8.754711661165300030e-02
5.328502169544614420e-01 -2.071877437699123636e-01 -2.289451554290806157e-01 2.621106681537339056e-01 -8.229673444435474661e-01 -5.040066940225482739e-01
5.283995765969855540e-01 -1.750620171946609127e-01 -2.255686933831649310e-01 6.526188942388886360e-01 -5.910444295327766939e-01 -4.740833905555909555e-01
-4.246152090228232923e-01 -1.899655760797298309e-01 -2.367405338348609889e-01 2.329163937462587486e-01 -4.438056044633853503e-01 -8.653245281229042796e-01
-4.021105029027524647e-01 -1.993643499427489862e-01 -2.226105690040823260e-01 3.581812206414164423e-01 -4.100339905958677034e-01 -8.387957675953383596e-01
5.403466220031732936e-01 -1.774933673687315305e-01 -2.313808172640605121e-01 4.644943109986222063e-01 -5.969956697626989106e-01 -6.540957157285941515e-01
5.803234044993691443e-01 -1.602297345940715267e-01 -2.376272042316311672e-01 -2.344109728029037942e-01 -9.424629931292556329e-01 -2.383589780382536494e-01
3.798247173508041419e-01 -1.584637779222090037e-01 -2.360339799418850748e-01 -3.395386899657496516e-01 -4.082862366757346040e-01 -8.473581456252773370e-01
-5.595014461735627886e-01 -1.394606779043953138e-01 -2.261309601124011082e-01 -8.983785908536735532e-01 -4.299186237742759209e-01 -8.992154595979920395e-02
-3.734537105934784829e-01 -1.253304484155348397e-01 -2.201305172544244237e-01 3.901223911414586909e-01 -3.033373718327061486e-01 -8.693623863382274886e-01
-5.722121898048850852e-01 -1.236960097996598895e-01 -2.178548371798934846e-01 -9.426647564117864864e-01 -2.905948083753029376e-01 -1.641274333084755399e-01
-3.722719985303918344e-01 -1.292714998635167700e-01 -2.120629378979346225e-01 4.024811544629867122e-01 -2.963994042681066254e-01 -8.661156466960132638e-01
2.841536625026218066e-01 -1.296345613969490385e-01 -2.488277116974388636e-01 -1.684675575574454912e-03 -7.709480433294375601e-01 -6.368958127941467540e-01
-9.040435723231647902e-01 -1.221269888661385417e-01 -2.440813154371681559e-01 -6.970569866015445537e-02 -5.063543435993612674e-01 -8.595035743336729706e-01
-9.227164837134871345e-01 -1.111319992025697756e-01 -2.216975992691618824e-01 3.619442392205648451e-01 -4.709086890497249378e-01 -8.045131287135816045e-01
2.073751635247096103e-01 -1.213942978031537223e-01 -2.257360791170602010e-01 -1.309065206063365905e-01 -7.604457007038452065e-01 -6.360706086149403582e-01
2.455769192126112943e-01 -1.344043006203634316e-01 -2.449888017766900239e-01 -1.111386376193987946e-01 -7.502932241748883069e-01 -6.516964638429112444e-01
2.113450888751707835e-01 -1.201377174196605058e-01 -2.200485810361620942e-01 -2.264210543005254483e-01 -7.161702348616850733e-01 -6.601770223717253749e-01
-9.064487763191425573e-01 -1.151863062974740753e-01 -2.289342095541260502e-01 6.712580448981124714e-01 -3.720937187461455520e-01 -6.410607628214565201e-01
-5.666068540637334561e-01 -1.066020737964923221e-01 -2.254849425836081001e-01 -9.562797532283752178e-01 -2.033518935144731921e-01 -2.101833508381575066e-01
1.451973337570402200e-01 -9.942855798763436392e-02 -2.471033659151060935e-01 -4.041665821074466591e-01 -7.013744629421139187e-01 -5.871313623374634361e-01
-9.468186684274021436e-01 -8.958251513769582841e-02 -2.390524253160164203e-01 -9.754926115231873363e-01 -1.463282660941087887e-01 -1.643234718643798997e-01
1.240642122938795527e-01 -8.414382602743418482e-02 -2.237979314209226911e-01 -4.190328248347737206e-01 -6.887590468818317602e-01 -5.916269661276610803e-01
-5.604672886843649060e-01 -6.997765974461939154e-02 -2.318503506495910305e-01 -9.694303633069655257e-01 -1.900788554832762989e-01 -1.551605600553589426e-01
-3.540184115855651292e-01 -5.443878733835939149e-02 -2.203630510034073064e-01 3.973066547872915466e-01 -1.755223331100633916e-02 -9.175180331565847558e-01
-5.855693951844992418e-01 -3.484991752347021965e-02 -2.285614549567079601e-01 -9.902192660877509045e-01 -6.750429424500574427e-02 -1.221023149949245906e-01
8.255029825402053489e-02 -2.568985510661268845e-02 -2.230779445801229222e-01 -7.768015987619150131e-01 -4.971744856358959463e-01 -3.865188313570440681e-01
-3.514741951022620770e-01 -1.158462928303756120e-02 -2.496272999310323870e-01 3.260638689655913081e-01 1.989248685878464151e-01 -9.241813945392417518e-01
-9.766661002709051687e-01 2.420833824007114984e-03 -2.399614901926322985e-01 -9.997937942076331463e-01 -2.030015611321960706e-02 -5.222314466075453875e-04
7.214545946971370749e-02 2.766348714559254719e-03 -2.285624387523238210e-01 -8.578200127697352961e-01 -3.157404496180745701e-01 -4.055277970333319715e-01
-3.485907223596112492e-01 1.279018030094332750e-02 -2.433654652110533445e-01 3.633938142529485327e-01 2.056376607221288844e-01 -9.086572996765195365e-01
-8.866331888751701751e-01 2.680005528184550845e-02 -2.509156637531304024e-01 7.640453336408752349e-01 -1.965951680595603990e-02 -6.448629556274416696e-01
-5.611838713475204576e-01 2.588935553103284548e-02 -2.403636075959500740e-01 -9.897015413950598361e-01 -9.754246397301642377e-03 -1.428135625123305441e-01
4.674774092405309389e-02 2.269423211209893598e-02 -2.456934243075904190e-01 -8.716372833589295377e-01 -2.067992997235501562e-01 -4.443900267698571716e-01
6.660962380744986921e-01 5.491027008733244397e-02 -2.509668263895586393e-01 6.294022995983213908e-01 1.244074429885073524e-01 -7.670564082187216748e-01
-8.869608694834438811e-01 7.173564988933171793e-02 -2.410594031116830016e-01 7.744442967294422608e-01 5.302398624470801292e-02 -6.304161230060353338e-01
6.629903261730151209e-01 6.298839733688903209e-02 -2.383641461852926413e-01 6.967558105057055640e-01 1.044088647753267651e-01 -7.096690281271015310e-01
-3.775473568108840272e-01 5.732350338232274078e-02 -2.310433403627064897e-01 2.940094003315005255e-01 1.610081573083372020e-01 -9.421437500704895607e-01
-4.103638330172329485e-01 8.208052259607508117e-02 -2.303975837094418555e-01 3.080056547900255071e-01 1.131151261983961986e-01 -9.446361653263591895e-01
-5.751727270759355859e-01 6.072561849178007704e-02 -2.266607454551931577e-01 -9.928899721368373843e-01 6.779082416676675271e-02 -9.784634581271275944e-02
-8.840194386885893429e-01 7.901357473822637201e-02 -2.429847095626184728e-01 5.621743073618756803e-01 2.304563237990555069e-01 -7.942606190434096103e-01
-9.605147742330608640e-01 1.327120311081451121e-01 -2.254558833893168801e-01 -9.994168114827540750e-01 2.948651187886765571e-02 -1.722157202065490930e-02
-3.969209142938964763e-01 9.523188689573948429e-02 -2.224997685359366983e-01 3.430591974455740045e-01 1.038004369057113768e-01 -9.335608476934870170e-01
-5.967387633863154850e-01 9.875937730944850390e-02 -2.511482640150671797e-01 -9.955839205910133050e-01 5.497988828415494023e-02 -7.609118835245494428e-02
-4.167949938295220647e-01 1.236486312560051704e-01 -2.484673104596263060e-01 2.903830428116879747e-01 2.307915626840789380e-01 -9.286619099765350827e-01
-4.159586347328548261e-01 1.129559021125167706e-01 -2.332963655191849783e-01 2.908563160494138100e-01 2.337993439704320608e-01 -9.277609984113145414e-01
-9.712065971461224523e-01 1.266556534062529549e-01 -2.329507538196496919e-01 -5.713858474415114408e-01 4.976144629214797055e-01 -6.526086573398433011e-01
-8.975043040968958552e-01 1.604361226671980611e-01 -2.342578283101120207e-01 8.312398584001263746e-01 2.300678995873281785e-01 -5.060721879202737528e-01
9.260619344937805197e-02 1.480897575533506871e-01 -2.367042793590236061e-01 -2.221180642025994897e-02 5.531854625558840777e-01 -8.327619585886359976e-01
-4.425702241257320479e-01 1.414898420351741737e-01 -2.229755626322507123e-01 2.960488996032487052e-01 2.689223128887861525e-01 -9.165346903823397007e-01
6.299103359818504499e-02 1.361804554943051027e-01 -2.214079999296286461e-01 -6.459660462792300717e-02 6.259381476793712817e-01 -7.771928421892866368e-01
-4.662808038914424413e-01 1.688274030146746651e-01 -2.348970827016449991e-01 2.823173851103076282e-01 2.614317208613332055e-01 -9.230115651452911463e-01
9.802578217225284274e-02 1.403676986607529653e-01 -2.210419775395253694e-01 -9.097478266577629924e-01 2.672465902407467064e-01 -3.177076516172868126e-01
-5.620353179016992495e-01 1.804802243231367620e-01 -2.486638144590152255e-01 -9.553010791550199388e-01 1.865496973852831530e-01 -2.293448464010331700e-01
2.901115712600015883e-01 1.568298652656069936e-01 -2.376593094507180592e-01 2.983910629466909881e-01 9.513134933055178433e-01 7.723607323263281810e-02
3.059545450722108706e-01 1.657516517578682680e-01 -2.430599353133736651e-01 -3.276240580831514537e-02 9.880286549323796796e-01 1.507514570349624272e-01
-4.861527062610910277e-01 1.749051548977070547e-01 -2.175998375208794688e-01 2.983027373249722558e-01 2.537860848453130647e-01 -9.201130908987851242e-01
1.334010371996916799e-01 1.865962615111787792e-01 -2.304412587987331174e-01 -1.133617724033951918e-01 9.394477133752076048e-01 -3.233992925033303267e-01
2.744747853949576211e-01 1.654972402303727108e-01 -2.434448445632203528e-01 4.793573350923702736e-01 8.052916476942240109e-01 -3.488866684857174771e-01
2.153535180472795907e-01 1.980707341664649235e-01 -2.314205113428081662e-01 1.391316862664132015e-01 6.619816244613641043e-01 -7.364935184726053574e-01
2.008173769310215018e-01 1.928300775447907844e-01 -2.399787370770585515e-01 8.509529690473714714e-02 6.025663844720229312e-01 -7.935190878290255823e-01
-5.468438719229190559e-01 2.002544702597922333e-01 -2.307063976461419252e-01 -8.730721029016261792e-01 3.584645898771570693e-01 -3.305272166390143540e-01
-4.993995469301386603e-01 2.032930964691188058e-01 -2.182597642244017699e-01 1.966267839181569110e-01 4.974216024649746881e-01 -8.449317470939171626e-01
-5.328015838035594642e-01 2.280197786732116316e-01 -2.079954123877136574e-01 1.625574545623779399e-01 4.977700839653540488e-01 -8.519389752061615750e-01
4.233376237622683003e-01 2.479741823031535175e-01 -2.123201237900981253e-01 1.068919082133774727e-02 7.901179381295547755e-01 -6.128616361345243790e-01
4.778329961583552832e-01 2.354261367746990352e-01 -2.380772065560127215e-01 9.827652278708746969e-02 7.889951058170492360e-01 -6.064886215467049091e-01
5.509684702541939316e-01 2.408308568461035581e-01 -2.401726704925025990e-01 -3.352955934068446164e-01 7.153371557236003486e-01 -6.130820652108667224e-01
-4.963291617243184017e-01 -2.068647709826898218e-01 -2.236530302260731629e-01 7.328207728887353722e-02 -6.197226529294493913e-01 -7.813920722622624826e-01
-5.281223264683625462e-01 -2.231811844745370532e-01 -2.476719009220683387e-01 -3.407871910602071064e-01 -7.379169759468863221e-01 -5.825312240718915069e-01
-4.625867306918124422e-01 -2.058983482798708575e-01 -2.219386544839215547e-01 1.863132721764352850e-01 -5.765676404523952803e-01 -7.955231741401799228e-01
-4.286309060416232941e-01 -1.901299354554410181e-01 -2.349745781047318793e-01 1.681679344473111792e-01 -5.374026464332342101e-01 -8.263884930408221807e-01
4.072184142190631850e-01 -1.931977679272016413e-01 -2.366384848414213593e-01 -8.148374690428662470e-01 -4.132802799482628298e-01 -4.064963828248677191e-01
4.056531708701065497e-01 -1.805329474092755015e-01 -2.272278562428182158e-01 -4.302438537825424847e-01 -5.382574443194418912e-01 -7.246855524412288974e-01
5.685225688797957977e-01 -1.641937146404488790e-01 -2.135327981908953510e-01 8.523437112768063040e-01 -5.066507191955661460e-01 -1.296736156104844884e-01
6.334252602135730381e-01 -1.531896893457968811e-01 -2.328065157768451909e-01 2.963779292443192714e-01 -5.471334034171214666e-01 -7.828187286479844076e-01
-3.659267246992664591e-01 -1.501003132028381759e-01 -2.266278713801350708e-01 3.592508254130974965e-01 -3.291959413525017419e-01 -8.732518975857129773e-01
3.819097286543922110e-01 -1.522944279217320340e-01 -2.090793592085058439e-01 -4.363479996762114621e-01 -2.364022593612496725e-01 -8.681672620799895101e-01
-9.467472173054429785e-01 -1.417188716848411523e-01 -2.219028028500147631e-01 -1.779513900689631001e-01 -5.125628227952019333e-01 -8.400075329785668954e-01
2.648793995068049467e-01 -1.358789603822984360e-01 -2.372825461353892107e-01 -5.677230520511666184e-02 -7.695346177549468036e-01 -6.360765499831327885e-01
3.404378071680658757e-01 -1.214893487772649994e-01 -2.419055449793932888e-01 -1.914841871952209507e-02 -7.361748396569731678e-01 -6.765204679213864258e-01
3.638341196529921162e-01 -1.123481400038676414e-01 -2.238089709572245456e-01 -1.729350538085767386e-01 -6.946399088468824257e-01 -6.982613151259488005e-01
-9.441361353424283509e-01 -1.157529306094718796e-01 -2.392567602338717125e-01 -4.079623022360149842e-01 -5.546115515575756882e-01 -7.252398133260397062e-01
6.395072968284319925e-01 -1.367885575310359425e-01 -2.239759543246640783e-01 5.457947752444931577e-01 -6.277040161107867444e-01 5.550637183911433237e-01
2.000790170020975145e-01 -1.118893114318978421e-01 -2.238265618035676918e-01 -1.579500329011147841e-01 -7.184943385808958416e-01 -6.773608141409847017e-01
1.628714108852793163e-01 -9.678885700719669360e-02 -2.383499964088152123e-01 -2.250782771151155215e-01 -7.276152741778970645e-01 -6.480090909500536567e-01
6.413600194027786472e-01 -1.049565496061233838e-01 -2.342286684493700422e-01 9.046296661980898213e-01 -4.186811398956275521e-01 -7.969485635867978868e-02
-3.479328631222744495e-01 -9.730341134371719991e-02 -2.180701927037702603e-01 3.799281469348755880e-01 -1.555657722777835927e-01 -9.118409366014712525e-01
-8.848629225974746770e-01 -9.005399718208170756e-02 -2.473039467103082256e-01 8.911424296409869994e-01 -2.174927780782154596e-01 -3.981985203103832194e-01
-8.970061078625752859e-01 -4.919474988900794654e-02 -2.564529845873187996e-01 6.734037089173169344e-01 -2.511365779141606636e-01 -6.953113432484517853e-01
6.443972609073237434e-01 -7.809769017538210900e-02 -2.215750498300241011e-01 9.808474048072117757e-01 8.655468882199011948e-02 1.744896969046768331e-01
-3.394315970540898175e-01 -5.361289058127194362e-02 -2.374587807533357631e-01 4.235621149730707247e-01 -1.583109835520323146e-03 -9.058656790732210196e-01
6.698869915855507617e-01 -3.018422362700926703e-02 -2.412983324043380950e-01 7.811306396376070937e-01 -5.145167431838265637e-01 -3.537053078522449101e-01
-8.692545738459749316e-01 -2.985918449187598828e-02 -2.164415263939672429e-01 7.959273741568049232e-01 -2.091919596436776219e-01 -5.681006416897373956e-01
-3.418058923483046629e-01 -4.344619821356156958e-02 -2.420217946257570696e-01 3.906447609525323661e-01 3.198503145526567643e-02 -9.199856675531117300e-01
6.572372463474335236e-01 -4.128999430636720591e-02 -2.419849466587460918e-01 6.059092922535558312e-01 -2.463884864989909496e-01 -7.564169771240805140e-01
-8.664950703321436798e-01 -5.435109924620946248e-03 -2.213304313361690034e-01 7.977496262879987254e-01 -1.210035545999284257e-01 -5.907230091434905184e-01
5.783378414072139900e-02 -1.473153191750887873e-02 -2.191052932106477558e-01 -8.041175336603554324e-01 -4.444878026585675213e-01 -3.947474956826773074e-01
-3.384150964234678982e-01 1.811117528590137221e-02 -2.252585293072296158e-01 3.241400641060941390e-01 1.924624487599753131e-01 -9.262242842090737671e-01
6.637443618105411947e-01 1.213273530933690197e-02 -2.240939053107466328e-01 8.953551980546300415e-01 -2.797514878765645641e-01 -3.465229780943864246e-01
-8.747399504639663537e-01 1.310745060434197543e-02 -2.020994800139023218e-01 7.874399639967660791e-01 -4.434787687237977394e-02 -6.147939239433681813e-01
-3.713868258108937725e-01 3.445181379732618898e-02 -2.310755080864273225e-01 3.102280531511524275e-01 1.755771444688304372e-01 -9.343078836112951313e-01
2.464857064077094831e-02 7.693520515667204296e-02 -2.313426803330608794e-01 -8.410307731385286978e-01 -3.055898867621515413e-01 -4.464101922477847206e-01
-9.586561277540908144e-01 7.282556667702921871e-02 -2.142290363817607457e-01 -9.998453408188358038e-01 -8.522597778453393572e-03 1.538375019209908996e-02
6.883269899177986151e-01 7.319023226337115218e-02 -2.021835932815957693e-01 8.820294937103534405e-01 1.224615078035600196e-03 -4.711926066302062899e-01
3.999589405664004393e-02 1.006342649304259734e-01 -2.356933510596835590e-01 -8.411953456524763340e-01 -7.532022318674892747e-02 -5.354598532399130750e-01
-3.857960922585745300e-01 9.604883108597556118e-02 -2.268843541699305244e-01 3.251406787295193501e-01 1.366484040540809353e-01 -9.357407507984143447e-01
-8.786051840792875600e-01 1.045714307664944165e-01 -2.317055894269108018e-01 6.082651499576451348e-01 2.448811938669270549e-01 -7.550143761792299513e-01
6.612907884335421649e-01 9.570487002265155863e-02 -2.395082361708331942e-01 7.702377546654545215e-01 2.067757723417825433e-01 -6.033055455243041543e-01
-8.826567301886334427e-01 1.319659733622752795e-01 -2.370439834832278048e-01 7.305341954621140665e-01 3.205330187039851508e-01 -6.029746040929355733e-01
-4.088912768319991065e-01 1.226211222813703011e-01 -2.189375465414835353e-01 3.314613348542873039e-01 2.328572124009826994e-01 -9.142816317357893574e-01
2.923620863180179108e-02 1.329293723400574168e-01 -2.227702549375191743e-01 -6.279459067229897773e-01 4.547857807612437631e-01 -6.315487565083380828e-01
-4.081882948388224630e-01 1.216909732221869017e-01 -2.212383063336939293e-01 3.211880960704602828e-01 2.318315977550871598e-01 -9.182005865958463575e-01
4.853906795294787857e-02 1.619556009041613343e-01 -2.234023072646026120e-01 -3.305062087772490664e-01 6.782602310343451846e-01 -6.562992495477394383e-01
-4.179488069659394456e-01 1.471188526830828625e-01 -2.270570771846200930e-01 3.089405882628166733e-01 3.017932841718515835e-01 -9.019293356758016911e-01
-4.370840582304724720e-01 1.639384834278938274e-01 -2.344134726473096064e-01 3.211831848776754428e-01 2.700061617864711883e-01 -9.077103251308596965e-01
-9.292267745394799938e-01 1.590602287910393431e-01 -2.336088493723517678e-01 -2.270252809365321534e-01 5.751176735986672783e-01 -7.859384093745167554e-01
9.618748329443971290e-02 1.567911085263757054e-01 -2.548449866726026913e-01 -6.653308495893510699e-01 7.006717974382049574e-01 -2.576701241110959661e-01
-5.672316210445809137e-01 1.932180244429204108e-01 -2.360488867288724757e-01 -9.372302602198245847e-01 2.875430686368941058e-01 -1.972775278818088840e-01
2.417106215826300697e-01 1.762947841725821252e-01 -2.192201700876292014e-01 5.110452312201966274e-01 7.294589393848321945e-01 -4.546673810585619147e-01
-4.420846073915331575e-01 2.073623154478073383e-01 -2.147237921586387377e-01 3.300271001723600883e-01 2.842363827311938929e-01 -9.001620920054950181e-01
1.770315323558074305e-01 2.059962459452668870e-01 -2.314115832813757601e-01 -1.167232222161056297e-03 6.333185006949764162e-01 -7.738903761169322326e-01
-4.886686706510753875e-01 2.143126186063015748e-01 -2.341912577029329756e-01 2.982374048841627823e-01 3.211464005237874564e-01 -8.988433900066101767e-01
3.572473181717754076e-01 1.976566022347166218e-01 -2.301845878898252373e-01 -7.363684821114495627e-01 4.676861211013104147e-01 -4.889081209001237549e-01
6.076878066560266189e-01 2.232190122965335144e-01 -2.413184973167204483e-01 8.841441859761083322e-01 1.173539257248188139e-01 -4.522356847061257956e-01
-5.403557259443916294e-01 2.219548352936528968e-01 -2.287558408537927190e-01 2.340454625989743243e-01 5.567270536695638761e-01 -7.970431036959285676e-01
5.189520205091752159e-01 2.382975376037807791e-01 -2.295837806003044324e-01 9.386933066080122012e-02 7.386280361105312942e-01 -6.675456336706823146e-01
4.439665141329046660e-01 2.362347640162931750e-01 -2.332819996082593772e-01 -9.993537009675005842e-03 8.187003521393043659e-01 -5.741340110331518698e-01
5.542587919653548800e-01 2.549386623507325367e-01 -2.232169237630909076e-01 -6.046105936527087499e-01 7.551974422283883603e-01 -2.532249065447927938e-01
4.685815799398486692e-01 -1.849833045961355171e-01 -2.206939158107626975e-01 -1.130129754574911993e-01 -7.013478039495552041e-01 -7.038034706318099243e-01
-4.130801737541292540e-01 -1.899302520422859186e-01 -2.150860124177904342e-01 2.427881811850318983e-01 -5.209164370242899134e-01 -8.183519809438865034e-01
5.187926501671404900e-01 -2.199759688187392093e-01 -2.351662566726575032e-01 -1.739744198571622491e-01 -7.902983140135730888e-01 -5.875044477301151202e-01
-4.030142290256984450e-01 -1.785660649176135095e-01 -2.304502042023077457e-01 3.153235839007278440e-01 -4.690131547082894148e-01 -8.249834532562326794e-01
-5.475763895577178131e-01 -1.875219251439047552e-01 -2.293988253360693674e-01 -8.966465708968009984e-01 -4.427456617956526674e-01 -1.098116632007142260e-03
-3.827765191431223291e-01 -1.758183486445153987e-01 -2.226953378660093963e-01 3.244223959368097154e-01 -3.957426774694816629e-01 -8.591494877167219490e-01
-3.628010164785262504e-01 -1.741647437862880732e-01 -2.389642904699433301e-01 3.455607101245196655e-01 -3.764489482713665458e-01 -8.595777945966378564e-01
-5.412700642853277566e-01 -1.331110993389389152e-01 -2.299882881662596579e-01 -9.272914234058073912e-01 -3.544027219925889871e-01 -1.205376568640495610e-01
3.723021948296788008e-01 -1.320247166796515159e-01 -2.261116607476911233e-01 -4.259417390063325315e-01 -4.841087589144393299e-01 -7.643378471033489552e-01
-3.657579460565332785e-01 -1.341502519155917950e-01 -2.404188781974141986e-01 3.785090707558870782e-01 -2.895429140377323574e-01 -8.791449165445098801e-01
2.843479918591612088e-01 -1.242081548195381607e-01 -2.156630180023010601e-01 -1.142159120139917272e-01 -7.686789514565793846e-01 -6.293547449812592065e-01
3.253726440526061858e-01 -1.348967802132008675e-01 -2.125550868528557902e-01 -3.586678620209588636e-02 -7.450270674745647081e-01 -6.660692474343667957e-01
2.601113266261961821e-01 -1.234174124881826373e-01 -2.216482684432042605e-01 -9.538565982128421883e-02 -7.961993978100787572e-01 -5.974680701320583820e-01
-3.591686084690287051e-01 -1.180564479080487700e-01 -2.215675087700307300e-01 4.650953430562453916e-01 -1.475332460297429649e-01 -8.728804403716013960e-01
-9.551865526201137602e-01 -9.045754244371133346e-02 -2.179415038133367122e-01 -7.633249984795722476e-01 -4.172437982005445800e-01 -4.931962688011178320e-01
1.344578299612532724e-01 -1.280918815131011357e-01 -2.181098665020470007e-01 -3.613513200270820347e-01 -7.243435433827795089e-01 -5.871555625848781101e-01
-8.937125860039686343e-01 -6.678452441659933625e-02 -2.118969171209611480e-01 6.448418993567025526e-01 -3.217923523966524368e-01 -6.932738324594899249e-01
-3.378097445521639486e-01 -7.542240921798575026e-02 -2.282006659000906379e-01 4.293433122543014457e-01 -7.653297133242484285e-02 -8.998927850147125929e-01
-5.652254495091156850e-01 -6.312040029799637075e-02 -2.104120320756662776e-01 -9.754551145699017489e-01 -9.964988109491458579e-02 -1.963599263016488072e-01
6.602984670972963932e-02 -4.506722714168331922e-02 -2.160507053644655784e-01 -7.136380845779599635e-01 -5.426854249350409054e-01 -4.429596074169457887e-01
-3.123693345312545944e-01 -4.447992669147546319e-02 -2.293836933131015998e-01 4.317927534818482571e-01 1.544462869834915125e-02 -9.018406075825892154e-01
6.612647237863797378e-02 -1.845797995520035914e-02 -2.351021339180557890e-01 -7.808888117984899013e-01 -4.899198404272536167e-01 -3.875451116498268567e-01
-5.756512529734493233e-01 -2.050811271797725946e-02 -2.201988532629693407e-01 -9.801052703862014326e-01 -2.812780459082833348e-02 -1.964751525513872832e-01
-3.192800481090592446e-01 -3.283927812766887500e-03 -2.057959044977029084e-01 3.996818150903657663e-01 9.859476635712596804e-02 -9.113361173206373511e-01
6.676215872752740976e-01 -9.426711445295200831e-03 -2.286964429685239830e-01 6.126519954812127411e-01 -2.877355262593255247e-01 -7.361153437887005824e-01
-3.454890227623991228e-01 2.656693173559614846e-02 -2.084202458004660863e-01 3.359010026305084273e-01 2.032961049626877403e-01 -9.196962597177500420e-01
-9.644928081141461718e-01 2.791495048819995703e-02 -2.113279449844661928e-01 -9.985755725778731051e-01 2.787001524857660173e-02 4.549822085331445276e-02
6.792707468620321487e-01 3.273049656327346041e-02 -2.227740110254042005e-01 8.316487079789809389e-01 -1.590625886250482957e-01 -5.320333818631970413e-01
-3.441450814063357067e-01 3.500151640874605424e-02 -2.225843063515795250e-01 3.445317478907095610e-01 1.644469299477441804e-01 -9.242592071092038397e-01
-9.768195972885247436e-01 5.077162366025289586e-02 -2.370615635663189391e-01 -9.965431417205830034e-01 -8.049930197381936769e-02 -2.053360833847176284e-02
5.252449054941126655e-02 3.083681109965247247e-02 -2.391915904819919003e-01 -8.806060793488083016e-01 -2.795344212337006473e-01 -3.826139573505654146e-01
-9.748345048899543785e-01 5.739402491743707257e-02 -2.256528575551628724e-01 -9.993496817497695694e-01 1.840339658822406563e-02 3.100852432236584841e-02
-3.731159177954993522e-01 6.128513165587378547e-02 -2.320144808246308865e-01 3.515751735235543296e-01 1.372337877144643170e-01 -9.260463189665104622e-01
-3.860251084878693062e-01 7.600392613600899516e-02 -2.382843508355263484e-01 3.149645628670001418e-01 1.619495579351161729e-01 -9.351842945765396209e-01
-5.796728541805622470e-01 7.587623593071783634e-02 -2.372963852956816444e-01 -9.937284864311938248e-01 7.749314842325903674e-02 -8.061331901503150654e-02
-5.663914907468332594e-01 1.167635248944915161e-01 -2.296532257306484193e-01 -9.942471125441053603e-01 1.012984812423008835e-01 -3.480369083462745566e-02
6.592376337851276746e-01 1.412552764326751031e-01 -2.217839093736955203e-01 3.237009052283759125e-01 3.552717976457821503e-01 -8.769262647177723524e-01
-5.600671293950425511e-01 1.572746604505093349e-01 -2.222595614006554199e-01 -9.869273133286230459e-01 1.057834957623724065e-01 -1.215908311931379188e-01
-9.588898410054473853e-01 1.424088777517351356e-01 -2.503206146403859078e-01 -3.226524711029618575e-01 4.392363983526572091e-01 -8.384311356654987613e-01
-4.166977718619520599e-01 1.314871181711939896e-01 -2.264947515526129496e-01 3.068428520298688844e-01 2.737981959732256887e-01 -9.115272963767915293e-01
8.561354589132713633e-02 1.540846111836346455e-01 -2.226484080619248740e-01 -5.278145572692715115e-01 4.762260006736726003e-01 -7.032926769254760346e-01
6.405649530604489161e-01 1.489538521799910753e-01 -2.320369571932153208e-01 6.244524579658563557e-01 4.447249215130288369e-01 -6.420894578838924893e-01
2.739122695061267376e-01 1.721084565003744016e-01 -2.410921733751782703e-01 3.121652105187200932e-01 9.459535191014267763e-01 -8.789096109060177964e-02
3.401798180188151388e-01 2.027448566623526460e-01 -2.271095014931044653e-01 -8.311562899755136069e-01 5.113158816648042393e-01 -2.184840744573475768e-01
-4.577955388029136818e-01 2.018249788219030061e-01 -2.248766853994313142e-01 3.224900453400400546e-01 3.028142267226738293e-01 -8.968298137054365737e-01
1.636728950538413607e-01 1.997594658123808264e-01 -2.360693721422297831e-01 -2.878260379957205961e-01 7.442696616078476879e-01 -6.026763996224059339e-01
-4.576944312353196653e-01 1.890820746274381181e-01 -2.084930657271355514e-01 3.353905821601104176e-01 3.023065712773345126e-01 -8.922577510791622757e-01
1.693165686068855980e-01 1.934694232454947649e-01 -2.248128326857553316e-01 -2.465005052363831647e-02 5.557001016689998574e-01 -8.310173115009368283e-01
-5.533165878707314578e-01 2.147657596901390298e-01 -2.352282860606765003e-01 -8.478692535053605761e-01 4.320032415157963879e-01 -3.073937674711492152e-01
-4.828573619070920531e-01 2.084870105902809634e-01 -2.288975480264823781e-01 2.642763267201562738e-01 4.834787578837053679e-01 -8.345096247560783720e-01
3.691929291911166255e-01 2.316257245087916250e-01 -2.359631116890383851e-01 -2.362205268863164509e-01 7.076092916034883995e-01 -6.659496625976772943e-01
4.253269730813327709e-01 2.477561480341101963e-01 -2.069302750479162512e-01 -6.209696726309566622e-02 8.504511678283943610e-01 -5.223760884612215216e-01
5.832118318275139046e-01 2.285823484432049357e-01 -2.273565194130323097e-01 4.684854808764765677e-03 8.776888459573407575e-01 -4.792080360527063987e-01
-4.947758197365219046e-01 -2.225446409952133997e-01 -2.197475297030881403e-01 3.900542871502276493e-02 -7.526485519311231220e-01 -6.572661057796459483e-01
-4.337101558586636263e-01 -1.865577010390337132e-01 -2.226028325321143808e-01 2.137021283868691668e-01 -5.966215005644115443e-01 -7.735464985294626672e-01
4.405954562435163147e-01 -1.949791189775700873e-01 -2.113606035067817079e-01 -7.572112111748240393e-01 -5.181009323203731309e-01 -3.977469114901033831e-01
5.265327899226175390e-01 -1.980086588617570031e-01 -2.285250026934880219e-01 -4.288814821458128979e-01 -7.672218517898585777e-01 -4.768975827245834909e-01
4.091612352623840154e-01 -1.936104524757213952e-01 -2.223343758674654613e-01 -3.548324380282275592e-01 -4.395955598892993255e-01 -8.251361612779780641e-01
3.799661961385882303e-01 -2.010490187969575793e-01 -1.970719603883260840e-01 -2.964203662282323681e-01 -4.835079056995567059e-01 -8.236231368843088818e-01
3.949497986675844508e-01 -1.814631950350197032e-01 -2.127279281151388812e-01 -3.121860613980387833e-01 -3.872507472750190693e-01 -8.675117992302577852e-01
5.617910779467496507e-01 -1.839006156026565808e-01 -2.253585654996706766e-01 1.100373408292763117e-01 -9.229575741579105763e-01 -3.688374979957524946e-01
3.752861504270099680e-01 -1.579115896971822752e-01 -2.126805671720927993e-01 -3.703760042959013954e-01 -4.157219986031754910e-01 -8.306604813756242045e-01
-9.101510274183616245e-01 -1.510965011431444904e-01 -2.184839444076698278e-01 -3.960983336255421289e-02 -6.142048857506012816e-01 -7.881519012354671894e-01
-9.372888439036428654e-01 -1.424675919910703970e-01 -2.236850774058108116e-01 -4.858343814740665456e-01 -5.270098771493769707e-01 -6.972987474280373243e-01
3.037447341609277318e-01 -1.411580100325867948e-01 -2.176085100476697620e-01 -6.654226660546788685e-02 -7.924832636375932493e-01 -6.062527555478126606e-01
-3.300939685730270301e-01 -1.262143076234317485e-01 -2.080309162328957684e-01 4.308016101866117831e-01 -2.506674266541422669e-01 -8.669347229608540539e-01
2.312215931041159966e-01 -1.303072757553735417e-01 -2.135612313728696421e-01 -1.175909782965868372e-01 -7.700686491386693477e-01 -6.270300131867664328e-01
1.878219748240572973e-01 -1.177545907400867203e-01 -2.167750911769022737e-01 -2.136526560461044222e-01 -7.373000615019250636e-01 -6.408909126159479941e-01
-8.928894457302225529e-01 -1.116948255476670898e-01 -2.316412467338866965e-01 9.410731549935215101e-01 -1.196023702865199462e-01 -3.163488422175519954e-01
1.282161747413806396e-01 -1.000085270088686556e-01 -2.216513046701784895e-01 -4.282699058572413953e-01 -7.044811834971633768e-01 -5.659427089692611323e-01
-5.833527426701414775e-01 -8.391497009431986287e-02 -1.973615826848564569e-01 -9.715792982025482916e-01 -1.914570715794818578e-01 -1.392043715062601383e-01
-3.069839136378724742e-01 -9.351690592389140522e-02 -2.319918189581384460e-01 4.459606315778800734e-01 -1.468224383887293816e-01 -8.829282454810504221e-01
6.310600516729564236e-01 -8.887585622429475252e-02 -2.166469892907011419e-01 8.520485981445119483e-01 -4.956747969164702616e-01 1.682845272203831455e-01
1.275709147484383743e-01 -8.922773032785763503e-02 -2.452537557632150089e-01 -5.424099675552912503e-01 -6.791453013427632968e-01 -4.945230902199767020e-01
6.530346881223247912e-01 -8.769621034800657855e-02 -2.166468119775782908e-01 6.771639663896601435e-01 -2.385015533990753334e-01 -6.961077299166066323e-01
