4.266820738775625732e-01 5.232492762653840890e-01 -2.646851666837363726e-01 1.849100670896144105e-01 -7.993435189285340581e-01 5.717151439623254783e-01
1.452754998537354181e-01 -7.312151624077519729e-01 -3.387679211781611799e-01 5.608192553737728625e-01 -6.841363506677284878e-01 -4.663037813454335434e-01
4.605234761606395444e-01 5.589682890034276541e-01 -2.740533114025658912e-01 8.963504024938068193e-01 -1.602323049078107631e-01 4.133782340824451729e-01
4.598648616846676140e-01 5.491790642101338493e-01 -2.583999791977855121e-01 9.362676741692926852e-01 1.640141231208701589e-01 3.106480479940529893e-01
4.671372640850995350e-01 6.070182262588103006e-01 -2.732466594558577988e-01 9.222315961958513775e-01 3.831879574625324247e-01 5.153515531891433160e-02
-5.121635620153994761e-01 -5.188724226287381169e-01 3.441853585917336589e-01 -4.332768349780281858e-02 9.966130474246508442e-01 6.989381621906774755e-02
-5.324298416252154498e-01 -5.318498224770122906e-01 3.414127119627923257e-01 -1.822703705227306237e-02 9.942720604546372298e-01 1.053130804771424955e-01
-2.367619091358372507e-01 -5.543915906673860805e-01 3.463082342543284953e-01 2.728803851496575117e-01 9.427079630058918802e-01 1.919322585858259100e-01
3.157262301640579860e-01 6.934049115987419576e-01 -3.516245847119529172e-02 -6.222852736638145865e-02 2.051663607453424742e-01 9.767468325007885310e-01
2.879021160906055088e-01 7.002043298528286552e-01 9.622379167397929201e-03 -2.006342223379470324e-01 2.636246842507151689e-01 9.435295091731672468e-01
3.707519986013599889e-01 6.843108504842669859e-01 -3.891315219414469562e-01 8.181959062649734049e-01 5.731631946698134694e-01 4.515984108843228151e-02
3.940492056966798384e-01 6.395558959824381162e-01 -3.818055088031833688e-01 8.688456941172967296e-01 4.947688411333904246e-01 -1.763387811443889105e-02
4.054383958088499385e-01 6.254618040553736602e-01 -3.750707797475806848e-01 9.091123838105638066e-01 3.924452021058372209e-01 -1.396475454362966495e-01
4.259805964093861252e-01 6.059757283930080618e-01 -3.999073735069241797e-01 9.091170117451835564e-01 2.657114662196669586e-01 -3.207860278673346222e-01
4.284728802018644145e-01 5.619593492424973524e-01 -4.008492304785838956e-01 7.117759761348119163e-01 1.389108803009514170e-01 -6.885337516283064341e-01
4.376158959995949949e-01 5.642187508870936119e-01 -3.803526085355906639e-01 6.771306840162019114e-01 -3.578523959405308357e-03 -7.358540826346094965e-01
4.000903961384724705e-01 5.509772564630979197e-01 -3.938562573669766587e-01 5.524414054794830609e-01 -2.255267962383707137e-01 -8.024625584351645635e-01
4.430184981795101118e-01 5.182193248544856301e-01 -3.765125200268101269e-01 4.853298008418522880e-01 -3.931481570526084712e-01 -7.809542310666774956e-01
3.813131732429075882e-01 4.744575559960958477e-01 -3.859235712646195693e-01 7.301179580518882828e-01 -1.188836388004970018e-01 -6.729000280544605861e-01
3.886854221000324849e-01 4.613671981506505260e-01 -3.659864317445868931e-01 7.737757460854962632e-01 -1.505579929911217418e-01 -6.153075535992703626e-01
4.026713115572743140e-01 4.234000169826895310e-01 -3.991884608057813533e-01 6.576343561924886671e-01 -3.263809743495581506e-01 -6.789642944499540977e-01
3.678745151670470559e-01 4.494845079691295875e-01 -4.079233471764230901e-01 4.441582110004932971e-01 -6.637409024121582179e-01 -6.018068610990865430e-01
3.299086094172654082e-01 4.310422424295343169e-01 -3.785710099637856207e-01 2.331167068055687575e-01 -8.850399794099887973e-01 -4.029402385640989959e-01
2.673277196175249393e-01 3.069657661651622460e-01 -3.762870657507443317e-01 7.372232746230921174e-01 -4.562184460028230470e-02 -6.741071803869713719e-01
2.387346227229756590e-01 2.623222336814962086e-01 -3.834739722292215269e-01 6.855518150787611731e-01 -2.076283531297321849e-01 -6.977887759335564821e-01
2.659106795539042944e-01 2.467681634400551716e-01 -3.933816478702469865e-01 6.426159001084761346e-01 -2.573930649715280294e-01 -7.216603183162668689e-01
2.642609656672368912e-01 2.307985618479634904e-01 -4.169084315005829322e-01 6.437307796746262190e-01 -3.390241812337583260e-01 -6.860563299309159202e-01
2.606073446457640719e-01 2.212296925759235644e-01 -4.031834897318102851e-01 6.205140163950620957e-01 -4.480993413908845868e-01 -6.435598928633792237e-01
2.035477398715608843e-01 1.971787307477990414e-01 -3.979589848252348405e-01 7.905316011142264898e-01 -3.040735408400107032e-01 -5.316004791201713875e-01
2.214840646046594697e-01 1.538322215973167983e-01 -3.859974834129145660e-01 8.137071689829543653e-01 1.811950476145919673e-03 -5.812721909580895741e-01
1.912005029560638891e-01 1.418442569103424700e-01 -3.748051987250305972e-01 8.188157015421054785e-01 6.002113527778206448e-02 -5.709100719273358937e-01
1.985119800815329794e-01 1.303305288718540622e-01 -3.767563557906991045e-01 7.728564721330631881e-01 1.586562419232167079e-02 -6.343824993259380429e-01
2.068587466502224970e-01 9.405479519383992681e-02 -3.832862709100556264e-01 6.926709597817048980e-01 -1.777275778619827051e-01 -6.990134830905657681e-01
1.885003815400252414e-01 6.658557526261026094e-02 -4.049177711549692971e-01 6.279035064177764802e-01 -3.620734381746625874e-01 -6.889412253571709499e-01
1.784071043781363386e-01 6.066978539230018230e-02 -3.657777275250918003e-01 5.785619592763145969e-01 -4.578904962075358576e-01 -6.749832240590638577e-01
1.533562837650725430e-01 3.057267758665160526e-02 -3.952964437458723612e-01 5.379732316330286812e-01 -5.178633119292864739e-01 -6.651333642240074839e-01
1.624088900406147340e-01 2.266352639762600485e-02 -3.781442699337551616e-01 5.122204907290555109e-01 -5.808928731669413814e-01 -6.326085984091118775e-01
3.331000458990595048e-01 4.461992632022427907e-01 -5.848889465565343393e-01 9.964745415149505181e-01 -7.619181200547744948e-02 3.511831282808761112e-02
2.030298887718672285e-01 2.226129856426388720e-01 -3.994099755996229906e-01 7.277677702728283515e-01 -4.078378805901554105e-01 -5.513822047435389395e-01
2.277122138669532558e-01 2.225801577713626966e-01 -3.856879385919391723e-01 6.845235120748133228e-01 -4.047059458076586735e-01 -6.063337850101141457e-01
2.503760903066684085e-01 2.636936356251454172e-01 -4.020635406999168993e-01 7.103739569436491319e-01 -3.183677940898170244e-01 -6.277027871394281755e-01
2.430441010922656242e-01 2.771141574830492949e-01 -3.981154378206439581e-01 7.235456698903490746e-01 -2.105095173388323859e-01 -6.573944072569357644e-01
2.560224696026350277e-01 2.899971710047316020e-01 -3.904149570447004169e-01 7.721317208126403653e-01 -1.144690152367539432e-01 -6.250675565613996731e-01
3.242084835094350970e-01 5.092343709526034878e-01 -5.729013797637909633e-01 9.083877603936707512e-01 1.697136202781053260e-01 3.821373625531406248e-01
3.237669153916780673e-01 5.005900033052065323e-01 -6.047929062467127803e-01 7.440567516695127948e-01 4.300032423063970266e-01 5.113479851343887272e-01
2.936994616425017135e-01 5.200296005289336554e-01 -5.736563893722691487e-01 6.019012901930153037e-01 7.907235449022768092e-01 1.116741348798393763e-01
2.549315403320178697e-01 5.277749658322907766e-01 -5.697578579391705533e-01 3.612059241515319652e-01 8.898571609471997990e-01 -2.787194171004728216e-01
2.284814263973014570e-01 5.671870591724259558e-01 -5.623718715066035045e-01 8.188811287234651903e-01 3.487523187114441314e-01 -4.558569043175444979e-01
2.356407936684178639e-01 5.722235522737918467e-01 -5.661187484341041465e-01 8.564868451284559647e-01 2.928103148603940567e-02 -5.153376614580170711e-01
2.198938774836230736e-01 6.745890042916762308e-01 -2.150358667950662619e-02 1.820540748212844395e-01 4.305103977994226838e-01 8.840345644982152695e-01
2.548090693289231656e-01 -5.806511392262738713e-01 -4.006931291158118968e-01 6.617169291776959783e-01 -5.478805577175794861e-01 -5.118179364917900820e-01
2.530189271346841018e-01 -5.814490124058335763e-01 -3.914654665021668478e-01 6.395250724319150315e-01 -5.746535063105531194e-01 -5.106672394191160702e-01
2.366317731677384240e-01 -6.132559234768663048e-01 -4.043064459731089966e-01 6.246648536874251922e-01 -6.131235473625692434e-01 -4.836045246244156104e-01
2.332440617349133827e-01 -6.302228638021802887e-01 -3.944262558508649930e-01 6.184981252231229742e-01 -6.284559349725671318e-01 -4.717024558906162679e-01
1.785320239259701181e-01 -6.642667300359849092e-01 -3.722519422221783891e-01 5.897244908826739795e-01 -6.726664300626851167e-01 -4.469282925927757777e-01
4.057173139157927433e-01 6.766042226723211206e-01 -2.695568321144330981e-01 9.211006573968568700e-01 -3.601533127688015812e-01 1.478619972972627927e-01
4.399884360051133370e-01 7.080434834334581318e-01 -2.815739089769108139e-01 9.901061997967877115e-01 -7.867300325541654038e-02 1.161906695166900205e-01
4.316469410590946243e-01 7.452556831469379084e-01 -2.955702965046499431e-01 8.261016704587564874e-01 5.534981336018526266e-01 -1.058104255946345912e-01
4.175473984461604005e-01 7.477922708019926201e-01 -2.676435155935254495e-01 -3.816806290737793060e-03 9.940723649304566978e-01 -1.086534181298860757e-01
2.778184161097776994e-01 6.983113372282597764e-01 -1.719013796599018484e-02 -2.025459748546371286e-01 3.073072616614043184e-01 9.298050198833913704e-01
2.579582834584958628e-01 6.924729828989145686e-01 -2.131807387990661967e-02 -2.205690468951391481e-01 2.887402161757056107e-01 9.316535746266295659e-01
-4.161664772227398612e-01 7.028646456012995758e-01 -1.528229941944620612e-02 -6.878546060381709459e-01 5.009043600670641805e-01 5.253102540574262624e-01
-4.187734665071988216e-01 7.080681617254304117e-01 -4.553832874387904461e-02 -6.405663124441951517e-01 5.405044171702317879e-01 5.454628991793242232e-01
3.646743829546899573e-01 6.752597346060492667e-01 -4.778639959210409516e-01 7.274745261701548449e-01 6.445853980606623956e-01 -2.351392744321675332e-01
4.061851549212376900e-01 6.744091971537882202e-01 -4.536258491765565726e-01 7.779735619850289829e-01 5.872779964844551115e-01 -2.232973168166846045e-01
3.744400018176396450e-01 6.804944012907677697e-01 -4.461408131820679412e-01 7.914628244148326219e-01 5.659080523315761502e-01 -2.309430100167096933e-01
3.904120094076395375e-01 6.528433971060837449e-01 -4.326457041635170531e-01 8.181532174036639793e-01 5.216111627787952676e-01 -2.419650960708713272e-01
3.990822160109875893e-01 6.281299367361077302e-01 -4.470651468815307616e-01 8.681768727503826888e-01 4.497205108966936260e-01 -2.098103422145403685e-01
4.340461546841202223e-01 6.293784438362608480e-01 -4.324448007978551334e-01 9.177406632185310942e-01 3.623476980993166618e-01 -1.626536835037468154e-01
4.496534330835084137e-01 5.891024455953292049e-01 -4.530766104993631527e-01 9.910461894777685687e-01 -9.663290499865176408e-02 -9.213865634529598558e-02
4.191083210388941160e-01 5.776213991397589620e-01 -4.181411572610780891e-01 9.629280640863532303e-01 -2.327328412091501098e-01 -1.364000293901154182e-01
4.069350703013950854e-01 5.652415288774140789e-01 -4.444909238642939520e-01 8.043452200079477254e-01 -5.937856675323899269e-01 -2.115060480176199353e-02
4.047309420681902137e-01 5.118721952578242362e-01 -4.493501914088069427e-01 6.932716110436247803e-01 -7.203388429580805941e-01 2.205503676693167450e-02
3.645246439649694747e-01 4.930554690511579352e-01 -4.620649483678352376e-01 4.616671203453331374e-01 -8.855601027598272168e-01 -5.144681129138944931e-02
3.504255416219935748e-01 5.061655023636600914e-01 -4.635444932170738608e-01 3.301476205371574602e-01 -9.054857477687738854e-01 -2.666422870462926697e-01
3.191904985682345042e-01 4.747750712202188361e-01 -4.602827085125179574e-01 6.698969765888239669e-01 -7.049041798953616933e-01 -2.331268708733509609e-01
3.057757983523339274e-01 4.538595476832145703e-01 -4.564789345308906676e-01 9.226135719420106573e-01 -3.082537154507772881e-01 2.318703167272507804e-01
2.974167296189317300e-01 4.139848032308036663e-01 -4.428523305798150456e-01 5.186772275788378295e-01 -5.880727944170422994e-01 6.205999694309221049e-01
2.769416769059974137e-01 3.947266557917080698e-01 -4.605852948096043065e-01 4.891730626081906563e-01 -3.454256120030613220e-01 8.008688165928510294e-01
2.857129342229890456e-01 3.865034696204522335e-01 -4.506906079022284795e-01 3.387253385092437452e-01 1.061083319688209681e-01 9.348829696483902385e-01
3.107600769554932363e-01 3.628059223378214404e-01 -4.527183696928089307e-01 4.367311480345280050e-01 1.461823898567928270e-01 8.876354055760730111e-01
2.832012215156297641e-01 3.241534120464942270e-01 -4.253488585802937538e-01 5.103183356971898732e-01 -1.146662458821069014e-01 8.523067806292253801e-01
2.684187098240775615e-01 3.217414160479435403e-01 -4.159011395470166850e-01 4.146302788045821419e-01 -4.937474590447419320e-01 7.643920320001349467e-01
2.617100118382726937e-01 2.946164288078883531e-01 -4.446465185048485425e-01 5.570946712285972380e-01 -4.461399924913214687e-01 7.004317485583764213e-01
2.480096331788922970e-01 2.916483452993064440e-01 -4.457691271788347676e-01 6.852848000929834260e-01 -6.454129510959946137e-01 3.373823725672092100e-01
2.044188735833341874e-01 2.721826445376291370e-01 -4.522119031662556465e-01 3.655577107835384365e-01 -9.202112077065183193e-01 -1.399245986165762456e-01
1.864559225842354895e-01 2.670524833477546101e-01 -4.266590572652369517e-01 8.379123790398343985e-01 -4.563584001669643841e-01 -2.993991577290320838e-01
1.876300937160368942e-01 2.197364246633200791e-01 -4.433943153447693075e-01 9.312193427859019046e-01 5.206589080991327889e-02 -3.607210537736371125e-01
1.485882763760244807e-01 1.808763213957248761e-01 -4.630286239799737413e-01 6.084890522081091158e-01 -6.544357772494328040e-01 -4.488372609296244486e-01
1.624324278800768628e-01 1.807550941725440119e-01 -4.264887349112498338e-01 5.142646413158893370e-01 -7.288988700517837760e-01 -4.519273347889821157e-01
1.610938959422427430e-01 1.610839580350006683e-01 -4.708808973368804884e-01 8.575178573073047872e-01 -2.246301814739341124e-02 -5.139635563099769211e-01
1.478832545531065246e-01 1.265227206162357065e-01 -4.522791272641460414e-01 8.854538456025871085e-01 6.725553627723856835e-03 -4.646786569619809071e-01
1.560470091409720816e-01 1.365913771950039157e-01 -4.357524174423361707e-01 8.894979478192501787e-01 -4.733639312094377327e-02 -4.544806560368019888e-01
1.625677354808939823e-01 1.324529245146492118e-01 -4.268407062861401813e-01 9.134881510441419383e-01 -7.987025212904481919e-02 -3.989487946175522270e-01
1.456189182108503788e-01 6.730333803196356102e-02 -4.553176488527918009e-01 8.281326853205828176e-01 -3.094982770765888902e-01 -4.673404240918428987e-01
9.986141568160286641e-02 8.350455392772607177e-02 -4.749828550646566505e-01 1.667795409450965605e-01 -5.013583528499644393e-01 -8.490137730035440811e-01
1.402005530397320565e-01 8.030615732565245246e-02 -4.522448437893302753e-01 4.189343903363149657e-01 -4.257423214200491413e-01 -8.020208553057754930e-01
-3.998855577784264925e-01 7.150793590981104897e-01 -1.921371972260357830e-02 -7.518431130981536592e-01 5.064004216820876536e-01 4.222446520763535882e-01
1.897302598183866762e-01 6.892644169938120235e-01 -2.211519641449119500e-02 4.118444085276508071e-01 6.362488908354964057e-01 6.523584383413079113e-01
2.585436498150711082e-01 2.998836303248507140e-01 -3.896650016864972588e-01 7.688079678324492017e-01 -9.935694455522364743e-02 -6.317139433050293906e-01
2.413577503770951427e-01 3.203655615728260297e-01 -4.079609322331252952e-01 8.560378421485589362e-01 -2.872801296903098600e-01 -4.297317068762294689e-01
2.684820985906112289e-01 3.534507608675311330e-01 -3.806110400012627237e-01 9.191458849067761783e-01 -1.771563123117427252e-01 -3.518330332232090796e-01
2.698531027855106124e-01 3.533036978217823365e-01 -3.867639016092234150e-01 9.473365010065633030e-01 -7.953607078403407415e-02 -3.102056854812285103e-01
2.600225695771512524e-01 3.949401715884850450e-01 -4.053986805497297730e-01 8.765140596814321450e-01 -2.294747517730430508e-01 -4.231600660264090985e-01
2.991044139137652991e-01 4.085450998595266392e-01 -3.892480856933273614e-01 7.839304813285221663e-01 -4.249063759832229503e-01 -4.526671758509062671e-01
3.089573457181076233e-01 4.297833954333795115e-01 -4.052222315426123322e-01 7.086614265075029673e-01 -6.220989675304277045e-01 -3.328541079481021070e-01
3.123197925758419702e-01 4.336148408900848961e-01 -3.957175089777811294e-01 7.622759261334495218e-01 -5.435724731364450779e-01 -3.513749832952259844e-01
3.039345049162170964e-01 4.243060050315216047e-01 -4.097749589303541495e-01 5.074735731208561695e-01 -7.296054532002366200e-01 -4.584173374169308590e-01
3.462829970652808176e-01 4.449595420768817089e-01 -4.025973684281006770e-01 -3.245741263887612360e-02 -7.671401617049246058e-01 -6.406578561635936087e-01
3.370288014136045285e-01 4.410134308790800706e-01 -3.915736904233790838e-01 1.640937289607579189e-02 -8.191694491210360640e-01 -5.733167938477781167e-01
3.635819237969172835e-01 4.550819713991967608e-01 -3.948834006412902942e-01 1.305486236017272261e-01 -6.788909357991014248e-01 -7.225400709756621964e-01
3.847359862465887237e-01 4.602318406918637361e-01 -4.277288519257219646e-01 6.490680925345465591e-01 -6.327019667739153252e-02 -7.580946467730591554e-01
3.876084298193754885e-01 4.998756318834932100e-01 -3.930171084556442485e-01 7.083609818296880967e-01 -6.992076190402456148e-02 -7.023786774070244210e-01
3.999016059125055644e-01 4.974912193800244964e-01 -3.857128950810607138e-01 6.316027508764763265e-01 -2.880615347095401013e-01 -7.197906065697523559e-01
4.041674203133842069e-01 5.552102705660388882e-01 -4.024034779270210804e-01 7.337008741588940675e-01 -9.061441218054148983e-02 -6.734033379510749873e-01
3.945708614701510242e-01 5.506023123778994721e-01 -3.831357978042189694e-01 8.003500611556693123e-01 -3.826744256647283265e-02 -5.983104398617311581e-01
-3.761158121604513127e-01 7.261569848014406414e-01 -1.263264188970037935e-02 -7.507436003388300305e-01 4.450047869146061541e-01 4.882159216713204963e-01
-2.420732626900509166e-01 -5.320789591924953710e-01 2.368322512290151061e-01 3.805016375982268606e-01 7.436022806660328444e-01 5.497946452752539015e-01
1.292670631063375652e-01 7.267875769041401979e-01 -3.206648881301970427e-02 4.307459585718564354e-01 8.344275012098182343e-01 3.437857827175975767e-01
-1.988574962560783754e-01 -5.369750547697237364e-01 2.490945428455340338e-01 -6.647950755748718854e-02 6.813710988105708966e-01 7.289128211114065392e-01
-1.760372975254752559e-01 -5.352342100628255661e-01 2.638909557159768715e-01 -1.449030585620550426e-01 6.345846486463586622e-01 7.591478296891450706e-01
-4.454442612002291191e-01 -6.413120494379321856e-01 4.546871379084255205e-01 -4.211481662081204558e-01 -3.743729553580201208e-01 8.261229402431814473e-01
-2.390777204498147901e-01 -6.395522218980965734e-01 4.728677929780113476e-01 2.290601042255176190e-01 6.837402885462243729e-01 6.928424687264204129e-01
2.193696100973911989e-01 -5.580630544230402723e-01 -4.370920541781544433e-01 6.779010893560042383e-01 -5.439114251632578556e-01 -4.945811102608111964e-01
2.234537706385376632e-01 -6.042716298305861322e-01 -4.600864913096630038e-01 6.605201721750451060e-01 -5.684530904811886387e-01 -4.904836246728673799e-01
2.172119915245017407e-01 -5.817659040948487403e-01 -4.498485364773044948e-01 6.585439801263437420e-01 -5.805906239813366509e-01 -4.787842453384572039e-01
1.970006124317531526e-01 -6.140055717318017026e-01 -4.724469834155068382e-01 6.427669371276761856e-01 -6.031281668942665153e-01 -4.723209489682496098e-01
1.709236704119630190e-01 -6.006381377577626468e-01 -4.310838470501770492e-01 6.337084648620509020e-01 -6.212024118958161534e-01 -4.610001572852265861e-01
-2.263292934732728245e-01 -6.309942543127957659e-01 4.569498253680653876e-01 2.499736173668666850e-01 6.873561977491182695e-01 6.819491535564791151e-01
-4.395557094425437961e-01 -6.479848173488076402e-01 4.426138837302032170e-01 -4.210434041783544523e-01 -3.985505024907236016e-01 8.147882846250887878e-01
2.794555397107721384e-01 6.311575595489835599e-01 -5.443873295995496076e-01 3.992995162562618106e-01 1.197473345049320237e-01 -9.089667057689623242e-01
-4.014022955088072941e-01 7.337072768000952872e-01 -8.754580781382820948e-03 -8.821551210521058062e-01 7.798413793263969662e-02 4.644575509478206521e-01
2.996367329548355052e-01 6.049961660216613968e-01 -5.417895203831959439e-01 4.205451435408139593e-01 4.221594292393275605e-02 -9.062889144236949690e-01
2.900473126211676744e-01 5.989846291398285283e-01 -5.494672713365696959e-01 4.536884091531867558e-01 4.509365969932804807e-02 -8.900187578107395803e-01
3.042450456021472127e-01 5.620925087071820814e-01 -5.410149720671865170e-01 5.631002290198265925e-01 -7.901203039393711602e-02 -8.226027176777660488e-01
2.941789245190868929e-01 5.431836723472225348e-01 -5.488488998842996347e-01 4.474640747060426027e-01 -1.058983640695549955e-01 -8.880098188279548221e-01
-4.984691843318654336e-01 -2.627552445106841605e-01 -1.381239415432029306e-02 -4.789343457196719167e-01 -2.311191688134490163e-01 8.468800518946294487e-01
9.686188495906758456e-02 -2.363010670510393429e-01 -2.230525801457904425e-02 5.330267598320215239e-01 -8.309974684852526883e-01 1.591404432382857448e-01
1.115992961631811220e-01 -2.378006608507717001e-01 -1.786448339718601022e-02 3.516797337695380388e-01 -9.158863543037232269e-01 1.935808638683633454e-01
2.909784069245958116e-01 5.284546994422043564e-01 -5.409728889927738482e-01 9.146814654267795275e-01 2.923543408556543710e-01 -2.790819882894182702e-01
2.915728068718069776e-01 4.971318389350241618e-01 -5.120755641237393352e-01 8.513928011644777971e-01 5.025184218226876887e-01 -1.503513679822680582e-01
3.618477012944019133e-01 4.626811935747747739e-01 -5.566267234987940515e-01 8.979443121685485307e-01 2.869250935135330138e-01 -3.337214451550914451e-01
3.480838923130670781e-01 4.038822270594354391e-01 -5.542063560363769126e-01 8.759576388184870943e-01 3.793432041489933071e-01 -2.979881683247108670e-01
3.641812201569578078e-01 4.080869685082805787e-01 -5.163714675215028693e-01 8.919466247761732580e-01 3.329429841966274339e-01 -3.059087900414706462e-01
3.612675261119132064e-01 3.697527381233904897e-01 -5.548403535556977184e-01 9.252615901281713295e-01 1.083228927863490038e-01 -3.635342359831947312e-01
3.648813140122147969e-01 3.615322794324629663e-01 -5.413301267914927273e-01 9.588517436727876930e-01 -2.440723582277951227e-03 -2.838967708940161039e-01
3.460729758113117449e-01 3.352073355068750371e-01 -5.474394469221731674e-01 8.753111269435681630e-01 -4.816384753101073946e-01 -4.306750689017851269e-02
3.608127035015846751e-01 3.118533242645137871e-01 -5.154129635189050873e-01 8.044558860012149815e-01 -5.881266219090933722e-01 -8.341345263084687378e-02
2.669964551802678221e-01 2.875971750878720257e-01 -5.159916551168941545e-01 -1.822808654682341600e-01 -9.741331765871611426e-01 -1.335598755478541455e-01
2.928222374731975775e-01 2.871194684939800124e-01 -5.208607653769126156e-01 1.642125977530115855e-01 -9.790406273232601375e-01 -1.204727055796663698e-01
2.301629067534337603e-01 2.844753001494818023e-01 -5.421085421396443227e-01 7.739124806367890519e-02 -9.918048727441930446e-01 -1.016547545568887712e-01
2.190742758930786238e-01 2.891796754277375370e-01 -5.310577518486637727e-01 4.236378812358330692e-01 -8.771627248153360812e-01 2.260895835206683524e-01
2.100119845773856520e-01 2.787446439447151536e-01 -5.270429710286037572e-01 7.012301610607493130e-01 -4.885638792690130683e-01 5.192124777895161802e-01
2.091205709539078472e-01 2.499780616357533403e-01 -5.079829121641414869e-01 7.231064481118958387e-01 -4.707021979915739784e-01 5.055259691696353253e-01
1.823083855770854245e-01 1.989562928652131857e-01 -5.139357952144497643e-01 7.814857863239256242e-01 -5.684673695904778334e-01 2.571474586391214179e-01
1.160094628689906926e-01 1.447552378182100363e-01 -5.335414005697014517e-01 1.827049621686471781e-01 -5.581639181289643759e-01 -8.093651446027781970e-01
4.094281256648216738e-01 6.549156249346624881e-01 -3.750130967731811760e-01 8.940922868993164130e-01 4.468369242234733751e-01 -3.058996007935091410e-02
3.818518587588287105e-01 6.531808265307718075e-01 -4.025141939442437589e-01 8.517616548188083891e-01 5.236971324353528745e-01 1.560118134352482012e-02
4.090880269243916123e-01 6.885432029152479538e-01 -3.885924035329715309e-01 7.893633505889927626e-01 6.120421545794604290e-01 4.806143739684189120e-02
3.555700495601409883e-01 6.953897996132345494e-01 -3.978485510602312036e-01 7.861500098745891618e-01 6.178405066048813232e-01 1.553288036414275652e-02
1.226906027290456114e-01 7.431041038402352861e-01 -2.460521396636359756e-02 4.405680392990839467e-01 8.559638561699901560e-01 2.706024384198361665e-01
-2.837242147033059436e-01 -8.194466130422486949e-02 1.599482881404274692e-01 -2.563145416602469195e-01 3.964296572140996178e-01 8.815590635996031210e-01
3.330456898209877004e-01 -4.407562263373062117e-01 -1.058116619345438880e-01 1.469202878130237422e-01 9.691724396669624264e-01 -1.977857710224018850e-01
2.972945925272277856e-01 4.205956334627448112e-01 -1.612149017494942382e-01 9.410201462569179887e-01 3.256927597759993187e-01 9.168048084571570056e-02
1.786726645470222696e-01 -6.977676003650786773e-01 -3.797969155308951184e-01 5.670344279967957091e-01 -6.824496214586265319e-01 -4.612314729475038289e-01
1.617901301476145082e-01 -6.879226113283107846e-01 -3.713309807671990592e-01 5.737277080143693420e-01 -6.789601780472757087e-01 -4.580934333545834680e-01
1.855686582623642944e-01 -6.685151443056321918e-01 -3.735155983402523860e-01 5.834092497002110189e-01 -6.749371686187997099e-01 -4.517670481355126610e-01
1.776116340936362281e-01 -5.841743745668602772e-01 -5.099179493988040823e-01 6.322304008161686584e-01 -5.805569201040126082e-01 -5.130676201078859799e-01
1.819898222763694506e-01 -5.820343248676799197e-01 -5.129774869061697329e-01 6.533003717525321941e-01 -5.580990694868354085e-01 -5.115897310403442200e-01
1.910323577436261744e-01 -5.749796734222820671e-01 -5.043612449728622771e-01 6.609529246432802596e-01 -5.373225511640348229e-01 -5.238565714163252451e-01
8.908651515009013977e-02 -4.332869784934424984e-01 -7.840692313638081279e-02 9.744324702028241969e-01 -7.707220918664585418e-02 -2.110479461769574627e-01
7.239597282256161892e-02 -4.410976410333097841e-01 -8.996485383655487833e-02 9.857919564755485142e-01 -2.420404277530374335e-02 -1.662178776830019744e-01
-1.529923598363795156e-01 -5.536490398818598724e-01 2.663055209160032910e-01 -1.916098926463954411e-01 5.393603412309908585e-01 8.199854092282532481e-01
-4.348070344944785504e-01 -6.007766337450393124e-01 4.615541093042160870e-01 -2.248466947514838055e-01 4.254915896475077175e-01 8.765847768462388112e-01
-4.220471251104345178e-01 -6.020392898442876728e-01 4.724979159940284612e-01 -2.959231707793165411e-02 5.109955294194001851e-01 8.590738406466267296e-01
-4.099038381210891313e-02 5.443624328793164047e-01 1.470714708292024664e-01 7.069661157121260864e-01 5.324173188302310233e-01 4.655434564512069828e-01
-3.968157470579362078e-01 5.510802704268650265e-01 1.308493267771257129e-01 -7.337082440229708569e-01 -1.511340666053463122e-01 6.624429836325987919e-01
-3.453469330736573528e-02 5.458420763350528837e-01 1.230539327178200582e-01 6.144439502649094997e-01 6.617261510838142735e-01 4.296244091699800705e-01
-3.980875025940302514e-01 7.603158203231531465e-01 -2.689348590098787281e-02 -9.340838010951815207e-01 1.242446367826154918e-01 3.347397836563995588e-01
1.132117362577538533e-01 7.376691895745729477e-01 -3.211939282091578335e-02 3.486235562030369772e-01 9.357287929585941244e-01 5.360263135891960018e-02
1.112220238877215939e-01 -5.709548283218637277e-01 -2.154439789601603553e-02 6.277662676928110752e-01 7.675958345337741129e-01 1.292522647903580069e-01
2.179696427358899791e-01 5.863848438027254861e-01 -5.811472999342728318e-01 9.402816758282914744e-01 -1.460341207728115265e-01 -3.074807403263682404e-01
2.282997379825197071e-01 5.547465314793490476e-01 -5.975289874554092773e-01 9.066873658197655006e-01 3.008588933057240733e-01 -2.956382028454196398e-01
2.267694393274326259e-01 4.882447201970875339e-01 -5.879058501407236070e-01 5.683327647186975362e-01 7.711710328995617925e-01 -2.868677510000460784e-01
2.774487902124680438e-01 5.282318951500557525e-01 -5.933332711882722821e-01 1.216192823629730912e-01 9.435323731669049696e-01 -3.081483586578771527e-01
3.151253233930196851e-01 5.210958601893963538e-01 -5.943164839835284319e-01 5.474470531018864605e-01 8.068912501948600768e-01 -2.218743662729793509e-01
3.280700946168869092e-01 5.262574811190641189e-01 -6.123235676796725535e-01 9.591447448892296279e-01 2.131496758184430740e-01 1.860337981385836170e-01
3.257650335749406878e-01 4.669470393742720660e-01 -6.069214047113086208e-01 9.968692895431464640e-01 -6.740519776185610601e-02 -4.132987878554059830e-02
3.151557644422467441e-01 4.070378445611584350e-01 -5.796387418953098392e-01 9.414930926550130197e-01 -2.741983220739069305e-01 -1.959745816547463493e-01
2.125474938876802944e-01 8.116440505572326547e-01 -1.415909092209990117e-01 3.649515158490793110e-01 8.248831750498757387e-01 4.317153444100582105e-01
1.950889662692335547e-01 8.161251398307658445e-01 -1.249489276954587752e-01 2.476049470163084743e-01 8.155022790496406770e-01 5.231135852545727438e-01
1.459444362642612625e-01 8.427897238753150333e-01 -1.405769868800369193e-01 2.641039235053526113e-01 8.024408295749585474e-01 5.351054406564478283e-01
8.970500273776532696e-02 8.334150229271181098e-01 -1.421747671786089129e-01 2.830604619135826949e-01 8.077534264340503478e-01 5.171181460607630065e-01
-8.978085307280696259e-02 6.089025622454512510e-01 2.197614935577902051e-01 6.691574948568783654e-01 5.204049101968657443e-01 5.304780641269333241e-01
-2.578309992039007348e-01 6.003637650257621639e-01 1.897799144736872778e-01 -8.500139794695087403e-01 4.129987230835906464e-01 3.269683309400669979e-01
2.495069057628741815e-01 2.607446718220966519e-01 -5.895846776614396267e-01 5.606086600699424771e-01 3.789591004665762708e-02 -8.272132918759944609e-01
2.279107462616713209e-01 2.668843303121029020e-01 -5.889935365157960012e-01 7.625597920074813629e-01 -2.564619685363878770e-02 -6.464091863521521653e-01
2.301943225409202598e-01 2.404895232137291561e-01 -5.984399385344961741e-01 6.206633177923170930e-01 -7.221042864192929178e-01 -3.055199592202066938e-01
2.326280106867380515e-01 2.112239115813438206e-01 -5.894635773106851051e-01 5.129931102081235483e-01 -8.494012277828931756e-01 -1.239178079208535371e-01
1.254060123560820084e-01 1.913775081392242727e-01 -6.064955908061314682e-01 -1.794640854341829350e-02 -9.829282392920625222e-01 1.831119952995939326e-01
1.438606225543300754e-01 1.792604054878412234e-01 -5.810589327312799535e-01 1.608826223913756570e-01 -9.817796226903382495e-01 1.011214827941684241e-01
2.014049549812758078e-01 1.940239382787692368e-01 -5.910372150610551101e-01 3.099327602481103394e-01 -9.478896024241693086e-01 -7.380369734056253794e-02
2.011312439429097654e-01 -6.855466110100277843e-01 -3.707456626317498505e-01 5.874974163387598480e-01 -6.707809325706770576e-01 -4.526585095796773484e-01
2.375211820286182440e-01 -6.386202341632707391e-01 -3.665440935638642483e-01 5.965330053771180641e-01 -6.491718827680873494e-01 -4.719366907955767632e-01
2.156043768084855705e-01 -6.288736178004203925e-01 -3.797197439434657484e-01 6.102692132999191221e-01 -6.206580804171585308e-01 -4.922956779326687071e-01
2.880265867786668821e-01 -5.785300008752328749e-01 -3.511074471204779224e-01 6.470104570200755356e-01 -5.575746914297317058e-01 -5.200845431117062656e-01
2.971415302455666096e-01 -5.718912088967696983e-01 -3.570553648420585757e-01 6.705818598171596756e-01 -5.191990616277258885e-01 -5.298606455371527302e-01
-3.780767189013541918e-01 -6.024508908524935924e-01 4.640107184107306604e-01 1.273589265083655830e-01 7.331465521444207045e-01 6.680387989610969690e-01
-3.484143310510266489e-01 -6.055265677827851301e-01 4.519869589815687649e-01 1.436278444741686811e-01 7.393079183623280093e-01 6.578714495541398977e-01
-3.613759344070455737e-01 -5.922850801754419026e-01 4.324003436624760943e-01 1.579706949408596628e-01 7.410983868031516542e-01 6.525476539055734548e-01
-5.346018978041638947e-01 -5.396133225966960323e-01 3.396217612608378733e-01 6.618480697733482299e-02 9.835476497104895799e-01 1.680880485767658195e-01
-3.680875478839160664e-01 5.305560432411531302e-01 1.332099833068320915e-01 -7.492080510686395245e-01 1.012366490249756446e-01 6.545520889189224700e-01
-5.027347466818115479e-02 5.641776597462312415e-01 1.434576779812195002e-01 8.265611422348252413e-01 3.824319425467923583e-01 4.129679012554705597e-01
-3.697937624689131009e-01 5.591923863875329914e-01 1.225662484428210047e-01 -7.152818897330521786e-01 4.746048433805831746e-01 5.129542483103205486e-01
-5.335865259846226533e-02 5.958165604929066550e-01 1.333345827748273760e-01 9.118198600827865929e-01 1.201742566851998067e-02 4.104145760556134337e-01
-6.561786567319781716e-01 -5.623487090183915127e-01 3.600059552658072537e-01 -7.269230164500564140e-01 -3.370948364053405477e-02 6.858910984025377022e-01
-3.245951786986816523e-01 6.050302402211253927e-01 1.405028070847132160e-01 -2.853649016327469146e-01 7.893609410826757378e-01 5.435772048285369973e-01
-3.688621504820282504e-01 5.961017351059073599e-01 1.119472063319542077e-01 -5.379993960177067436e-01 6.856336028645771963e-01 4.903704849473733418e-01
-3.342848995660424594e-01 6.001543272648534044e-01 1.289337266929363734e-01 -2.196447723664401164e-01 6.894523712446350983e-01 6.902257614413161990e-01
-3.055571300389878786e-01 6.023049284588011254e-01 1.301694440896467297e-01 -7.395813198368542118e-02 6.609503392817477341e-01 7.467763009876694502e-01
2.063459656559026578e-01 3.008773505309481067e-01 -6.569647483990339598e-01 7.317228532901906002e-01 5.850653225130184598e-01 -3.496859081598797103e-01
2.050280067195121292e-01 2.710800873687098655e-01 -6.720525030081617723e-01 9.536375073864828966e-01 -3.005914086574043576e-01 -1.484282813526936751e-02
2.192310138935292807e-01 2.569380949272733194e-01 -6.629137780455819362e-01 9.096313790286777445e-01 -4.140267354299351221e-01 3.395020818222690973e-02
1.784080884874678918e-01 2.395147780559130357e-01 -6.568861956190764628e-01 8.329073237937268948e-01 -5.518686961546449554e-01 -4.130777378827966279e-02
1.787793745743245233e-01 2.106711724934848540e-01 -6.592103984255317517e-01 7.113623283280383625e-01 -6.934997995935280324e-01 -1.141125137723654898e-01
1.412289399599525319e-01 1.950113129555625657e-01 -6.746122256924453886e-01 4.839408679227025778e-01 -8.542088950866458807e-01 -1.900747219097606022e-01
-9.041999072587408870e-02 5.975680936218492612e-01 2.082553099090855286e-01 8.019577777860484868e-01 4.448776931076265928e-01 3.986822805489341204e-01
2.713383354799318026e-01 8.227571311596283410e-01 -1.830784456200963695e-01 4.614439337389299456e-01 8.737626420034508845e-01 1.536500616813782361e-01
1.678376999025571747e-01 -1.115006618930890897e-02 -3.461496188510522209e-01 5.238937317215665024e-01 -5.478595365925902350e-01 -6.522156744723354160e-01
1.399839844471995609e-01 -2.406502603597477502e-02 -3.748217447835016647e-01 5.203403951867313637e-01 -5.406001293719668865e-01 -6.610577684740788218e-01
1.787678824934645083e-01 -2.287062386918437690e-03 -3.699483086768377560e-01 5.646616946380558222e-01 -5.380561718999765652e-01 -6.258216411157589976e-01
1.954379047402684255e-01 3.688544051464943269e-02 -3.718290704995026452e-01 6.204682761467674723e-01 -5.180475373270845285e-01 -5.887663945613758054e-01
2.210941924403500847e-01 6.939375972029586392e-02 -3.498423532513225687e-01 6.908665985290047828e-01 -4.601992144025939813e-01 -5.576020320086703119e-01
2.068789849062546149e-01 -8.404871112492277030e-01 -5.847009439014478477e-02 6.387086948289154575e-01 -7.034044184448573489e-01 -3.118868821579316997e-01
2.105438243006744203e-01 -8.561053910591758243e-01 -4.523707064270392902e-02 6.715618332879872421e-01 -6.789534816258976369e-01 -2.966932319062053347e-01
2.104235425344477550e-01 -8.141618145460274292e-01 -6.870117472756662180e-02 7.282398243322018017e-01 -6.322520050418656279e-01 -2.644317688500092967e-01
2.363622045109214087e-01 -8.026460697125133992e-01 -6.787125795385645644e-02 7.516163576682022285e-01 -6.209454174511038760e-01 -2.224851442952077429e-01
2.651208051198176152e-01 -7.618677227260527429e-01 -6.182686957936422978e-02 7.995409164621053444e-01 -5.852656524553069284e-01 -1.349015899053839229e-01
2.790219627510197031e-01 -7.763721941657055758e-01 -4.164035825540217395e-02 7.942290063190666771e-01 -5.980976088557093950e-01 -1.071425956494931886e-01
2.833101722391338506e-01 -7.311575838488612034e-01 -5.746423025924964761e-02 7.838010975399753999e-01 -6.178743737206974229e-01 -6.234659408809689607e-02
2.924935129653419841e-01 -7.308632364676214133e-01 -5.685725577345347032e-02 7.774954000619092032e-01 -6.276537055383453190e-01 -3.939198911652083690e-02
3.245441228138735701e-01 -7.140535133757373032e-01 -5.956465699861137469e-02 7.764900666843796984e-01 -6.298024954828782551e-01 -2.029761128869385714e-02
3.325809947143332779e-01 -6.754972337975853058e-01 -6.400447768833153472e-02 9.711542271750759348e-01 -1.649594753159039640e-01 1.721854771561255604e-01
3.081869281755386103e-01 -6.453517210381621849e-01 -7.252316449336067283e-02 7.909557009021304097e-01 5.938690068375278575e-01 1.473386640642168621e-01
2.137569884902590367e-01 7.045317798818358235e-02 -3.376564683925112331e-01 7.274290735566572019e-01 -3.827653083374766840e-01 -5.695065071426486103e-01
2.435512957586584426e-01 8.989295974030583891e-02 -3.577688360456949268e-01 8.069854251241190823e-01 -1.961138509487016512e-01 -5.570582385202784703e-01
2.426589149615972496e-01 1.179556028605613788e-01 -3.607393841690859082e-01 8.626897162556611542e-01 1.254886672129525149e-01 -4.899173888196290960e-01
2.439959638297349021e-01 1.649639512377495121e-01 -3.594235325337457598e-01 8.938713483832898543e-01 1.062820145157348933e-01 -4.355435063571907461e-01
2.272573129032013917e-01 1.876960356925146123e-01 -3.502083395654300713e-01 8.284243842303321559e-01 -3.959937033433396647e-01 -3.961086044571894282e-01
2.336969510287627838e-01 2.342880608123070196e-01 -3.574273657394560488e-01 6.539953413249203207e-01 -5.991108310911736901e-01 -4.619050828845080447e-01
2.832936438131454238e-01 2.305363142223681994e-01 -3.663681233222035871e-01 6.787880232026777261e-01 -5.260156495483542249e-01 -5.124005815637060479e-01
3.122326101118756414e-01 2.452152593150406790e-01 -3.402394752140097123e-01 6.515779237375907140e-01 -4.759352588260395978e-01 -5.907045274111254463e-01
3.055157244612024536e-01 2.755024308695140367e-01 -3.272401421254902965e-01 6.786372743399511354e-01 -2.107043536339278655e-01 -7.036015386823357698e-01
3.001009156640317421e-01 2.918202706893786025e-01 -3.775106791150922847e-01 6.693387178667733473e-01 5.133155102594930824e-02 -7.411819969708750566e-01
-4.655672957818466906e-01 -5.777069841433362107e-01 4.432979062136180315e-01 2.306561096906628236e-02 7.655747702329768201e-01 6.429333159615764348e-01
-4.240609856221734253e-01 -5.859579436025109667e-01 4.606723210914377420e-01 9.654372760667605247e-02 7.943005206103344040e-01 5.998049613148925818e-01
-3.955361041406331712e-01 -5.986549901079833980e-01 4.452914188108160198e-01 1.154371298600305740e-01 7.990432128092965769e-01 5.900883095885527396e-01
-3.904039940462200042e-01 -5.842536692851527658e-01 4.286276675694863925e-01 1.261099463558494338e-01 7.963885736050649866e-01 5.914909308361496754e-01
-4.987954851713165549e-01 -5.992848594113121541e-01 4.423546032700627628e-01 -2.642100269543863900e-01 2.213361839463951486e-01 9.387243233946853671e-01
-4.917361725044249177e-01 -5.917349888543720349e-01 4.715973238297982428e-01 -2.731151325463035962e-01 4.289492229176795068e-01 8.610520823577014760e-01
-3.519544244692761059e-01 -5.820477112575677126e-01 4.408874547114208231e-01 1.328464297860163235e-01 7.874882001338303628e-01 6.018423055444749314e-01
-3.514348737061909755e-01 -5.993911787507020250e-01 4.432722483250374768e-01 1.481643383699497718e-01 7.868844188077912527e-01 5.990494472686871408e-01
-4.997953202259587391e-01 -5.951462782128755791e-01 4.470651959926379426e-01 -4.670380869978180693e-01 -6.890766328533101670e-02 8.815481604733650389e-01
-3.307872428861977632e-01 -5.659036944918894863e-01 4.484458270392956414e-01 1.808827479931763293e-01 7.779896850553321697e-01 6.016755615993907291e-01
-2.902835240552208984e-01 -5.931947344713170978e-01 4.503483199192762632e-01 2.080913602853284305e-01 7.683859405568971290e-01 6.052115598111903472e-01
-2.674005604689138615e-01 -6.076410199495637654e-01 4.357057970805946479e-01 2.265697435585912745e-01 7.656185718158863285e-01 6.020750400028194171e-01
-5.184214542802306758e-01 -6.060216055287782622e-01 4.374692608515448056e-01 -4.732875943947175146e-01 -4.199387899278225755e-01 7.743708838186115218e-01
-2.378616971271183544e-01 -6.022338186979319108e-01 4.540308425760775091e-01 2.523079231938513134e-01 7.467656023913875618e-01 6.153713082185696681e-01
-2.155053092809972592e-01 -6.245292152801299457e-01 4.544130394653694283e-01 2.630797043116814282e-01 7.414180465730330072e-01 6.173235370493384000e-01
-1.861662451052913947e-01 -6.529484918821526485e-01 4.395616660897582184e-01 2.764909831147098207e-01 7.201638300319131991e-01 6.363307270358921075e-01
-4.740120483256826667e-01 -6.439236911845334088e-01 4.534952374796089036e-01 -4.927942470110281969e-01 -4.284896445095759399e-01 7.573311393709432071e-01
-1.982088933693841315e-01 -6.309998892552000083e-01 4.637585426324405957e-01 2.958965486193443906e-01 6.952127019000824415e-01 6.550759739388608560e-01
-1.511797822351340637e-01 -6.565086512110340777e-01 4.336019502006355220e-01 2.921871715361923916e-01 7.024807177379183143e-01 6.489587798898315274e-01
-4.572638198044954860e-01 -6.320245176247388796e-01 4.297573210929390708e-01 -4.892446137957679464e-01 -4.070082027863205498e-01 7.713520796215430630e-01
-1.161179606667807757e-01 -6.726726603903140367e-01 4.547877455353270260e-01 3.022032293286974203e-01 6.479621684403110704e-01 6.991553736140747599e-01
-1.407680769170160662e-01 -6.458026699368325518e-01 4.349645735995558149e-01 3.274998936563255358e-01 6.160298630514630114e-01 7.164154014842862850e-01
-4.618173219750224545e-01 -6.674294445884342286e-01 4.520192437671908814e-01 -4.814839844027272164e-01 -3.657378427308040636e-01 7.964979618042296039e-01
-1.291491966748378184e-01 -6.750507437953526813e-01 4.487249331702591881e-01 3.296864606241866058e-01 5.200832156911321391e-01 7.879214976363242418e-01
-4.490824234378641422e-01 -6.827151216580206183e-01 4.495037741122316910e-01 -4.641062360841517465e-01 -3.381960920201952936e-01 8.186750301371534810e-01
-1.080703684733141934e-01 -6.756363132084867162e-01 4.494116622859764543e-01 3.566643967903785351e-01 3.721795313176405884e-01 8.568972543603677883e-01
-4.284805872891639944e-01 -7.172021619399665537e-01 4.317117392390906194e-01 -4.477495008693655465e-01 -2.945652720196479946e-01 8.442462229653295847e-01
-4.181684578484982096e-01 -7.150559584059748008e-01 4.395659369929501015e-01 -4.412353068569790926e-01 -2.728651144230851977e-01 8.549011833619744039e-01
-4.168406809789582668e-01 -7.169341647329821043e-01 4.442945745829873783e-01 -4.611205676357342798e-01 -2.555321314749575690e-01 8.497476989596164376e-01
-4.242196013322104275e-01 -7.045884770579151635e-01 4.403941867046594627e-01 -4.423108257684798539e-01 -2.423462254416871853e-01 8.634983731439060950e-01
-9.045755853867835927e-02 -7.184667258690271563e-01 4.724814981412017723e-01 4.032716063638077664e-01 -8.814267689115255766e-02 9.108253839299912391e-01
-4.106238898969393203e-01 -7.351564421380683001e-01 4.678808295580150212e-01 -4.357166493945894836e-01 -2.384055544729122567e-01 8.679365144046052860e-01
-4.142228495973556135e-01 -7.673456363025834559e-01 4.481917824089865499e-01 -4.278101634073241955e-01 -2.476299730986864511e-01 8.692858336062668778e-01
-1.217023286955292438e-01 -7.461759075839644595e-01 4.699527087684526316e-01 3.900027230085486574e-01 -2.019326695520259340e-01 8.983991724247688548e-01
-3.849581627179962662e-01 -7.585327601568616629e-01 4.494161268893301364e-01 -4.396319887036066465e-01 -2.592722595192670232e-01 8.599427945812940788e-01
-1.062829963135356048e-01 -7.631178258503020784e-01 4.351339944160151352e-01 3.901269437942421203e-01 -2.170339667193572075e-01 8.948168667475067117e-01
-3.881440006040295931e-01 -7.877896108630131344e-01 4.601887047338965031e-01 -4.163302870101830977e-01 -2.781721922292666460e-01 8.656149973217783788e-01
-1.330431417085616574e-01 -1.087507838583914310e-01 1.430195664637517738e-01 -1.951211245593327259e-01 2.003456802122293989e-01 9.600986174195859091e-01
-4.400190469441283558e-01 -5.558944695807104264e-01 3.772606436907438021e-01 -6.140160545752259419e-02 9.861392999156226580e-01 1.541399494263715197e-01
-3.902624429045256638e-01 -5.529828481051096700e-01 3.998023327441972419e-01 -2.401642944250475739e-02 9.789929998302273617e-01 2.024744858006695680e-01
-3.638115145868396905e-01 -5.494373579990071699e-01 3.976118940473502006e-01 1.323476836147343960e-01 8.739357031360083239e-01 4.676756113226183675e-01
-3.454528587795183681e-01 -5.507048899281963283e-01 3.628824890939035264e-01 1.362772444299719943e-01 8.548207014163027306e-01 5.007095775803712678e-01
-3.007164339562305999e-01 -5.653551917894295009e-01 3.831599471518195577e-01 2.228060945159364148e-01 8.435353395074736138e-01 4.886773733748747128e-01
-5.729119573456659120e-01 -5.540317508852659056e-01 3.871747116658945664e-01 -1.608864579966360620e-01 8.665437280684803456e-01 4.724590087811599837e-01
-5.403820577809030912e-01 -5.594088657664471054e-01 3.613688753192300096e-01 -9.660067064303076712e-02 9.851582325354698577e-01 1.418857543903042084e-01
-5.461421915069022415e-01 -5.503351877705410233e-01 3.591954411280115500e-01 -1.639345341630703626e-02 9.992542062917476597e-01 3.496120554752749077e-02
-5.139930222936801574e-01 -5.529554942647987303e-01 3.656317822033363640e-01 -4.194794008263470764e-02 9.987670175720005927e-01 2.654835085564505662e-02
-2.973099468969566117e-01 -5.659308858941966003e-01 4.045549071129656005e-01 1.986950009552704843e-01 8.106041902380933806e-01 5.508549204317139125e-01
-2.619414750240978695e-01 -5.620154423040103486e-01 3.877768864422047601e-01 2.644595753369921587e-01 8.235340622719958814e-01 5.018493611536855026e-01
-6.087361348850907072e-01 -5.697531458850932928e-01 4.066404301284321510e-01 -5.872084776367707537e-01 1.085104340026896014e-01 8.021294717837351707e-01
-2.733769441554826929e-01 -5.439517010221432969e-01 3.699045664483232021e-01 2.718977345308104532e-01 8.108724828366470350e-01 5.182252777850039349e-01
-5.680521875726335379e-01 -5.879118594094762118e-01 3.821034098097454978e-01 -6.004012151281706844e-01 -4.193134904130561003e-01 6.809512299939226576e-01
-5.810796601373908743e-01 -6.013099581891467871e-01 3.876564757674349493e-01 -6.102132473356909337e-01 -4.357682888348419770e-01 6.616236023767475549e-01
-1.597818967707506366e-01 -5.823008688469966110e-01 3.765861109020093300e-01 3.233061721795364440e-01 8.015385134176157278e-01 5.030001297603158283e-01
-1.465937675570515020e-01 -5.955467234136037069e-01 3.768136116383581924e-01 3.388083116570055897e-01 8.021976283570902977e-01 4.916176288645365267e-01
-1.243893257844105454e-01 -6.329066097623086140e-01 3.806341298290879527e-01 3.398614178529267282e-01 8.228423091197027972e-01 4.554390749348957712e-01
-1.003947543510303186e-01 -6.316475421531541068e-01 3.895477248674406034e-01 3.482676344490381881e-01 8.298396446757876355e-01 4.359768559449382352e-01
-5.474611573423082689e-01 -6.696262577429392682e-01 3.951615399963518405e-01 -5.959845556284752988e-01 -4.765004700904661439e-01 6.463356028070043058e-01
-6.571398001733456951e-02 -6.280242205134265454e-01 3.743143070439433062e-01 3.848179320825060867e-01 8.224418597197860059e-01 4.189326276722829534e-01
-5.402481008401046614e-01 -6.504021801067080277e-01 3.853721428119374903e-01 -5.972766461903497026e-01 -4.476568717732606895e-01 6.654802274070854562e-01
