1.115507957925024329e-01 1.141942881958308148e-01 2.704105170128089444e-02 -3.834081471967110688e-01 8.244156847347358097e-01 -4.163375690789168915e-01
2.692116350822191806e-01 1.473384797690494713e-03 2.261756129790621489e-02 8.699475207651526931e-01 1.240272970904875982e-01 -4.772929296469748395e-01
2.931093625175335005e-01 1.026092645566859321e-02 -8.225094791030701513e-03 8.699475207651526931e-01 1.240272970904875982e-01 -4.772929296469748395e-01
2.846149201049133493e-01 8.190767960711668044e-03 1.470684620282744492e-02 8.699475207651526931e-01 1.240272970904875982e-01 -4.772929296469748395e-01
1.488162916494288890e-01 1.511504303827510276e-01 1.192048102557830003e-02 2.756536509575497340e-01 9.186319090265077092e-01 -2.830732774955759257e-01
2.926013948610355353e-01 -1.273017170043229049e-02 1.091035926628633815e-03 7.009163494220532753e-01 2.375954988550825764e-01 -6.725062453514216720e-01
2.718942916152037870e-01 -1.258658869021662963e-01 3.503780498094168777e-02 6.374928155722453527e-01 -7.225611259962577693e-01 -2.674104135832992557e-01
5.471859691555185784e-02 -1.437747272023656431e-01 1.630011181633591461e-02 -4.047334271011755469e-01 -7.846933994584279759e-01 -4.695179675297991295e-01
2.270917717875027830e-01 8.958498112689830539e-02 2.312019356585294158e-02 5.074209841953876143e-01 8.318559885045015978e-01 -2.248100513486504803e-01
5.716644450749606976e-02 -6.701585820468383692e-02 -3.672236172210566196e-02 -9.602677491418338818e-01 2.156027154091902098e-01 -1.772041733883815695e-01
6.884976676001013096e-02 -1.514104909718432534e-01 2.893177353041005012e-02 -2.222674846145815120e-01 -8.636656050890100245e-01 -4.524145089067558301e-01
8.039993818664757652e-02 -1.737830660898637414e-01 4.045177191647714166e-02 -8.699617567899896320e-02 -9.497436296633801067e-01 -3.006970291357349834e-01
1.557457862520143788e-01 1.370420019775066001e-01 4.129016888661444368e-02 3.586419363774905888e-01 9.020173985038938413e-01 -2.402926845904211073e-01
1.696122732756041307e-01 1.165446956659181299e-01 3.082852787107188269e-02 3.586419363774905888e-01 9.020173985038938413e-01 -2.402926845904211073e-01
2.695716675021421205e-01 5.505579547355290981e-02 5.004149185525869070e-02 2.554426445223285103e-01 9.263927350496232727e-01 2.766686751454125459e-01
2.106704767499232300e-01 8.862221032832427736e-02 1.399203977212024747e-02 7.392201624602589005e-01 5.791241634418218265e-01 -3.437568249941205245e-01
1.939088970143066637e-01 1.058402437298942983e-01 -4.011522028876970264e-03 7.474453057147107948e-01 6.031128048900726846e-01 -2.785326902585613662e-01
8.463344706006116491e-02 5.787162763707191099e-02 3.744252630393896109e-02 -8.599103275006526603e-01 -3.216740434333437704e-01 -3.963332416527329816e-01
2.666153152460946640e-01 4.619284838955656919e-02 1.870935190472874932e-02 7.963758932322297923e-01 3.894288744694930915e-01 -4.627424644529525843e-01
1.461553670799748961e-01 -1.514816569615787534e-01 1.195375856678307022e-02 3.962694382401501514e-01 -8.470866383446384873e-01 -3.541394632836271095e-01
6.231044745580091582e-02 1.815988384266639319e-02 3.824681078585996652e-02 -9.729648337547172066e-01 3.710272065415633896e-02 2.279535487697335050e-01
8.559398848003441085e-02 3.308237603381915248e-02 3.175786656291472443e-02 -9.729648337547172066e-01 3.710272065415633896e-02 2.279535487697335050e-01
2.588316932980542218e-01 -1.241275055749674616e-01 3.672960727162609407e-02 7.328205227545024902e-01 -5.436043552674467705e-01 -4.092290145677372482e-01
2.328795977926695071e-01 9.593781374403156925e-02 1.294846443016621669e-02 4.376685660904180292e-02 9.969184331205422911e-01 -6.510069098747135741e-02
2.412278172698285317e-01 9.931918404850284543e-02 1.373923729060220859e-02 7.693212047867599157e-01 5.813965083393566324e-01 -2.648074469425900634e-01
2.951870051161825659e-01 -2.120410873387828035e-02 3.480686790039691503e-02 8.685736566980004625e-01 4.024732750014320959e-01 -2.891281131261459469e-01
6.870344898687046065e-02 -2.909053980215014698e-02 -5.781946821972446318e-04 -9.292315710965931563e-01 3.276057242517901313e-01 1.708893698122186666e-01
7.367984886476208750e-02 -3.237131625521117578e-02 1.608375690353811699e-02 -9.292315710965931563e-01 3.276057242517901313e-01 1.708893698122186666e-01
5.583954425560135743e-02 -5.688576996834437960e-02 1.176234118987190547e-02 -9.292315710965931563e-01 3.276057242517901313e-01 1.708893698122186666e-01
1.228937489413373663e-01 -1.432001108913539267e-01 6.493432206446944112e-03 2.470551817329927902e-01 -7.615590382136812053e-01 -5.991590510823738835e-01
1.222604957288139782e-01 -1.500165624672281095e-01 2.483407331178734759e-02 1.762737545582434562e-01 -9.621807528106173235e-01 -2.076915077097135631e-01
3.215356865159317845e-01 -4.206918823757900550e-02 1.936688988734575068e-02 6.148496041531257283e-01 7.885574880615492388e-01 -1.170693362090858072e-02
3.091055331866148226e-01 -6.334944711198023382e-02 3.295476364845392053e-02 9.755968484694886866e-01 3.965268131859845530e-02 2.159593807192619896e-01
2.800789168980219457e-01 7.207600905862598245e-03 -9.178738384608602432e-04 8.474542005944571965e-01 1.108230453422512363e-01 -5.191720625340684458e-01
2.862580534427918155e-01 3.129696344666726276e-02 4.401502964278996774e-03 8.474542005944571965e-01 1.108230453422512363e-01 -5.191720625340684458e-01
3.024221054088419569e-01 -6.710821935527196136e-02 1.136373191755538775e-02 2.588767389596466351e-01 -9.480645173974308060e-01 -1.848147853327637979e-01
2.908035617696370090e-01 3.166553123999784475e-02 1.578084781901012423e-02 8.782174920258949413e-01 2.781027637610699044e-01 -3.890923919690561505e-01
3.006879282909355466e-01 6.249177579285735556e-03 3.069305967362517124e-02 8.789535661691424417e-01 1.188087853725819931e-01 -4.618713035433561487e-01
2.929154185209353334e-01 -2.294038049509423277e-02 3.560598049422671052e-02 8.789535661691424417e-01 1.188087853725819931e-01 -4.618713035433561487e-01
3.017291327430189907e-01 -8.152989632075492016e-05 2.137386084702723454e-02 8.789535661691424417e-01 1.188087853725819931e-01 -4.618713035433561487e-01
2.722401727634567448e-01 1.007021547149638402e-03 3.011247742419262755e-02 8.789535661691424417e-01 1.188087853725819931e-01 -4.618713035433561487e-01
1.054172461415086720e-01 -1.870697626711476103e-01 3.223454700195130945e-02 2.116043211346761710e-02 -9.093147400734503671e-01 -4.155706192669602062e-01
1.983960849902852708e-01 8.691076330762140256e-02 8.040266983961576186e-03 8.130205197088096192e-01 4.235115793960886332e-01 -3.995442111329454704e-01
2.014837244063613086e-01 1.179348392687693536e-01 1.123581924638907339e-03 5.215603057485933558e-01 7.073445694146387464e-01 -4.771147740188447783e-01
3.509824160917369984e-02 -8.892529312515903839e-02 6.993320947026976722e-03 -7.166981013033881798e-01 -1.482347623539007619e-01 -6.814472003156231139e-01
1.509690724858356869e-01 1.443488682615539642e-01 2.372093632110931077e-02 8.909821042411147918e-02 9.569338963500156892e-01 -2.762951807679575045e-01
1.437102529589867339e-01 1.367622434823323740e-01 2.305532676816128557e-02 8.909821042411147918e-02 9.569338963500156892e-01 -2.762951807679575045e-01
8.388756732892599377e-02 1.453681436071637897e-02 2.060118318243695824e-03 -9.379813385951542015e-01 3.465832362070189743e-01 -8.430232945319365498e-03
7.214411423668161405e-02 3.344957166926458558e-02 -1.039756293507510670e-02 -9.379813385951542015e-01 3.465832362070189743e-01 -8.430232945319365498e-03
8.247810082383125185e-02 2.339861504011721619e-02 2.409591596767523061e-02 -9.379813385951542015e-01 3.465832362070189743e-01 -8.430232945319365498e-03
4.266936619822092602e-02 -7.114850357594108832e-02 2.242120326320945836e-02 -5.095957251849647651e-01 7.636658240965240596e-01 -3.963921114000462098e-01
3.884265196425702033e-02 -1.370452954240170551e-01 1.026103250913592245e-02 -6.013581845698529049e-01 -6.016021906325367263e-01 -5.257786017678767188e-01
2.148672105042125358e-01 8.310565057120006260e-02 4.277286641736301881e-02 1.243214438325640318e-02 9.971725583746305910e-01 7.411025982026978043e-02
3.279753873935221664e-01 -5.589294995076993233e-02 3.169206435801734043e-03 3.365456149411312214e-01 -9.102732734327257935e-01 -2.411215808217214707e-01
2.727318835552314802e-01 -6.368506247060262693e-02 2.207510787554914020e-02 5.070840514787635644e-01 -5.607437311503415955e-01 -6.545473494801395953e-01
7.832671056450464520e-02 2.546202539049510771e-03 1.850990675595151277e-02 -9.564267260981065277e-01 6.468797907397559610e-02 2.847163201654980269e-01
2.551341418425001617e-01 -1.299471858989821871e-01 2.710640607543718383e-02 7.571328487315276412e-01 -4.263775558755539818e-01 -4.949262866501136782e-01
1.316199427705468661e-01 1.126471155543234126e-01 -7.275201591381251498e-04 -1.751157976134087579e-01 8.870777112355286986e-01 -4.271154313009019043e-01
2.787144896753697698e-01 3.091143327240214109e-02 -5.972175585116090701e-04 7.622766191265278879e-01 4.902922079829948321e-01 -4.225492950227109357e-01
1.488386038607111828e-01 -1.269865259897334786e-01 -1.493874441802271226e-02 4.070178955178175850e-01 -7.897784892846392291e-01 -4.588969062780002828e-01
7.604596912861169566e-02 3.278280553165025674e-02 -1.674264288519088442e-02 -9.615499474075864805e-01 2.497840331032472883e-01 1.141474285612416317e-01
9.107551392736525087e-02 3.900152658417856827e-02 6.032648875590235563e-03 -9.615499474075864805e-01 2.497840331032472883e-01 1.141474285612416317e-01
5.018893805412666387e-02 -6.795057641553788053e-02 -1.315556692525991084e-02 -6.544738621613365170e-01 5.886216808408470946e-01 -4.745402834235676326e-01
2.721520336412475843e-02 -1.144999439953095222e-01 9.073812997691541038e-03 -7.210207802577861536e-01 -1.575751966769363688e-01 -6.747585433536045230e-01
2.376839442524155410e-01 -1.147646356399642381e-01 2.925996342363518937e-02 7.060016141721237037e-01 -4.780922260254783507e-01 -5.224840133442926193e-01
3.596421696539813667e-02 -1.050118432546557207e-01 -1.830657915065519309e-03 -7.295110631216834562e-01 3.578376292123360281e-01 -5.828943642743218412e-01
4.391174003570016970e-02 -1.136179358369438924e-01 1.198395184387521066e-02 -7.574842768810399196e-01 5.243087260136329586e-02 -6.507446303092079276e-01
2.046366638269920407e-02 -1.436958042925686463e-01 4.310117391117169322e-02 -6.499075691573115154e-01 -5.931265864104436902e-01 -4.752062752585753946e-01
9.656257006143825761e-02 1.058173753772353176e-01 1.331343503746179255e-02 -6.839877058566699031e-01 4.576361031426073311e-01 -5.680933156950349616e-01
8.256706347767248100e-02 1.030444625195853225e-01 2.284645418365275488e-02 -6.839877058566699031e-01 4.576361031426073311e-01 -5.680933156950349616e-01
1.853412938593615444e-01 -1.552466101574240809e-01 1.744623548045644984e-02 3.106929352226507901e-01 -8.493603215181717569e-01 -4.266813146052702566e-01
2.391920597982197805e-01 7.423908633718874495e-02 1.253451141194517754e-02 6.275140494657781565e-01 7.426845729799889106e-01 -2.337642889335157792e-01
1.163023326603911944e-01 1.219859228073659346e-01 1.687086537900399710e-02 -2.988283360518224074e-01 8.338230956063034105e-01 -4.641558690849665325e-01
6.578715430527305730e-02 -1.697628481456383842e-01 1.877612573114555497e-02 -2.811615037508573001e-01 -8.523605850865727529e-01 -4.409417669028780074e-01
1.249280172447900655e-01 -1.695831415465332281e-01 -3.947945212587920805e-03 3.243276054516123774e-01 -8.389233548270956797e-01 -4.370574436703649757e-01
2.091697095008216711e-01 1.076131157622459977e-01 6.426950626651645355e-03 6.258155109492502532e-01 6.514394677159693892e-01 -4.289307241936199944e-01
3.297441687796870413e-02 -1.265150326258529800e-01 1.864572398487618701e-02 -7.104892195916098219e-01 -3.859505178088897259e-01 -5.884277922117164827e-01
6.734161542041190718e-02 -1.159267419797036514e-01 6.121102778231806048e-03 -6.150177379766098573e-01 -3.975657426072913281e-01 -6.809512921488930504e-01
2.783198758450121102e-01 -9.104087324534414216e-02 2.050363491449260292e-02 7.613523799995218777e-01 -4.427669478758272104e-01 -4.736031918576862343e-01
5.379889773653877966e-02 -1.348251812984555820e-01 6.028273786438210352e-03 -5.069861185075468235e-01 -6.295419447722969686e-01 -5.887631233467037761e-01
1.647330879665976078e-01 1.226335810433981377e-01 2.691890386583628211e-02 9.782039582715390535e-02 9.693828072341397206e-01 -2.252290904813980532e-01
1.431566586893386894e-01 1.344753835423082022e-01 3.048464689462746652e-02 9.782039582715390535e-02 9.693828072341397206e-01 -2.252290904813980532e-01
1.986171060239623198e-01 -1.514278943981751946e-01 4.785594747188669229e-03 4.919911259999725783e-01 -7.560501070792462475e-01 -4.316630254292572189e-01
2.505925740708758731e-01 -1.396560368426163767e-01 3.115806955105495518e-02 5.803653832690891523e-01 -7.903510537372417932e-01 -1.962682698740547682e-01
1.440325223326925086e-01 -1.530316401386557223e-01 -3.926083856480996719e-03 2.423184696940751393e-01 -7.628165607801418169e-01 -5.994936645575813516e-01
3.164528138161343263e-01 -5.409115162318191283e-02 -2.959470193373905933e-04 4.296247520166008305e-01 7.339429831307154872e-01 -5.260705940915728629e-01
1.972910371663445517e-01 9.689197976681504509e-02 6.356936736771905301e-03 7.257078594899566415e-01 4.440036194517210655e-01 -5.255557901767201612e-01
2.369487836210524834e-01 8.285305698670270003e-02 2.125264246465181917e-02 5.925206364143619231e-01 7.919635694686584237e-01 -1.473533170905251544e-01
1.177667290047893223e-01 1.198183724768334540e-01 1.058236874777552204e-02 -3.434148747518631639e-01 8.526343317367782726e-01 -3.938031489753980874e-01
7.394901231897205163e-02 1.159423355573594577e-01 1.895969334928764016e-02 -6.238153535490655877e-01 6.270735091491507207e-01 -4.665117563361337871e-01
9.971979133352622260e-02 1.169832389466216732e-01 2.578009728545246557e-02 -6.238153535490655877e-01 6.270735091491507207e-01 -4.665117563361337871e-01
1.489081083664564598e-01 1.311055635735243197e-01 9.719846135981490692e-03 5.258036981397846976e-02 9.364583924297444906e-01 -3.468154897897783862e-01
1.978718052615483225e-01 -1.198154829427601487e-01 1.698780684753632003e-02 -7.681337059271861611e-02 -9.852480842930915195e-01 1.529245516422366447e-01
2.786325182325206928e-02 -1.105683127958385359e-01 2.863584288763123750e-02 -7.595285077653350925e-01 1.227134234964317033e-01 -6.387940682141223236e-01
2.814193738604667261e-01 -6.885855110392605227e-02 -6.817998611298059508e-03 7.345254022333261856e-01 -4.800967898943795387e-01 -4.795617851821415978e-01
2.699596149807232393e-01 -7.289864005524587798e-02 -2.976292420725043519e-03 7.345254022333261856e-01 -4.800967898943795387e-01 -4.795617851821415978e-01
6.520560286648227621e-02 -1.623901846639756175e-01 2.308495963453014235e-02 -4.568252609916260143e-01 -7.883050961575289728e-01 -4.121719984326952524e-01
7.893363996870179922e-02 4.976835461042842385e-02 9.300724468524403099e-03 -9.769893017073738584e-01 1.897832935609386207e-01 -9.733553223001568944e-02
1.571057355439716419e-01 -1.508665229851272049e-01 2.352078262896158470e-03 -1.451416671009463089e-01 -9.889526215547671528e-01 -3.010994505327677095e-02
2.356477740356590356e-01 -1.208659389371673082e-01 1.966190411534696550e-02 7.154989091874500717e-01 -4.771773359480672716e-01 -5.102578769691600291e-01
3.056707603117351235e-01 -6.280477975862019946e-02 2.297697171440654662e-02 9.257732143758229393e-01 -2.179851740569323792e-01 -3.089116693095704802e-01
1.857296497554776771e-01 -1.652670987095875843e-01 9.184381915051359480e-03 1.236357386571260847e-01 -8.978835412741652533e-01 -4.225155031897304125e-01
3.990881133395990377e-02 -7.523684986199327684e-02 1.264127923825800540e-02 -6.540696703779420584e-01 6.305196108238727559e-01 -4.178969809153953996e-01
2.598470274220672227e-01 5.634190055610149156e-02 9.242746875069755841e-03 8.606270487112711587e-01 4.145011766284593668e-01 -2.958206510711348103e-01
2.364405628619425381e-01 7.339066076646154346e-02 -1.253272377533024527e-02 7.617784361655187686e-01 4.905022974439626759e-01 -4.232033912853381818e-01
2.629662098166981599e-01 -7.949101729347714251e-02 -3.154762543858428969e-02 6.986100888063749847e-01 -4.822754604687461977e-01 -5.285398036549449063e-01
2.376750872408680548e-01 -9.729011022781240692e-02 -1.806768272785904197e-02 6.986100888063749847e-01 -4.822754604687461977e-01 -5.285398036549449063e-01
1.976016668010343313e-01 -1.347375679088406442e-01 2.956616763820831689e-02 6.014433164826425982e-01 -6.917091504372520072e-01 -3.997554105446666228e-01
2.935314988695272298e-01 -6.729823389878519801e-02 1.128114741373205387e-02 -1.405656466431384199e-01 -9.087363956347660476e-01 -3.929878652484452561e-01
1.550337213087636112e-01 1.153356388982231251e-01 4.126189956305162387e-02 4.505094598863667588e-01 8.066396486197086046e-01 -3.825881647771752769e-01
7.793361903052528628e-02 6.048310458150822633e-02 1.344127642698478980e-02 -9.275467553341822935e-01 -2.358172706593653078e-01 -2.899090055996846882e-01
1.880764689169120429e-01 1.174238585540755830e-01 9.701754082640968654e-03 4.147031371849365100e-01 8.376929686651169993e-01 -3.553755735246795777e-01
2.195904029303341054e-01 9.597665827187348841e-02 1.038756585412338798e-02 5.889240838560474423e-01 7.987514602423813059e-01 -1.231443389481568645e-01
2.074561629794885453e-01 1.096061457838738012e-01 -1.308604765074652433e-02 5.164999453437685295e-01 7.879537774029913288e-01 -3.351964366401308792e-01
2.854461633426901290e-01 -6.670529197317558168e-02 2.583929363922643496e-02 6.937595913071638032e-01 -5.591741640805272251e-01 -4.538963358457088759e-01
1.137582680526416506e-01 1.110565550341707786e-01 -2.824765756971783781e-03 -5.560368666417441208e-01 6.012857400530056129e-01 -5.738279025493103758e-01
1.198863850390571861e-01 -1.440244104257988877e-01 -6.512061299038448062e-03 7.395539488880734091e-02 -6.852427319770596492e-01 -7.245502038088571517e-01
1.167479229551305620e-01 1.094329534643099927e-01 1.722669556629864620e-03 -4.550181498674779057e-01 6.378633013341908908e-01 -6.213605170126476063e-01
1.002438453128777912e-01 -1.503119469751739157e-01 2.601648129434805390e-02 4.267483574605721031e-02 -8.771570012728023835e-01 -4.783037251706828696e-01
2.147839777405650408e-01 -1.515945140344253095e-01 2.520486466741357276e-02 5.042926642735691134e-01 -7.122139173864301398e-01 -4.883034350083364505e-01
2.773263488374897445e-01 1.663815413692389805e-02 5.253211966121738852e-02 7.941497824075488543e-01 3.971419706343143896e-01 -4.600047589566179651e-01
1.717416751686323961e-01 1.400487669790188849e-01 2.061796589255154161e-02 4.258522205880188594e-01 8.423531818951051076e-01 -3.302892719593615301e-01
2.518681479557038361e-01 4.527823428619151547e-02 1.980388414768061156e-02 6.034360107070367851e-01 7.974073931306419061e-01 -2.535815957610752271e-03
5.330500217168283872e-02 -8.234545964796230466e-02 4.520951634005632332e-03 -6.486174760774922055e-01 3.320670300471516012e-01 -6.848553550075578977e-01
2.014698950427397661e-01 -1.322604970089796272e-01 2.408500108867686271e-02 -1.189621901814899574e-01 -9.835089304920232589e-01 -1.362284146191958256e-01
2.164073992509355226e-01 -1.020896700911148730e-01 1.982680969600409196e-02 2.375085102946149773e-01 -9.710145944482417857e-01 -2.683961449330349996e-02
7.289964118328962073e-02 -1.077828843123467828e-01 8.328578753361681741e-03 -5.967898459713273374e-01 -1.767267166551766966e-01 -7.826937762406191990e-01
1.505670497608772307e-01 -1.496209455846529979e-01 -2.675553452510057856e-03 9.488653000199853693e-02 -9.425411334066237101e-01 -3.203322622851727530e-01
2.835552727207946710e-01 -4.313354796202051311e-02 7.860141141031670026e-03 5.711860209038453068e-02 7.920100547771472543e-01 -6.078301888086347082e-01
9.037556886340657181e-02 -1.540110099701902935e-01 1.816012082522392443e-03 -2.984924041504509740e-01 -6.361953431142796100e-01 -7.114476579933255440e-01
2.787493227468388901e-01 -6.714943046395278892e-02 1.606110274273325755e-02 3.525835071482074090e-01 -5.234799705228750932e-01 -7.756633231940516238e-01
7.238644968594608320e-02 -4.145370759017709406e-02 -1.033687011660998183e-02 -9.817542817112977493e-01 7.932305898099448194e-02 1.728189302577450848e-01
2.945734008788770120e-01 -3.102207784051665834e-02 -7.591845929062878556e-04 -7.606787884007561173e-02 1.425119456201289769e-01 -9.868657574180680347e-01
3.298451136105943760e-01 -6.068146133230047090e-02 1.033077389701276931e-02 -1.784047568241593773e-01 1.111390686376296788e-01 -9.776603961319455527e-01
8.246636014700474415e-02 7.330498487377462569e-02 2.605810030129347699e-02 -8.053674016893630494e-01 1.260336989023068399e-01 -5.792226299421723290e-01
7.565386408538435359e-02 1.133104848985213020e-01 1.046583492340700562e-02 -5.970649402544510043e-01 5.136628954213624532e-01 -6.161687163320539451e-01
8.307941418857500704e-02 -1.532540797326534809e-01 3.198497779964576231e-03 -3.293686670405564509e-01 -7.605346341438807833e-01 -5.595563880785925370e-01
1.924087658426312242e-01 -1.346407545532982142e-01 -1.316947375660780864e-03 6.238310374246244239e-01 -6.935343251864605207e-01 -3.603400845505224659e-01
2.256774979043435492e-01 9.105583286772959972e-02 1.921516508184999790e-03 1.053648007894332772e-01 9.812083490891219117e-01 1.616429226177348299e-01
2.500728447379235164e-01 4.818242025040382626e-02 1.231676075410447629e-02 2.511381621857717295e-01 9.240730652192060690e-01 2.881294737272358519e-01
9.724955920960169642e-02 6.499945816164545698e-02 -2.061270787233374438e-03 -9.720012988955346600e-01 -8.125247784107747506e-02 -2.204801800391109901e-01
2.426721744631022137e-01 7.957218861564725743e-02 1.441600540377019173e-02 3.116276070764201211e-01 9.310374740435148899e-01 1.898880102441847517e-01
9.906325258734319239e-02 2.685566653092837791e-02 -1.256794278726796124e-02 -9.245681690821623278e-01 3.775039182606410582e-01 5.161872158356087259e-02
7.167277437047733790e-02 7.248405505194493309e-03 -5.129267420957840488e-03 -9.245681690821623278e-01 3.775039182606410582e-01 5.161872158356087259e-02
2.878968627836174243e-01 -2.756511592009914732e-02 -1.020516476642774860e-02 7.434211020617211840e-01 -5.422967537417270334e-01 -3.914579107522553891e-01
2.763591569273693427e-01 8.447614083776837021e-03 2.175875650171810172e-02 8.791936098193789961e-01 1.185251464639999058e-01 -4.614871462006901459e-01
5.486722431735378824e-02 -4.495366461691566173e-02 -3.798324258357993477e-03 -9.911368377118975337e-01 1.242012166736102541e-01 4.713625682268841877e-02
2.340100035813310331e-01 7.694460617278620074e-02 -9.450611796372391030e-03 7.399859741009774394e-01 4.893125032301550714e-01 -4.615127650634020529e-01
2.343428857027948509e-01 7.095246794289920833e-02 -1.168631687733161229e-02 7.399859741009774394e-01 4.893125032301550714e-01 -4.615127650634020529e-01
2.236428429729996614e-01 9.265630949674173722e-02 -2.119700870179272098e-02 -2.145729506705836009e-01 9.754740213391568382e-01 4.908036810103878766e-02
2.696973371626014138e-01 2.805599870211610697e-02 1.199311888592785938e-02 7.874471220293737250e-01 2.766876644679142627e-01 -5.507912184657152155e-01
2.612447547086725885e-01 2.646524781446189106e-02 -1.722342601467324180e-02 7.874471220293737250e-01 2.766876644679142627e-01 -5.507912184657152155e-01
2.923322741696008920e-01 -1.344618936997889029e-02 6.743381650540202985e-03 8.585513932891758460e-01 1.001300593642852205e-01 -5.028553234210806355e-01
8.068934215595305326e-02 3.766129089486904696e-02 7.570813200239703313e-03 -9.164416246996434090e-01 3.759133642161887057e-01 1.372001863028805280e-01
8.989351805370274229e-02 2.495446403538857660e-02 2.262759079316248312e-02 -9.164416246996434090e-01 3.759133642161887057e-01 1.372001863028805280e-01
1.729931273060354990e-01 -1.413666340461185444e-01 -1.131312421347965488e-02 -1.768087165052301124e-01 -9.811166540342660669e-01 -7.841421391800965091e-02
1.833725056225019301e-01 1.051434398144095034e-01 8.758649782554726176e-03 6.283357443257296948e-01 6.001699080420269672e-01 -4.949649218716981602e-01
4.509293556615992515e-02 -8.029567039170977527e-02 -1.249774249856348135e-02 -9.846362386838792835e-01 1.287853653232891027e-01 -1.179228864513145875e-01
7.039145675787540635e-02 -9.722241515847176996e-02 -1.150442312509623866e-02 -9.846362386838792835e-01 1.287853653232891027e-01 -1.179228864513145875e-01
1.322335499616239807e-01 1.249409531101280946e-01 2.550304900734270356e-03 -7.319775734657359145e-02 8.748984004127332570e-01 -4.787430179905213801e-01
2.297728840043883891e-01 -1.321929109161267824e-01 5.674685651196461830e-03 6.567156600223483798e-01 -4.881740700271980926e-01 -5.748135517143725393e-01
2.046707795888319525e-01 -1.056274091458184738e-01 -3.688454295794507676e-03 6.567156600223483798e-01 -4.881740700271980926e-01 -5.748135517143725393e-01
2.956599142984244200e-01 -2.544812753991554724e-02 3.108089117004355501e-03 6.408561377903461143e-01 7.543238162985148598e-01 1.424745269207281229e-01
2.559476055540823580e-01 -8.672949100991739213e-02 -4.238642266344369233e-03 7.003770796153471201e-01 -4.711542452082694843e-01 -5.361768584820718608e-01
2.511658799808759723e-01 -8.162648757977977731e-02 -1.023947521413444590e-02 7.003770796153471201e-01 -4.711542452082694843e-01 -5.361768584820718608e-01
2.606118814119560700e-01 -8.574795164229580269e-02 7.752448942938536605e-03 7.003770796153471201e-01 -4.711542452082694843e-01 -5.361768584820718608e-01
4.733450875519917139e-02 -1.329851436307098456e-01 2.754108905063058430e-02 -4.527805144330620535e-01 -6.120467327319578654e-01 -6.483738140161637853e-01
5.337508170919007949e-02 -1.375079280582094665e-01 5.710488105755488243e-03 -4.527805144330620535e-01 -6.120467327319578654e-01 -6.483738140161637853e-01
1.058289664564089905e-01 7.051259625673238218e-02 -1.197447938843447003e-02 -6.038988797122549768e-01 3.924696531837070235e-01 -6.937389382268692728e-01
8.513280173853182697e-02 3.859216510249731391e-02 2.765239444337134339e-02 -9.853244707131710856e-01 1.413641431614674482e-01 -9.566538789987576175e-02
8.718785829599728920e-02 -1.566767526761035645e-02 -4.770905623569871717e-03 -9.534394079070783734e-01 2.358349422414725283e-01 1.879765290342418627e-01
8.344826594463286562e-02 -1.658915875028295003e-02 2.024269646263878591e-02 -9.534394079070783734e-01 2.358349422414725283e-01 1.879765290342418627e-01
6.054363919714818992e-02 -2.892220022201220930e-03 1.718552637034266237e-02 -9.534394079070783734e-01 2.358349422414725283e-01 1.879765290342418627e-01
2.480810127203454674e-01 7.263692146355107959e-02 -3.905664479263845634e-02 7.750254399307876518e-01 3.684096778563027974e-01 -5.134295245911596473e-01
2.239937503751438241e-01 -1.246752043380186525e-01 2.818883064201439630e-03 1.118253684526591824e-01 -9.759363834558183459e-01 1.871984573056230394e-01
1.839866675979194011e-01 1.186174774960364608e-01 -4.671179932134224104e-03 4.938061124712944672e-01 7.106619544900401042e-01 -5.011138690221849101e-01
7.101740539449809264e-02 6.964540136544099258e-02 3.553525170939468830e-03 -9.098473880086915822e-01 -5.587594218487247633e-02 -4.111637260492638779e-01
8.226100985091795714e-02 7.196038668904196356e-02 1.491178662411229809e-02 -9.098473880086915822e-01 -5.587594218487247633e-02 -4.111637260492638779e-01
8.123180920176369113e-02 6.994351386059861897e-02 8.550737064436663565e-03 -9.098473880086915822e-01 -5.587594218487247633e-02 -4.111637260492638779e-01
5.645033466625624941e-02 -1.104812339561096202e-01 -1.809621630622502975e-02 -3.777021984500611995e-01 -5.824234740567935109e-01 -7.198082704120633002e-01
2.263626324769202891e-01 -1.335911055058721375e-01 -3.999236760536267407e-03 5.192298475972721983e-01 -8.257478443205656937e-01 -2.203199105030051175e-01
9.177457964276967972e-02 8.881474107678624663e-02 3.485805479379353727e-03 -7.603974485942580630e-01 9.303915849017407869e-02 -6.427592357631144449e-01
9.442110895571348417e-02 1.071137038252336082e-01 -1.283257978816861218e-02 -7.603974485942580630e-01 9.303915849017407869e-02 -6.427592357631144449e-01
6.404479415175869106e-02 -1.234680633073507311e-01 3.237455448510737424e-03 -6.168493680405303659e-01 -2.096976776447577462e-01 -7.586328104810610151e-01
4.253845368647166114e-02 -1.198942161151395625e-01 2.673409320605845112e-03 -6.168493680405303659e-01 -2.096976776447577462e-01 -7.586328104810610151e-01
2.824614813120532864e-01 -2.375870743139317509e-02 -1.203085624780892045e-02 8.287959065976864270e-01 2.804300935845353004e-01 -4.842068853486990454e-01
1.578445971716087581e-01 1.066109496364913561e-01 -1.816768341021523028e-02 2.406151665611999668e-01 8.015135722564433740e-01 -5.474306669428020689e-01
2.061415138441135830e-01 -1.323615112114517600e-01 -8.777120576534021279e-04 3.475739484452159966e-01 -8.372465530889732221e-01 -4.221499256222074892e-01
8.780625544048303865e-02 -1.299374765856010361e-01 4.292319888444283589e-03 -9.993168538525951106e-02 -6.311615623593118674e-01 -7.691870646703662384e-01
1.164633321052730708e-01 -1.357480643917221841e-01 -4.260549722513959012e-03 -9.993168538525951106e-02 -6.311615623593118674e-01 -7.691870646703662384e-01
1.836789384770070588e-01 -1.312258169726736867e-01 -1.099567925848066695e-02 4.937829786398924559e-01 -7.300024589924842822e-01 -4.725196079216629208e-01
1.617753846983284172e-01 -1.282378055627082514e-01 -1.178231242460909753e-02 2.481100401253892307e-01 -8.507269727709317886e-01 -4.633627367289950283e-01
2.574437364418752927e-01 -1.093166186067962564e-01 1.974282442328358089e-02 7.539479732955941538e-01 -4.709658274284091450e-01 -4.579886930461711247e-01
2.644259369010241167e-01 -1.053447247996444763e-01 2.562794335106141630e-02 7.539479732955941538e-01 -4.709658274284091450e-01 -4.579886930461711247e-01
2.803050790119857583e-01 -8.518725117730040208e-02 2.414700618434539175e-02 7.539479732955941538e-01 -4.709658274284091450e-01 -4.579886930461711247e-01
7.653655578532030102e-02 -4.146354102231685455e-03 6.288975214653089174e-03 -9.509667868173716787e-01 3.042250810338333888e-01 5.576083249200303182e-02
7.654375429505311246e-02 -2.339576451301832172e-03 5.124910958533505922e-03 -9.509667868173716787e-01 3.042250810338333888e-01 5.576083249200303182e-02
2.737840817758703249e-01 -5.926440726366609402e-02 -8.608489861333151055e-03 6.942187116632300148e-01 -5.113750303370323547e-01 5.065135326172878205e-01
2.662849044326780490e-01 -8.817908196385131070e-02 -1.923236722103453117e-02 6.349296983159824492e-01 -7.681683488909349933e-01 -8.235087102484259236e-02
1.004345548957405604e-01 4.855032904718772913e-02 -8.462534745273555398e-03 -6.797726627616297312e-01 6.522750544263546946e-01 -3.353302556213202390e-01
1.747943873930520309e-01 1.275383551283514882e-01 1.500173296154334521e-02 4.280655954636251592e-01 7.754519799088825938e-01 -4.641487615363913966e-01
1.289460943845962271e-01 1.155695760812612410e-01 -1.409735676374061428e-02 9.570898674499106473e-02 8.270470018068423190e-01 -5.539251273038261481e-01
8.495852040990008180e-02 5.777051233834286370e-02 -8.448140983351420941e-03 -9.297407058110128686e-01 3.411135603125940996e-01 1.386497707495613629e-01
1.024872686718087816e-01 -1.711881934018781581e-01 -1.831836723367379766e-03 -1.452665763447396619e-01 -7.764974716024487522e-01 -6.131470446736918545e-01
1.612491788865069442e-01 -1.309909984299692798e-01 8.711080776828264427e-03 3.186971394560107473e-01 -8.216877678203954316e-01 -4.725053920506009364e-01
2.730371081658487520e-01 -1.118616869513692179e-02 -3.362002660382735347e-02 8.049813806496476376e-01 1.613763097133919522e-01 -5.709313999690983632e-01
1.220597829887775654e-01 1.010388960050312979e-01 -1.368482204224837073e-02 -4.631272448897511551e-01 5.460816381297721733e-01 -6.980744942614169890e-01
2.577650129278493130e-01 5.135560644712697242e-02 -1.316606134278066123e-02 8.171868918007477722e-01 3.235692590594361207e-01 -4.769785303981308733e-01
2.100004733907627763e-01 6.996377887825806774e-02 -3.226719352580776495e-04 6.139232838649953949e-01 4.687908699909350552e-01 -6.350852869824354929e-01
1.644853214541704134e-01 -1.652532901801774812e-01 7.761135833947286830e-03 -2.843947378908474599e-01 -9.022659708370147635e-01 -3.240921951074037799e-01
1.939599899788889970e-01 9.678390103684927914e-02 -1.421021040811343804e-02 2.905353357738983955e-01 9.350838098763041284e-01 -2.029962737932992922e-01
1.115275563135918468e-01 1.041688759537964248e-01 -2.533218814136180622e-03 -8.031556263542607432e-01 1.882572541595635973e-01 -5.652435281467593775e-01
5.791385067349622690e-02 -1.062133295573493286e-01 -5.089754292889811516e-04 -8.388290797649453623e-01 -3.517894539808475440e-01 -4.154635423338035038e-01
2.801603424572655654e-01 -1.437865050982174708e-02 -1.053968291787841724e-02 8.390121258998036735e-01 2.660299515331847053e-01 -4.746437795656268666e-01
1.616564267859453841e-01 -1.561537975502335640e-01 6.540428960859802354e-04 -1.272605458713102211e-01 -9.918603152215563767e-01 4.227121139838545608e-03
1.164746476129203262e-01 -1.528445769808267074e-01 -1.722386584479523863e-02 5.815737727158874076e-02 -6.676366887380285053e-01 -7.422122144776458486e-01
9.865229449030715747e-02 -1.391656912794295431e-01 -1.573908310751725645e-02 5.815737727158874076e-02 -6.676366887380285053e-01 -7.422122144776458486e-01
5.518893478281743786e-02 -8.428593402187772865e-02 -8.509185275081321276e-03 -9.743663168373660755e-01 1.153146158834942037e-01 -1.931652659678440020e-01
7.953333709642247673e-02 4.716768066976862600e-02 -2.483147778668887834e-02 -8.835400867606463260e-01 4.667055117932947250e-01 -3.927951563790759576e-02
1.569740399556894261e-01 1.236506330373240425e-01 7.187721972435708560e-03 3.156162220265636420e-01 8.135987381913543093e-01 -4.883067617872140498e-01
6.272794086881927633e-02 -5.472678763146007763e-02 1.097276241385536713e-02 -9.745918630491123835e-01 2.150135639760861750e-01 -6.276836611511923958e-02
4.945806816419866941e-02 -7.085506897382760905e-02 1.482887812341387133e-02 -9.745918630491123835e-01 2.150135639760861750e-01 -6.276836611511923958e-02
1.106300020861323424e-01 1.206133123162031751e-01 -1.930984832449978220e-02 -4.944519170941764630e-01 4.984422034884088415e-01 -7.120903534408488111e-01
1.748112323388633649e-01 1.147677312091539836e-01 -8.155288454978716281e-03 5.024744290971678851e-01 6.383616574185825288e-01 -5.831070591591869245e-01
2.849794464772834601e-01 -6.572296015581789719e-02 -1.295065898924644202e-02 2.895246199788847341e-01 -9.553209069064851899e-01 5.947654372484085378e-02
5.988692121189986839e-02 -9.900779731235749559e-02 -2.143417816899400793e-02 -5.730447650593067932e-01 -4.790366596380321584e-01 -6.649387760996947616e-01
6.490812981367446999e-02 -1.591594282758351242e-01 -7.196877152033242728e-03 -2.605588686279409205e-01 -5.779119476871560357e-01 -7.733866152835624508e-01
2.766509757339158382e-01 1.296518496415056607e-02 1.077527070277277746e-02 8.419892666735769859e-01 1.033892333877232395e-01 -5.294947981104165535e-01
2.782344543208075116e-01 -1.962513331851120646e-02 -3.081526144367220665e-02 8.419892666735769859e-01 1.033892333877232395e-01 -5.294947981104165535e-01
2.800961859627911776e-01 2.211021203433853610e-05 -1.229826279338180374e-02 8.419892666735769859e-01 1.033892333877232395e-01 -5.294947981104165535e-01
5.842844959592873727e-02 -1.116323128756832594e-01 -1.204780271091161932e-02 -7.903582927500800714e-01 -5.204178648678756680e-01 -3.232630739932108588e-01
2.472180614466428783e-01 6.097600162193159840e-02 -3.726308255130013694e-03 1.894317260578860795e-01 9.737272051752902113e-01 -1.263762282403149140e-01
7.936372059382328092e-02 3.914538814984655501e-02 -3.595775380314889663e-02 -9.418973672192804125e-01 1.783140724810924338e-01 -2.846637335183320183e-01
1.938634143397788834e-01 8.734970811467934748e-02 -2.748731769774993144e-02 3.471288916273785330e-01 9.358951096752848864e-01 -6.001563365852593396e-02
5.495964304447115145e-02 -3.129720820063827680e-02 -3.430675416442521830e-02 -9.675918868419496333e-01 -2.379817232926671189e-01 8.444311633453695232e-02
-7.719930385475742840e-02 1.226021955372496273e-02 -1.825063452655055832e-02 -7.019646730591927453e-02 -7.949686369075269210e-02 9.943604500587817085e-01
2.522260093335025322e-01 -5.781011222187923404e-02 -1.372279744044653006e-02 6.567846287927784354e-01 -5.535304169754304837e-01 -5.120918168302811546e-01
-6.774098522228025332e-02 1.413205465981159578e-02 -2.307301780880583603e-04 8.538924172993849968e-03 7.407526440958336900e-02 9.972160959273662639e-01
9.058243737516707972e-02 -1.332500437451572262e-01 -2.662873378891996920e-02 -9.030844272099125547e-02 -7.091297429059397750e-01 -6.992706149263424598e-01
1.070224267376667371e-01 -1.502871544245779623e-01 -2.559484122771968698e-03 -9.030844272099125547e-02 -7.091297429059397750e-01 -6.992706149263424598e-01
-7.507281218409142531e-02 -1.749366433316197188e-03 -1.101212262491802624e-02 1.460108219896654180e-01 -2.525769103077006861e-01 9.564965991791700706e-01
1.741001726175746278e-01 8.454592049711409651e-02 -2.518280707192778120e-02 4.663228427494930384e-01 7.994377671744270497e-01 -3.787377228969913689e-01
2.424580509900629011e-01 6.882031339571657858e-02 7.773777893894900752e-03 4.776070518215950189e-01 8.726180468322392025e-01 1.021236916340780010e-01
9.583048805838370598e-02 -1.291538598331635201e-01 -2.339593910570651053e-02 -3.029955792962684136e-01 -5.952111106180255629e-01 -7.442562816152612504e-01
-8.069368041034433170e-02 1.246527283841386557e-02 -1.635093853414185811e-02 4.795563780330538428e-01 6.786584104537188300e-02 8.748827966688011992e-01
-7.088699713724545826e-02 2.427695968945599997e-02 -6.112742994415524753e-03 4.795563780330538428e-01 6.786584104537188300e-02 8.748827966688011992e-01
2.749923215519538000e-01 3.014123276543750202e-02 2.225427789455470401e-02 8.081970377767527802e-01 4.039897984858384916e-01 -4.284971305017731824e-01
2.224300137502809860e-01 5.841446603343613403e-02 -1.699911361812616456e-02 4.249669442976881234e-02 8.661406753035769679e-01 -4.979903227445350855e-01
2.726780897715143093e-01 -6.278838301568538671e-02 -1.269921394901448938e-02 1.753850528571048728e-01 -9.228228683998900284e-01 -3.429840182756475619e-01
9.681473387368522143e-02 7.677158968909032766e-02 -3.737044171802927917e-03 -7.984915667795461358e-01 4.489001090810869066e-01 -4.011233100293896126e-01
2.872876160932618661e-01 -5.077583875617192044e-02 -1.557412269272215495e-02 8.863793940708140084e-01 -3.974899924283793462e-01 2.373463201440959847e-01
-7.392756575391033758e-02 1.858673037783066181e-02 -3.426657665935343988e-02 4.224137505509225066e-01 -1.467663994215688376e-02 9.062842929155902061e-01
-6.871307422334671511e-02 2.193846373145330597e-02 -1.588473715036950798e-02 4.224137505509225066e-01 -1.467663994215688376e-02 9.062842929155902061e-01
5.271980194948976822e-02 -5.042054942015441327e-02 6.487587210023158107e-03 -9.703985216890596011e-01 2.404714884715063450e-01 -2.236453299279933526e-02
5.167786399969919592e-02 -7.490304351387061521e-02 -1.861618160871941069e-02 -9.703985216890596011e-01 2.404714884715063450e-01 -2.236453299279933526e-02
-5.501905598978548695e-02 2.795169107963071248e-02 -1.830898433032411565e-02 5.037118126846928945e-01 9.128027543838726499e-02 8.590356925517083075e-01
1.718649152613422881e-01 -1.272761192771403038e-01 -3.195451270827935619e-02 -2.420627253070884999e-01 -8.226751379928809449e-01 -5.144037853139294958e-01
-1.028433164554077711e-01 -5.069084600767522278e-03 -6.720505394388126205e-03 -2.871267571467010504e-01 3.268003619157051204e-02 9.573349677959835935e-01
1.348890639663558044e-01 -1.512004946216394807e-01 -2.427259528134467076e-02 -2.864788709343012441e-01 -9.563135952849201038e-01 -5.825945400909608024e-02
-8.780005675181035141e-02 -3.302664787352133091e-02 -2.268894618444343425e-02 1.152974231955983253e-01 -1.643822914571163932e-02 9.931949903352352838e-01
6.477140773616732461e-02 -1.234612367522984616e-01 -1.000442941929447285e-02 -4.415284758005948995e-01 -5.242883152143381631e-01 -7.281307352302291980e-01
-6.087899654811561312e-02 -1.858569462106148679e-02 -2.128376956347363333e-02 1.218462386609424769e-01 8.020251139973171017e-02 9.893033161216818749e-01
7.243507825118383758e-02 -1.397910785504874465e-01 -8.076431617195413068e-03 -3.720662786518502130e-01 -5.779226002816053587e-01 -7.263416223609325817e-01
-6.670817596707703800e-02 -1.343660925124914862e-02 -2.602714889669183185e-02 8.502125826380843576e-02 1.387120268728081474e-02 9.962825780767458062e-01
1.241568943841466349e-01 8.266337886692437520e-02 -2.006749801877298622e-02 -4.806096549737870482e-01 4.839235785579713012e-01 -7.313223158509689625e-01
1.688302774767763970e-01 1.116009724369842054e-01 -3.915919265840067318e-03 5.839109375157762738e-01 4.847009326295498299e-01 -6.512396048748049227e-01
6.230015433873657693e-02 -5.039708326903227786e-02 -1.827295691346173326e-02 -9.604490613668429377e-01 2.279898039056082737e-01 -1.598694774953385023e-01
1.205349467032375554e-01 9.561855388869391903e-02 -8.369806408140891343e-03 -5.650849712464927066e-01 5.723630295467395657e-01 -5.942049626849551514e-01
2.175309821369195429e-01 8.117654963495686549e-02 -2.737903049986657733e-02 6.005371964797732165e-01 6.114341408713926951e-01 -5.152701883682735406e-01
7.864043759080702189e-02 1.150760869257596783e-02 -4.066377012963685866e-02 -8.916174868541697496e-01 3.954236694553177611e-01 2.205864428525602661e-01
7.778241348751110951e-02 3.370462286881765329e-02 -1.769579330800838401e-02 -9.265424174055070239e-01 2.466834038287802622e-01 -2.840183920520048533e-01
8.550585322956925916e-02 5.207192739750279853e-02 -2.434496403555361579e-02 -8.762602977600735255e-01 3.900382668232496575e-01 2.829099520747598295e-01
1.479895040676401929e-01 1.238335042531253372e-01 -1.560500426600711088e-02 -3.147530919548220396e-01 6.221551058306857840e-01 -7.168357659838741069e-01
1.061615557421475009e-01 1.104053622797125656e-01 -1.518702762083631516e-02 -3.147530919548220396e-01 6.221551058306857840e-01 -7.168357659838741069e-01
-8.054265685995516677e-02 -2.754732851493595785e-02 -1.885181702791760561e-02 -4.251102967846492886e-01 -1.005565786305325643e-01 8.995385539607454461e-01
-8.490974019413369267e-02 5.585066064797550300e-02 -2.795917607846840069e-02 4.679822322697325121e-01 7.608301087525055628e-01 4.495888965438190055e-01
2.927145666751235775e-01 -6.148363583030016372e-02 -1.691823440657163474e-02 9.370816015452524406e-01 -3.337466803780143598e-01 -1.024266829592782313e-01
-8.670722696649180161e-02 -3.188007203717539012e-02 -1.040450276168785118e-02 2.291568393204409804e-01 1.518077529237769896e-02 9.732711272066935093e-01
1.003491221500993347e-01 1.030827808737727058e-01 -1.106729288646651245e-02 -5.411562084104734049e-01 4.615723734274881362e-01 -7.029231125715782458e-01
-8.932152779764315764e-02 1.756582794579383822e-02 -6.702418819063618929e-03 -2.961590055008013200e-01 3.150664921880649838e-02 9.546188634820597096e-01
8.905953101735432365e-02 9.489654723582000018e-02 -3.257331266833238259e-02 -4.560138024319776440e-01 6.679312608821786901e-01 -5.881489970474081952e-01
1.555748000665879982e-01 1.085129679870624891e-01 -1.581494351467708365e-02 -2.119455699641202007e-01 5.812968593343389445e-01 -7.856036129630629139e-01
7.904211699120256007e-02 -7.180779503456143076e-02 -1.962542496534975048e-02 -9.550808342587919775e-01 2.463210119549559540e-01 -1.647621288434228115e-01
5.402037989578958171e-02 -4.195432806940695147e-02 -2.913336129066280283e-02 -9.550808342587919775e-01 2.463210119549559540e-01 -1.647621288434228115e-01
9.452922987668159471e-02 3.131533245955504807e-02 -5.838628692304977108e-02 -6.315199944238829577e-01 7.608099200092501846e-01 1.495017132289030715e-01
6.806078655857472626e-02 6.430362776741541109e-02 7.816731748154347875e-03 -9.833770709760629725e-01 1.107020769719238573e-01 1.439256281300921592e-01
-8.506036635849385796e-02 -2.083160880688488675e-02 -2.573449371957527848e-02 2.531772978367522464e-01 -8.943811785605196426e-04 9.674194829247485528e-01
1.740936755961449423e-01 -1.159612555888333701e-01 -1.276946737795502801e-02 3.527128043695355597e-01 -7.151074568592881153e-01 -6.035022806734197109e-01
-1.111132249339306377e-01 1.220131266576888335e-02 -4.019838478128194559e-02 -2.881579571359850211e-01 -3.952571570592215977e-01 8.722022537993567859e-01
2.635483698768559258e-01 1.803833674833148909e-02 -2.040384065118958437e-02 8.535088809704080015e-01 9.613054365821037395e-02 -5.121342682154931270e-01
2.582599426428595080e-01 5.690307047332933930e-03 -1.732257217818269218e-02 8.535088809704080015e-01 9.613054365821037395e-02 -5.121342682154931270e-01
2.657310340533830528e-01 1.111764604135666822e-02 -1.358158497466504383e-02 8.535088809704080015e-01 9.613054365821037395e-02 -5.121342682154931270e-01
-5.947529089895878252e-02 8.015813742288523287e-04 -1.456219465965978219e-02 4.099930111338275784e-01 2.192680135521654916e-01 8.853401996149866671e-01
-1.088984497378498451e-01 3.902862463629275941e-02 -1.285433900333616056e-02 -2.146294345557337169e-01 2.067247074964310982e-01 9.545674942783254346e-01
2.487213292670553133e-01 -5.455877310926093154e-02 -4.789549733463506487e-02 5.958195675308179950e-01 -6.178731558118083500e-01 -5.130612110406962412e-01
2.851030698339113156e-01 -2.695530019165258764e-02 -2.114095710348077445e-02 8.342713766227497496e-01 4.025610872540366092e-01 3.767437340909996490e-01
1.973525230227209659e-01 -1.124985785378653375e-01 -9.877387504488376047e-03 -1.865732145534100550e-01 -9.804098103680741749e-01 -6.314300709693863867e-02
-1.203977980405487591e-01 -3.259481670197894587e-02 -4.269806233110482602e-02 -3.710388001977013017e-01 -3.011176491487023710e-01 8.784408745721075107e-01
-7.591214546362912152e-02 -2.750618234016713806e-02 -3.828441728487997492e-02 9.609446254719063163e-02 -6.675131375187087768e-02 9.931314698367814664e-01
2.672946279232000788e-01 5.463168111597247953e-03 -2.234210553974056573e-02 8.275967709638453185e-01 7.896567735266590837e-02 -5.557409526842980174e-01
2.650968766108222630e-01 -1.075699804962793917e-02 -2.547014113959675946e-02 8.275967709638453185e-01 7.896567735266590837e-02 -5.557409526842980174e-01
6.433014733289767195e-02 -1.443204114157902417e-02 -3.027348857087265588e-02 -9.815661234476567021e-01 2.961373076926400449e-02 1.888146505170222589e-01
2.086583914540460771e-01 -1.343234001621566587e-01 -1.269531001995521241e-02 6.796833398301294071e-01 -4.553339051191194753e-01 -5.750665982356595318e-01
1.198697848198054805e-01 -1.302236109506010597e-01 -1.231101078841526780e-02 -1.000849135923877892e-01 -9.324833975940208797e-01 -3.470701993584519029e-01
-6.667047129583585086e-02 -3.748859644353407655e-02 -8.721130084618769138e-03 1.000874129842924259e-01 -1.474592320525109079e-01 9.839909982538435074e-01
2.530605126717975217e-01 4.369211940411946160e-02 -2.979434037472952074e-02 3.706440983620707952e-01 8.648617957416181445e-01 -3.385809011387841960e-01
-8.157873460103522156e-02 -3.011580755911145296e-02 -2.679865782573502553e-02 -3.556510615796463770e-01 -4.699171492530412886e-01 8.078924403874353510e-01
5.959118018174534154e-02 -1.073416154004931400e-01 -2.626120939145016112e-02 -8.814270935057301193e-01 -4.661899851447464105e-01 7.584969732821676691e-02
-9.867712401571358816e-02 -2.467253312225982376e-02 -2.171641035111275889e-02 -6.672160579233135103e-01 -2.512474005915974473e-01 7.012114344085093043e-01
7.424662102537335495e-02 -3.258159028575874361e-02 -4.127913119074773374e-02 -8.760607329844154467e-01 2.973464256230754499e-01 3.796086080319961420e-01
-1.033471001814458279e-01 9.852658445376426960e-03 -1.144245444889131075e-02 -1.636018301504626737e-01 -1.923021248940189054e-01 9.676023635423098845e-01
-6.260258735446576350e-02 -5.390098943587133540e-02 -2.599906219114915193e-02 7.217133583353189941e-02 -1.156111643453761606e-01 9.906691460637653268e-01
-9.568690157124823403e-02 5.271322154914233338e-02 -9.798451670306219941e-04 -2.216699809635651330e-01 7.117547270429729345e-01 6.665340411948932342e-01
-1.059676250305466305e-01 2.954903011415215344e-02 -2.564618107010555037e-02 -2.899410847309031869e-01 5.265884628524684918e-02 9.555946909087419394e-01
