7.844264991081005556e-03 3.677742748625377200e-01 -7.371421317237133453e-01 2.051360801093676800e-02 9.151449342563616751e-01 4.026027088722738401e-01
8.877008000790012621e-03 3.451382113514290251e-01 -6.983959849394656416e-01 -1.139982266216389428e-01 8.729391981217730079e-01 4.743222119083579380e-01
-2.228012580748015559e-01 2.183858529684801486e-01 -6.391784169213388100e-01 -5.442126393025975561e-01 8.145413493636707303e-01 2.008855231222781423e-01
-2.524079392115836096e-01 2.342839559115680870e-01 -6.580367650045382266e-01 -5.442126393025975561e-01 8.145413493636707303e-01 2.008855231222781423e-01
1.315477561031122566e-01 3.213221132684486170e-01 -7.370941804581393475e-01 5.508642733120938662e-01 8.220142431949020168e-01 1.443645952893276296e-01
-8.301370102496911929e-02 3.291843957521293218e-01 -7.474772369124011995e-01 -3.795098851677859986e-01 8.764959206865159391e-01 2.961876906284770516e-01
-2.657966030344458691e-02 3.605937645178985962e-01 -7.272248977991971897e-01 -3.527477057556026030e-01 9.064187620706611881e-01 2.323232314049739344e-01
-3.616219921217436739e-02 3.514968015289853809e-01 -7.128786236130506548e-01 -3.452645691746599188e-01 9.096669593734968418e-01 2.308644630444739998e-01
-5.416946484182123128e-02 3.329053483303209271e-01 -7.280622314281983698e-01 -3.452645691746599188e-01 9.096669593734968418e-01 2.308644630444739998e-01
-1.769168001179034500e-01 2.628703279974316520e-01 -6.957111607921675489e-01 -5.237260406252259859e-01 8.372920121186741005e-01 1.570131230607376971e-01
-2.192156024488137456e-01 2.345235677187300083e-01 -6.751140251114384760e-01 -5.237260406252259859e-01 8.372920121186741005e-01 1.570131230607376971e-01
1.141959742670015931e-01 3.345875505955341334e-01 -7.197140424776146128e-01 5.468993784652214085e-01 8.357796908777893607e-01 4.871732905836917427e-02
9.638663345500234070e-02 3.452724310281792830e-01 -7.068637221123170722e-01 5.468993784652214085e-01 8.357796908777893607e-01 4.871732905836917427e-02
8.404210014358232117e-02 3.254985867189009174e-01 -7.336784020413417151e-01 3.706400633404498546e-01 9.196759688221710638e-01 1.296998682265657343e-01
-1.180256185014987302e-01 2.870252318085544929e-01 -6.972263623052699089e-01 -5.233140830169205060e-01 8.516081231992905787e-01 3.009941888378407301e-02
1.622452969351782792e-01 3.246756045072862751e-01 -7.536367490462466678e-01 5.765274608814413559e-01 8.055955782768899898e-01 -1.364985388578260350e-01
3.750104237817395575e-02 3.414116545888509768e-01 -7.184670349008021040e-01 2.913032246613116438e-01 9.562845960725377958e-01 -2.573329781245709685e-02
3.253648548398435647e-02 3.365203025110128365e-01 -7.669678295265448531e-01 2.913032246613116438e-01 9.562845960725377958e-01 -2.573329781245709685e-02
1.819499913010556857e-02 3.491141906347970392e-01 -7.478758554778097700e-01 -2.677123425114533717e-01 9.634835733121956958e-01 -5.431908006686543729e-03
-1.530917586747593262e-01 2.833936328054190157e-01 -7.060660184393237060e-01 -5.697109929003612017e-01 8.215410452741523928e-01 2.235386987386520086e-02
-1.165904484605776587e-01 3.027767305995365810e-01 -7.289916657358880281e-01 -5.697109929003612017e-01 8.215410452741523928e-01 2.235386987386520086e-02
-2.156442476165796873e-01 2.510465959079412612e-01 -6.939886604514973190e-01 -5.632079870228813290e-01 8.242028505131622218e-01 -5.904595294863079769e-02
-1.753354624109323134e-01 2.570360917688635505e-01 -6.832192464237061280e-01 -5.632079870228813290e-01 8.242028505131622218e-01 -5.904595294863079769e-02
1.203124024950014692e-01 3.021870281440167116e-01 -7.497951107191197506e-01 5.423744383941643266e-01 7.812907037973685354e-01 -3.088928693518633861e-01
9.426548899326099573e-02 3.404731087675155754e-01 -7.686310351622502868e-01 5.423744383941643266e-01 7.812907037973685354e-01 -3.088928693518633861e-01
2.874174301281657434e-02 3.563729484584020613e-01 -7.616962075442396118e-01 -1.100318621704243077e-03 9.999718081798691927e-01 -7.427795393887137373e-03
1.302364077639429907e-03 3.526670315854834037e-01 -7.361605849129450041e-01 -1.100318621704243077e-03 9.999718081798691927e-01 -7.427795393887137373e-03
8.614057492073924627e-02 3.586473000554043500e-01 -7.537777358341551937e-01 4.281849961433257801e-01 8.127865148347582780e-01 -3.950135318954369756e-01
-6.588950656771299340e-03 3.502595038763348101e-01 -7.446661425901023312e-01 -1.008263764396403750e-01 8.200960926071200197e-01 -5.632729717504525446e-01
-1.142172076825753030e-01 3.094464825838769695e-01 -7.692579168402816636e-01 -5.271708069130919272e-01 7.729545356858248395e-01 -3.530328966276521374e-01
-5.263482749546943840e-02 3.329985228871090164e-01 -7.356176908490473787e-01 -3.818257600121863216e-01 8.630079936210711677e-01 -3.307964509139258991e-01
-4.428771846588287764e-02 3.059559606598137305e-01 -7.497321529624318970e-01 -4.636944966169145865e-01 7.866397728899201525e-01 -4.076582901338828835e-01
-1.952565712780660045e-01 2.392856321633301531e-01 -7.185219049154927262e-01 -6.118994826272501353e-01 7.156069186634298473e-01 -3.368764775426371094e-01
-1.895628937100145017e-01 2.699554216527092487e-01 -7.458730445905460416e-01 -6.118994826272501353e-01 7.156069186634298473e-01 -3.368764775426371094e-01
5.904246895560574110e-02 3.552727670183293829e-01 -7.958171366680020231e-01 2.698833186669970519e-01 6.271007675069054654e-01 -7.306898259162625253e-01
5.439942540620812395e-02 2.973168837242125551e-01 -7.960221251088643868e-01 2.698833186669970519e-01 6.271007675069054654e-01 -7.306898259162625253e-01
9.207121041033534958e-02 3.469321138031690177e-01 -7.776197980031970269e-01 2.698833186669970519e-01 6.271007675069054654e-01 -7.306898259162625253e-01
1.587309109231953841e-01 1.981733460665474067e-01 -7.949552575878927607e-01 4.258137959796394756e-01 3.791197233947220524e-01 -8.215539218374648955e-01
1.875167554149114735e-01 2.072863794384035285e-01 -8.276666568814995406e-01 4.258137959796394756e-01 3.791197233947220524e-01 -8.215539218374648955e-01
4.629052874794438166e-01 1.509233036363510916e-02 -4.614983350321903988e-01 6.182633168814388736e-01 7.844580940131078428e-01 -4.874391999094442041e-02
4.801578173130144900e-01 2.997256154647653589e-02 -4.757023152960069834e-01 6.182633168814388736e-01 7.844580940131078428e-01 -4.874391999094442041e-02
4.954437229482983596e-01 -1.016069113997992990e-03 -4.425632014334571207e-01 5.455955413505657603e-01 8.378695563538750557e-01 -1.732373498249060312e-02
5.765150267639753690e-01 -6.445023135857015639e-02 -3.377082341826830036e-02 4.759787408924243679e-01 8.780435426052874970e-01 -4.983749098438691738e-02
1.429565904387757880e-01 1.000389612726734073e-01 -1.908164856231516771e-01 1.844172688707678975e-01 9.778829813786239500e-01 -9.866684180767426593e-02
1.371029506614218629e-01 1.120743517509985576e-01 -1.997270935055456831e-01 1.844172688707678975e-01 9.778829813786239500e-01 -9.866684180767426593e-02
1.232124952964917530e-01 1.162694326405261797e-01 -1.720270840644267107e-01 1.844172688707678975e-01 9.778829813786239500e-01 -9.866684180767426593e-02
1.748407495454218086e-01 1.177296522578687166e-01 -1.525218552733894062e-01 1.844172688707678975e-01 9.778829813786239500e-01 -9.866684180767426593e-02
-7.798446885565864239e-02 9.833981776084579907e-02 -1.776244384368791673e-01 -1.100962017861706471e-01 9.838143455443701946e-01 -1.413794888000428629e-01
-1.026152318300617601e-02 1.001492228418948000e-01 -2.002468897005285908e-01 -6.423180869536626592e-02 9.958673589432615048e-01 -6.420652726238293417e-02
1.158681768256586593e-02 3.364436075168208973e-01 -7.822816649862756044e-01 -4.740947465328664012e-02 6.503184677033636563e-01 -7.581808704241017605e-01
4.145589120202222699e-02 9.588007704068123305e-01 2.939682052191514017e-02 1.407183925183178308e-01 9.618236647072690992e-01 -2.347201994207980813e-01
4.177195416553675794e-02 9.455431019703343098e-01 5.066893201603223096e-03 1.407183925183178308e-01 9.618236647072690992e-01 -2.347201994207980813e-01
-6.807337433979360197e-02 8.804425126069022056e-01 -6.396551961087740268e-02 -3.071292748163974573e-01 6.863540335496169931e-01 -6.592342142068515765e-01
-5.297807360538262511e-01 2.633345796411412990e-02 -3.470385654669087550e-01 -5.951948833624781665e-01 8.005649143089419439e-01 -6.956197809610176197e-02
-5.222036873684181568e-01 4.294535739841817690e-02 -4.052985363837944277e-01 -5.951948833624781665e-01 8.005649143089419439e-01 -6.956197809610176197e-02
-4.856955071624035614e-01 4.930160016053714012e-02 -3.822860872862932080e-01 -5.951948833624781665e-01 8.005649143089419439e-01 -6.956197809610176197e-02
-5.029907043356688368e-01 2.991220088467835131e-02 -3.484060800466316499e-01 -5.951948833624781665e-01 8.005649143089419439e-01 -6.956197809610176197e-02
-1.997600614948431830e-02 8.754107858801248865e-01 2.489584388390587155e-01 -1.195098459787276579e-01 8.203385878594311453e-01 5.592512833985587850e-01
-3.730323718816933726e-02 8.622442996041683738e-01 2.796288512626748379e-01 -1.195098459787276579e-01 8.203385878594311453e-01 5.592512833985587850e-01
9.219540279759059695e-03 8.675114247046945559e-01 2.527976836778787484e-01 -1.195098459787276579e-01 8.203385878594311453e-01 5.592512833985587850e-01
-5.653383536713529889e-01 -3.542611689908678474e-02 9.561610856369859301e-02 -3.513306326323439310e-01 9.190838376443202229e-01 1.784704063847729338e-01
-5.322854116317482509e-01 -2.524860515633338409e-02 9.754297922779411878e-02 -3.513306326323439310e-01 9.190838376443202229e-01 1.784704063847729338e-01
-4.365035292568010539e-02 9.393143180503049638e-01 1.344901829075062505e-01 -4.036737737906053169e-01 7.581722183556627304e-01 5.120765291119135920e-01
4.138216003754727201e-02 7.027110333955384203e-01 5.346180691201533053e-01 2.538470886240268842e-01 8.794145106868852535e-01 -4.027303986421332804e-01
3.230643723127691463e-02 7.304526653962692961e-01 5.692680688015012702e-01 -1.068869465774041350e-01 8.568161055453239472e-01 -5.044217897053054900e-01
-2.927466868591542537e-02 6.550963581277383652e-01 5.090511854272475878e-01 -1.068869465774041350e-01 8.568161055453239472e-01 -5.044217897053054900e-01
-2.633354051768693749e-02 7.099098847490180608e-01 5.645344557981863964e-01 -1.068869465774041350e-01 8.568161055453239472e-01 -5.044217897053054900e-01
-2.633978868279186758e-02 6.896154002182439680e-01 5.272716063967830546e-01 -1.068869465774041350e-01 8.568161055453239472e-01 -5.044217897053054900e-01
6.284737551428822011e-02 6.955759369527518832e-01 5.571080077567314159e-01 3.021082513111941759e-01 7.883972038623251466e-01 -5.358735423882762250e-01
7.394578181462797828e-02 6.929730531811929550e-01 5.901841199533244264e-01 3.021082513111941759e-01 7.883972038623251466e-01 -5.358735423882762250e-01
-4.712732038262362755e-02 7.139183458637263779e-01 5.359925850512164969e-01 -2.956776348864648130e-01 8.694833766752282367e-01 -3.956935606165328800e-01
-1.356995802608529367e-02 7.132210718758269508e-01 5.475398310463255314e-01 -2.956776348864648130e-01 8.694833766752282367e-01 -3.956935606165328800e-01
2.675531645987394569e-02 7.038941569243637453e-01 5.482256150701116937e-01 5.495155050300816468e-02 8.860828886305467389e-01 -4.602580163054865170e-01
1.887287770712383905e-01 6.317115734301106400e-01 6.068828937082233477e-01 8.242658342320812181e-01 3.191636242478691488e-01 4.676755450893882449e-01
2.321913778849221399e-01 5.583259814479989425e-01 5.560578047130082524e-01 8.869174149778119576e-01 3.941303869460796028e-01 2.409123016676586737e-01
2.170967684376743922e-01 6.045017349543344576e-01 5.632782516281769070e-01 8.869174149778119576e-01 3.941303869460796028e-01 2.409123016676586737e-01
2.460088181643413918e-01 5.105534454843787540e-01 3.996562671023382585e-01 8.621424578458593002e-01 5.062840552555530893e-01 1.966819192230697538e-02
2.425162568381915573e-01 4.895961609128730574e-01 4.302202028392977384e-01 8.621424578458593002e-01 5.062840552555530893e-01 1.966819192230697538e-02
2.577343109747304295e-01 5.217063586519997687e-01 4.609078573147588620e-01 8.621424578458593002e-01 5.062840552555530893e-01 1.966819192230697538e-02
2.333663188363775953e-01 5.412175789250430746e-01 4.261879228051340118e-01 8.621424578458593002e-01 5.062840552555530893e-01 1.966819192230697538e-02
2.572075582821704010e-01 5.275292530391834100e-01 5.322009323134876402e-01 6.448674385435304579e-01 -1.684351626709153227e-01 7.455035765724589147e-01
2.303540963464492941e-01 5.167863016637643803e-01 4.852896914843131126e-01 8.085612109211038900e-01 5.699774886717734468e-01 -1.461315523807798222e-01
2.648947528017006059e-01 4.911305907111334079e-01 4.775306348523429834e-01 8.085612109211038900e-01 5.699774886717734468e-01 -1.461315523807798222e-01
2.410089900251370654e-01 5.144989636912323805e-01 4.444323977989794172e-01 8.085612109211038900e-01 5.699774886717734468e-01 -1.461315523807798222e-01
-1.822837870184293441e-02 6.530374726175397493e-01 4.588132920015945415e-01 -4.287955367627100389e-01 7.196623871535910988e-01 5.460956291427115916e-01
6.375035400933939944e-02 6.568463413296492526e-01 4.478529061311913861e-01 1.165803446695349993e-01 9.186326346607242010e-01 -3.775223248670587228e-01
1.996371400098356438e-02 6.787994441059825856e-01 4.801242613253043912e-01 1.974884514910809630e-01 9.362119968116461299e-01 -2.906981399211304717e-01
1.833404531829059547e-01 6.100990840951823202e-01 4.500036977352151468e-01 6.624704624563465538e-01 6.814084597785170505e-01 -3.111517271607912027e-01
1.936399418083626089e-01 5.600083652099414611e-01 4.658371142644180396e-01 6.624704624563465538e-01 6.814084597785170505e-01 -3.111517271607912027e-01
1.442170632959304810e-01 6.219068598172311502e-01 4.532977011191684502e-01 5.560318287395698000e-01 7.875374924312947833e-01 -2.657316380176776849e-01
-6.312626675962491885e-02 6.660493718763360604e-01 4.296847338219284551e-01 -2.414391374355036590e-01 7.226637298800915321e-01 -6.476606182486274177e-01
1.511714178036313860e-01 6.183182799108100092e-01 5.064061678308318104e-01 5.558249237757065808e-01 7.875664792101897405e-01 -2.660783623938549058e-01
1.583107612604736092e-01 6.352160018755316218e-01 4.934689420120592085e-01 5.558249237757065808e-01 7.875664792101897405e-01 -2.660783623938549058e-01
1.827231461883759844e-01 6.011219545142958420e-01 5.145667588024616101e-01 5.558249237757065808e-01 7.875664792101897405e-01 -2.660783623938549058e-01
1.196316507698493986e-01 6.390144956990800873e-01 5.000690315855909063e-01 5.558249237757065808e-01 7.875664792101897405e-01 -2.660783623938549058e-01
1.025564124778803043e-01 6.585517438534206347e-01 4.657867349983955685e-01 4.270945847885579405e-01 8.822673071594753225e-01 -1.979762974748671689e-01
-3.789575608816368041e-02 6.851901717219150978e-01 4.521496873139199124e-01 -1.781871079509400879e-01 9.106239441620643804e-01 -3.728449904166684092e-01
-3.263682378568792675e-02 6.697685476439669827e-01 4.958777954191940229e-01 -1.781871079509400879e-01 9.106239441620643804e-01 -3.728449904166684092e-01
-2.372349419311887975e-02 6.592347616047439240e-01 4.610666253543705961e-01 -1.781871079509400879e-01 9.106239441620643804e-01 -3.728449904166684092e-01
7.117113970361518827e-02 6.384163671469706980e-01 5.191896548540604339e-01 4.164926743852864210e-01 8.125807510579891035e-01 -4.077332157102557808e-01
9.363901196559674955e-02 6.836723975734866343e-01 5.239270744604219709e-01 4.164926743852864210e-01 8.125807510579891035e-01 -4.077332157102557808e-01
1.855189673426327346e-01 5.636104894653208852e-01 5.262825709092585624e-01 7.064063805364096948e-01 6.605840255626854729e-01 -2.542022240438635561e-01
1.784955649056376714e-01 5.839369369226496964e-01 5.093511594376133322e-01 7.064063805364096948e-01 6.605840255626854729e-01 -2.542022240438635561e-01
1.965519454654237330e-01 5.914400752517480209e-01 5.151724329629523425e-01 7.064063805364096948e-01 6.605840255626854729e-01 -2.542022240438635561e-01
2.405129535026640231e-01 5.240232874507114724e-01 4.871446239397745903e-01 7.863988978624407711e-01 5.655564454644440575e-01 -2.484404967680626242e-01
2.220397323545817980e-01 5.736451326345657353e-01 5.018728471729662077e-01 7.863988978624407711e-01 5.655564454644440575e-01 -2.484404967680626242e-01
2.447245040294100116e-01 5.729536130719883325e-01 5.097815182145878365e-01 7.863988978624407711e-01 5.655564454644440575e-01 -2.484404967680626242e-01
2.371244971117767997e-01 5.700948115170125785e-01 5.380762607210818338e-01 7.863988978624407711e-01 5.655564454644440575e-01 -2.484404967680626242e-01
2.278491065678995842e-01 5.505378340237477852e-01 5.195807266793706081e-01 7.863988978624407711e-01 5.655564454644440575e-01 -2.484404967680626242e-01
2.145221006313680068e-01 5.564400471773639500e-01 4.995555310978347929e-01 7.863988978624407711e-01 5.655564454644440575e-01 -2.484404967680626242e-01
-1.422217944417553948e-01 6.212640042527869388e-01 4.559660858831974251e-01 -4.839121811260616579e-01 6.977226772268667609e-01 -5.282159280457104922e-01
-8.072310241914379403e-02 6.159799600850661694e-01 4.539521087504764241e-01 -6.821612921960811260e-01 6.113353149005836817e-01 -4.011547135268100361e-01
3.578950657266907753e-02 6.980662569568943931e-01 4.924753819834697399e-01 2.320490513252002340e-01 8.858585697447717289e-01 -4.017559360965585746e-01
-6.282002132049865906e-02 6.396764913435643019e-01 4.959159599107041960e-01 -4.269674734747213041e-01 8.576324869637438342e-01 -2.866448916324808582e-01
2.355637409239535462e-01 5.340524069554607456e-01 5.273287344203686500e-01 8.852637434961787566e-01 4.563160004160274341e-01 -8.991002288650515317e-02
2.593182471399043676e-01 5.084421778887450172e-01 4.888407999704412199e-01 8.852637434961787566e-01 4.563160004160274341e-01 -8.991002288650515317e-02
2.410756967556312858e-01 5.329519010459026207e-01 4.981619619069306282e-01 8.852637434961787566e-01 4.563160004160274341e-01 -8.991002288650515317e-02
-1.038406747172383043e-02 6.786096581420627549e-01 4.700266520226502598e-01 -2.929525084827328540e-01 9.134449666290730407e-01 -2.824838415090074051e-01
2.121368911917030295e-02 6.839522571657499217e-01 5.054886085884596758e-01 -1.725476945342221697e-03 9.643494277948697624e-01 -2.646265365397398872e-01
-9.986090296258748333e-02 6.224389849789285778e-01 4.599381445691697046e-01 -5.308133485559195508e-01 8.258812891340520101e-01 -1.901506909088903907e-01
1.355254979981013741e-01 6.414115649074113579e-01 5.121020564331545399e-01 5.181026281341992723e-01 7.633612652158204837e-01 -3.858098566503162519e-01
1.577420169554104579e-01 6.338178654982108418e-01 5.275045701874241377e-01 5.181026281341992723e-01 7.633612652158204837e-01 -3.858098566503162519e-01
2.159346527824778650e-01 5.967244401989825198e-01 5.760888517313438317e-01 7.338686550075588233e-01 6.061536885982692358e-01 -3.066178452016599110e-01
1.465489922873847439e-01 6.102250522533878563e-01 4.943914332564601777e-01 5.615214738610656564e-01 7.192847412224667725e-01 -4.090514581778504355e-01
1.556552574687655177e-01 6.286756566597128115e-01 5.255445711234334460e-01 5.615214738610656564e-01 7.192847412224667725e-01 -4.090514581778504355e-01
1.516982098625182240e-01 6.602600209178576263e-01 5.342730786996201520e-01 5.615214738610656564e-01 7.192847412224667725e-01 -4.090514581778504355e-01
-1.900979019997432462e-01 5.361163573329926768e-01 4.617590564462479841e-01 -7.454333719681069947e-01 5.949213258416163885e-01 -3.006621093771398856e-01
-2.011301392455158987e-01 5.316570521939353311e-01 4.800540247383863202e-01 -7.454333719681069947e-01 5.949213258416163885e-01 -3.006621093771398856e-01
-1.525502831443280027e-01 5.725365545717032711e-01 4.529524271887982456e-01 -7.454333719681069947e-01 5.949213258416163885e-01 -3.006621093771398856e-01
-1.740907861368159726e-01 5.483625273852885673e-01 4.922384245543208192e-01 -7.454333719681069947e-01 5.949213258416163885e-01 -3.006621093771398856e-01
-1.996940657063048241e-01 5.595051219481221860e-01 4.589483090144963473e-01 -7.454333719681069947e-01 5.949213258416163885e-01 -3.006621093771398856e-01
-1.954339561446488960e-01 5.706425124885752265e-01 5.415967034299112859e-01 -7.454333719681069947e-01 5.949213258416163885e-01 -3.006621093771398856e-01
-1.800301437181428543e-01 5.934704041549045961e-01 4.870492886896974349e-01 -7.454333719681069947e-01 5.949213258416163885e-01 -3.006621093771398856e-01
-2.173062370865980197e-01 5.069045669515290786e-01 4.894127600509546316e-01 -7.454333719681069947e-01 5.949213258416163885e-01 -3.006621093771398856e-01
-1.930688710964872379e-01 5.896603759898815245e-01 4.762356629139621877e-01 -7.454333719681069947e-01 5.949213258416163885e-01 -3.006621093771398856e-01
-1.120116527089250191e-01 6.267746217167077249e-01 4.895006789002503966e-01 -6.185550957941686745e-01 7.210311441619979833e-01 -3.122557967684614355e-01
-1.189328746436565942e-01 5.933855406120932541e-01 4.656699137826802448e-01 -6.185550957941686745e-01 7.210311441619979833e-01 -3.122557967684614355e-01
-1.025681138644957691e-01 6.128910668579079513e-01 5.279451034960992439e-01 -6.185550957941686745e-01 7.210311441619979833e-01 -3.122557967684614355e-01
1.277612461361219559e-02 6.780648145158194584e-01 5.041377051205415682e-01 3.790862859685279612e-02 8.719137186966956499e-01 -4.881899251586469535e-01
7.697508877717007536e-02 7.045237408142887015e-01 5.214624569782091434e-01 2.429235724731947654e-01 8.866998627194380145e-01 -3.933846608476112006e-01
1.975046969359962878e-02 6.960192634054689353e-01 5.038109041415439471e-01 2.429235724731947654e-01 8.866998627194380145e-01 -3.933846608476112006e-01
8.374814564215241064e-02 6.691896717683635254e-01 5.535759182961075275e-01 4.478683455512772471e-01 7.692068163631332611e-01 -4.557793531015363886e-01
2.276202641212253797e-01 5.823026240235602558e-01 5.451933100499068985e-01 9.114246891812711748e-01 3.792581794961418784e-01 1.595878104245293805e-01
2.364333213861835592e-01 5.506984827335458244e-01 5.624568773198601601e-01 9.114246891812711748e-01 3.792581794961418784e-01 1.595878104245293805e-01
1.835916000154067529e-01 6.139046882726272303e-01 5.027631842817723573e-01 6.643870311478260460e-01 6.765003078537922265e-01 -3.177061634849123184e-01
1.535099560374255379e-01 6.375835704995103104e-01 5.634710005824905554e-01 6.643870311478260460e-01 6.765003078537922265e-01 -3.177061634849123184e-01
-1.564191164104346277e-01 6.320333071218108278e-01 5.246677766312858315e-01 -6.963730511597766570e-01 6.634379618055576966e-01 -2.737053971950693665e-01
-1.640394524120236952e-01 5.686139669464486124e-01 5.300022775005860387e-01 -6.963730511597766570e-01 6.634379618055576966e-01 -2.737053971950693665e-01
-1.556022754275813991e-01 6.013499893942158003e-01 5.429443019052048180e-01 -6.963730511597766570e-01 6.634379618055576966e-01 -2.737053971950693665e-01
-1.809243150064132055e-01 6.001901845795369894e-01 4.978842091806946479e-01 -6.963730511597766570e-01 6.634379618055576966e-01 -2.737053971950693665e-01
-1.346378971259807045e-01 6.160135843482873463e-01 5.211382861456461679e-01 -6.963730511597766570e-01 6.634379618055576966e-01 -2.737053971950693665e-01
-4.269812131504256009e-02 6.483240968624491840e-01 4.803568777686322289e-01 -4.500168461683268784e-01 8.073839832533711292e-01 -3.815965693643383339e-01
-8.194385892588099130e-02 6.552054118958798856e-01 4.968363920188565985e-01 -4.500168461683268784e-01 8.073839832533711292e-01 -3.815965693643383339e-01
-6.207665679940563980e-02 6.636248643782489687e-01 5.257477419953583420e-01 -4.500168461683268784e-01 8.073839832533711292e-01 -3.815965693643383339e-01
-1.290650792623903031e-01 6.543361186060820955e-01 5.838184312924890040e-01 -5.515751352982967148e-01 7.778569905060999101e-01 -3.011700058795012680e-01
-1.182985850962548491e-01 6.575078127332358857e-01 5.397505627781985504e-01 -5.515751352982967148e-01 7.778569905060999101e-01 -3.011700058795012680e-01
-1.409027215361733365e-01 6.257421300995122948e-01 4.903058972108444991e-01 -5.515751352982967148e-01 7.778569905060999101e-01 -3.011700058795012680e-01
-1.233083079450136288e-01 6.316183150352489006e-01 5.539834997549029083e-01 -5.515751352982967148e-01 7.778569905060999101e-01 -3.011700058795012680e-01
-9.055901719929017324e-02 6.418427619688124031e-01 5.520704430709325594e-01 -5.515751352982967148e-01 7.778569905060999101e-01 -3.011700058795012680e-01
-8.850957024352185121e-02 6.668521026380128669e-01 5.661572722898587928e-01 -5.515751352982967148e-01 7.778569905060999101e-01 -3.011700058795012680e-01
-9.469594429402490576e-02 6.184668319798289904e-01 5.126378851227280098e-01 -5.515751352982967148e-01 7.778569905060999101e-01 -3.011700058795012680e-01
-4.240431451240345151e-02 6.762260876218658678e-01 5.441550943819035702e-01 -4.017000837322387552e-01 8.399674230698455091e-01 -3.648174487478851313e-01
-6.770251248383575560e-02 6.861231740377179422e-01 5.391034043040036083e-01 -4.017000837322387552e-01 8.399674230698455091e-01 -3.648174487478851313e-01
-1.977385041085610307e-01 5.290547414627239098e-01 4.836346987925901342e-01 -8.354663447543669852e-01 5.198607426743606652e-01 -1.781594651115658567e-01
-2.123810286250721324e-01 5.120850449784090097e-01 5.345792265251196884e-01 -8.354663447543669852e-01 5.198607426743606652e-01 -1.781594651115658567e-01
-1.777293668822503558e-01 5.671682075740721585e-01 5.090516148194914603e-01 -8.354663447543669852e-01 5.198607426743606652e-01 -1.781594651115658567e-01
-9.521526605416077982e-02 6.629532805374527271e-01 5.700480626410759921e-01 -5.306383029152772490e-01 7.358970651282619180e-01 -4.205692582854876349e-01
-7.986085672620596432e-02 6.725617575366981127e-01 5.487138564834717069e-01 -5.306383029152772490e-01 7.358970651282619180e-01 -4.205692582854876349e-01
-1.103430337029337321e-01 6.765578426235540066e-01 5.423708608772955797e-01 -5.306383029152772490e-01 7.358970651282619180e-01 -4.205692582854876349e-01
2.203570160542735537e-02 7.107739627473539379e-01 5.973601933189777169e-01 2.670230673312363190e-01 8.182407933283866175e-01 -5.090979136142187444e-01
8.810941828890565819e-02 6.851665302667842017e-01 5.648553932854941673e-01 4.676582107105256014e-01 7.695531245871535253e-01 -4.348376552153442876e-01
1.013045241662449691e-01 7.298939586613181207e-01 5.677586010906996439e-01 4.676582107105256014e-01 7.695531245871535253e-01 -4.348376552153442876e-01
1.704371818718710130e-01 6.552647603296187784e-01 5.829776613000132723e-01 6.588476760694860213e-01 6.894012061065908359e-01 -3.010742711634717961e-01
1.621915810880900088e-01 6.229460382465142887e-01 5.831096262784635220e-01 6.588476760694860213e-01 6.894012061065908359e-01 -3.010742711634717961e-01
1.304441530135426741e-01 6.900830775728601374e-01 6.408443641709297145e-01 6.588476760694860213e-01 6.894012061065908359e-01 -3.010742711634717961e-01
1.462150926805117213e-01 6.665749528101322374e-01 5.830169975890069356e-01 5.208666841514540957e-01 7.558579997058144651e-01 -3.967071736454918507e-01
1.374593222776244461e-01 6.656052090056838733e-01 5.663867479665611882e-01 5.208666841514540957e-01 7.558579997058144651e-01 -3.967071736454918507e-01
-2.102376584419278771e-01 5.736367519970095863e-01 5.431994439180867218e-01 -8.344474942810382601e-01 5.172801749768792812e-01 -1.900489407073494841e-01
-2.013203031290584089e-01 5.637871687521084363e-01 5.283359556267661628e-01 -8.344474942810382601e-01 5.172801749768792812e-01 -1.900489407073494841e-01
1.247357356762757302e-01 6.849718684082166664e-01 5.989748997821747745e-01 5.654036208127156682e-01 7.252984659629009290e-01 -3.927605897283146241e-01
1.209458184006518694e-01 6.921315256480642386e-01 5.571228855784911005e-01 5.654036208127156682e-01 7.252984659629009290e-01 -3.927605897283146241e-01
1.211650650175239569e-01 6.868559338566844197e-01 5.887641419120174247e-01 5.654036208127156682e-01 7.252984659629009290e-01 -3.927605897283146241e-01
1.871655809650625835e-01 6.457885350436218808e-01 6.059153111964955540e-01 8.234218593290675292e-01 4.145335643235348866e-01 3.874769227041617303e-01
2.007112506564498189e-01 6.635771763563891312e-01 5.972286015717194196e-01 8.234218593290675292e-01 4.145335643235348866e-01 3.874769227041617303e-01
8.813994199825696263e-02 7.071526218649639706e-01 5.925348939914790725e-01 4.299762774629430351e-01 7.909201221642049306e-01 -4.353915033333442541e-01
9.820212973005656987e-02 7.125764268620717878e-01 6.042340014743197152e-01 4.299762774629430351e-01 7.909201221642049306e-01 -4.353915033333442541e-01
-5.282130497107152822e-02 6.987017799344660274e-01 5.437378969133851436e-01 -3.387661905863832978e-01 8.008488314034615252e-01 -4.938406801340898267e-01
-2.049707708314697438e-02 7.238676546426406899e-01 5.817834205672505199e-01 -3.387661905863832978e-01 8.008488314034615252e-01 -4.938406801340898267e-01
-3.244838517407470230e-02 7.058737294601427070e-01 5.929886342885456463e-01 -3.387661905863832978e-01 8.008488314034615252e-01 -4.938406801340898267e-01
1.441538128947709302e-03 7.441824378751532576e-01 5.934983446679362729e-01 5.932961616201656158e-02 8.371824961776628271e-01 -5.436961143320828693e-01
2.520577070144858212e-02 7.450035451468638437e-01 6.089538062633159665e-01 5.932961616201656158e-02 8.371824961776628271e-01 -5.436961143320828693e-01
-1.664544852465979774e-01 5.950510765833625371e-01 5.727648470307792339e-01 -7.829510743803754780e-01 6.013199188427104103e-01 -1.593799558589846510e-01
-1.588987830137857937e-01 5.987592232904367373e-01 5.893514863595749054e-01 -7.829510743803754780e-01 6.013199188427104103e-01 -1.593799558589846510e-01
-1.908824024795140739e-01 5.877344710165917085e-01 5.510406596946759716e-01 -7.829510743803754780e-01 6.013199188427104103e-01 -1.593799558589846510e-01
-1.439949892506036666e-01 6.416532249956234946e-01 5.583467032822164722e-01 -6.943458056122856492e-01 6.638304134412622570e-01 -2.778724247186624141e-01
-1.487750644166053737e-01 6.544858033929163987e-01 5.871110651335105235e-01 -6.943458056122856492e-01 6.638304134412622570e-01 -2.778724247186624141e-01
6.807513362882208763e-02 7.126792353165960492e-01 5.810535167032601089e-01 2.675494288129303677e-01 8.206234770960905145e-01 -5.049697139241093868e-01
-3.891833126840288370e-02 7.202133975575103486e-01 6.072310964014658863e-01 -4.492691010929936168e-01 7.901170842096536528e-01 -4.169799372189609832e-01
4.309833780866766800e-02 7.276435477505481808e-01 6.048098161528382422e-01 2.127744368711824950e-03 8.600274824425691023e-01 -5.102432774151932637e-01
6.535240078430643029e-02 7.597956964237840838e-01 6.243912998795645430e-01 2.871821547206883096e-01 8.244252132052641846e-01 -4.876981421344943612e-01
-7.112897709862926743e-02 6.835270202523079375e-01 5.855527785642192784e-01 -5.298643907012843268e-01 7.356562233546991569e-01 -4.219640369821314740e-01
-1.080443885620704231e-01 6.812274493231615935e-01 5.708813697058070513e-01 -5.298643907012843268e-01 7.356562233546991569e-01 -4.219640369821314740e-01
-9.592318082822211614e-03 7.559295048444042431e-01 6.013528188954524456e-01 -1.587977061558438208e-01 8.263751014026039510e-01 -5.402661198904464834e-01
-1.217378844173219038e-02 7.425364066607760272e-01 6.502217867199679979e-01 -1.587977061558438208e-01 8.263751014026039510e-01 -5.402661198904464834e-01
1.129600887369167361e-01 7.407582086894652917e-01 6.388941946316174514e-01 4.533176410753266827e-01 7.709199983477125206e-01 -4.474209119358015241e-01
7.999853434514807293e-02 7.429839616139380931e-01 6.254252036125595993e-01 4.533176410753266827e-01 7.709199983477125206e-01 -4.474209119358015241e-01
-1.538336052256420727e-01 6.065868205542948033e-01 5.538027737336549405e-01 -8.086877190233295876e-01 5.816859488423307134e-01 -8.755358370873204954e-02
2.863823039421186517e-02 7.569657247245938914e-01 6.249482099282896996e-01 2.380580175868605153e-01 9.319984934155758349e-01 -2.733261577926839325e-01
-2.481818978066449577e-02 7.240416289455529064e-01 6.360606557974937125e-01 -4.088175514756535733e-01 7.876554568989561078e-01 -4.609415264681065993e-01
-5.220278128690664099e-02 7.324529781038728871e-01 6.348900155783585575e-01 -4.088175514756535733e-01 7.876554568989561078e-01 -4.609415264681065993e-01
-7.295288796771567941e-02 7.195813317304108336e-01 6.468885522625975604e-01 -6.203590806838874538e-01 7.166430462909316734e-01 -3.187120255275840419e-01
-8.572683231950520288e-02 6.800653097043464212e-01 5.819260451037892024e-01 -6.203590806838874538e-01 7.166430462909316734e-01 -3.187120255275840419e-01
-1.017423702225380283e-01 7.059263430977930076e-01 6.084650276765937171e-01 -6.203590806838874538e-01 7.166430462909316734e-01 -3.187120255275840419e-01
-1.004188035228016293e-02 7.373958907670495888e-01 6.144616815244389185e-01 -1.679076837915244591e-01 9.597090984133792579e-01 -2.253119085764092866e-01
-9.700437217472357432e-02 6.999790111731223341e-01 6.585756450100616055e-01 -6.939545635435385718e-01 7.001293309982737911e-01 1.680654146843019725e-01
-3.758043379588235644e-02 7.332752340433380533e-01 6.228686802865452954e-01 -4.459749081333804765e-01 8.806380217702397539e-01 -1.599470410105218454e-01
-1.675635816563816882e-02 7.611445701433957600e-01 6.114578278973865633e-01 -4.089717846124495959e-01 9.096201865575439527e-01 -7.302873131807199880e-02
-1.128602562126472877e-02 4.374548634600416985e-01 6.572516743953142893e-01 1.009880304019889485e-01 9.483626837925100972e-01 -3.006819544059708971e-01
-7.977769640221152314e-02 -5.743499104992176862e-01 4.642568684453727834e-01 -1.736468074249112453e-02 -9.588953281943585205e-01 -2.832282073342002326e-01
-2.668333743737006866e-02 -5.828790600259408095e-01 3.956828873541256564e-01 -1.736468074249112453e-02 -9.588953281943585205e-01 -2.832282073342002326e-01
-7.765489243064158109e-02 -5.525850658243963709e-01 4.318046097532362571e-01 -1.736468074249112453e-02 -9.588953281943585205e-01 -2.832282073342002326e-01
-9.781385752483544305e-03 -5.703837283282036097e-01 4.311724925567254063e-01 -4.428649763896184283e-02 -9.574987907746107529e-01 -2.850171429792114353e-01
-3.637047130875980215e-03 -5.325522383052881947e-01 4.276428086321172328e-01 -3.328245511934173340e-02 -9.543705522715452139e-01 -2.967644303789367388e-01
2.546273103286536207e-02 -5.822385105788221438e-01 4.204133289021674824e-01 -3.328245511934173340e-02 -9.543705522715452139e-01 -2.967644303789367388e-01
7.800513651211376728e-03 -5.745507993320079221e-01 4.043678283925906669e-01 -3.328245511934173340e-02 -9.543705522715452139e-01 -2.967644303789367388e-01
3.996295425099798820e-02 -5.560855807408756624e-01 3.813034212864778172e-01 -4.526281371616006771e-02 -9.519956268571557745e-01 -3.027467656959318409e-01
3.089554414448455327e-02 -5.921424628589743167e-01 4.305105596321426864e-01 -4.526281371616006771e-02 -9.519956268571557745e-01 -3.027467656959318409e-01
3.197602328285902018e-02 -5.704659684200615866e-01 4.375938591009767564e-01 -4.526281371616006771e-02 -9.519956268571557745e-01 -3.027467656959318409e-01
9.082576786986830408e-02 -5.689155304603016328e-01 4.460598623689466247e-01 -9.827528363514644039e-02 -9.480944357704251813e-01 -3.024217410960902130e-01
1.239021186693479992e-01 -6.074262159846999243e-01 4.255188773328945628e-01 -9.827528363514644039e-02 -9.480944357704251813e-01 -3.024217410960902130e-01
6.892004199360853012e-02 -5.631663474846518858e-01 4.553682841852345620e-01 -9.827528363514644039e-02 -9.480944357704251813e-01 -3.024217410960902130e-01
1.138075998569027941e-01 -5.781310301555196984e-01 4.244072681911140177e-01 -9.827528363514644039e-02 -9.480944357704251813e-01 -3.024217410960902130e-01
-3.759609428770682715e-02 -5.598509881770152852e-01 4.430278498375692653e-01 -3.859900933978131082e-02 -9.498156518225002731e-01 -3.104196257181340290e-01
-7.128740782749475036e-02 -5.967606227248014594e-01 4.192714489981224091e-01 -3.859900933978131082e-02 -9.498156518225002731e-01 -3.104196257181340290e-01
3.838263254442135508e-02 -5.678650663617432759e-01 3.978058038946925556e-01 -4.793091399489262522e-02 -9.333678957139319721e-01 -3.557063377762065270e-01
9.426964001833551890e-03 -5.410654922947129020e-01 3.754994227068919610e-01 -4.793091399489262522e-02 -9.333678957139319721e-01 -3.557063377762065270e-01
-1.222776776083873557e-01 -5.781810028849267979e-01 4.312732810135482819e-01 -3.481650735881396813e-02 -9.499191609012661575e-01 -3.105501546738755336e-01
-1.283205497608577994e-01 -5.301162630402442844e-01 4.260400592287126864e-01 -3.481650735881396813e-02 -9.499191609012661575e-01 -3.105501546738755336e-01
-1.451480864962605977e-01 -5.532837099476352050e-01 4.294348521374095062e-01 -3.481650735881396813e-02 -9.499191609012661575e-01 -3.105501546738755336e-01
1.036525570950113800e-01 -5.922713351614844468e-01 3.926111228462332847e-01 -8.925873662004994713e-02 -9.507657425265498841e-01 -2.967783360943496151e-01
4.685140809675553131e-02 -5.572206129229905214e-01 3.975087476188907676e-01 -8.925873662004994713e-02 -9.507657425265498841e-01 -2.967783360943496151e-01
5.865566285228696053e-02 -5.763524434538238594e-01 3.768507138086580888e-01 -8.925873662004994713e-02 -9.507657425265498841e-01 -2.967783360943496151e-01
-1.622549404191545031e-01 -5.681508748717377655e-01 3.914251091322749065e-01 1.344744102668549331e-02 -9.626680257320892053e-01 -2.703505845433212262e-01
-1.512274276619955393e-01 -5.466914135412787035e-01 4.101503095881126049e-01 1.344744102668549331e-02 -9.626680257320892053e-01 -2.703505845433212262e-01
-9.687215738909876750e-02 -5.629961580704069268e-01 4.004492291882845167e-01 -4.410617219151476837e-02 -9.379823273763912006e-01 -3.438659609559823749e-01
2.277668988152605628e-02 -5.447094382292796411e-01 3.678967896601933463e-01 -2.869813180857665527e-02 -9.148931238841484515e-01 -4.026747932267450980e-01
1.690361910597921180e-01 -5.956965239706657478e-01 4.102712184904256931e-01 -9.657169343950175455e-02 -9.480984566895253041e-01 -3.029574631019462672e-01
1.272922702319180532e-01 -5.821122346531576452e-01 3.831902851489328854e-01 -9.657169343950175455e-02 -9.480984566895253041e-01 -3.029574631019462672e-01
1.468426634425942789e-01 -5.878285389949430284e-01 4.259004071841729355e-01 -9.657169343950175455e-02 -9.480984566895253041e-01 -3.029574631019462672e-01
2.661783357385520965e-01 -5.620015866788498071e-01 3.666248152613275080e-01 -8.120896533322960464e-02 -9.629281335080339677e-01 -2.572440740779859403e-01
2.497685110834668154e-01 -5.588986769159348666e-01 3.821611978013988442e-01 -8.120896533322960464e-02 -9.629281335080339677e-01 -2.572440740779859403e-01
2.809227673246182388e-01 -5.761459078920940780e-01 3.728960747139675180e-01 -8.120896533322960464e-02 -9.629281335080339677e-01 -2.572440740779859403e-01
-4.805041880827400774e-02 -5.417807991214697028e-01 3.912004493381202042e-01 -3.841141461860871770e-02 -9.364895272118376468e-01 -3.485856116502032975e-01
-2.524661630727456640e-02 -5.581787739584830321e-01 4.000776629368484882e-01 -3.841141461860871770e-02 -9.364895272118376468e-01 -3.485856116502032975e-01
5.727332857479409955e-02 -5.564300048430521617e-01 3.745497902580070537e-01 -9.103852542500770473e-02 -9.146435562041699274e-01 -3.938770772495265859e-01
1.009411178500404654e-01 -5.643731152150935904e-01 3.745204304463508049e-01 -1.094980043009725762e-01 -9.036304985601706363e-01 -4.140798342421445066e-01
1.349180039597751013e-01 -5.598746915943713098e-01 3.631522818205643599e-01 -7.873063283664118173e-02 -9.293675103920943092e-01 -3.606626097625625360e-01
1.863941667909176092e-01 -5.766710954133905664e-01 3.802575089087458227e-01 -7.873063283664118173e-02 -9.293675103920943092e-01 -3.606626097625625360e-01
1.237165870334027695e-01 -5.737808244947240066e-01 3.548560121299015879e-01 -7.873063283664118173e-02 -9.293675103920943092e-01 -3.606626097625625360e-01
1.436835220191701734e-01 -5.995240216460827609e-01 3.684904996924531217e-01 -7.873063283664118173e-02 -9.293675103920943092e-01 -3.606626097625625360e-01
-2.375531927160861589e-01 -5.682768972499903093e-01 3.914868067445859690e-01 -2.992211179739287952e-03 -9.619056547581592564e-01 -2.733652465412030885e-01
-2.280341766840364992e-01 -5.542961281936398255e-01 4.017608756432939909e-01 -2.992211179739287952e-03 -9.619056547581592564e-01 -2.733652465412030885e-01
-9.329894373565961185e-02 -5.460878270204139184e-01 3.517487397369807867e-01 9.859796708519479730e-03 -9.513056639074313203e-01 -3.080914121271608463e-01
-3.024441821245808792e-02 -5.476138460750515913e-01 3.547343463241046102e-01 -6.554169574175752744e-02 -9.976254266280615290e-01 2.116114988541682729e-02
-3.014132712611360815e-02 -5.466593989237489293e-01 3.265175415944339687e-01 -6.554169574175752744e-02 -9.976254266280615290e-01 2.116114988541682729e-02
1.441442800974385499e-02 -5.234875518887633916e-01 3.631741741599742168e-01 1.503547655078949462e-02 -9.968745114271313490e-01 -7.755735240329518498e-02
1.300156196220659810e-01 -5.717839625714387086e-01 3.821268903770698722e-01 -1.240189162366866771e-01 -9.033873901088933511e-01 -4.105003432492109749e-01
-1.268361464700229202e-01 -5.561174815402211147e-01 3.537777933314452672e-01 -4.367764379187531742e-03 -9.402033074788844758e-01 -3.405857648817607330e-01
1.176972701692976381e-01 -5.473670561039702953e-01 3.386632714093757435e-01 -5.290664133510990935e-02 -9.337093044571814771e-01 3.541014290746715143e-01
1.711119020428232551e-01 -5.470512610846286483e-01 3.756616801597605915e-01 -1.867161674384788805e-01 -9.281340081447007062e-01 -3.220315756914821081e-01
2.049801765354606342e-01 -5.648463423312737319e-01 3.277415731377507080e-01 -1.867161674384788805e-01 -9.281340081447007062e-01 -3.220315756914821081e-01
2.196361439892704770e-01 -5.443160374144028202e-01 3.227711621890931304e-01 -1.595548513803426438e-01 -9.328889750992009899e-01 -3.228938053592219082e-01
2.208996136833762947e-01 -5.412507478634793756e-01 3.265178843624107485e-01 -1.595548513803426438e-01 -9.328889750992009899e-01 -3.228938053592219082e-01
2.409616585164345293e-01 -5.772696923865648921e-01 3.378388329228897424e-01 -1.595548513803426438e-01 -9.328889750992009899e-01 -3.228938053592219082e-01
2.171660800903733868e-01 -5.663201930021507513e-01 3.560269785766677630e-01 -1.595548513803426438e-01 -9.328889750992009899e-01 -3.228938053592219082e-01
1.833537319664119702e-01 -5.623493973204503060e-01 3.590378270025387786e-01 -1.595548513803426438e-01 -9.328889750992009899e-01 -3.228938053592219082e-01
1.419001777661794417e-01 -5.766686218362429006e-01 3.684297977403926394e-01 5.222215292502477985e-02 -9.973279776393656482e-01 5.108572953035071806e-02
-2.051771887460190902e-01 -5.325971809960126091e-01 3.801920539223858087e-01 8.803266822990827526e-04 -9.518613923337431171e-01 -3.065275106893347035e-01
-1.782117613464843375e-01 -5.426718982112377354e-01 3.636726625409775204e-01 1.931645245895667259e-02 -9.489411872958762872e-01 -3.148610768543703697e-01
-1.519260631495138736e-01 -5.407849443484786800e-01 3.392254796559738272e-01 1.931645245895667259e-02 -9.489411872958762872e-01 -3.148610768543703697e-01
-9.007965605833208322e-02 -5.433014033240155527e-01 3.585101099538126057e-01 -2.172616793600715135e-02 -9.992079637513419099e-01 3.333794838788339820e-02
9.146415326863999162e-02 -5.729446785765146544e-01 3.153785412972359148e-01 -6.103445683843299746e-02 -9.513567979062355073e-01 -3.019851621454794355e-01
8.233430267605247599e-02 -5.422379254034846996e-01 3.007269050021383339e-01 -6.103445683843299746e-02 -9.513567979062355073e-01 -3.019851621454794355e-01
2.302122770306107291e-01 -5.499346557028991223e-01 3.197543690249118886e-01 -1.623277511592859101e-01 -9.344532357615155105e-01 -3.169335125517692697e-01
2.201055624294328827e-01 -5.669627181038963126e-01 3.069454715601348527e-01 -1.623277511592859101e-01 -9.344532357615155105e-01 -3.169335125517692697e-01
-1.340873053573602425e-01 -5.534040504990300757e-01 3.350931292504337189e-01 -9.119008358183094964e-02 -9.823528307712837693e-01 -1.633012079930336591e-01
-1.204254631244429802e-01 -5.416305819675226729e-01 3.238412251405251019e-01 -9.119008358183094964e-02 -9.823528307712837693e-01 -1.633012079930336591e-01
-2.618225378823880317e-02 -5.283067672202179654e-01 3.360177727936718428e-01 -2.879460443168846764e-02 -9.559152630301055442e-01 -2.922274467973653977e-01
-5.219957842944823734e-02 -5.676295135491838950e-01 3.187434969715654542e-01 -2.879460443168846764e-02 -9.559152630301055442e-01 -2.922274467973653977e-01
-8.427902190613689726e-02 -5.398874074893049713e-01 3.199697261208543919e-01 -2.879460443168846764e-02 -9.559152630301055442e-01 -2.922274467973653977e-01
-3.098655844701061340e-02 -5.313419023098190364e-01 3.616983204758702497e-01 -6.976890375092575924e-02 -9.527870088030442330e-01 -2.955151703813895803e-01
2.309530210535075748e-02 -5.736639650507746602e-01 3.169246279305468761e-01 -5.585482040726177932e-02 -9.515963718552763462e-01 -3.022326655230156423e-01
-1.674798032463895719e-02 -5.587371664381507452e-01 3.374276117396258212e-01 -5.585482040726177932e-02 -9.515963718552763462e-01 -3.022326655230156423e-01
3.704359810911916906e-02 -5.506208260382283726e-01 3.423632026669718442e-01 -3.325484823707958865e-02 -9.571997308870278109e-01 -2.875113741376683074e-01
5.730019170730074607e-02 -5.491861376608380141e-01 3.162466922912464673e-01 -3.325484823707958865e-02 -9.571997308870278109e-01 -2.875113741376683074e-01
-2.638385953280451557e-01 -5.630198259262580995e-01 3.486656357656884309e-01 1.876115823843605909e-02 -9.574148804437636606e-01 -2.881054765991199473e-01
-2.375712550327881145e-01 -5.639417391880725550e-01 3.385621730391761286e-01 1.876115823843605909e-02 -9.574148804437636606e-01 -2.881054765991199473e-01
1.710413042605130607e-01 -5.887931351946905645e-01 3.323735643306082732e-01 -1.991429828495752397e-01 -8.720868789524806042e-01 -4.469972571959422991e-01
6.561522910481933958e-03 -5.509303965547216464e-01 2.919513177766713263e-01 -5.395497352290169746e-02 -9.521128468435418046e-01 -3.009484801550415534e-01
-3.171638963934574756e-02 -5.362646784157945046e-01 3.231369164997544008e-01 -5.395497352290169746e-02 -9.521128468435418046e-01 -3.009484801550415534e-01
-5.934443983131691691e-02 -5.591447385208824228e-01 2.970467963124293620e-01 -5.395497352290169746e-02 -9.521128468435418046e-01 -3.009484801550415534e-01
4.367106506095743551e-02 -5.236213915989056389e-01 2.690163899943792680e-01 -4.183301487441611066e-02 -9.530739575251404583e-01 -2.998333376292295904e-01
4.118999589700465813e-02 -5.233677619646747159e-01 3.061402914627414096e-01 -4.183301487441611066e-02 -9.530739575251404583e-01 -2.998333376292295904e-01
1.439918083665258641e-01 -5.586522392304927864e-01 3.290793621757490128e-01 -5.515429008607492661e-02 -9.539142110322443857e-01 -2.949672562774247053e-01
1.259023001692255728e-01 -5.353938582943367219e-01 2.518003296918753242e-01 -5.515429008607492661e-02 -9.539142110322443857e-01 -2.949672562774247053e-01
1.558208970845998964e-01 -5.497361115071924820e-01 2.963304608303056198e-01 -8.048058237979119345e-02 -9.492739668362794037e-01 -3.039766631613749492e-01
2.020217220279626191e-01 -5.222846193419411476e-01 2.914900905795020924e-01 -8.048058237979119345e-02 -9.492739668362794037e-01 -3.039766631613749492e-01
1.436847541317682886e-01 -5.398275619473875686e-01 2.726635916772938706e-01 -8.048058237979119345e-02 -9.492739668362794037e-01 -3.039766631613749492e-01
2.164481859393487806e-01 -5.617293927609076087e-01 2.742784857390265785e-01 1.115615540949127932e-01 -9.911483555666942280e-01 7.196496998794338351e-02
-2.325423452182027451e-01 -5.314982254919847771e-01 3.236696486453382593e-01 1.049807654565083556e-02 -9.502154449323483298e-01 -3.114167603082098057e-01
-2.594044738057572075e-01 -5.447097792571219399e-01 3.841925709109544340e-01 1.049807654565083556e-02 -9.502154449323483298e-01 -3.114167603082098057e-01
-2.105668586306089218e-01 -5.608157084075768850e-01 3.080949772080655569e-01 1.049807654565083556e-02 -9.502154449323483298e-01 -3.114167603082098057e-01
-1.494001885689716924e-01 -5.315777436865878336e-01 3.220862937556223660e-01 -4.287298887555412996e-02 -9.525814245430296312e-01 -3.012482969917817388e-01
-1.756696312282662320e-01 -5.272096943639417166e-01 3.205734182349240791e-01 -4.287298887555412996e-02 -9.525814245430296312e-01 -3.012482969917817388e-01
