-9.608618939105085799e-01 -9.516395601724161879e-02 -6.991320511496640355e-02 -9.410913583882709599e-01 -3.314026308212620342e-01 6.722612179551454292e-02
2.590214090341950715e-01 -1.317978763070261072e-01 5.740914463623940645e-01 5.298795211329921928e-01 -6.589794857525643756e-01 5.338293083384957338e-01
2.528241866035684238e-01 -1.081577797570787980e-01 5.450451302823693389e-01 5.298795211329921928e-01 -6.589794857525643756e-01 5.338293083384957338e-01
1.994364160359641258e-01 -1.307262925400667908e-01 5.844294634057469739e-01 6.069965710208879983e-01 -2.747136634023680246e-01 7.457127904957341347e-01
-2.547545126736002752e-01 -1.394070053802984321e-01 -4.525675330862404255e-01 -2.386718795292091244e-01 -3.314624231759775719e-01 -9.127805847761574221e-01
-3.848856853198736605e-01 -9.658739949496882027e-02 -4.223367282214316454e-01 -3.956200938265187483e-01 -3.784921849862001308e-01 -8.367965148499775241e-01
-4.225061994711193925e-01 -8.304237766266368836e-02 -4.173062528588968312e-01 -3.956200938265187483e-01 -3.784921849862001308e-01 -8.367965148499775241e-01
-4.059473480330407225e-01 -1.230475057712880904e-01 -4.500143902049832390e-01 -3.956200938265187483e-01 -3.784921849862001308e-01 -8.367965148499775241e-01
-2.969662500966107066e-01 -1.330860239656324884e-01 -4.550536338496400934e-01 -2.967518373006368115e-01 -3.673684357557365221e-01 -8.814639978292249101e-01
-8.429439280345341068e-01 -1.067177434794462920e-01 -1.962040303803281593e-01 -4.193273269090958544e-01 1.040076825857534915e-01 -9.018575247068760792e-01
-5.886049088742872915e-02 -1.371397838944257430e-01 -5.647740797556226600e-01 -3.430248880938783218e-01 -1.063540477532145950e-01 -9.332859918988868353e-01
-1.139145589068327191e-01 -1.039463638102696014e-01 5.575186987900787594e-01 -3.594208917968205741e-01 -9.614952722818394248e-02 9.282089694426438609e-01
1.562568008970906253e-01 -1.273918253929376410e-01 -5.732545360673555468e-01 6.589464501130308793e-01 7.575381293099395404e-03 -7.521517064274328979e-01
1.538863163200313577e-01 -1.128947688055726012e-01 -5.923096650856242151e-01 6.832167867777891868e-01 -1.479417470411705793e-01 -7.150720675200781251e-01
-7.884287349930810818e-01 -1.198950323476017515e-01 2.866730741094385415e-01 -1.803431160359864893e-01 -1.726333598028070293e-01 9.683357287540439451e-01
-2.670287403338537646e-01 -1.109636921821256506e-01 4.756793566551666408e-01 -3.074235676121089833e-01 -2.817431190841979127e-01 9.089067966108244079e-01
-2.223651500169794293e-01 -1.061433881935128914e-01 4.993751311751124522e-01 -3.074235676121089833e-01 -2.817431190841979127e-01 9.089067966108244079e-01
-8.880470532945446971e-01 -1.204750406939996132e-01 2.155120660699678115e-01 -7.324920699644418276e-01 -5.623934279022353711e-02 6.784486006778485123e-01
5.657731728524606485e-01 -1.063390414149176094e-01 -3.371250961118422707e-01 4.482311441547702224e-01 -2.556631231306621399e-01 -8.565776140436903718e-01
6.016062526036387581e-01 -9.319338623838556435e-02 -3.450603141020143205e-01 4.482311441547702224e-01 -2.556631231306621399e-01 -8.565776140436903718e-01
5.927785655943745846e-01 -1.150729832775848060e-01 -3.215016590365385452e-01 7.414044694308958849e-01 -4.075642478134237079e-01 -5.331142434902390592e-01
-6.488290531595426458e-01 -1.319510639289784293e-01 3.069597623668715580e-01 -3.232944071057480828e-01 -6.315195759281065913e-01 7.047437488575031272e-01
-5.286062203128691905e-01 -8.488389974361859602e-02 3.928483451159568984e-01 -3.807978413716797683e-01 -3.837719167788663510e-01 8.412562748048562078e-01
-5.261225719900732845e-01 -1.461924114209430803e-01 4.139147177099404828e-01 -3.807978413716797683e-01 -3.837719167788663510e-01 8.412562748048562078e-01
7.090769015164417599e-01 -1.037446005116423459e-01 -1.277333173680731127e-01 4.544383856294990087e-01 1.622097170433956792e-01 -8.758845593816324548e-01
-8.720160257654774316e-02 -1.588802264301408251e-01 5.462797322920519560e-01 -3.768235370077513968e-01 -2.091594446424745457e-01 9.023615398906468243e-01
-8.460776180801414803e-01 -1.367761213902427275e-01 -2.121768626872187757e-01 -4.976415960795587679e-01 1.700439752601909937e-01 -8.505515200909942175e-01
-2.684566167398231840e-01 -1.229764997336408733e-01 -4.620014879394379603e-01 -3.626649186793192148e-01 -3.337326457354876652e-01 -8.701130259510625464e-01
-9.056101082070400210e-01 -9.605067396688811432e-02 -1.373155714621054346e-01 -5.060548710515161419e-01 -4.084769530746623634e-01 -7.596413932191119489e-01
6.965215326702559051e-02 -1.336651700073398785e-01 6.108027249775733747e-01 -2.773042912593327580e-01 -4.269261179844060505e-01 8.607185485580778339e-01
-3.205822072790052157e-01 -1.112197541459230415e-01 -4.627782855647197269e-01 -4.181778841059019536e-01 -3.200588801435423902e-01 -8.501115047368623667e-01
-3.690307353289498660e-01 -1.221083734263175014e-01 -4.164569606806613478e-01 -4.181778841059019536e-01 -3.200588801435423902e-01 -8.501115047368623667e-01
1.178991577207285785e-01 -1.213665330320839869e-01 -6.202489646404721890e-01 4.509927463394407532e-01 -1.142344929482739246e-01 -8.851869990968348478e-01
2.228522825478147229e-01 -1.150785682099546986e-01 -5.197555125427953948e-01 4.189914278111158130e-01 -8.114112293883314966e-03 -9.079539330838788391e-01
4.743271111933521356e-01 -1.318475186988280479e-01 -4.151786518670180226e-01 4.378175392333491511e-01 -1.499822123308708621e-01 -8.864655313795298808e-01
4.231908908370625721e-01 -1.402772353800961769e-01 -3.935697798389648505e-01 1.373637608597176041e-01 -7.919561303572181243e-02 -9.873496098537593024e-01
3.916483819274818590e-01 -1.172518543054554552e-01 -4.291995745780553539e-01 1.373637608597176041e-01 -7.919561303572181243e-02 -9.873496098537593024e-01
6.115273664604332637e-01 -1.247737257419857804e-01 -2.765846468523059931e-01 5.556481074734828107e-01 -6.879682717390750435e-01 -4.668563352268949029e-01
6.642705128048600471e-01 -1.071810978955792942e-01 2.218305047666653262e-01 9.539883123782487706e-01 -2.212022896818079953e-01 2.024249166610339046e-01
6.354275815213391576e-01 -1.112762653199829838e-01 2.127615411114409660e-01 9.539883123782487706e-01 -2.212022896818079953e-01 2.024249166610339046e-01
1.229853340682870999e-01 -8.779831603141299845e-02 6.166791312803585612e-01 -4.954549791289426103e-02 -2.355463930398243033e-01 9.705993717093021056e-01
-4.825186479475949142e-01 -9.490194034346591256e-02 4.426072166820885778e-01 -3.378396862291399017e-01 -3.453242753319377689e-01 8.755658120752937146e-01
6.402467465311807437e-01 -1.322405139027363341e-01 1.450755659668580000e-01 9.828364888541064603e-01 2.962071132185821118e-02 1.820852812220661587e-01
7.027232859502432483e-01 -1.404017571979639112e-01 1.089777327262656109e-01 9.368541608658977893e-01 1.935229357894037439e-01 2.912956480823302718e-01
-9.538334956183645019e-01 -1.109439952064208146e-01 -3.065412415016146100e-02 -8.402985084776084523e-01 -5.174699438027666742e-01 1.616269591097610481e-01
2.369315104352214263e-01 -1.110926995645008658e-01 5.830438807231105303e-01 4.075959276038713108e-01 -8.302382427932673004e-01 3.802236447201665093e-01
-6.118235439301603629e-01 -1.191597946387794316e-01 -2.681752344699330215e-01 -3.077006235436783310e-01 -3.152474259537485501e-01 -8.977412693534633226e-01
-7.644650591203084877e-01 -1.179762273513553367e-01 -2.533590148962974742e-01 -1.784168605116423778e-01 -2.390278984284640862e-01 -9.544805328858421145e-01
-4.341478053601627862e-01 -1.112277043933392884e-01 -4.172672206789020399e-01 -4.078675909937099497e-01 -4.099469444898869441e-01 -8.158354803024893132e-01
-2.000238999870025403e-01 -1.275239402136192912e-01 -4.726202549658313767e-01 -4.325098931607144204e-01 -1.003410401342748060e-01 -8.960283857015240994e-01
-2.397638909124953088e-01 -9.164331496705040159e-02 -4.763656672754352783e-01 -2.004263050084598707e-01 -3.144116203432666401e-01 -9.278871856286072806e-01
4.303500783260111318e-02 -8.422452329907316460e-02 6.038005837520944441e-01 -3.334904976266330201e-01 -3.747496528224077972e-01 8.650703934953649643e-01
-6.339000143304725221e-02 -8.556331031586311697e-02 -5.648707301755606647e-01 -4.224757930712172427e-01 -1.242661930838446713e-02 -9.062890175884349420e-01
1.046931309101100521e-01 -6.390985392672582366e-02 -6.236005143415022101e-01 1.427661650933970683e-01 -1.614847724122671357e-01 -9.764939786724150528e-01
2.882969513353494939e-01 -7.471593605730027232e-02 -4.929457886370375852e-01 7.519971086811855221e-01 -2.754061804782715339e-01 -5.988754330322015873e-01
-4.048541798665603597e-01 -1.410973545509004168e-01 4.607740786747229200e-01 -3.202551479369191156e-01 -3.944759547997713778e-01 8.612928429429277388e-01
-8.151571512560120691e-01 -8.192739303527260541e-02 2.827566020139570813e-01 -3.345454932890580269e-01 -1.090358242833705110e-01 9.360504804458074091e-01
-6.301151281589033593e-01 -9.586598280687189111e-02 3.459578011708442924e-01 -5.089664387505512533e-01 -4.664371818916276946e-01 7.234566466448268951e-01
2.751687406793093538e-01 -1.450432467279787474e-01 -4.637708686387653767e-01 6.063646739360183391e-01 -2.227344912496934115e-01 -7.633552440444792975e-01
6.788058072116394115e-01 -8.204610355979627401e-02 9.779162138801485160e-02 9.455365089907030729e-01 1.876803912494414417e-01 2.659638714301823526e-01
1.835777621178585617e-01 -1.547816511509720327e-01 6.649976147599181431e-01 2.618120361908930493e-01 -6.785134484552980405e-01 6.863482774589575452e-01
2.192733957118426780e-01 -6.810050662239006125e-02 6.277028033434738363e-01 3.554767657859762009e-01 -8.481592164571019055e-01 3.927622850086516793e-01
1.667504662667421145e-01 -1.353221560226499087e-01 6.397083426797318673e-01 3.554767657859762009e-01 -8.481592164571019055e-01 3.927622850086516793e-01
6.830617351143011273e-01 -8.097593221620175141e-02 7.438752244060664598e-02 6.249234824531417765e-01 3.122260574860896698e-01 7.155316415822091658e-01
-3.579723289949883758e-01 -8.397499044838786786e-02 -4.862833614294843065e-01 -3.021663293785940563e-01 -3.749013696612600866e-01 -8.764385160500296479e-01
-8.911921349105673962e-02 -9.327880760231040125e-02 -5.568073578822542169e-01 -5.768798620047660419e-01 -1.459757074492398499e-01 -8.036794868901757649e-01
-6.915252830964466746e-01 -1.414891112388112493e-01 3.034493740792634786e-01 -2.206779083257144058e-01 -8.899950180601587379e-02 9.712776891575697347e-01
-6.780352387386664459e-01 -1.007860322925286101e-01 3.360573491804988433e-01 -3.707691004228372278e-01 -2.391158209792930422e-02 9.284172070859167958e-01
-1.966735652307418369e-01 -1.107289471387620655e-01 5.031487899647298923e-01 -3.236254388155126449e-01 -3.036310502105222242e-01 8.961443860782269955e-01
6.698639689382064333e-01 -1.052434448290088947e-01 -1.822575395488996997e-01 9.832219021419215110e-01 -1.800334322626948313e-01 2.937097914839049972e-02
6.539730677283464022e-01 -9.910419655222370283e-02 -1.578217265615839970e-01 9.580697680421600415e-01 3.202800740381553379e-02 -2.847394006901453056e-01
2.993928290166716910e-01 -8.216216043248858458e-02 -4.571554059001713965e-01 5.467552577296392879e-01 -4.001845550900120507e-01 -7.354665254193454293e-01
1.311150048402144053e-01 -1.007880663394789544e-01 -5.839919357158916968e-01 8.105846738565646303e-01 5.709577912104130126e-02 -5.828315009635358646e-01
1.100083943258598623e-01 -9.524577719666608988e-02 -5.998178718065160231e-01 4.993078868192322717e-01 -6.832961279790215892e-02 -8.637260550516010493e-01
-7.482909412000886273e-02 -1.049660524099722131e-01 -5.690980239318821354e-01 -3.686846329182381088e-01 -2.168898086124118330e-01 -9.038973682725354175e-01
6.224261275433591312e-01 -1.271791569474748362e-01 2.887279833729701206e-01 9.196466319067355677e-01 -3.843835972745840435e-02 3.908613116235220564e-01
-4.766451006146987246e-01 -1.079489399797147059e-01 4.140230372537219150e-01 -2.634739893958035206e-01 -3.532804460453151663e-01 8.976493654840307368e-01
-9.586196317813170387e-01 -9.207451183733002253e-02 1.182489574864075133e-01 -8.013299973490668471e-01 2.059017007269086652e-01 5.616713674261053502e-01
5.327693667602085847e-01 -1.035504304109774593e-01 4.232722818419037414e-01 5.627710785222302947e-01 1.052591651806847328e-01 8.198836632866829399e-01
-6.601780161246233458e-01 -1.179158066792054538e-01 -2.824525873246649943e-01 -1.712740724492612943e-01 -3.981575033189966306e-01 -9.011857714463917812e-01
-9.657516321185447561e-01 -1.097065315861470158e-01 1.637943151220270024e-02 -8.148780021522836758e-01 -5.529768198938543877e-01 -1.737540741058533900e-01
3.231698201817556071e-01 -1.281806696219565389e-01 4.694106397478045589e-01 6.060495351946199039e-01 -3.353545335276901795e-01 7.212775455626012633e-01
-1.315610296862797512e-01 -7.924560724898578601e-02 -5.345685317744718335e-01 -3.319972894237464556e-01 -4.736136788636197692e-01 -8.157621485510057058e-01
7.183976939456181432e-01 -1.164230727830895679e-01 6.231388711167822059e-02 5.192271119782000399e-01 3.074526550431646577e-01 7.974183789540384426e-01
6.829058470093928301e-01 -9.951228485352145436e-02 2.063438563163041972e-01 8.211919319427363195e-01 -5.161872823912556640e-01 2.432991993609646963e-01
4.066174476087043299e-01 -8.740801758305029312e-02 -4.331151899238379621e-01 1.415636095578077236e-01 -7.812146014579374187e-02 -9.868418221344562591e-01
4.546180567270731165e-01 -6.549644554897311732e-02 -3.795977573686736828e-01 1.415636095578077236e-01 -7.812146014579374187e-02 -9.868418221344562591e-01
4.738080775386469545e-01 -9.663836318857835228e-02 -4.327036521536710145e-01 3.715658331729474462e-01 -2.445341887441971063e-01 -8.956237279983769728e-01
4.749064897518098793e-01 -9.288187911767790961e-02 -3.934915774639214936e-01 3.715658331729474462e-01 -2.445341887441971063e-01 -8.956237279983769728e-01
5.058096762828996340e-01 -1.186932322403436713e-01 -3.800050859401474246e-01 4.632914463851319220e-01 6.489362676270207797e-02 -8.838268229194876646e-01
6.628703447165474882e-01 -8.921812836477552300e-02 6.644778910421536566e-02 7.984127446077996515e-01 2.742552883382339268e-01 5.360234379822890194e-01
-1.412152900538684586e-01 -1.068793083949341055e-01 5.426124078118578220e-01 -3.663851729581971695e-01 3.210019621294108588e-02 9.299093947474036392e-01
-8.487780327528736679e-01 -1.098656025368046213e-01 2.894820390468915150e-01 -4.769882496628178314e-01 -5.075249122566136140e-02 8.774431003307225918e-01
-1.143432957463632466e-01 -8.673465044454145567e-02 5.588494015087515088e-01 -3.727680170125914905e-01 -5.628605277649376126e-02 9.262158958662618513e-01
-1.198260716008242750e-02 -9.299589010150320634e-02 6.096860591422568199e-01 -3.600604729190419184e-01 -3.757939424641474901e-01 8.538942373904210292e-01
-8.873766203558232091e-01 -1.037956336049462996e-01 2.625414782876100417e-01 -6.526638723535850284e-01 5.252759933357954367e-03 7.576293805268549120e-01
-6.590918134646444049e-01 -1.050577946880803942e-01 3.246804221065359708e-01 -6.578720436593094023e-01 -5.587836318910921474e-01 5.049408152468207733e-01
5.986520957151811873e-01 -1.293665164094262299e-01 2.709491627344478015e-01 8.319404467496330779e-01 3.263367341016405743e-02 5.539044470139047327e-01
5.377534644780997963e-01 -1.142903896383628409e-01 3.628191476179712938e-01 6.318051940936832978e-01 1.204076080673135846e-01 7.657180973672697011e-01
5.172474877234957136e-01 -1.125829634546418045e-01 4.000580981421250626e-01 4.457394870530175246e-01 7.786830212525523709e-02 8.917694977996515338e-01
8.369930957819570194e-01 -1.379216602938863057e-01 -6.895920675563985136e-02 9.577147497154547828e-01 1.969665244024753625e-01 -2.097299369243046108e-01
-5.939001633378476752e-01 -1.037937479794062423e-01 -3.538709378806412786e-01 -5.296074958845969904e-01 -2.963276872621417590e-01 -7.947992212280513558e-01
-5.440982405231247210e-01 -1.133685630766237129e-01 -3.706137095945184479e-01 -5.296074958845969904e-01 -2.963276872621417590e-01 -7.947992212280513558e-01
8.109891290307708056e-01 -7.009924356868779682e-02 -5.179913533204264647e-02 9.827508304121093108e-01 1.652719632951633877e-01 -8.298182616013942414e-02
7.826278251478236969e-01 -1.105830811763966054e-01 -3.276661296573360471e-02 9.827508304121093108e-01 1.652719632951633877e-01 -8.298182616013942414e-02
-9.837643608663119155e-01 -8.929618736037042703e-02 -1.225630087409236985e-01 -9.208925389225898206e-01 -1.365639129629160897e-01 -3.651126256827657568e-01
-7.236756707247884446e-01 -9.674865969376922337e-02 -2.669909092175639098e-01 -7.198558650289213490e-02 -5.501622242362684823e-01 -8.319492787179012527e-01
-9.424017510677981102e-01 -1.034364621211242841e-01 -1.667873766389513235e-01 -5.288675066462751317e-01 -2.835292352886431000e-01 -7.999439562559301775e-01
-8.682619123934856020e-01 -1.003568308444579144e-01 -2.333180518834380435e-01 -6.351174641799337550e-01 6.971941635357703504e-02 -7.692626402451682166e-01
-4.902831368123788947e-01 -9.644060335110954396e-02 -3.895350014443285103e-01 -4.627597592389768866e-01 -3.919632479776530842e-01 -7.951215111314076101e-01
-4.691682444687884090e-01 -1.189218627029218350e-01 -3.884214749166263747e-01 -4.627597592389768866e-01 -3.919632479776530842e-01 -7.951215111314076101e-01
-1.581714352462492146e-01 -1.085882098150710712e-01 -5.113312358817875269e-01 -2.045378062167227395e-01 -4.283584867856128353e-01 -8.801552662040887931e-01
7.624993685268548482e-01 -7.736153637480178147e-02 1.970420840638354570e-02 4.396105632276819941e-01 1.578640174516388328e-01 8.842067092556292751e-01
7.336337503855909770e-01 -1.200618776643620905e-01 2.479273368920092979e-02 4.396105632276819941e-01 1.578640174516388328e-01 8.842067092556292751e-01
-9.935771908810289155e-01 -9.681770778489293128e-02 2.736073082850098287e-02 -9.410380363608208398e-01 -3.370898329323494536e-01 2.859822819356489659e-02
6.602056790209974713e-01 -9.869293062430865848e-02 -2.045106552879693562e-01 9.053520597523861957e-01 -4.183617625232157189e-01 7.287718134354587152e-02
7.052438917987928768e-01 -7.150022789277368784e-02 -1.226629729196099805e-01 3.856654159216673095e-01 9.161277445402996045e-02 -9.180791286805305429e-01
7.114623455985071843e-01 -7.151421106243073533e-02 -1.141432351501511511e-01 3.314732770359248848e-01 9.584646651565151276e-02 -9.385834653708368114e-01
7.321687987477714099e-01 -1.215014626306492734e-01 -1.272922936465914756e-01 3.314732770359248848e-01 9.584646651565151276e-02 -9.385834653708368114e-01
6.708710173364967888e-01 -9.172512209071986833e-02 -1.374572369739262001e-01 5.944738263889232099e-01 2.019230907412700171e-01 -7.783494942273716521e-01
2.000773386807350729e-01 -7.285079590517171133e-02 -5.390908154084123050e-01 4.759330059377920863e-01 -5.370867513328295706e-01 -6.964377900442828562e-01
-3.542858208391286290e-04 -8.562919212418983184e-02 -6.036467348965383062e-01 -3.001835266646708522e-01 6.796463919738694737e-02 -9.514571236466359272e-01
-2.978883856528499186e-01 -8.186876142323772088e-02 4.633251737474675114e-01 -2.827189153676695210e-01 -3.079089386444705534e-01 9.084393762911007197e-01
-3.090014860624655801e-01 -8.615226572131336191e-02 4.762732769621220719e-01 -2.801332382361492179e-01 -3.583067335645834239e-01 8.905850063399941563e-01
-6.251860285894168812e-02 -8.076358273744781158e-02 5.664324828835732850e-01 -3.805176264211248549e-01 -2.215600759711837398e-01 8.978404472502209410e-01
4.150370157562931483e-01 -9.619486912122407474e-02 4.248226582755292302e-01 2.541877569268304882e-01 2.699813824638983006e-02 9.667779914539509356e-01
-3.981844019946177426e-01 -8.606004653916657365e-02 4.638611987670208103e-01 -2.694586017705797865e-01 -3.933464852673329015e-01 8.790168396906171688e-01
2.483966678947489570e-01 -1.162761074305150161e-01 5.524341608197796960e-01 5.917978878843767054e-01 -7.089098367474735429e-01 3.836953260834188306e-01
-9.201821184586387314e-01 -1.114720088176315987e-01 -1.644347181997770080e-01 -7.355128666866608267e-01 1.109432778042465650e-01 -6.683654778999437163e-01
-6.153141729859926690e-01 -1.155265765013472889e-01 -3.543060855577965795e-01 -5.810024615137110438e-01 -4.085507870399238683e-01 -7.039335154146784124e-01
-3.054417436981582412e-01 -9.941488824019320547e-02 -4.785542618365661860e-01 -3.000866984400780701e-01 -4.099498287899347448e-01 -8.613298504605751971e-01
2.457272019697871179e-01 -8.414932734395391689e-02 6.409358541328292747e-01 2.781093633476426907e-01 -4.972377424376632771e-01 8.218332005424610065e-01
5.162464289587006400e-02 -1.131703159381717422e-01 6.341815314563092887e-01 -3.439532093584856121e-01 -2.450601888532509820e-01 9.064445342166319586e-01
-5.871004714944124681e-01 -8.096226142917191393e-02 3.918635891621576328e-01 -5.971544228071026250e-01 -2.273165648467278810e-01 7.692423380627195773e-01
-7.640480216596249319e-01 -1.024858803051641454e-01 3.115724811517943671e-01 -8.725812891531213589e-02 -2.336666448418757147e-01 9.683934727302428991e-01
-8.968089173764008937e-01 -1.164712967182703895e-01 2.043076614621758269e-01 -8.756782403249510072e-01 2.141280858045335744e-01 4.328241932830046990e-01
4.075895137058729856e-01 -9.658348048460886626e-02 4.280062731713775714e-01 2.756896012640613347e-01 3.691759273852610046e-02 9.605375240464346653e-01
8.492243607458356269e-01 -9.970182302966815180e-02 -2.406905132546637710e-03 9.773205653803372916e-01 1.967499579542467958e-01 7.831964331928367717e-02
-5.932421773577236657e-01 -9.493586625176250737e-02 -2.894573646344520967e-01 -7.289484604497479259e-01 -3.411694004993263141e-01 -5.934960675277238806e-01
2.952003369584638715e-01 -8.951832732690605254e-02 5.545697888226830408e-01 7.295171526880666057e-01 -6.460141289578161805e-01 2.246563355900964842e-01
-8.451011783925749254e-01 -6.205943667928962015e-02 -2.236993673075249323e-01 -2.829349498722780187e-01 -4.513429957242027224e-01 -8.463080493245196401e-01
-3.230630316049831197e-01 -9.471381936224304576e-02 -4.582093361665063869e-01 -3.749853135758995926e-01 -2.851149399031021603e-01 -8.820972087284001395e-01
3.336921077120373891e-01 -8.841479867783458291e-02 4.573356963330628133e-01 6.560590081719266387e-01 -6.304516687204891889e-01 4.148701859666686365e-01
7.453642585421224043e-01 -1.099591623245467636e-01 6.001393862424643511e-02 3.953629717407903255e-01 1.970307418217996653e-01 8.971438052806486319e-01
-9.792477796353635799e-01 -7.327174754422194347e-02 -5.206366198565200165e-02 -9.898949249517197124e-01 -1.402173427827945462e-01 -2.114555125225060436e-02
-1.702377648254824183e-01 -9.637466800122494737e-02 -5.345685777725011079e-01 -4.909329057151803899e-01 -2.668647835458506368e-01 -8.293178337580087156e-01
6.667779671995565094e-01 -8.287986033988808954e-02 6.649852991279135705e-02 8.049728872349890541e-01 2.375665259618181535e-01 5.436734282259879647e-01
3.544647204282250774e-01 -1.018953641111050440e-01 4.176160863749828200e-01 3.869058257914805843e-01 -1.174517358383016935e-01 9.146086440205900558e-01
6.557931030130659256e-01 -7.866728173987080908e-02 -2.315997888051174181e-01 7.737773784254764475e-01 -5.865770917704612453e-01 2.391566098754225878e-01
-8.922526150196469219e-01 -1.146653698495973123e-01 2.268433096015863293e-01 -7.839737552072247873e-01 1.064672495982159489e-01 6.115961706136440190e-01
-8.890471393293944979e-01 -8.634287261880838060e-02 2.491107917219213819e-01 -6.989939012839911925e-01 2.270811147756942316e-01 6.781162830075784242e-01
2.203384806496860859e-01 -6.181815661629963543e-02 -5.741068866299541273e-01 6.583446373698100818e-01 -7.209285393075357540e-01 -2.164356247439783443e-01
4.046267234915776334e-01 -8.458992622563996089e-02 -4.078398497633215491e-01 1.110234261440186665e-01 -5.739930905224113755e-02 -9.921588170084308933e-01
3.395500460237398932e-01 -7.231208645285688852e-02 -4.442790904494262061e-01 2.022387689214852069e-01 -6.859480869975170814e-02 -9.769310275370348684e-01
5.765657966778414689e-01 -4.771731835478067174e-02 -3.358205576656176361e-01 4.161423639642688466e-01 -3.437094159281494643e-01 -8.418369024440305326e-01
-1.478395498780040451e-01 -6.865796086336239945e-02 5.282356449755816197e-01 -2.794102833828376320e-01 -1.403037669494814899e-01 9.498656465625587852e-01
-1.809721825303906850e-01 -6.233807017079548429e-02 5.146228742018184033e-01 -2.794102833828376320e-01 -1.403037669494814899e-01 9.498656465625587852e-01
-1.869214051198883342e-01 -2.527517835925504469e-02 5.280839144600145696e-01 -2.794102833828376320e-01 -1.403037669494814899e-01 9.498656465625587852e-01
-7.580153354259933085e-01 -8.214492435548823024e-02 3.053418270238796306e-01 3.341889554913626131e-02 -3.114964561734995252e-01 9.496594838212416567e-01
7.487846750644706895e-02 -1.017571622422444311e-01 6.647476722239513691e-01 -2.090476724076938408e-01 -3.218410751935628644e-01 9.234269830252833655e-01
-3.201931790142370504e-01 -5.856231284092112271e-02 4.760752863938921275e-01 -2.316706016402158008e-01 -2.699042939004095976e-01 9.346017357515348234e-01
-2.992995161010599814e-01 -7.351773762279061042e-02 4.813982785709095547e-01 -2.316706016402158008e-01 -2.699042939004095976e-01 9.346017357515348234e-01
5.892104795276795898e-02 -8.611820628317301551e-02 -6.128689245681687714e-01 -2.645342668848602377e-02 -1.771364845940069377e-01 -9.838307181838317206e-01
-1.892139011519518299e-01 -8.455135078466995135e-02 -5.058379451742528454e-01 -3.116819872455255380e-01 -4.041296304972510911e-01 -8.599613831916148587e-01
-2.170866563332932986e-01 -7.109289898656863393e-02 -5.220144475675191353e-01 -3.116819872455255380e-01 -4.041296304972510911e-01 -8.599613831916148587e-01
6.529434311691189041e-01 -9.765195053488712196e-02 1.519798701999007240e-01 9.203907241883624302e-01 -3.891226031142825947e-01 3.826897664670611543e-02
6.501919116993429837e-01 -1.026876174396846031e-01 1.499201501999013197e-01 9.203907241883624302e-01 -3.891226031142825947e-01 3.826897664670611543e-02
2.390576914303911837e-01 -6.813057818955058076e-02 6.233069215476880753e-01 5.139516427975767687e-01 -7.313502101959051815e-01 4.483085755504545578e-01
-9.619595620142195047e-01 -1.163412914218958510e-01 -1.408218059751212281e-01 -5.435359393225174252e-01 -2.069735092972407320e-01 -8.134682840246286739e-01
-4.466353029148084630e-01 -8.382720917779655501e-02 -4.250253405879713120e-01 -4.075187963887277887e-01 -3.965399646876883732e-01 -8.226083436212944244e-01
-9.645601811035123818e-01 -8.531856824573599840e-02 -6.451800275135320673e-02 -9.637817180301735398e-01 -1.279400548292902728e-01 -2.340003041901551617e-01
-9.928082337046725270e-01 -6.863750677195000482e-02 -4.834429423516346802e-02 -9.865825560969202490e-01 -1.333940808258832211e-01 9.413224317886385861e-02
3.953206058471072648e-01 -7.748060968772273183e-02 4.132158692873382222e-01 3.511268577171027250e-01 -1.091993549065439634e-01 9.299384015501822587e-01
-7.788317912660588371e-01 -1.049754117020514910e-01 3.038183007828612059e-01 -3.199056880854173612e-01 3.844347171076044345e-02 9.466691344991762236e-01
5.266519090240436851e-01 -8.036808555688480793e-02 -3.867319438062509218e-01 4.997764770323986916e-01 -2.826042629697256281e-01 -8.187541166653284908e-01
6.008408330477646997e-01 -7.536210018118405518e-02 -3.035391257787525832e-01 5.900888010547592488e-01 -5.591384368472075428e-01 -5.823739480006108193e-01
6.067555211983467478e-01 -1.147436055681718692e-01 -3.466473689392583490e-01 5.314398064380291276e-01 -4.283481867053936520e-01 -7.308143150481599681e-01
-2.833785169199112275e-01 -8.056692189621823819e-02 4.828375170271666517e-01 -2.377980132439515282e-01 -1.787039608068868302e-01 9.547339939947463439e-01
7.491080754316170598e-01 -7.491674693193679790e-02 -1.013890331245895504e-01 2.717873192774507562e-01 1.532820173247765108e-02 -9.622352619352637637e-01
-9.561733450469942809e-05 -8.810228422853937091e-02 5.923692595391067961e-01 -3.660487682252915320e-01 -3.522360293821034105e-01 8.613582755659091594e-01
-1.381795313920169410e-01 -1.128779904849285948e-01 5.459598512692888095e-01 -4.892619003146172485e-01 6.294139450711118411e-02 8.698627327101844386e-01
-1.025439580937786699e-01 -7.477547293948891283e-02 5.713134175323117958e-01 -4.190382268959197964e-01 4.419999417439112593e-02 9.068921241883775020e-01
-1.244834572210689605e-01 -1.039819843669266136e-01 5.519741620604746712e-01 -4.190382268959197964e-01 4.419999417439112593e-02 9.068921241883775020e-01
-8.545560293991054657e-01 -9.653174646319603869e-02 2.748411914748234430e-01 -4.833904364428769918e-01 1.368778535112070982e-01 8.646375767763793130e-01
-9.305753933272644662e-01 -8.008258680574911748e-02 1.791203869463934284e-01 -7.216957858600222542e-01 1.836181064207782418e-02 6.919667886407767643e-01
1.632849583960745976e-01 -1.056399112419496578e-01 6.405208457332804972e-01 -4.231941696524346014e-02 2.564917965261138966e-02 9.987748427603039270e-01
-2.342849560350468430e-02 -9.631413952275953705e-02 -6.068356695802356038e-01 -2.174670379313485558e-01 -2.932821927996266675e-02 -9.756269486679998160e-01
-6.489850623988135947e-01 -6.114904747806124141e-02 -2.566974860472878150e-01 -5.870931012705683516e-01 -4.049930839838892238e-01 -7.009295915894298012e-01
-7.396194596429022106e-01 -6.807872552097989083e-02 -2.745355300805830123e-01 -2.666241751064402088e-01 -2.619583153604171377e-01 -9.275178651984782308e-01
-1.411649385335938256e-01 -7.911968960988315092e-02 -5.794582595908800426e-01 -3.450525891223102382e-01 -4.884704436384845194e-01 -8.014582562002915411e-01
7.096982783943279749e-01 -6.233510474216899522e-02 4.264069263627818379e-02 5.241877184448064941e-01 1.817886769467531582e-01 8.319736250420306511e-01
1.608011671051571556e-01 -6.593523895978969929e-02 6.281373349988542687e-01 2.279844195071894716e-02 -2.062145298416286354e-01 9.782411761558679197e-01
-9.961945131058987934e-01 -9.007918857591105943e-02 4.080967926358648745e-02 -9.612295669671848675e-01 6.260609455672980217e-02 2.685483131811336466e-01
-4.060584043176090202e-02 -8.044467504527523516e-02 5.814121472124001988e-01 -4.830240885733690370e-01 6.073735634895641167e-02 8.734979698898024392e-01
2.946394544927274373e-01 -8.441606389212369388e-02 -4.866325695439325250e-01 6.002836840597183254e-01 -6.738799894990341599e-01 -4.307496470160757096e-01
2.196129815851593503e-01 -1.054110140151339053e-01 -5.206303421238969165e-01 4.797764830503547517e-01 -5.223710811549997501e-01 -7.049418273054801620e-01
2.639092570561136775e-01 -5.117673859088621435e-02 -5.237607157768640054e-01 3.142650182769856082e-01 -3.928558339945118494e-01 -8.642348014190601724e-01
-2.429154255104054028e-01 -8.264606752939639145e-02 5.036052425019320600e-01 -3.204059223377926369e-01 -1.742265723935794985e-01 9.311203715969558203e-01
-2.290560512205314647e-01 -5.615032156454605183e-02 5.091923945652839789e-01 -3.204059223377926369e-01 -1.742265723935794985e-01 9.311203715969558203e-01
-7.009645326778534136e-01 -7.658728287706256799e-02 3.456601099379913444e-01 -1.171301389117661712e-01 -2.667536262897935440e-01 9.566206319224750398e-01
-4.514676425674210569e-01 -6.558418163355497765e-02 4.391586510839388668e-01 -2.814585395047151106e-01 -3.730520439478859362e-01 8.840889452120623826e-01
3.760173242633667590e-01 -1.115837344291853717e-01 4.351297709923013790e-01 1.744411374160087513e-01 3.673529632951090529e-02 9.839821175105735174e-01
6.091663712948975906e-01 -1.056784108128159955e-01 3.299703457791899885e-01 8.180394502150518665e-01 8.230020736836485273e-02 5.692434749375525627e-01
6.531264267475863639e-01 -1.058897838392785784e-01 -2.748151172280901555e-01 7.771379819956487633e-01 -5.816604653489296783e-01 -2.402658111130203944e-01
2.442984871767854560e-01 -1.016187562815197842e-01 5.938618651172586915e-01 5.702140983350439951e-01 -7.036059681279137612e-01 4.240218433933965470e-01
-7.717083494339036509e-01 -9.873835557591452428e-02 -2.710146392259419335e-01 -4.637629757766605909e-01 -1.564614121443764494e-01 -8.720342474975188996e-01
3.342002275486838925e-01 -7.914055149543923473e-02 4.806801567564512045e-01 5.741578551632706695e-01 -3.274152441508324518e-01 7.504278881091530629e-01
2.205529466088723689e-01 -1.143039907086651485e-01 6.422686879965621154e-01 1.323369105569454918e-01 -2.829995367792222383e-01 9.499464217980868597e-01
6.530311897382565789e-01 -1.022222572564590592e-01 -1.603401800984179948e-01 9.932628317459051281e-01 7.412559713375214965e-02 8.907492869304227401e-02
-8.795097901545313457e-01 -5.107850115448219624e-02 2.471445068657215915e-01 -6.769064481619323503e-01 2.022731873237850198e-01 7.077310351586075798e-01
5.354286200138477225e-01 -8.598890948144570501e-02 -3.731211385531358338e-01 6.930348960336408792e-01 -2.948852856326382721e-01 -6.578337945081553784e-01
-6.132131158941294125e-01 -9.114579064341721271e-02 3.690832167458277246e-01 -4.471472543486831319e-01 -3.667827584631210280e-01 8.158000619162871780e-01
3.488258525403779009e-01 -7.128256429131837879e-02 -4.141810552019120073e-01 3.259850223471738029e-01 -2.426777466299813446e-01 -9.136964903598498999e-01
5.279862900901749478e-01 -5.072131119645448966e-02 -4.046058655332205878e-01 4.656087384378803651e-01 -3.242929424564445773e-01 -8.234334157436328239e-01
6.199282489168593813e-01 -7.479354294322913821e-02 -3.077913393273110088e-01 6.663181217828529901e-01 -5.102361618915161046e-01 -5.437639374599841924e-01
4.446860763398542415e-01 -6.815597492066760577e-02 -4.235179068447661455e-01 2.595744618995554642e-01 -1.249236289746501471e-01 -9.576090985644195586e-01
5.998162330125969000e-01 -5.008214902387562312e-02 -3.622947650944771114e-01 2.691624193836864021e-01 -3.811959525800014958e-01 -8.844440274704475913e-01
6.480373774800441966e-01 -9.138827938081058033e-02 -2.602173740144968495e-01 8.546992907778520054e-01 -5.191000519619280995e-01 -4.925281409243027590e-03
6.321867888917744871e-01 -8.892245648293148341e-02 2.502725068631502792e-01 6.798344039848571718e-01 -2.523400772205440790e-01 6.885852660251189361e-01
2.719652777666112797e-01 -6.708018706383869767e-02 5.895842330873206638e-01 8.616807137922563031e-01 -3.808181384904757993e-01 3.353861846813556147e-01
2.924380126894822740e-01 -7.585364389337267976e-02 5.556603227527657785e-01 7.475161313702719523e-01 -6.270791888594072772e-01 2.190692224860671389e-01
-6.959802489920007273e-01 -1.182437777106908616e-01 -2.365846454512060271e-01 -2.690049281308808382e-01 -1.692266708035694567e-01 -9.481554105367115959e-01
-5.919607814023843950e-01 -5.378154622963295800e-02 -2.792016565783885795e-01 -6.914842169788507631e-01 -3.970540999761152379e-01 -6.034878783880439634e-01
-8.439172581471647838e-01 -1.062466083166344610e-01 -2.015432781537911944e-01 -6.991799743738258410e-02 -3.943833832803497197e-01 -9.162822821743803470e-01
-8.678739770019944233e-02 -6.366436484873227997e-02 -5.634923778309757214e-01 -4.360236488674713584e-01 -3.538261077094307372e-01 -8.274602486714937033e-01
-2.172347781269079459e-01 -5.987073096697218683e-02 -5.182491450278653433e-01 -3.140099733347906930e-01 -2.110540127517117892e-01 -9.256640537191040963e-01
-1.547412778882061302e-01 -7.162958218201309624e-02 -5.378565645468542655e-01 -5.061109928513541911e-01 -2.357940746355809830e-02 -8.621459705053918787e-01
-3.614089461234325507e-01 -9.683947912686920179e-02 4.524038688813664666e-01 -2.485243533099465996e-01 -2.621063648376120714e-01 9.324890880452626485e-01
-3.873033240933911880e-01 -1.137095011593167310e-01 4.726427439561322053e-01 -2.485243533099465996e-01 -2.621063648376120714e-01 9.324890880452626485e-01
-8.112729163530204568e-01 -6.987599172491126831e-02 3.186118963203960486e-01 -3.692919856937977863e-01 2.137089583474976739e-01 9.044069385096287217e-01
6.679778431025608088e-01 -9.125681271381838600e-02 -1.221884347558191419e-01 4.367228910645478690e-01 -6.262006292616285885e-02 -8.974139758992760729e-01
-8.455215123910463093e-02 -7.722169348348432993e-02 5.916612119096091860e-01 -4.537273004250027553e-01 -2.019242551988320242e-02 8.909117817161602559e-01
6.480376425334871682e-01 -6.629638874330699705e-02 -1.879540208432594339e-01 7.040730984297921546e-01 -6.721171217994253988e-01 2.292152845067894906e-01
-1.986073824914106056e-01 -7.743951378972692423e-02 4.922342090878259468e-01 -2.399890263486056663e-01 -1.498177463449905655e-01 9.591454061362940653e-01
2.576899402768674241e-01 -6.598665082868973575e-02 -5.195570387418838587e-01 2.367391536854465406e-01 -3.683955657514192406e-01 -8.990212902078515977e-01
-5.264056089569856267e-01 -9.811377096394081898e-02 4.386589549713763581e-01 -4.032204838701879401e-01 -3.393626040600019600e-01 8.498507306304478037e-01
1.420792664062743016e-01 -6.729053201059581601e-02 6.399523014417716205e-01 -9.696653826056962633e-02 -3.290076868227431173e-01 9.393356335566692694e-01
6.665582793423642238e-01 -8.647381584519614472e-02 1.994615975965126908e-01 8.879329482916971106e-01 -4.337731920232823501e-01 1.530225382744213047e-01
-6.660365087771930037e-01 -1.004068877479344785e-01 -2.619803872768420860e-01 -1.754492355784316171e-01 -1.624970743782513591e-02 -9.843543633992430930e-01
-5.500706950422866726e-01 -7.541761455017412241e-02 -3.686492228828461282e-01 -5.040532065179655907e-01 -4.139614566750334235e-01 -7.580015022323118856e-01
-7.709378234953301323e-01 -4.963538095811581563e-02 -2.497702014997801589e-01 -4.255878025468441406e-01 -2.390181767855741601e-01 -8.727802320684449056e-01
2.742898617593289012e-01 -5.586542625187745914e-02 5.058666732119575515e-01 6.517493219365085855e-01 -6.809433235987314426e-01 3.339745669981693532e-01
-4.861889299801893660e-01 -7.027560145954160620e-02 -4.177758132734145091e-01 -4.485287888538698198e-01 -3.764857757328249899e-01 -8.106049507868391402e-01
-2.941601887805609383e-01 -7.118189382202107229e-02 -4.860044440933919963e-01 -3.784396873871143097e-01 -3.081692597431045511e-01 -8.728202050592837047e-01
-3.027586345862683936e-01 -7.720070986621747899e-02 -4.582253641329082638e-01 -3.784396873871143097e-01 -3.081692597431045511e-01 -8.728202050592837047e-01
-3.265090156957389245e-01 -1.111058400619825692e-01 -4.468920613777438433e-01 -3.465957174550351461e-01 -2.994123521397704657e-01 -8.889452469235434862e-01
-9.975458971591332213e-01 -7.588240686717565020e-02 -4.727775506004004702e-02 -9.200867429898074157e-01 -2.919421872846037491e-01 -2.611707193731514498e-01
4.812180494539747833e-01 -8.163556365281522675e-02 -3.967675697640458687e-01 3.664145148528981655e-01 -2.280907778237846184e-01 -9.020615280438780692e-01
-2.133120457263606162e-01 -3.774796928232998505e-02 5.348301172929016412e-01 -3.769259553651839179e-01 -2.136096631938391444e-01 9.012756159811813328e-01
5.794127644199172922e-01 -1.035462549067924648e-01 3.158963162539487612e-01 7.508489225298058400e-01 -9.332174266563724591e-03 6.604080602622048879e-01
6.900831110162987114e-01 -8.071028137795820123e-02 2.011885336134518476e-01 9.087010401772767088e-01 -4.051764389077220918e-01 1.004712542710218676e-01
1.207734681755515543e-01 -6.991702028650932654e-02 6.596426300089490713e-01 -8.278189078341781013e-03 -3.161810889199849206e-01 9.486627380660399567e-01
7.016086996490800143e-01 -6.301242399158811514e-02 -1.089801507200121866e-01 4.581859845014468746e-01 -3.257884962865485734e-02 -8.882590963020380315e-01
-5.042477132683595986e-01 -8.407089809927999202e-02 4.492355827815006641e-01 -3.579162304465672850e-01 -3.055241542221528994e-01 8.823553497144774882e-01
4.380859766139038464e-03 -8.758004358415387436e-02 -5.972503131749523630e-01 -3.911592034210563118e-01 -1.188371436713291096e-01 -9.126183270475366482e-01
-9.667878358395382010e-01 -9.433664224524015984e-02 1.552944939644841371e-01 -8.042703924429969176e-01 -4.512658211589772317e-01 3.866630244713110121e-01
-6.700364952985180533e-01 -7.509834226876520302e-02 3.277421115868784929e-01 -3.974563264041102717e-01 -3.286510629893914515e-01 8.567478902205084568e-01
-6.346396986781543959e-01 -7.874297366131605136e-02 3.495886483000880673e-01 -4.243018449718378715e-01 -3.772579823086767981e-01 8.231915689181228402e-01
-9.523260435030282967e-01 -9.579692955642170327e-02 1.888828269523217529e-01 -7.121654728450990124e-01 -4.933216279360440604e-01 4.994538123769282079e-01
6.647322002515170247e-01 -6.904377824019872212e-02 -2.838899197599982216e-01 8.313658983321059459e-01 -5.553899333792379212e-01 -1.930712281662019802e-02
6.544555635413151773e-01 -5.729115394268287365e-02 2.216586514532873364e-01 8.176891770684562299e-01 -4.125736622923384944e-01 4.014565765905427908e-01
-8.495082058136560477e-01 -8.234327691723075660e-02 -2.100240253752528596e-01 -8.031864472007450573e-01 -2.588079273181471684e-01 -5.365724441213221008e-01
-9.714238729382657089e-01 -8.490398389444944738e-02 1.071370084202810241e-01 -7.971436617185164719e-01 -5.514643623977925069e-01 -2.458638639312242524e-01
7.440903363372476376e-01 -7.843010044233408862e-02 5.443829872708194628e-03 4.104685847973757462e-01 1.359743264149061992e-01 9.016798342263466770e-01
-9.546757718316548624e-01 -7.372368319842705076e-02 1.029644212910122147e-01 -9.823560736319940645e-01 -3.838868264460111590e-02 1.830378475702345298e-01
2.675117565882741411e-01 -7.913538688745325178e-02 5.737247010761153954e-01 9.061361730775041590e-01 -1.704164647712125835e-01 3.871375264364557700e-01
3.959431774197772619e-02 -7.977626247717625740e-02 -6.150053198433776958e-01 -3.792195815626842048e-01 -1.201786986234112120e-01 -9.174691217455801517e-01
3.104857166708331340e-01 -5.634991204810143456e-02 -5.051717842762596389e-01 3.065140037722882682e-01 -3.709244940104620691e-01 -8.766208902567655947e-01
-9.824747301307201752e-01 -6.971527954461180510e-02 2.229814356594968239e-02 -9.603454804052615756e-01 -7.583509423800954830e-02 2.683013170804418035e-01
-9.441961177498984226e-01 -8.115676750585217036e-02 1.806457288784920900e-01 -7.848382970868186259e-01 -3.238867963711247744e-01 5.283239447179278736e-01
3.662333050841689447e-02 -7.999426620839625302e-02 -6.208824651558676466e-01 -3.505377200745075639e-01 -9.782117963996538046e-02 -9.314259624998713072e-01
7.808945700371350274e-01 -8.150277540688047329e-02 -1.174195392879236188e-01 7.065197658894026844e-01 8.414729732850918797e-02 -7.026727921016233669e-01
8.336885793481192408e-01 -1.009770052228833176e-01 -1.056396320596250105e-01 7.065197658894026844e-01 8.414729732850918797e-02 -7.026727921016233669e-01
6.595910171235715991e-01 -9.214847250580174287e-02 -1.229950925038473947e-01 8.009780199381775212e-01 -3.241619649938287107e-01 -5.033420626445362922e-01
7.223388562757290243e-01 -6.488147693778328895e-02 -1.266450508075778747e-01 2.859849582900646503e-01 -3.009419778208607607e-02 -9.577614227414271708e-01
-6.457179213680368512e-01 -5.645789537445967954e-02 3.113650208299320599e-01 -7.503051591639658957e-01 -2.807880099636060334e-01 5.984983388386418968e-01
-7.333584490559211799e-01 -8.757846216865128319e-02 3.345567895253652724e-01 -8.937624040816864734e-02 -1.521020462375015925e-01 9.843154246382944672e-01
3.276701549748418096e-01 -7.010255896902009565e-02 -4.832694690577029606e-01 4.918975098741135143e-01 -8.207489094859782286e-01 -2.905306650892880982e-01
-8.899794847631018468e-01 -9.008224649489231239e-02 -1.826665958948151813e-01 -4.629738056372915134e-01 -2.736920967355339213e-02 -8.859493109967230273e-01
3.461997916683978715e-01 -8.805278506311474407e-02 4.760731454601276336e-01 6.859928892844475712e-01 -5.786525685821060083e-01 4.411065185695024482e-01
-6.336548143118753140e-01 -5.931372062863055766e-02 -3.229196979018764124e-01 -6.932336287215554727e-01 -4.134128157001650261e-01 -5.903532669719088188e-01
-6.077113619636675956e-01 -7.261250512044109540e-02 -3.306140169443700372e-01 -6.932336287215554727e-01 -4.134128157001650261e-01 -5.903532669719088188e-01
6.652902397515829680e-01 -7.920287794682201454e-02 1.910548426335179906e-01 8.448660142232123915e-01 -5.169417633585305927e-01 1.377411750579902172e-01
-2.025730068606665935e-01 -7.542173970045741582e-02 -5.164755864067299695e-01 -2.836509763587899413e-01 -1.623114726609067304e-01 -9.450910588156852254e-01
-9.920059475157234630e-01 -1.046193068827005468e-01 -1.191675845988540358e-02 -9.797919806844117563e-01 -1.999764188444014823e-01 4.135999599386755085e-03
-1.004237830563358136e+00 -7.863013868397235318e-02 3.511829295489356240e-02 -9.797919806844117563e-01 -1.999764188444014823e-01 4.135999599386755085e-03
-9.487862635088964991e-01 -8.175627158911630277e-02 1.162130556150619137e-01 -8.290697772240902541e-01 -5.514385060373442338e-01 9.251420730298300088e-02
1.898819030772582739e-01 -4.031049855829541007e-02 -5.789621348613316343e-01 3.498902391104995457e-01 -7.793834937312308364e-01 -5.197481989141454761e-01
6.705331161593361955e-01 -7.671696119288663740e-02 9.500145440538934616e-02 9.894306625136058964e-01 -1.433187660655016460e-01 2.206117339011740702e-02
6.141154699154969254e-01 -6.613705531610930555e-02 -3.235215095568893529e-01 5.354929193920346941e-01 -4.077124074984919133e-01 -7.396066022236277293e-01
6.531104348900008683e-01 -9.415352387901272657e-02 -2.789172433826878628e-01 8.355735676241825560e-01 -4.552881125196507339e-01 -3.074565785376682792e-01
-9.444828487165864983e-01 -3.745086166035967168e-02 2.248864118810803558e-01 -7.035065273416480913e-01 -2.592976575482784929e-01 6.616972803160600103e-01
-5.612956588619133491e-01 -5.003415728967125498e-02 4.139916242897673238e-01 -4.418102305223657322e-01 -3.783464396462197232e-01 8.134234394291840475e-01
5.265824998463664031e-01 -5.936802103250955753e-02 3.717164811850986461e-01 6.264906069784156317e-01 2.165332122528093595e-02 7.791281364754650829e-01
5.349556887440312103e-01 -7.574618479884759337e-02 3.653504880018630385e-01 6.264906069784156317e-01 2.165332122528093595e-02 7.791281364754650829e-01
-4.257450458312017072e-01 -7.223593532019642605e-02 4.582617300456553466e-01 -1.889196368644825152e-01 -2.497015002305022491e-01 9.497149738682804099e-01
4.297035777015295044e-01 -1.031041915424250333e-01 4.114417916671437858e-01 3.354418213694694284e-01 1.011219085146062707e-01 9.366179285571553104e-01
-9.635878763074410269e-01 -6.821822451812728505e-02 8.620218689580819160e-02 -9.319964232359416734e-01 2.338068730834578779e-01 2.769783622854813943e-01
-9.886610316048080049e-01 -5.799361513379340527e-02 -1.235202061982547950e-01 -9.356618592740186813e-01 1.362697158718205181e-01 -3.255264192597889794e-01
6.266023141460198564e-01 -9.177133143917505509e-02 2.390259297266244809e-01 7.751992363366855265e-01 -4.201549710433798990e-01 4.717371559359682665e-01
-8.288301354095617413e-01 -7.100220939821802468e-02 -2.529850306908132396e-01 -7.762861740516630027e-02 -3.734010445871763229e-01 -9.244162794222999802e-01
-7.054270611163802052e-01 -7.787555671947971048e-02 -2.565417426101112008e-01 -4.310181711672216032e-02 -3.650099012827497380e-01 -9.300053791923968971e-01
3.439964975529898883e-01 -8.808282363422838268e-02 5.026319036841975230e-01 7.220412128818168851e-01 -6.228662061281773354e-01 3.011547379066874530e-01
3.880580705358213645e-01 -5.999709123228788576e-02 4.400398052333300281e-01 3.840248077467099952e-01 -1.948829223831980428e-01 9.025217967442596967e-01
-5.907185821014030586e-02 -5.990806459821343410e-02 -5.776196408369803637e-01 -3.762901416632868368e-01 -1.236448946334446075e-01 -9.182143918051535181e-01
-9.697915384971015351e-01 -5.385926750812385089e-02 -1.482579269053868956e-02 -9.559192107338173594e-01 -1.952869022463555315e-01 -2.192749150291894988e-01
3.498991627207706512e-01 -8.929241664054371475e-02 -4.665768755844018068e-01 5.105873720379173752e-01 -6.475093674935570309e-01 -5.657138450873435698e-01
2.526040670336420213e-01 -7.864694009332361124e-02 -5.614882271577444905e-01 3.715052226409351066e-01 -8.613885149095948934e-01 -3.464010622563850617e-01
-9.010206077883153863e-01 -9.491989497794668662e-02 2.457672390396961615e-01 -6.775835079599653588e-01 -2.371123393112998801e-01 6.961740646469033456e-01
6.727552520337981568e-01 -5.824511240309537125e-02 -2.053828037573475485e-01 5.248146044065760130e-01 -7.153760597706891877e-01 4.613097919061902585e-01
-2.333592437014863352e-01 -6.403222778638657797e-02 5.015184708395291624e-01 -2.730668985366717649e-01 -1.950655669011561733e-01 9.420105591409756451e-01
