1.004486327349042862e-01 6.736226734852813758e-01 -3.460059107397414624e-01 6.281189376019757908e-01 1.140219894383130289e-01 -7.697178613948713055e-01
1.187084653800577344e-01 6.814199183086365741e-01 -3.286061897515921149e-01 6.281189376019757908e-01 1.140219894383130289e-01 -7.697178613948713055e-01
1.084816942805615914e-01 6.243445253139892070e-01 -3.438763420169143048e-01 6.281189376019757908e-01 1.140219894383130289e-01 -7.697178613948713055e-01
4.884079940372607759e-02 8.243922790377498089e-01 -3.549003596678098615e-01 6.409764503283782444e-01 7.613182945024371540e-02 -7.637755787330406942e-01
9.733874421740691674e-02 8.051723225093381231e-01 -3.422352059214927578e-01 6.409764503283782444e-01 7.613182945024371540e-02 -7.637755787330406942e-01
1.468323330314074693e-01 6.519013237334797539e-01 -3.033342186555527675e-01 6.102384916476233379e-01 1.140098548077274204e-01 -7.839711323246247865e-01
1.155330906616048176e-01 6.212701610358416504e-01 -3.306854489586505408e-01 6.102384916476233379e-01 1.140098548077274204e-01 -7.839711323246247865e-01
1.128679131582628753e-01 5.869534897865545942e-01 -3.059273591094024969e-01 6.102384916476233379e-01 1.140098548077274204e-01 -7.839711323246247865e-01
1.053978404750280651e-01 6.375558787597224164e-01 -3.225084404189892950e-01 6.102384916476233379e-01 1.140098548077274204e-01 -7.839711323246247865e-01
1.235777483871054322e-01 7.160612535719791394e-01 -3.302195006699283342e-01 6.102384916476233379e-01 1.140098548077274204e-01 -7.839711323246247865e-01
1.236151438210650044e-01 5.619294369885885487e-01 -3.226052726091342970e-01 6.102384916476233379e-01 1.140098548077274204e-01 -7.839711323246247865e-01
1.175855446490544076e-01 5.983105018959251620e-01 -3.311986862588068292e-01 6.102384916476233379e-01 1.140098548077274204e-01 -7.839711323246247865e-01
1.261567790024054891e-01 5.733613694399165572e-01 -3.622526910062328631e-01 6.102384916476233379e-01 1.140098548077274204e-01 -7.839711323246247865e-01
8.219545539217200381e-02 7.919174840762542855e-01 -3.247957410312509174e-01 6.102384916476233379e-01 1.140098548077274204e-01 -7.839711323246247865e-01
1.010178740997314528e-01 6.883208319558747901e-01 -3.306805615449867619e-01 6.102384916476233379e-01 1.140098548077274204e-01 -7.839711323246247865e-01
1.186392163910668790e-01 7.235486528884169655e-01 -3.051900241373648459e-01 6.102384916476233379e-01 1.140098548077274204e-01 -7.839711323246247865e-01
1.215914923855711816e-01 7.642013084676561041e-01 -3.205465437132843376e-01 6.102384916476233379e-01 1.140098548077274204e-01 -7.839711323246247865e-01
1.491968697158187751e-01 6.299204391354052968e-01 -2.864447677108795665e-01 6.102384916476233379e-01 1.140098548077274204e-01 -7.839711323246247865e-01
1.538486928379511898e-01 6.366342925853427648e-01 -3.183127556961249383e-01 6.102384916476233379e-01 1.140098548077274204e-01 -7.839711323246247865e-01
1.108380604218430349e-01 6.033333689024837909e-01 -2.992375816138566624e-01 6.102384916476233379e-01 1.140098548077274204e-01 -7.839711323246247865e-01
1.255566067569264255e-01 6.903783029846518593e-01 -3.245629094915707391e-01 6.102384916476233379e-01 1.140098548077274204e-01 -7.839711323246247865e-01
1.181067558961556990e-01 5.113720966254113875e-01 -3.306660919228431306e-01 6.102384916476233379e-01 1.140098548077274204e-01 -7.839711323246247865e-01
1.369446677173077331e-01 6.885998639202626226e-01 -3.269079615510412373e-01 6.244433793060072402e-01 1.190879087888679078e-01 -7.719381685220573219e-01
1.180861129884505922e-01 7.026960855854205157e-01 -3.003228520484541031e-01 6.244433793060072402e-01 1.190879087888679078e-01 -7.719381685220573219e-01
1.026716877051810778e-01 8.057327775089584421e-01 -3.233653429764994924e-01 6.244433793060072402e-01 1.190879087888679078e-01 -7.719381685220573219e-01
1.417411950777142104e-01 8.003824015950218307e-01 -2.961862983859100962e-01 6.244433793060072402e-01 1.190879087888679078e-01 -7.719381685220573219e-01
1.198403969443840450e-01 7.573664866897140691e-01 -3.206406672074156305e-01 6.244433793060072402e-01 1.190879087888679078e-01 -7.719381685220573219e-01
1.441660221347571547e-01 7.364354891753513987e-01 -3.347116492249585518e-01 6.244433793060072402e-01 1.190879087888679078e-01 -7.719381685220573219e-01
1.275716755736965580e-01 7.159767063483357674e-01 -3.167640878973491669e-01 6.244433793060072402e-01 1.190879087888679078e-01 -7.719381685220573219e-01
1.178281853507887056e-01 7.865562246198014584e-01 -2.989634756179989084e-01 6.244433793060072402e-01 1.190879087888679078e-01 -7.719381685220573219e-01
1.262325548460296598e-01 7.835072727339434939e-01 -3.178864068530765641e-01 6.244433793060072402e-01 1.190879087888679078e-01 -7.719381685220573219e-01
1.726644137576782423e-01 7.748125558265723800e-01 -2.714216765289872990e-01 6.193909559344733529e-01 1.185717600335928351e-01 -7.760770460650897595e-01
1.958663248635616194e-01 7.813638183764958223e-01 -2.770358143334247791e-01 6.193909559344733529e-01 1.185717600335928351e-01 -7.760770460650897595e-01
1.286881760067042912e-01 7.770820798456435918e-01 -3.156142711673950441e-01 6.193909559344733529e-01 1.185717600335928351e-01 -7.760770460650897595e-01
1.817968033870771827e-01 7.179581579304233907e-01 -2.972549756066481530e-01 6.193909559344733529e-01 1.185717600335928351e-01 -7.760770460650897595e-01
1.598462212825394468e-01 7.404514075978154697e-01 -2.808985172680006359e-01 6.193909559344733529e-01 1.185717600335928351e-01 -7.760770460650897595e-01
1.675765216591151019e-01 6.557422114770266042e-01 -3.019075893086666240e-01 6.193909559344733529e-01 1.185717600335928351e-01 -7.760770460650897595e-01
1.629246552888931887e-01 8.154579345694780157e-01 -2.489496655328152508e-01 6.193909559344733529e-01 1.185717600335928351e-01 -7.760770460650897595e-01
1.518643722863682044e-01 7.117367199339306172e-01 -3.021893282720004015e-01 6.193909559344733529e-01 1.185717600335928351e-01 -7.760770460650897595e-01
1.636828800472784340e-01 7.528494477555468523e-01 -2.614500200303603306e-01 6.193909559344733529e-01 1.185717600335928351e-01 -7.760770460650897595e-01
1.690006941557860853e-01 7.799869896092730404e-01 -2.653002513729293965e-01 6.193909559344733529e-01 1.185717600335928351e-01 -7.760770460650897595e-01
1.637848428777567422e-01 8.215346455681167281e-01 -2.689133080813396193e-01 6.193909559344733529e-01 1.185717600335928351e-01 -7.760770460650897595e-01
1.416987630317470548e-01 6.498159124359217387e-01 -3.028208557822035241e-01 6.193909559344733529e-01 1.185717600335928351e-01 -7.760770460650897595e-01
1.529813553505612600e-01 7.378053988101717087e-01 -3.010328601990412412e-01 6.193909559344733529e-01 1.185717600335928351e-01 -7.760770460650897595e-01
1.648213582392653032e-01 7.480014749583626665e-01 -2.480479895481808583e-01 6.193909559344733529e-01 1.185717600335928351e-01 -7.760770460650897595e-01
1.330804330406309410e-01 7.808650387660343029e-01 -2.957778781798202639e-01 6.193909559344733529e-01 1.185717600335928351e-01 -7.760770460650897595e-01
1.571355417702989532e-01 6.933142914151088076e-01 -2.903983654677179671e-01 6.193909559344733529e-01 1.185717600335928351e-01 -7.760770460650897595e-01
1.521665554688997890e-01 7.106777246646692747e-01 -2.898312437425757393e-01 6.193909559344733529e-01 1.185717600335928351e-01 -7.760770460650897595e-01
1.388226011354568856e-01 8.106735703452312425e-01 -3.120004279725536178e-01 6.193909559344733529e-01 1.185717600335928351e-01 -7.760770460650897595e-01
1.168291343542883359e-01 8.350945431647955886e-01 -2.998065316297252036e-01 6.193909559344733529e-01 1.185717600335928351e-01 -7.760770460650897595e-01
1.606756808688593607e-01 6.454126505062373065e-01 -2.794126731256061924e-01 6.273604095172047312e-01 1.154038590642859075e-01 -7.701304213465894888e-01
1.938743093709088261e-01 7.505778074701716651e-01 -2.688018490557177453e-01 6.273604095172047312e-01 1.154038590642859075e-01 -7.701304213465894888e-01
1.702368274340229914e-01 7.265469836808825521e-01 -2.763356200881128544e-01 6.273604095172047312e-01 1.154038590642859075e-01 -7.701304213465894888e-01
1.907188078514338303e-01 6.344583615312875402e-01 -2.790360740341014667e-01 6.273604095172047312e-01 1.154038590642859075e-01 -7.701304213465894888e-01
1.799619063807755270e-01 6.678821026101094960e-01 -3.024441434517437521e-01 6.273604095172047312e-01 1.154038590642859075e-01 -7.701304213465894888e-01
1.765246866926579450e-01 6.426990510917495181e-01 -2.718471856765982131e-01 6.273604095172047312e-01 1.154038590642859075e-01 -7.701304213465894888e-01
1.696907202154350758e-01 6.772509751252887567e-01 -2.849839974600330561e-01 6.273604095172047312e-01 1.154038590642859075e-01 -7.701304213465894888e-01
1.942729705868818380e-01 7.883356348291159499e-01 -2.489711432457434870e-01 6.273604095172047312e-01 1.154038590642859075e-01 -7.701304213465894888e-01
1.602962471201297978e-01 6.134089910612943175e-01 -3.049098911598089323e-01 6.273604095172047312e-01 1.154038590642859075e-01 -7.701304213465894888e-01
1.778313290874277974e-01 6.340927023020379583e-01 -2.729431403473663309e-01 6.273604095172047312e-01 1.154038590642859075e-01 -7.701304213465894888e-01
1.940348854942646750e-01 6.927868388767436381e-01 -2.518426465977037787e-01 6.305986944886524670e-01 1.151092634100843587e-01 -7.675253376836460584e-01
2.054379035165758982e-01 7.038680901582480276e-01 -2.617916176261163019e-01 6.305986944886524670e-01 1.151092634100843587e-01 -7.675253376836460584e-01
1.784629349144739585e-01 6.713275623809890069e-01 -2.583269539020059402e-01 6.305986944886524670e-01 1.151092634100843587e-01 -7.675253376836460584e-01
2.358814487775786617e-01 5.972490465071946808e-01 -2.420324268423549030e-01 6.305986944886524670e-01 1.151092634100843587e-01 -7.675253376836460584e-01
2.030450745632701448e-01 6.509623379281915811e-01 -2.636347000128820284e-01 6.305986944886524670e-01 1.151092634100843587e-01 -7.675253376836460584e-01
1.917699136165779139e-01 7.512246912498179441e-01 -2.360742752942327216e-01 6.305986944886524670e-01 1.151092634100843587e-01 -7.675253376836460584e-01
2.022239274561736522e-01 7.374609222438648359e-01 -2.481666528869916899e-01 6.305986944886524670e-01 1.151092634100843587e-01 -7.675253376836460584e-01
1.937412299822992567e-01 7.045692907917572301e-01 -2.398091219683690933e-01 6.305986944886524670e-01 1.151092634100843587e-01 -7.675253376836460584e-01
2.093752270796455373e-01 6.583569970565489315e-01 -2.404907230205357571e-01 6.305986944886524670e-01 1.151092634100843587e-01 -7.675253376836460584e-01
1.963431097674832870e-01 6.911873196211721915e-01 -2.546386961836545892e-01 6.305986944886524670e-01 1.151092634100843587e-01 -7.675253376836460584e-01
2.138376789891804075e-01 6.317049801460284941e-01 -2.609938506647228040e-01 6.305986944886524670e-01 1.151092634100843587e-01 -7.675253376836460584e-01
2.143589145493429993e-01 8.666885607975122197e-01 -2.243490009784584460e-01 6.208236971844471874e-01 2.640289376501637753e-01 -7.381508362777623455e-01
1.978369919658985177e-01 7.678876753490885276e-01 -2.246075570439353686e-01 6.228271300037527825e-01 1.134350494747470017e-01 -7.740922785314100496e-01
2.848270940007346375e-01 7.699601952759336232e-01 -1.763031990875393029e-01 6.228271300037527825e-01 1.134350494747470017e-01 -7.740922785314100496e-01
2.166463446317218045e-01 7.626427739857511989e-01 -2.368401916490479320e-01 6.228271300037527825e-01 1.134350494747470017e-01 -7.740922785314100496e-01
2.282556519092753533e-01 6.101418546392206599e-01 -2.395217284336040309e-01 6.228271300037527825e-01 1.134350494747470017e-01 -7.740922785314100496e-01
2.686179011158621455e-01 6.690048211512097387e-01 -2.230264357254915786e-01 6.228271300037527825e-01 1.134350494747470017e-01 -7.740922785314100496e-01
2.433335644566978206e-01 7.344080495358230598e-01 -2.234178433810722064e-01 6.228271300037527825e-01 1.134350494747470017e-01 -7.740922785314100496e-01
2.317787043841548766e-01 7.368163673906432676e-01 -2.239885700674869862e-01 6.228271300037527825e-01 1.134350494747470017e-01 -7.740922785314100496e-01
2.524648433640116485e-01 7.380563455636739434e-01 -1.896930966836838373e-01 6.228271300037527825e-01 1.134350494747470017e-01 -7.740922785314100496e-01
2.276844526598779395e-01 7.340079115475882654e-01 -2.237352108374707771e-01 6.228271300037527825e-01 1.134350494747470017e-01 -7.740922785314100496e-01
2.874356210348879004e-01 7.799731678234025356e-01 -1.661468942661641635e-01 6.228271300037527825e-01 1.134350494747470017e-01 -7.740922785314100496e-01
1.987352763900410713e-01 8.137634556588858592e-01 -2.273204347131997649e-01 6.228271300037527825e-01 1.134350494747470017e-01 -7.740922785314100496e-01
2.492363443849746341e-01 6.713974503267049476e-01 -2.169985275794114876e-01 6.228271300037527825e-01 1.134350494747470017e-01 -7.740922785314100496e-01
2.935277128527037926e-01 7.635068077258424513e-01 -1.867826966614688222e-01 6.228271300037527825e-01 1.134350494747470017e-01 -7.740922785314100496e-01
2.965550538099940847e-01 7.798470985310088643e-01 -1.324645766747846454e-01 6.228271300037527825e-01 1.134350494747470017e-01 -7.740922785314100496e-01
2.034010141316367482e-01 6.601900905095616778e-01 -2.312292194546856638e-01 6.228271300037527825e-01 1.134350494747470017e-01 -7.740922785314100496e-01
2.394790585759463686e-01 7.291438094540194648e-01 -2.082103771876877008e-01 6.228271300037527825e-01 1.134350494747470017e-01 -7.740922785314100496e-01
2.467387211958380899e-01 6.650953358919640124e-01 -2.335189384761715281e-01 6.228271300037527825e-01 1.134350494747470017e-01 -7.740922785314100496e-01
2.663639965114136809e-01 7.196404410937008445e-01 -2.107986614822082438e-01 6.228271300037527825e-01 1.134350494747470017e-01 -7.740922785314100496e-01
2.271216562141947504e-01 6.739973554067303363e-01 -2.483293135321815726e-01 6.228271300037527825e-01 1.134350494747470017e-01 -7.740922785314100496e-01
2.951985793247470236e-01 7.446212855403181452e-01 -1.671515235506634833e-01 6.228271300037527825e-01 1.134350494747470017e-01 -7.740922785314100496e-01
2.409553301594188346e-01 6.417116634570756428e-01 -2.037801851471059411e-01 6.228271300037527825e-01 1.134350494747470017e-01 -7.740922785314100496e-01
2.720787456643923297e-01 7.864057337939008852e-01 -1.849139960769514979e-01 6.228271300037527825e-01 1.134350494747470017e-01 -7.740922785314100496e-01
2.535033926980549412e-01 7.893548498239002509e-01 -2.284214753324002589e-01 6.228271300037527825e-01 1.134350494747470017e-01 -7.740922785314100496e-01
2.482287372098890832e-01 7.206125404053191907e-01 -2.374935238452884900e-01 6.228271300037527825e-01 1.134350494747470017e-01 -7.740922785314100496e-01
2.459123381766777361e-01 7.022031226566485262e-01 -2.327830675898547308e-01 6.228271300037527825e-01 1.134350494747470017e-01 -7.740922785314100496e-01
2.341979771356639539e-01 8.164363091497373048e-01 -2.259844311185771337e-01 6.228271300037527825e-01 1.134350494747470017e-01 -7.740922785314100496e-01
2.195486109785997342e-01 7.595799462532022428e-01 -2.036707908885535545e-01 6.228271300037527825e-01 1.134350494747470017e-01 -7.740922785314100496e-01
2.743954342656590994e-01 7.378207500770079807e-01 -1.872863673885842573e-01 6.228271300037527825e-01 1.134350494747470017e-01 -7.740922785314100496e-01
2.575562265729355316e-01 7.487680210329320518e-01 -2.095385888475825020e-01 6.228271300037527825e-01 1.134350494747470017e-01 -7.740922785314100496e-01
2.782776208672821383e-01 7.344084749062926853e-01 -1.746324338794281172e-01 6.228271300037527825e-01 1.134350494747470017e-01 -7.740922785314100496e-01
2.662237566525809118e-01 7.108582874872594326e-01 -2.193865689720747303e-01 6.228271300037527825e-01 1.134350494747470017e-01 -7.740922785314100496e-01
3.116618514754988523e-01 7.225795730666380035e-01 -1.845366331095635581e-01 6.228271300037527825e-01 1.134350494747470017e-01 -7.740922785314100496e-01
2.558816335437344991e-01 7.746715528586669564e-01 -1.936135294391059525e-01 6.228271300037527825e-01 1.134350494747470017e-01 -7.740922785314100496e-01
2.327478156802937903e-01 8.264656392952798303e-01 -2.187185359711832366e-01 6.246593493547878406e-01 1.375504005058403589e-01 -7.686875728046707046e-01
2.202023936830396766e-01 8.083268905536930005e-01 -2.263902175449973020e-01 6.246593493547878406e-01 1.375504005058403589e-01 -7.686875728046707046e-01
2.599039582245738500e-01 8.202465974847639174e-01 -2.042195212961965545e-01 6.246593493547878406e-01 1.375504005058403589e-01 -7.686875728046707046e-01
2.347348692921272517e-01 8.279567014241410172e-01 -2.192367724653508654e-01 6.246593493547878406e-01 1.375504005058403589e-01 -7.686875728046707046e-01
2.706519637124445987e-01 8.177304424794531457e-01 -1.960974478378650632e-01 6.137159430621327294e-01 1.043246526507631833e-01 -7.826040557527508268e-01
2.527317946130705484e-01 8.303540300353794423e-01 -1.987454595508425514e-01 6.137159430621327294e-01 1.043246526507631833e-01 -7.826040557527508268e-01
3.517198894494025785e-01 8.007370931086995602e-01 -1.311305879577900346e-01 6.272448770154466224e-01 1.367599145047607989e-01 -7.667206727632481789e-01
4.260914847914190617e-01 7.716995716264675176e-01 -6.463811450236224554e-02 6.272448770154466224e-01 1.367599145047607989e-01 -7.667206727632481789e-01
3.963959640972609111e-01 7.887898453588148007e-01 -8.871597005903408828e-02 6.272448770154466224e-01 1.367599145047607989e-01 -7.667206727632481789e-01
3.625098188869308458e-01 7.879617769429714258e-01 -1.203905746874757848e-01 6.272448770154466224e-01 1.367599145047607989e-01 -7.667206727632481789e-01
3.742998953460903167e-01 7.722116353362146191e-01 -9.593840592627195241e-02 6.272448770154466224e-01 1.367599145047607989e-01 -7.667206727632481789e-01
4.570060204020054972e-01 7.577179081346422373e-01 -4.609278331151385466e-02 6.206157345691858396e-01 9.629547132239356377e-02 -7.781794730060334064e-01
5.158485098018597004e-01 7.218892853784794061e-01 -9.453264052545191573e-03 6.206157345691858396e-01 9.629547132239356377e-02 -7.781794730060334064e-01
4.502438220538179103e-01 7.565616084815438569e-01 -4.080225911299313613e-02 6.206157345691858396e-01 9.629547132239356377e-02 -7.781794730060334064e-01
3.499178889626296529e-01 8.207133963810419042e-01 -1.114140945201615024e-01 6.206157345691858396e-01 9.629547132239356377e-02 -7.781794730060334064e-01
4.215871683369261103e-01 7.682966898237874043e-01 -7.168524903063977494e-02 6.206157345691858396e-01 9.629547132239356377e-02 -7.781794730060334064e-01
3.813966861161148802e-01 7.818767870501205364e-01 -9.826885921015175718e-02 6.206157345691858396e-01 9.629547132239356377e-02 -7.781794730060334064e-01
3.954901657783698177e-01 7.890698324394583851e-01 -6.328970803740573137e-02 6.206157345691858396e-01 9.629547132239356377e-02 -7.781794730060334064e-01
3.947463018642977106e-01 7.730050522527340817e-01 -9.561086435088271551e-02 6.206157345691858396e-01 9.629547132239356377e-02 -7.781794730060334064e-01
3.450443956213045671e-01 8.119329799264789482e-01 -9.807844429071510550e-02 6.206157345691858396e-01 9.629547132239356377e-02 -7.781794730060334064e-01
3.633423995399058803e-01 7.324172579547825190e-01 -1.352583099167026792e-01 6.252961984094638215e-01 1.134285208553685309e-01 -7.721001456490186321e-01
3.980250037733174540e-01 6.964644682336084136e-01 -8.334793974632262459e-02 6.252961984094638215e-01 1.134285208553685309e-01 -7.721001456490186321e-01
4.670464448293781823e-01 7.111902541577769243e-01 -4.348328265805125048e-02 6.252961984094638215e-01 1.134285208553685309e-01 -7.721001456490186321e-01
4.678502860885509484e-01 6.948410667119604422e-01 -4.898633683248237308e-02 6.252961984094638215e-01 1.134285208553685309e-01 -7.721001456490186321e-01
4.193342454810100595e-01 7.095921657390750203e-01 -6.305000442839897579e-02 6.252961984094638215e-01 1.134285208553685309e-01 -7.721001456490186321e-01
4.373097806461681003e-01 6.815718678549370635e-01 -5.763076733791029638e-02 6.252961984094638215e-01 1.134285208553685309e-01 -7.721001456490186321e-01
3.395638762086097273e-01 7.428197221100341086e-01 -1.124712596077287879e-01 6.252961984094638215e-01 1.134285208553685309e-01 -7.721001456490186321e-01
3.702071859211051863e-01 7.406184635152388562e-01 -1.031308141094350733e-01 6.252961984094638215e-01 1.134285208553685309e-01 -7.721001456490186321e-01
4.258967524966537632e-01 7.149029001627080770e-01 -6.827785342243711253e-02 6.252961984094638215e-01 1.134285208553685309e-01 -7.721001456490186321e-01
3.741011541912612204e-01 7.428951850820855185e-01 -9.055352838216865208e-02 6.252961984094638215e-01 1.134285208553685309e-01 -7.721001456490186321e-01
4.588520147858867748e-01 7.254847843953382558e-01 -4.564205798167574740e-02 6.252961984094638215e-01 1.134285208553685309e-01 -7.721001456490186321e-01
3.239592015886870180e-01 7.681984914807360454e-01 -1.435519263251461564e-01 6.252961984094638215e-01 1.134285208553685309e-01 -7.721001456490186321e-01
4.193965407409330770e-01 6.544278603691414675e-01 -9.531423476509236214e-02 6.252961984094638215e-01 1.134285208553685309e-01 -7.721001456490186321e-01
4.114723745924909748e-01 6.477686231109313075e-01 -7.871237438960773658e-02 6.252961984094638215e-01 1.134285208553685309e-01 -7.721001456490186321e-01
4.434905747409711996e-01 7.439520695741754786e-01 -4.182728670712917984e-02 6.252961984094638215e-01 1.134285208553685309e-01 -7.721001456490186321e-01
3.259010138355037389e-01 7.498764102618381555e-01 -1.459986757136233770e-01 6.252961984094638215e-01 1.134285208553685309e-01 -7.721001456490186321e-01
5.024928183716282915e-01 6.856701038989111430e-01 -1.986538102161151606e-02 6.252961984094638215e-01 1.134285208553685309e-01 -7.721001456490186321e-01
4.142516909205535836e-01 6.557738446050629388e-01 -7.934441960152510687e-02 6.252961984094638215e-01 1.134285208553685309e-01 -7.721001456490186321e-01
4.651314782887265853e-01 6.180920053777860801e-01 -5.564659895672740414e-02 6.252961984094638215e-01 1.134285208553685309e-01 -7.721001456490186321e-01
4.493669598943640930e-01 6.763224195270322037e-01 -3.767290259223621263e-02 6.252961984094638215e-01 1.134285208553685309e-01 -7.721001456490186321e-01
4.937785085510070782e-01 7.077987964321269532e-01 -1.603067103350635375e-02 6.252961984094638215e-01 1.134285208553685309e-01 -7.721001456490186321e-01
4.516404886156812903e-01 6.538806631526923319e-01 -7.218008054788351002e-02 6.252961984094638215e-01 1.134285208553685309e-01 -7.721001456490186321e-01
3.934981858074881877e-01 7.591778706422015466e-01 -9.544375057739351575e-02 6.252961984094638215e-01 1.134285208553685309e-01 -7.721001456490186321e-01
4.333799322908609697e-01 6.003841199793202854e-01 -6.144350302265721292e-02 6.252961984094638215e-01 1.134285208553685309e-01 -7.721001456490186321e-01
4.722304989420744725e-01 6.026999721735787352e-01 -6.524964300181171351e-02 6.252961984094638215e-01 1.134285208553685309e-01 -7.721001456490186321e-01
3.870006270850553931e-01 6.776684996932675897e-01 -1.050554817177767747e-01 6.252961984094638215e-01 1.134285208553685309e-01 -7.721001456490186321e-01
3.544825437303780746e-01 7.766997466206556622e-01 -1.436580125154746368e-01 6.252961984094638215e-01 1.134285208553685309e-01 -7.721001456490186321e-01
4.350734087905189784e-01 6.703096901213932979e-01 -4.922260475169365490e-02 6.252961984094638215e-01 1.134285208553685309e-01 -7.721001456490186321e-01
4.305950069327081908e-01 6.106185578954954618e-01 -7.168224622797447765e-02 6.252961984094638215e-01 1.134285208553685309e-01 -7.721001456490186321e-01
4.955404179100065254e-01 6.678046331743257014e-01 -3.521168544053681487e-02 6.252961984094638215e-01 1.134285208553685309e-01 -7.721001456490186321e-01
4.061624567215417758e-01 7.067501174224486427e-01 -8.086637747788402719e-02 6.252961984094638215e-01 1.134285208553685309e-01 -7.721001456490186321e-01
3.877465667289181073e-01 7.502227251016847509e-01 -9.376488794861760623e-02 6.252961984094638215e-01 1.134285208553685309e-01 -7.721001456490186321e-01
4.772560144183910502e-01 5.874843314987930887e-01 -7.279835030890817460e-02 6.252961984094638215e-01 1.134285208553685309e-01 -7.721001456490186321e-01
4.812923682119338298e-01 6.434386075641989056e-01 -5.522472052744689663e-02 6.252961984094638215e-01 1.134285208553685309e-01 -7.721001456490186321e-01
4.867021098100584586e-01 6.733309648982718221e-01 -4.045268463539795911e-02 6.252961984094638215e-01 1.134285208553685309e-01 -7.721001456490186321e-01
4.051318545468706178e-01 7.136841266865097122e-01 -6.457974578831421342e-02 6.252961984094638215e-01 1.134285208553685309e-01 -7.721001456490186321e-01
4.125181650723591109e-01 7.640457514585800025e-01 -7.259911318551098836e-02 6.252961984094638215e-01 1.134285208553685309e-01 -7.721001456490186321e-01
4.978909921567549191e-01 7.112491920240393561e-01 -5.686559938054364105e-03 6.252961984094638215e-01 1.134285208553685309e-01 -7.721001456490186321e-01
4.678391742260384900e-01 6.272979037787063117e-01 -6.308074570430538541e-02 6.252961984094638215e-01 1.134285208553685309e-01 -7.721001456490186321e-01
4.885538541903184373e-01 7.476384649922065417e-01 -3.941870135443879819e-02 6.252961984094638215e-01 1.134285208553685309e-01 -7.721001456490186321e-01
4.342006793296354084e-01 6.632980874962045581e-01 -7.536888992733981052e-02 6.252961984094638215e-01 1.134285208553685309e-01 -7.721001456490186321e-01
4.663681981586355607e-01 7.445995416329779237e-01 -3.046942661284203491e-02 6.252961984094638215e-01 1.134285208553685309e-01 -7.721001456490186321e-01
4.391466820344437361e-01 7.244975984492603160e-01 -5.254715486356228982e-02 6.252961984094638215e-01 1.134285208553685309e-01 -7.721001456490186321e-01
4.621055277463695932e-01 6.159197427588936069e-01 -7.194057292556790828e-02 6.252961984094638215e-01 1.134285208553685309e-01 -7.721001456490186321e-01
4.617778068925556534e-01 6.236903897638470529e-01 -4.960851421616037371e-02 6.252961984094638215e-01 1.134285208553685309e-01 -7.721001456490186321e-01
4.139678998572173807e-01 7.204138290487348550e-01 -7.917356389279474327e-02 6.252961984094638215e-01 1.134285208553685309e-01 -7.721001456490186321e-01
4.713493190791038789e-01 8.174591588327736469e-01 -3.120628028488939276e-02 6.264652330134923286e-01 1.137864331803130069e-01 -7.710991891121744546e-01
4.600142071077015227e-01 8.146815685802194507e-01 -4.173621213056422086e-02 6.264652330134923286e-01 1.137864331803130069e-01 -7.710991891121744546e-01
4.337513763598589422e-01 7.853440402989456670e-01 -2.194303941747450040e-02 6.264652330134923286e-01 1.137864331803130069e-01 -7.710991891121744546e-01
4.571862300523220624e-01 8.080914548618548521e-01 -2.739888842440453554e-02 6.264652330134923286e-01 1.137864331803130069e-01 -7.710991891121744546e-01
4.323091257056773662e-01 8.187067172438394769e-01 -5.719925742787899253e-02 6.264652330134923286e-01 1.137864331803130069e-01 -7.710991891121744546e-01
3.857917751664520778e-01 8.125852122933165944e-01 -8.434678785013494107e-02 6.264652330134923286e-01 1.137864331803130069e-01 -7.710991891121744546e-01
4.819975408481986245e-01 8.030442464278390036e-01 -3.775406556082365299e-03 6.264652330134923286e-01 1.137864331803130069e-01 -7.710991891121744546e-01
4.643839294851365151e-01 8.190923600207788979e-01 -4.011221028134136918e-02 6.264652330134923286e-01 1.137864331803130069e-01 -7.710991891121744546e-01
4.123753255604896140e-01 8.276895906850871842e-01 -5.859711471024097590e-02 6.264652330134923286e-01 1.137864331803130069e-01 -7.710991891121744546e-01
4.798563832172207944e-01 7.595911845415479480e-01 -2.597433086638641087e-02 6.264652330134923286e-01 1.137864331803130069e-01 -7.710991891121744546e-01
5.035926210289335403e-01 7.630000322476462316e-01 -1.814179703464672069e-02 6.264652330134923286e-01 1.137864331803130069e-01 -7.710991891121744546e-01
4.496350694853860075e-01 7.657208760978576612e-01 -5.621693119638445507e-02 6.264652330134923286e-01 1.137864331803130069e-01 -7.710991891121744546e-01
4.184805925216271705e-01 8.067561087860816160e-01 -6.390863063622956308e-02 6.264652330134923286e-01 1.137864331803130069e-01 -7.710991891121744546e-01
4.849113639338539228e-01 8.021591485089779594e-01 -5.688691041824558633e-03 6.264652330134923286e-01 1.137864331803130069e-01 -7.710991891121744546e-01
4.664229965907614184e-01 7.836582270963606822e-01 -3.220643259289870941e-02 6.264652330134923286e-01 1.137864331803130069e-01 -7.710991891121744546e-01
4.655704192672146524e-01 8.103626575483808825e-01 -2.242738266429746691e-02 6.264652330134923286e-01 1.137864331803130069e-01 -7.710991891121744546e-01
4.208820157845229448e-01 8.205899629225374969e-01 -3.387582965903048610e-02 6.264652330134923286e-01 1.137864331803130069e-01 -7.710991891121744546e-01
5.021329039070997480e-01 6.016533245207948966e-01 -4.758267021802341235e-02 6.730605314801799688e-01 9.379333995529448575e-02 -7.336159283600979242e-01
4.752674304924986992e-01 5.998977641234105596e-01 -5.997164010687930369e-02 6.730605314801799688e-01 9.379333995529448575e-02 -7.336159283600979242e-01
8.171985815514735962e-02 -2.625359119286351794e-01 -4.751173454608267899e-01 7.481855105442393183e-01 2.131173494309518066e-02 -6.631472323438973859e-01
1.004696373053440561e-01 -2.219495415185427367e-01 -4.766215892805660270e-01 8.046078549170281313e-01 1.651151008184670865e-01 -5.703886423198890609e-01
4.528506769081226957e-01 5.491789314576006609e-01 -6.932075329104735173e-02 6.461925056765523978e-01 8.782839390007000924e-02 -7.581038311685230902e-01
-9.919423375196267934e-02 -9.184451101901902614e-02 6.918725585813034762e-01 -4.283718574482400232e-01 2.996916346284473898e-01 8.524567296233128699e-01
-9.017387778082465444e-02 -9.812642574739312284e-02 6.835952874381733269e-01 -1.995252980488041450e-01 3.407344345835562893e-01 9.187435444821151487e-01
-5.598420031468588631e-02 -1.043254571731115077e-01 7.039812317268722142e-01 -1.995252980488041450e-01 3.407344345835562893e-01 9.187435444821151487e-01
-7.644325911887084324e-02 -8.743257432271998864e-02 6.867496863993818312e-01 -1.995252980488041450e-01 3.407344345835562893e-01 9.187435444821151487e-01
-6.537288034357370548e-02 -3.011158959028398807e-01 6.621069112628229225e-02 -3.030780420461526639e-02 -9.791057105663095728e-01 2.010806916159200708e-01
-6.356219867513956956e-02 -3.150657353361202007e-01 5.760485860240926320e-02 -3.030780420461526639e-02 -9.791057105663095728e-01 2.010806916159200708e-01
2.578670307564326913e-01 -4.414595471007182192e-01 4.389956862740914539e-02 -4.973557272024922704e-01 -8.609820107346933815e-01 1.065235082511097470e-01
2.908274197581224296e-01 -4.016364071634161981e-01 -8.529840912358097049e-02 -3.797954582992221773e-01 -7.867100911482483028e-01 -4.866648151867963290e-01
3.081625154361641861e-01 -4.276116511478066373e-01 -9.095994973088766811e-02 -3.797954582992221773e-01 -7.867100911482483028e-01 -4.866648151867963290e-01
2.962040802082081536e-01 -4.186349699027234195e-01 -5.999636016886999296e-02 -2.978229969836323487e-01 -8.483336157191875282e-01 -4.377573973201333568e-01
2.980280211591200268e-01 -4.110932849727567118e-01 -5.595932959254468209e-02 -2.978229969836323487e-01 -8.483336157191875282e-01 -4.377573973201333568e-01
2.689535793745384540e-01 -4.186279547661815315e-01 -3.323111852900147850e-02 -5.205845726377718030e-01 -8.063047803239377087e-01 -2.808278902785745768e-01
2.636038423529196151e-01 -3.943423656890695517e-01 -5.333959032554408397e-02 -5.205845726377718030e-01 -8.063047803239377087e-01 -2.808278902785745768e-01
2.891539334775781733e-01 -4.300673006184295710e-01 -6.557341789551106304e-02 -3.334534893152681367e-01 -8.885070709924208776e-01 -3.152204867389515885e-01
3.274964254106930150e-01 -4.270916971886122293e-01 -5.584434224719150852e-02 -3.334534893152681367e-01 -8.885070709924208776e-01 -3.152204867389515885e-01
3.381903835432377714e-01 -4.392604672590620374e-01 -4.774288115291468876e-03 -1.824124347428104920e-01 -9.578043941994502930e-01 -2.221180904461047267e-01
3.197998794694776881e-01 -4.106230776795370407e-01 -5.956484717047590138e-02 -1.824124347428104920e-01 -9.578043941994502930e-01 -2.221180904461047267e-01
2.932487756036923909e-01 -4.194532765543121933e-01 -2.641298738862440237e-02 -2.921539134940706606e-01 -9.313009935937260897e-01 -2.175420652688528078e-01
3.027343691343415411e-01 -4.124958840120968584e-01 -3.028839618432425246e-02 -2.921539134940706606e-01 -9.313009935937260897e-01 -2.175420652688528078e-01
2.929807279746211024e-01 -4.179565526765220973e-01 -1.434632174187526997e-02 -3.506813834186134349e-01 -9.278658552062111209e-01 -1.268365959258357378e-01
3.269230802976220707e-01 -4.223969186145479782e-01 1.511936309952801455e-03 -3.506813834186134349e-01 -9.278658552062111209e-01 -1.268365959258357378e-01
3.075017883738112578e-01 -4.445136985953747066e-01 3.373090273910420156e-02 -3.506813834186134349e-01 -9.278658552062111209e-01 -1.268365959258357378e-01
-1.494766022681103812e-01 -2.877008579045491898e-01 1.320449529747406703e-01 -4.475434469416387784e-01 -8.180479707805977663e-01 -3.612511323184228740e-01
-1.220125143961834774e-01 -2.909548566024623417e-01 1.387440624087482310e-01 -1.448461187935719541e-01 -9.799972141930821667e-01 -1.364736679518676887e-01
-9.148214887352724978e-02 -3.033040155039267161e-01 6.889119756111812543e-02 -1.448461187935719541e-01 -9.799972141930821667e-01 -1.364736679518676887e-01
-1.082667538004651875e-01 -2.944184807611400223e-01 1.187219718342310409e-01 -2.213702182257110129e-01 -9.584214352355442390e-01 -1.800654852095215364e-01
-1.615935641745383233e-01 -3.084597503672257823e-01 1.554570220104653511e-01 -2.213702182257110129e-01 -9.584214352355442390e-01 -1.800654852095215364e-01
-1.138234591547836044e-01 -3.058572844914386746e-01 9.778463400280716644e-02 -2.213702182257110129e-01 -9.584214352355442390e-01 -1.800654852095215364e-01
2.461777640635977316e-01 -4.055757738079369679e-01 4.324137107886121684e-02 -5.310034627258072293e-01 -8.468632585802976509e-01 2.929067838002932106e-02
2.505655778130151945e-01 -4.192821395771094140e-01 1.796020984232098508e-02 -5.310034627258072293e-01 -8.468632585802976509e-01 2.929067838002932106e-02
2.903991850310502221e-01 -4.224359422858462998e-01 3.459156203974567828e-02 -5.310034627258072293e-01 -8.468632585802976509e-01 2.929067838002932106e-02
2.248316084594989550e-02 4.724176081213014577e-01 -1.763344021387764360e-01 -7.747694120477204294e-01 -2.898829269632138481e-02 -6.315790030089520890e-01
-1.436411693180369986e-02 3.994567046350456785e-01 -1.345603419862296257e-01 -7.747694120477204294e-01 -2.898829269632138481e-02 -6.315790030089520890e-01
-8.548498154767734947e-03 4.182731836656166102e-01 -1.466844829823333030e-01 -7.747694120477204294e-01 -2.898829269632138481e-02 -6.315790030089520890e-01
6.585644026615970585e-03 4.330681632657299995e-01 -1.196372741513765381e-01 -7.747694120477204294e-01 -2.898829269632138481e-02 -6.315790030089520890e-01
-5.027079782798623935e-03 4.170657254959557192e-01 -1.322645963957007342e-01 -7.747694120477204294e-01 -2.898829269632138481e-02 -6.315790030089520890e-01
6.268517619607874916e-03 4.261538948315818920e-01 -1.619987447196113706e-01 -7.747694120477204294e-01 -2.898829269632138481e-02 -6.315790030089520890e-01
3.141546718341485522e-02 4.282502485614000376e-01 -1.628717232947439475e-01 -7.747694120477204294e-01 -2.898829269632138481e-02 -6.315790030089520890e-01
-1.294484750216644449e-02 4.425037606865684370e-01 -1.461709539030502381e-01 -7.747694120477204294e-01 -2.898829269632138481e-02 -6.315790030089520890e-01
2.881925726139484504e-03 3.763454698679919441e-01 -1.329168066398783432e-01 -7.747694120477204294e-01 -2.898829269632138481e-02 -6.315790030089520890e-01
3.522447655868032879e-02 4.898983305998947380e-01 -1.896232784667243043e-01 -7.747694120477204294e-01 -2.898829269632138481e-02 -6.315790030089520890e-01
2.639548168855772314e-02 4.655504780585215108e-01 -1.596489798215602052e-01 -7.747694120477204294e-01 -2.898829269632138481e-02 -6.315790030089520890e-01
1.211600703568242593e-01 4.819523513820204719e-01 -2.656071777367457476e-01 -7.821544899790809913e-01 -3.139054278124968345e-02 -6.222933292503320946e-01
1.223329561595547510e-01 4.328137736005749914e-01 -2.672018006783749011e-01 -7.821544899790809913e-01 -3.139054278124968345e-02 -6.222933292503320946e-01
8.550976625531783726e-02 3.928795826136337044e-01 -2.347122324730483156e-01 -7.821544899790809913e-01 -3.139054278124968345e-02 -6.222933292503320946e-01
1.043532269271797291e-01 4.630758275376224420e-01 -2.564192008825744162e-01 -7.821544899790809913e-01 -3.139054278124968345e-02 -6.222933292503320946e-01
9.712454037349640967e-02 4.229627803894339677e-01 -2.473759466891856662e-01 -7.821544899790809913e-01 -3.139054278124968345e-02 -6.222933292503320946e-01
6.336054668728893779e-02 4.333224696584113689e-01 -2.352590544131925310e-01 -7.821544899790809913e-01 -3.139054278124968345e-02 -6.222933292503320946e-01
8.353920647784902898e-02 5.124239435212077920e-01 -2.399200136272784945e-01 -7.821544899790809913e-01 -3.139054278124968345e-02 -6.222933292503320946e-01
6.800879096731145268e-02 3.934005542327886906e-01 -1.920483299729863480e-01 -7.821544899790809913e-01 -3.139054278124968345e-02 -6.222933292503320946e-01
5.455137326992079427e-02 3.994146610071758197e-01 -2.254503947205456493e-01 -7.821544899790809913e-01 -3.139054278124968345e-02 -6.222933292503320946e-01
7.337047356316572788e-02 4.176931578828840808e-01 -2.188384649065800991e-01 -7.821544899790809913e-01 -3.139054278124968345e-02 -6.222933292503320946e-01
7.811750424731848941e-02 4.120068362451407840e-01 -2.299696216535505322e-01 -7.821544899790809913e-01 -3.139054278124968345e-02 -6.222933292503320946e-01
8.477076734224431309e-02 3.657072641806674573e-01 -2.229517438760691694e-01 -7.821544899790809913e-01 -3.139054278124968345e-02 -6.222933292503320946e-01
1.456967226992353925e-01 4.649886525013192107e-01 -2.829957687158562440e-01 -7.821544899790809913e-01 -3.139054278124968345e-02 -6.222933292503320946e-01
1.111476047168499376e-01 4.714340410439362139e-01 -2.527474692163417247e-01 -7.821544899790809913e-01 -3.139054278124968345e-02 -6.222933292503320946e-01
8.678872601170271872e-02 4.700167293764286325e-01 -2.156277039148099262e-01 -7.821544899790809913e-01 -3.139054278124968345e-02 -6.222933292503320946e-01
6.327171924785569834e-02 3.190522650691732243e-01 -1.963089008324934159e-01 -7.821544899790809913e-01 -3.139054278124968345e-02 -6.222933292503320946e-01
1.102051133989077475e-01 4.475053600066163373e-01 -2.557179804159534497e-01 -7.821544899790809913e-01 -3.139054278124968345e-02 -6.222933292503320946e-01
6.893041174217176548e-02 3.616826472673788651e-01 -2.088536491186633315e-01 -7.821544899790809913e-01 -3.139054278124968345e-02 -6.222933292503320946e-01
4.578677835998794243e-02 4.932461363713201985e-01 -2.226836874616515138e-01 -7.821544899790809913e-01 -3.139054278124968345e-02 -6.222933292503320946e-01
6.593575778706825541e-02 3.862005793219520644e-01 -2.041496085826409734e-01 -7.821544899790809913e-01 -3.139054278124968345e-02 -6.222933292503320946e-01
4.943276127628313393e-02 4.178924951347536831e-01 -1.944221037493884252e-01 -7.821544899790809913e-01 -3.139054278124968345e-02 -6.222933292503320946e-01
6.238401677405019247e-02 4.649622377725767253e-01 -2.106726561772822026e-01 -7.821544899790809913e-01 -3.139054278124968345e-02 -6.222933292503320946e-01
4.723828083232387010e-02 5.101200868800108701e-01 -2.081787296946732146e-01 -7.821544899790809913e-01 -3.139054278124968345e-02 -6.222933292503320946e-01
6.197352482100141474e-02 4.365364540597635457e-01 -2.090406043534192015e-01 -7.821544899790809913e-01 -3.139054278124968345e-02 -6.222933292503320946e-01
8.946865498060023458e-02 4.271831202367391556e-01 -2.623543261206941479e-01 -7.821544899790809913e-01 -3.139054278124968345e-02 -6.222933292503320946e-01
1.038821572272060484e-01 4.873588814542080816e-01 -2.400031070046277637e-01 -7.821544899790809913e-01 -3.139054278124968345e-02 -6.222933292503320946e-01
8.203659278502513363e-02 4.866612190590131615e-01 -2.083413197360080849e-01 -7.821544899790809913e-01 -3.139054278124968345e-02 -6.222933292503320946e-01
8.987462852631999954e-02 4.499557819478288145e-01 -2.255557178480172009e-01 -7.821544899790809913e-01 -3.139054278124968345e-02 -6.222933292503320946e-01
5.604029716924358723e-02 3.514490957514789793e-01 -2.103877001811614023e-01 -7.821544899790809913e-01 -3.139054278124968345e-02 -6.222933292503320946e-01
7.647806937333155586e-02 4.679620488000398315e-01 -2.337170503030312207e-01 -7.821544899790809913e-01 -3.139054278124968345e-02 -6.222933292503320946e-01
2.556020364167954639e-01 9.742313862073845310e-02 -4.504860145128677940e-01 -7.720879822090416233e-01 -4.315638618883968491e-02 -6.340486369825979462e-01
3.423664870481690770e-01 2.446100356705743772e-01 -5.150327543291406407e-01 -7.720879822090416233e-01 -4.315638618883968491e-02 -6.340486369825979462e-01
2.727075896643251229e-01 1.360878218387539529e-01 -4.612706617117691699e-01 -7.720879822090416233e-01 -4.315638618883968491e-02 -6.340486369825979462e-01
2.752594827893937723e-01 1.580461322090586374e-01 -4.396685843475188205e-01 -7.720879822090416233e-01 -4.315638618883968491e-02 -6.340486369825979462e-01
3.382610252949733720e-01 2.097589993160134669e-01 -5.278507540920486241e-01 -7.720879822090416233e-01 -4.315638618883968491e-02 -6.340486369825979462e-01
2.994160332029874860e-01 1.953039458505390902e-01 -4.632842840882318014e-01 -7.720879822090416233e-01 -4.315638618883968491e-02 -6.340486369825979462e-01
3.064005432672547435e-01 1.482204206883497577e-01 -5.004863820250055051e-01 -7.720879822090416233e-01 -4.315638618883968491e-02 -6.340486369825979462e-01
2.832878885644700695e-01 3.019177431572068193e-01 -4.791788661857308007e-01 -7.720879822090416233e-01 -4.315638618883968491e-02 -6.340486369825979462e-01
3.497284935270580375e-01 1.728570142884734429e-01 -5.560970725267510018e-01 -7.720879822090416233e-01 -4.315638618883968491e-02 -6.340486369825979462e-01
3.175739733392282105e-01 2.724747071733412684e-01 -4.645679385491385815e-01 -7.720879822090416233e-01 -4.315638618883968491e-02 -6.340486369825979462e-01
2.937363236949927514e-01 3.122172230622550226e-01 -4.566104428621603484e-01 -7.720879822090416233e-01 -4.315638618883968491e-02 -6.340486369825979462e-01
3.622220496600153661e-01 1.804676813910469912e-01 -5.288212456305920739e-01 -7.720879822090416233e-01 -4.315638618883968491e-02 -6.340486369825979462e-01
2.924755235444598256e-01 1.730120240439411428e-01 -4.726382891462907465e-01 -7.720879822090416233e-01 -4.315638618883968491e-02 -6.340486369825979462e-01
2.510944885051857312e-01 5.971709726994641615e-02 -4.036343652803416893e-01 -7.720879822090416233e-01 -4.315638618883968491e-02 -6.340486369825979462e-01
3.211644384467510771e-01 1.228015004720905134e-01 -5.152544687982992810e-01 -7.720879822090416233e-01 -4.315638618883968491e-02 -6.340486369825979462e-01
2.500943611893692853e-01 6.365327063711422040e-02 -4.398671205118981908e-01 -7.720879822090416233e-01 -4.315638618883968491e-02 -6.340486369825979462e-01
2.704947238640409424e-01 1.742417994864968178e-01 -4.791043250552023403e-01 -7.720879822090416233e-01 -4.315638618883968491e-02 -6.340486369825979462e-01
2.845986982514338570e-01 1.593984518132941230e-01 -4.702930755036167643e-01 -7.720879822090416233e-01 -4.315638618883968491e-02 -6.340486369825979462e-01
2.942378792118346409e-01 1.443438557540449307e-01 -4.598525804434263620e-01 -7.720879822090416233e-01 -4.315638618883968491e-02 -6.340486369825979462e-01
2.765964972493427654e-01 2.504887480066783634e-01 -4.500772903146875170e-01 -7.720879822090416233e-01 -4.315638618883968491e-02 -6.340486369825979462e-01
2.939287069492396709e-01 2.667837634114550438e-01 -5.255523363492468070e-01 -7.720879822090416233e-01 -4.315638618883968491e-02 -6.340486369825979462e-01
3.646230145990066451e-01 2.164830715094325231e-01 -5.354430679185793185e-01 -7.720879822090416233e-01 -4.315638618883968491e-02 -6.340486369825979462e-01
2.766343523424052431e-01 1.428949643477578635e-01 -4.614639051128319180e-01 -7.720879822090416233e-01 -4.315638618883968491e-02 -6.340486369825979462e-01
2.567844263230212865e-01 9.501946737229856332e-02 -4.461795508068591154e-01 -7.720879822090416233e-01 -4.315638618883968491e-02 -6.340486369825979462e-01
3.644781918063016990e-01 2.078844449287044760e-01 -5.467690770697560820e-01 -7.720879822090416233e-01 -4.315638618883968491e-02 -6.340486369825979462e-01
3.112555835160331630e-01 1.793409672943674371e-01 -4.838145707875334822e-01 -7.720879822090416233e-01 -4.315638618883968491e-02 -6.340486369825979462e-01
3.227746047597105372e-01 1.876846346333531645e-01 -5.247385085855762465e-01 -7.720879822090416233e-01 -4.315638618883968491e-02 -6.340486369825979462e-01
2.836597259658804049e-01 1.791578337364770901e-01 -4.569611594768876461e-01 -7.720879822090416233e-01 -4.315638618883968491e-02 -6.340486369825979462e-01
2.911302159471534923e-01 1.794566411645610038e-01 -4.865172189564904159e-01 -7.720879822090416233e-01 -4.315638618883968491e-02 -6.340486369825979462e-01
3.094955952689167344e-01 2.945447234718679419e-01 -4.772282441090386906e-01 -7.720879822090416233e-01 -4.315638618883968491e-02 -6.340486369825979462e-01
3.513275649769281306e-01 1.756335142755062195e-01 -5.142056834770781792e-01 -7.720879822090416233e-01 -4.315638618883968491e-02 -6.340486369825979462e-01
2.791515297008740348e-01 1.041532927227127731e-01 -4.540283781126533968e-01 -7.720879822090416233e-01 -4.315638618883968491e-02 -6.340486369825979462e-01
3.164785016491128422e-01 2.185618781724988913e-01 -5.213304568314424126e-01 -7.720879822090416233e-01 -4.315638618883968491e-02 -6.340486369825979462e-01
2.897383903567519181e-01 2.290855010397982172e-01 -4.739365703178421430e-01 -7.720879822090416233e-01 -4.315638618883968491e-02 -6.340486369825979462e-01
2.874913713132214443e-01 2.480131207507231261e-01 -4.373964796405471755e-01 -7.720879822090416233e-01 -4.315638618883968491e-02 -6.340486369825979462e-01
3.232445789052206253e-01 1.789085164551969531e-01 -5.119394234741693195e-01 -7.720879822090416233e-01 -4.315638618883968491e-02 -6.340486369825979462e-01
3.359658327330118377e-01 2.710554611356282284e-01 -5.441688145750841477e-01 -7.720879822090416233e-01 -4.315638618883968491e-02 -6.340486369825979462e-01
2.469991119925994127e-01 1.126092376909583193e-01 -4.361365066399636170e-01 -7.720879822090416233e-01 -4.315638618883968491e-02 -6.340486369825979462e-01
2.566772637650923672e-01 6.820111237872902854e-02 -4.082452993065387448e-01 -7.720879822090416233e-01 -4.315638618883968491e-02 -6.340486369825979462e-01
3.468474980044159439e-01 2.054224265525539939e-01 -5.426235049914323039e-01 -7.720879822090416233e-01 -4.315638618883968491e-02 -6.340486369825979462e-01
3.636988717656672865e-01 2.061777194904255706e-01 -5.625881424654386453e-01 -7.720879822090416233e-01 -4.315638618883968491e-02 -6.340486369825979462e-01
3.084701579807528349e-01 2.347098280712349161e-01 -5.071769845640526908e-01 -7.720879822090416233e-01 -4.315638618883968491e-02 -6.340486369825979462e-01
2.737852532457128452e-01 2.193485562519786602e-01 -4.452870220984145311e-01 -7.720879822090416233e-01 -4.315638618883968491e-02 -6.340486369825979462e-01
3.124632932730530555e-01 2.634091872232313114e-01 -4.960368860435712124e-01 -7.720879822090416233e-01 -4.315638618883968491e-02 -6.340486369825979462e-01
2.739075341421946530e-01 1.449749903552793873e-01 -4.532439281375646445e-01 -7.720879822090416233e-01 -4.315638618883968491e-02 -6.340486369825979462e-01
3.435671254368389271e-01 1.894022108307423791e-01 -5.119143537632464547e-01 -7.720879822090416233e-01 -4.315638618883968491e-02 -6.340486369825979462e-01
3.067218755047522727e-01 2.552055161764005820e-01 -5.147603726175067340e-01 -7.720879822090416233e-01 -4.315638618883968491e-02 -6.340486369825979462e-01
3.097604937740133790e-01 1.600222150801048904e-01 -5.091215510907893815e-01 -7.720879822090416233e-01 -4.315638618883968491e-02 -6.340486369825979462e-01
3.055762899320851878e-01 2.752295182436187981e-01 -5.137282747981086750e-01 -7.720879822090416233e-01 -4.315638618883968491e-02 -6.340486369825979462e-01
