-1.571893835434490516e-01 -6.475828337650834099e-01 -2.983868684892639345e-01 2.679375893215316662e-01 -9.166748881263776516e-01 2.965073316244631885e-01
-1.347494709155317438e-01 -6.596035051167422614e-01 -3.042540209876788970e-01 3.669171398243081805e-01 -8.883370096537592797e-01 2.760963052678641616e-01
-1.895683014074802386e-01 -7.004852766790093943e-01 3.290701619672463107e-01 4.071486092282298741e-01 -9.000766715272487950e-01 -1.552159636633660689e-01
-1.756765969671680860e-01 -6.491637463504870142e-01 3.075346364983775893e-01 3.704058380711032217e-01 -9.021820105727916816e-01 -2.210591208742107572e-01
-1.987072398774115123e-01 -6.664842236908997686e-01 2.668962603658057708e-01 4.278776515870849062e-01 -8.468753297235886990e-01 -3.157893145403815049e-01
-1.405112574054130370e-01 -6.405939399302245096e-01 2.730683689035550143e-01 3.912455119290155769e-01 -8.819493045114311647e-01 -2.628542821930154871e-01
-1.918170922918060739e-01 -6.700147499513182670e-01 -3.336412347672452205e-01 2.074589551628117923e-01 -9.637639240723100409e-01 1.676898344548561903e-01
4.371712886060891146e-01 6.603078135086541955e-01 -2.125250776592019775e-01 6.792620219199339004e-01 -4.245355667925519993e-01 -5.986423457335520171e-01
4.873978752888864507e-01 6.671761027366186481e-01 -1.960619029050057194e-01 6.733924987590480526e-01 -4.168386127055400681e-01 -6.105637669996200056e-01
4.583406083922255680e-01 6.139602677485299642e-01 -1.734601460360169489e-01 7.378931072074844666e-01 -2.000843717218417916e-01 -6.445773859889590840e-01
4.636404784031161186e-01 6.416740146258749222e-01 -1.829334803858114755e-01 7.058261085652761668e-01 -4.421691505088241603e-01 -5.534401022747661436e-01
7.717022143332892270e-01 -2.617995391298422181e-01 -6.309190267281328257e-02 3.931238317959657169e-01 2.154133867051603868e-02 -9.192331715089155919e-01
8.012816315276219958e-01 -2.869569675217023552e-01 -2.917719184082809974e-02 5.840503962276548666e-01 -4.889753336944366868e-01 -6.479106865183917874e-01
7.811134131313233198e-01 -2.326109355500464437e-01 -5.056518680386951764e-02 4.130871353115514455e-01 1.698379688783915875e-01 -8.947145259619732061e-01
7.714975620451436367e-01 -1.827838809299098255e-01 -9.320594621833726626e-03 3.367677693072086420e-01 6.081623618529451436e-01 -7.188365677824787303e-01
7.614997380334311838e-01 -3.653361388987758640e-01 -3.717859533517516024e-02 4.380168763735798887e-01 -6.940071167147633391e-01 -5.713977055967174312e-01
4.930466740022872441e-01 7.022093818805404952e-01 2.544497048914832193e-01 8.524800869991521202e-01 -1.584954551910014997e-01 4.981534823261955514e-01
5.049604806908412069e-01 6.975721309567365358e-01 2.556092469184142457e-01 8.915771741076842227e-01 3.579048045658997368e-01 -2.774784558822565028e-01
4.835204677358616587e-01 7.549361796129778757e-01 1.915754078401605276e-01 9.190614650850424949e-01 1.436283765473759244e-01 3.670107802859481350e-01
4.856115330556210474e-01 7.985842042018291842e-01 2.177008748263774274e-01 8.491212322519746669e-01 3.297722145851132436e-01 4.126056463822547760e-01
4.994566739370308595e-01 8.017956750490889961e-01 1.964765191031985214e-01 8.395805977242162266e-01 3.759266394415651247e-01 3.921524979943635247e-01
5.067748726032800244e-01 8.022645843881819339e-01 1.435602857683391520e-01 8.772735791689861840e-01 3.514359639234497235e-01 3.269309262722513432e-01
5.441339312624278168e-01 6.093312601194741385e-01 4.968003467349329377e-02 7.949960630131371886e-01 -6.017886337736610969e-01 7.636556851384362909e-02
5.365887200774061006e-01 6.587339388614413815e-01 5.692726179867267644e-02 8.652248556337125418e-01 -3.277754691547249410e-01 3.794063665965837218e-01
5.118712250081053350e-01 7.599748942886972447e-01 8.670424696577587464e-02 9.645397870525181938e-01 1.919188656387262049e-01 1.811909164517559179e-01
5.521138142107991920e-01 7.362803474314713048e-01 6.055762461561821353e-02 9.973841819575944845e-01 -6.743457595151261530e-02 -2.602636253916069259e-02
5.187790064457845629e-01 8.044427655052245330e-01 4.532667144233366169e-02 8.895721979991116912e-01 4.531118282154986132e-01 5.788761247657208536e-02
5.051388686628750513e-01 8.567985593354328078e-01 3.342281603096425302e-02 7.759695026498892867e-01 6.084594354196113386e-01 1.662782198790063448e-01
5.124391030020706284e-01 8.180403379502365624e-01 1.294774090558514223e-01 9.155359003658511963e-01 2.964898809275781644e-01 2.718230410558324928e-01
5.091016758274025111e-01 6.923227123321227250e-01 -9.473784198031290349e-02 8.720434305636598493e-01 -4.476129234183850308e-02 4.873773506418326851e-01
5.035492073951510772e-01 6.301105129815828265e-01 1.936302531952368289e-01 7.339764058712278105e-01 -2.590276884074211305e-01 6.278401805098672295e-01
7.400102366806664556e-01 -1.950357246569100755e-01 8.809500731625385939e-02 3.578890287955621696e-02 6.651989834022574710e-01 7.458079289678281043e-01
7.377225663572348768e-01 -1.886540306515659959e-01 7.147366773573492205e-02 1.173499000041427764e-01 7.577132776023569605e-01 6.419498344217492436e-01
7.553064235432265239e-01 -2.526514335826517410e-01 8.908394800985516837e-02 2.879950052124714555e-01 1.096131527088465007e-01 9.513379177379063245e-01
1.421286946599800427e-01 6.712062381097834152e-01 4.803835506653524878e-01 5.777091536816260087e-01 -5.602351952566773097e-01 5.936233315395984533e-01
-6.625671818712221273e-02 7.982583869352639638e-01 3.802557012953096116e-01 -2.117801214194175996e-01 8.631242623399792979e-01 4.584383142055681870e-01
1.420630075500874112e-01 8.078807583873442999e-01 3.890094462878870285e-01 -4.659198307398523115e-02 9.955278227560929727e-01 8.217993205002535606e-02
1.416049871775897917e-01 8.132970414342426402e-01 4.401026441995825600e-01 -2.197828694234149963e-02 9.796060891129700909e-01 1.997219694371948906e-01
7.729011312806446932e-02 8.453288981852162820e-01 3.612223280827123739e-01 -5.827143783516153253e-02 9.949569976183921804e-01 8.163952733093030045e-02
1.325123213331959593e-01 8.009366408482917477e-01 4.193674559828373116e-01 -6.693568310364500507e-02 9.920904817860576319e-01 1.061889366975503901e-01
1.642681269530692489e-01 7.450848510806866720e-01 4.457427059878594777e-01 -9.073987288243760829e-02 2.637177598052649619e-01 9.603224555494740411e-01
2.633504203822105150e-01 7.928129397511850529e-01 4.190920569224168002e-01 2.722056921956390041e-01 -1.193126715041517155e-01 9.548133574447079663e-01
1.593138293980835563e-01 7.624142060707939095e-01 4.563115049327787776e-01 3.558649309781943271e-01 -1.882791755115280352e-01 9.153748428750837496e-01
2.951737427845095851e-01 7.802096055217657700e-01 4.164675065627213013e-01 3.865481093086485798e-01 1.773222235045293360e-01 9.050620908210214033e-01
6.673260223276010483e-02 -1.819301968884745602e-01 3.156939478317614123e-01 8.102727023548020324e-02 -2.243597368209379883e-01 9.711319632119138623e-01
-7.347864572681561679e-02 1.062811119508162150e-01 3.248401808201920593e-01 2.197382062147011927e-01 -5.865765729282537699e-02 9.737938179976616260e-01
-2.296887537910934432e-02 1.626144642800481654e-01 3.322787552509597897e-01 -2.662591572672580800e-02 -1.423593829790794352e-01 9.894568543850353892e-01
-6.426479938556603488e-02 4.849767166070048652e-02 3.536224767970296834e-01 1.954189812918163405e-01 -2.856809463234210034e-01 9.381885837392305305e-01
-5.251843697735140981e-02 1.198482887861562936e-02 3.406048749349828708e-01 1.212514186892823392e-01 -1.557763413498237659e-01 9.803223066632216209e-01
1.462012714684379246e-02 3.851450439080796040e-02 3.159535841508991361e-01 3.084746730692204397e-01 6.684091202224574924e-02 9.488812721067225731e-01
1.890498159776029044e-02 -8.134500112982188946e-02 2.867223176534652307e-01 7.051778644923888117e-02 -5.374696171958588398e-01 8.403294903700788687e-01
6.023959889955225050e-02 -1.443128499342762883e-01 3.068556912030155348e-01 -3.715671574275402067e-01 -1.059159573817843591e-01 9.223446522277439774e-01
1.174813095362287479e-01 -1.038750954515063885e-01 3.109731128537383538e-01 -5.608379237187272048e-01 1.804132037744674011e-01 8.080296400644594312e-01
5.531826457590575258e-02 -3.186372585506774824e-02 3.139642878625982236e-01 4.336567622558247792e-01 -2.796251089697986414e-01 8.565930252946397649e-01
3.089199296427743158e-01 -2.520388136268092438e-01 2.286081649258040194e-01 -5.509292605737787785e-01 -1.876591590875411053e-01 8.131795557281221720e-01
1.648600659203363905e-01 -9.200144183025857347e-02 3.081954621584576670e-01 2.318061999650162797e-01 -1.806244172225004441e-01 9.558455448244821406e-01
8.232666920192140136e-02 1.620305800763523901e-03 2.940770133020132460e-01 4.956390458743801242e-01 7.927611921957340713e-02 8.649030194919070658e-01
1.077412419318421466e-01 7.396087178754423563e-02 2.882201364501850716e-01 3.833356280707612140e-01 -1.210887883486603117e-01 9.156371014697081145e-01
1.173277086334864328e-01 3.799795242065785450e-01 4.317530669199919346e-01 9.450089438932440800e-01 5.259686621560871744e-02 3.227873380820150406e-01
3.414488132361090389e-01 5.311981120454200012e-01 2.672825128022202623e-01 1.813269564467882566e-01 -7.018447690882185785e-01 6.888646129460054279e-01
4.307084568800709778e-01 6.653464164987972218e-01 3.116854095832986005e-01 5.724761230790913480e-01 -4.019053323550825785e-01 7.146629921360723170e-01
3.749723523473334486e-01 7.138293236703403544e-01 4.044421384882186943e-01 8.380915255248311269e-01 -5.332853953732243912e-01 1.149316402262015591e-01
3.853875720700294938e-01 5.770673992601251800e-01 3.016151464475034794e-01 6.607377067993080999e-01 -4.336770466936580304e-01 6.126580628577887877e-01
1.959176943195818921e-01 -1.158423865694328814e-01 2.949753077639197807e-01 9.149065489445610266e-01 1.950994878736350413e-01 3.533867520575706411e-01
2.418658628840765212e-01 1.774636996693160912e-02 2.446915506059141598e-01 2.170052166301592589e-01 4.354043523785373626e-01 8.736886092224873668e-01
3.659521744440468183e-01 4.833874070059436256e-01 2.419678898627008468e-01 -2.608531887398798932e-02 -4.896121625122362708e-01 8.715500481666752508e-01
6.506470455276982534e-01 -8.234137860796371389e-02 7.162192417121754362e-02 3.385915762754196368e-01 -1.475421925736689621e-01 9.292938425954844206e-01
7.133767063318989798e-01 -2.486740657253669329e-01 1.246433843202851832e-01 7.827560246827885981e-02 1.236522170235233170e-01 9.892335716520114230e-01
3.890160290256318154e-01 -1.830363943380916014e-01 1.972773144267884471e-01 5.406082077830034471e-01 5.845687036731160580e-02 8.392410619032580898e-01
3.131609502326631045e-01 8.653666245219427955e-01 -2.916673215550646403e-01 4.150494735402711077e-01 6.666232224544933471e-01 -6.191505582637643057e-01
3.725696759419204751e-01 8.450225791959534716e-01 -2.748649028520214199e-01 5.685929241683174151e-01 4.230224605928347703e-01 -7.055168916615006669e-01
3.449463149000358553e-01 8.048684211848313730e-01 -3.830588966796749095e-01 8.046024536049350973e-01 4.064920590272602108e-01 -4.328730733144492970e-01
4.624407153099262535e-01 7.995083666461390015e-01 -2.114493724765835747e-01 6.721125677260940678e-01 3.422246193778781254e-01 -6.566178540036077260e-01
4.663136168051535413e-01 8.525886201544921050e-01 -1.684623964714221100e-01 7.204422892276499679e-01 5.448484890075044884e-01 -4.290722921824043912e-01
4.808163769437732160e-01 8.648653896930071916e-01 -1.391844171639565197e-01 7.544038589204163925e-01 5.056824939323770751e-01 -4.185212455495131434e-01
4.682102287922448314e-01 8.116418050724319988e-01 -2.287794903901869126e-01 9.443667418863548324e-01 3.197000369992695767e-01 7.722268553745387232e-02
4.123328212990837183e-01 8.349845716087699321e-01 2.980934321266781595e-01 4.763765222002115385e-01 6.229958532622765777e-01 6.204366010435227174e-01
4.121145884638555135e-01 8.071426843567509612e-01 2.915814749644786708e-01 5.977436902998235491e-01 6.010795337505351332e-01 5.304770257164657110e-01
-1.464736222727965331e-01 7.944575863685833239e-01 2.825517010795492445e-01 -8.592159060777142254e-02 9.926771665029722191e-01 8.490891220043508825e-02
-9.955779831503108745e-02 7.960193563645006076e-01 2.655802584378337272e-01 -8.592159060777142254e-02 9.926771665029722191e-01 8.490891220043508825e-02
-1.582788594518192427e-01 8.015156095505620026e-01 2.633869068715578576e-01 -7.283219220261380467e-02 9.933582379129248796e-01 8.907795995357388474e-02
-1.670462051324564101e-01 8.037100100904231992e-01 2.863743605812122950e-01 -1.056531839728510752e-01 9.873513054058096206e-01 1.182150769988421640e-01
-1.953311372627989650e-01 7.971444834563231607e-01 2.252849318425921010e-01 -8.275732921685853560e-02 9.931710627257782642e-01 8.223420593062687189e-02
-7.314122216791367481e-02 8.010863710265925253e-01 3.133988870968213991e-01 -1.336746273966280818e-01 9.858219927530036397e-01 1.014203756395602452e-01
-1.178610029364578343e-01 7.979551155211257463e-01 3.274195978483059877e-01 -1.054142459770410073e-01 9.838305088138230570e-01 1.447942218191938246e-01
-1.096198520937724241e-01 7.986777080269872320e-01 3.117710532661770451e-01 -8.388243832053517146e-02 9.921954947027352700e-01 9.225961647977902469e-02
-7.871952648689520271e-02 7.947553250788800261e-01 3.102049374661602910e-01 -1.057529059963782381e-01 9.907723496669464947e-01 8.477307360688973725e-02
-1.973715251527401182e-01 7.656668180612576924e-01 1.775622483386186667e-01 -8.471119131815064984e-02 9.923968658741906257e-01 8.928871523626766282e-02
3.101235504127344139e-02 8.446983568354805572e-01 -3.647100276235936689e-01 -4.424053754249330783e-01 7.424814436764017866e-01 -5.029898503859996373e-01
-1.653437949258161621e-01 7.062430749667080176e-01 -3.428949120925068872e-01 -5.636534835717474934e-01 5.167908424124829647e-01 -6.443771998263362333e-01
-1.474029034817656292e-01 7.696596613827852984e-01 -2.981127129062129399e-01 1.406938063417298157e-01 9.397472153247793392e-01 -3.115773164824404695e-01
-1.909810061454035868e-01 7.915585217470697543e-01 -2.548638160614974946e-01 -2.185684281376176485e-01 8.258269659087617010e-01 -5.198438848340718454e-01
-2.095287105886049495e-01 7.869077121148334575e-01 -2.544950789743756769e-01 -2.465945878556631832e-01 8.118769088221885477e-01 -5.291946656586997699e-01
-3.016345402781567611e-02 7.733569661887363944e-01 -4.449192390874369130e-01 -6.352831267689287298e-01 6.434685022977211233e-01 -4.270405547409065194e-01
5.158358574418366038e-02 7.988912138698389676e-01 -4.398568862729826390e-01 -6.300038346860273863e-01 4.996492055950317313e-01 -5.945131114022250696e-01
-1.715830725988344747e-03 7.994972498401644589e-01 -4.296325863822167412e-01 -5.343903501848553672e-01 4.907341659065820316e-01 -6.881910578039205362e-01
-2.579570659799507171e-02 7.895672763189729437e-01 -3.801514377924435917e-01 -5.955170043732532781e-01 8.033312559708244427e-01 -4.288435920517653585e-03
-2.573527808577357190e-01 8.106004282159933183e-01 -1.815105641802483016e-01 -1.913315893198711259e-01 7.663558579547778971e-01 -6.132625228291131991e-01
-3.386488288054025353e-01 7.837591253397889757e-01 -8.712932948049934012e-02 -7.585296328604060889e-01 6.514084533146438094e-01 1.731539843263991268e-02
-3.000582171302422774e-01 7.831185248760548223e-01 -2.280066104806244623e-02 -6.562782273164308178e-01 7.523794117267764703e-01 5.678123950807061754e-02
3.277601881516676308e-01 8.179598707171105154e-01 -3.449991928761482751e-01 4.732432973037385970e-01 8.163145415478277878e-01 -3.311666511209196972e-01
-4.356357572411772433e-02 7.372142175467929492e-01 -4.353085829122293471e-01 -6.422083594157834696e-01 1.550882395161073679e-01 -7.506770684257528803e-01
-7.386776060250815901e-02 6.446578164524026100e-01 -4.139144411802624934e-01 -6.004405833169689233e-01 -5.410479455293620843e-01 -5.888448238240991950e-01
1.071618640687365676e-01 7.235045522156398068e-01 -4.643534068962504868e-01 3.158374741450947765e-01 -8.508624890832791055e-01 -4.198567786717909422e-01
2.254964563256550703e-01 7.445893357460500184e-01 -4.527631751763025458e-01 7.408306651720350348e-03 -8.931768852470701736e-01 -4.496444914072626475e-01
-5.743436280753629886e-01 -2.703643148777545302e-01 -4.513767632837694110e-01 1.801779562022831904e-01 8.947882404946798651e-01 -4.085216135912552726e-01
-2.245740347143026366e-02 3.207983310365085661e-01 -3.498252219725472845e-01 -3.542286643784079980e-01 -6.247539798821576396e-01 -6.958480566575533377e-01
-4.629617532664503932e-01 -8.726912244523667150e-02 -3.391385878338727955e-01 5.087588233621527234e-01 2.020340959701533989e-01 -8.368671840362009728e-01
-4.989773157609815324e-01 -3.000952190807353870e-01 -4.408896788280828316e-01 6.660400505662861237e-01 4.748865758271829107e-01 -5.752159517440316172e-01
-5.069695370333330287e-01 -2.490828559976400458e-01 -4.052631301151944365e-01 7.839675395554841775e-02 3.262312065261860350e-01 -9.420335179056539276e-01
-4.277807045155028187e-01 -1.731635419967491596e-01 -3.749627400022465529e-01 5.149249470172407861e-01 -1.142663628201077558e-01 -8.495854855558415686e-01
-6.182295762939479800e-02 1.946166881138924887e-01 -2.871540399022243228e-01 1.597965584638497138e-02 -1.722816477500768717e-01 -9.849181105287634352e-01
-6.449441103975879497e-02 9.655086821470559855e-02 -2.770148778125775535e-01 2.402554277452332299e-01 1.938643977213474479e-01 -9.511539963302968470e-01
7.610942446127584408e-03 2.011419770907869053e-01 -2.745157900291116393e-01 3.332296016525499588e-02 -1.182030044321026041e-01 -9.924301638246638690e-01
5.268911951386270193e-02 2.109067472332131765e-01 -2.826615852206413870e-01 1.300338927802574263e-01 -2.406479652332692010e-01 -9.618626427705255777e-01
-2.020361837985024805e-02 5.665539676533100366e-02 -2.585939851127328493e-01 3.217709521209041190e-01 3.601394674340109847e-01 -8.756500547407929380e-01
6.825325992640768336e-02 2.807791266469321645e-01 -3.470652452275128641e-01 3.250914005553488806e-02 -8.749442973969574489e-01 -4.831310715172377201e-01
4.048117804301436251e-02 1.971266221336668845e-01 -2.565973001548756960e-01 2.121809829534676006e-01 -3.952356997143224304e-01 -8.937382011216875588e-01
-2.004158973214907324e-01 -6.427158615954501331e-01 -4.664021092015258607e-01 5.284672264405725350e-01 6.366861931212082215e-01 -5.615630704266726392e-01
4.873985240867626662e-02 1.489392004851101438e-02 -2.777537921165009749e-01 5.038430875347162941e-01 -1.788977298767565893e-01 -8.450667106142729645e-01
3.643215604739825642e-01 6.832535448382990317e-01 -3.538979350246604372e-01 3.751807798776017888e-01 -7.543841934672697036e-01 -5.386500450730247191e-01
3.767436155563740896e-01 5.726739241226005417e-01 -2.533054193266713328e-01 2.977099670588950753e-01 -8.481251951564779956e-01 -4.382378678920590409e-01
6.913316926832836495e-01 -2.446150974530983957e-01 -5.732503177954700185e-02 1.431659825605474667e-01 1.527729148501473511e-01 -9.778363553916691320e-01
1.723598217513064024e-01 -2.678674401693541263e-02 -2.063012394575076958e-01 2.237363706870005575e-01 1.319820161527134883e-01 -9.656721927466244138e-01
2.454911077362228744e-01 -3.852394303073920778e-02 -1.634237292884532233e-01 -1.062361143826421606e-01 1.392839871577489785e-01 -9.845373832020387628e-01
-3.978412864576721941e-01 -6.017962059613164438e-01 -5.040335202131119852e-01 -6.994668526296117517e-02 4.559627098684404523e-01 -8.872460022057876428e-01
-4.227910251041149259e-01 -5.728758905465084483e-01 -5.188047536834640150e-01 6.516036657727426462e-01 3.416335602108143688e-01 -6.772733372053029166e-01
-4.810257439985921590e-01 6.790242535216413355e-02 -2.906582457733061786e-01 1.721002864632660556e-01 8.765504806764515267e-02 -9.811717912514202888e-01
-4.796059840484089842e-01 9.618165213480152353e-02 -2.964422886174251648e-01 1.694067499568427948e-01 8.584462633223592931e-01 -4.841191651411236307e-01
-2.198468747515826827e-01 4.511076981693342147e-01 -2.432621770683714990e-01 -7.752228809683473498e-01 5.379232783697231873e-02 -6.293932556748722540e-01
-3.806063660651449743e-01 -6.487852290600408800e-01 -4.890192936498048981e-01 -7.010966283114913322e-01 -7.082368932020873808e-01 8.284938670692636176e-02
-4.532561117161830744e-01 -5.800201410229817167e-01 -4.973148688850674848e-01 -6.330411613824995509e-01 -6.353898691496885354e-01 -4.421974696642189673e-01
-2.961558928862085271e-01 -6.368119777545755422e-01 -5.650866581093346719e-01 2.822041818343407060e-01 8.772853603715842219e-01 -3.882411573145098105e-01
-7.133652410318147563e-02 3.815318849608627660e-01 -3.490156826502893161e-01 -4.971668500954984915e-01 -4.331070023438160499e-01 -7.518267404707509316e-01
-7.908869301351778569e-02 3.988516570421319352e-01 -3.784560847184386123e-01 -6.281486125255432151e-01 -2.343450707039779202e-01 -7.419647622488432237e-01
-5.206879968908342260e-01 -3.959330416028986610e-01 -3.628515441315677825e-01 -7.858228315662306729e-01 -4.519401032731177326e-01 4.221760538480541780e-01
-4.610260156770027984e-01 -4.847139790627199574e-01 -3.705918767136179293e-01 -8.140841337011228696e-01 -3.372883718340929926e-01 4.727616497576753174e-01
-5.494970607730725876e-01 -3.744834483624966959e-01 -3.691549009636149736e-01 -7.572901135953363783e-01 -5.680349141040293981e-01 3.222545891210714664e-01
-5.525346463686268139e-01 -2.812182994098920141e-01 -3.681515259654460359e-01 -9.148553421975834654e-01 -4.328129067020080462e-03 4.037585542763421631e-01
-5.590413056480526555e-01 -2.811067208654838834e-01 -3.842788719216406745e-01 -8.684688420395710873e-01 2.319376383826491500e-02 4.952008882518905142e-01
-5.103227783007349139e-01 -4.271613190374551339e-01 -4.296346973053573604e-01 -9.638591949383776836e-01 -1.030639319068562265e-01 -2.456690421535469848e-01
-5.018821113899063491e-01 -5.382962375588613568e-01 -4.336323707824029650e-01 -8.965869995537911752e-01 -3.444825892986799198e-01 2.783226507153290785e-01
-5.117605654703190066e-01 -5.231878509288724333e-01 -4.611836122925314085e-01 -9.550462060229299999e-01 -2.572782749440625794e-01 1.472909827620637324e-01
-5.799401468747673594e-01 -2.388299195877847392e-01 -4.179022642004003862e-01 -8.273473003517095581e-01 5.616823748633301694e-01 -3.058491233826108636e-03
-3.757111714407302405e-01 -6.636817735324678225e-01 -5.324366768191595156e-01 -6.636876194622539638e-01 -7.478993338968973337e-01 1.285807641537991056e-02
-5.016262079119465644e-01 -6.531182796082579678e-01 4.549853243069324482e-01 -7.953556035880078312e-01 -5.955905488293720129e-01 -1.126115535204226248e-01
-2.648860970899610812e-01 -6.947744857463437063e-01 -3.381405828812922842e-01 -2.619105234381072789e-01 -8.230703520694226949e-01 5.039425297161306272e-01
-3.999409332451223653e-01 -6.229441416002267085e-01 2.640547138422604245e-01 -4.608345405973164333e-01 -6.726544153381275315e-01 -5.789365800487840108e-01
-2.566346540932555320e-01 -6.318440412557650987e-01 -2.784820458424273060e-01 -3.314308570360347539e-01 -7.890632253992149181e-01 5.172357425071736348e-01
-2.712651747151914594e-01 -6.447903623023648612e-01 -2.852486091265648005e-01 -3.314308570360347539e-01 -7.890632253992149181e-01 5.172357425071736348e-01
-2.243793901993911266e-01 4.351163908739144048e-01 2.917509852667592996e-01 -7.414721752323303328e-01 -2.721702892775291760e-01 6.133044488594733279e-01
-2.086683835296367084e-01 4.033983424022946074e-01 3.062864791261524777e-01 -7.414721752323303328e-01 -2.721702892775291760e-01 6.133044488594733279e-01
-2.693097962477036811e-01 4.992619781805275325e-01 2.832837796893183380e-01 -8.042701621480999874e-01 -1.152382985506997665e-01 5.829833966978897886e-01
-4.532363495193578729e-01 1.164701615107312793e-01 2.416797624563389313e-01 -6.490832511964320650e-01 1.640984518387689495e-01 7.428072637773467379e-01
-3.029779511056822638e-01 4.737694192248167457e-01 1.914272496896439746e-01 -8.902353731867158615e-01 -2.251243734565652396e-02 4.549441399687073062e-01
-3.238580440676844252e-01 5.145950374352402656e-01 2.064268702870786787e-01 -9.069565748977505004e-01 -3.876488302605127917e-02 4.194365924591196837e-01
-3.162206285065139455e-01 4.433428951175351629e-01 1.751155864274986929e-01 -9.180197496251217837e-01 -3.852421172835204799e-02 3.946588709365821956e-01
-3.544761995016528777e-01 4.411677083293666923e-01 5.147948518039333066e-02 -9.264860267765561153e-01 -2.169247095725715113e-01 3.075179873839025135e-01
-3.410735277570213220e-01 3.837114292821026118e-01 9.372231919944637446e-02 -9.428469270329564722e-01 -2.658594042601383212e-01 2.008941247298073607e-01
-3.502424399749306527e-01 3.963470976901768972e-01 1.112762709023537577e-01 -9.333216960950450058e-01 -1.948811377265327049e-01 3.015492559378659676e-01
-3.712463425371042014e-01 4.772058284593577726e-01 8.405551531921388875e-02 -9.209372425852538901e-01 -2.529306348400118809e-01 2.964805038765582768e-01
-3.856972876593858235e-01 5.879521587884084521e-01 8.345447772148321952e-02 -8.613687068959496873e-01 -1.559417251264552384e-01 4.834523028644961973e-01
-4.024021212607302167e-01 5.524599655884522287e-01 8.452839787771199154e-02 -7.492150388797247373e-01 3.226298629057754996e-01 5.784347820436225307e-01
-3.783246358559720357e-01 5.788336827314576327e-01 5.173656421332710476e-02 -9.537951838325511300e-01 6.204379515191423694e-02 2.939818272971600477e-01
-3.468707383209013728e-01 3.482875910397031372e-01 3.667746398038566891e-02 -9.839190232099934708e-01 -1.751742162718838702e-01 3.489053910480039572e-02
-3.382549713847644024e-01 4.237290523564603006e-01 3.150716714779205202e-02 -9.746701469790056693e-01 -2.194667821353274983e-01 4.303993642058750319e-02
-3.626394854295268422e-01 3.908937483734703511e-01 5.813116919862715976e-02 -9.746701469790056693e-01 -2.194667821353274983e-01 4.303993642058750319e-02
-3.598143251086997063e-01 4.384347920993696968e-01 3.555413638288958122e-02 -9.584499596355455786e-01 -2.644497316432505296e-01 1.069580025450824340e-01
-4.725224805091331470e-01 5.289654175099227362e-02 2.032026957319588156e-01 -8.647080036614486209e-01 4.331122676698556662e-01 -2.543498220909686247e-01
-3.740290946539920336e-01 6.831712670856802117e-01 7.471025153404423080e-02 -8.174305308319297358e-01 4.012245034610977257e-01 4.133112931994784578e-01
-3.752319389483991796e-01 6.095133631379943129e-01 7.151908425591106677e-02 -8.696471298568494435e-01 4.886650658678648451e-02 4.912493603718456892e-01
-3.924635034635625686e-01 7.201762870687570262e-01 4.917646483038220877e-03 -8.966448583012937013e-01 3.051882721442990554e-01 3.207617755086009104e-01
-3.973945539511727354e-01 6.585060072266490927e-01 -3.401385815903887333e-02 -9.868049979199516875e-01 1.549542203812344643e-01 -4.695833968794037305e-02
-3.814432503442726219e-01 7.617071034476466940e-01 -5.568903800716434177e-02 -7.961052218639371736e-01 5.668468115297988774e-01 -2.118989570042099368e-01
-3.671378863610073595e-01 7.381682138295749818e-01 -5.952021489644378216e-02 -8.947960825095138127e-01 4.019323628223355760e-01 -1.943973930938420469e-01
-3.635937137064581548e-01 7.353392717995108629e-01 -8.459258961988448677e-02 -8.670204200823107277e-01 4.553629116166977853e-01 -2.022874437137827108e-01
-3.938899378321896183e-01 7.051596426328586853e-01 -5.575201068881587008e-02 -8.834187567246094552e-01 9.264155726139969294e-02 -4.593352176083693172e-01
-3.844168074687454029e-01 7.111761936765147452e-01 -9.449611374350332105e-02 -9.207154337823630907e-01 2.512730483464795453e-02 -3.894248432582359531e-01
-3.832820562631764072e-01 6.799801407364177708e-01 -9.529070619134738518e-02 -9.229789838589173012e-01 -2.032900090452585129e-01 -3.267766325445244924e-01
-3.422640642210121320e-01 3.864129570840158512e-01 -2.767357585761156397e-02 -9.583788982456004080e-01 -1.143954896021750628e-01 -2.615789734596948302e-01
-3.390678031850394292e-01 3.152586787839255500e-01 -3.826981410903493308e-02 -9.692919721793450405e-01 -7.248729261719556727e-02 -2.349865210553679085e-01
-3.360294512704729564e-01 3.771498245682675665e-01 -7.127752427194206097e-02 -8.755807752823016044e-01 -1.548906063757332363e-01 -4.575666137433992975e-01
-3.162047120963545344e-01 3.379255375624545255e-01 -8.998265274336683661e-02 -8.755807752823016044e-01 -1.548906063757332363e-01 -4.575666137433992975e-01
-3.044503089189450895e-01 3.979021592016055431e-01 -9.298784506113369486e-02 -8.864942631163073017e-01 -1.926717601684857506e-01 -4.207202328097053301e-01
-3.086829755771852146e-01 4.268452132699733226e-01 -1.288804538607515038e-01 -9.059175081318889822e-01 -2.816062614363277691e-02 -4.225168015538638966e-01
-3.214514507698483237e-01 4.408547784611219211e-01 -1.052085097051134732e-01 -9.197893719523135836e-01 6.006439396420024980e-03 -3.923664536238357647e-01
-2.986780197814439264e-01 3.920694238205892357e-01 -1.354659689606252104e-01 -9.177678298328949547e-01 -5.451430758356788642e-02 -3.933578533504863972e-01
-3.128234694851998454e-01 4.056780633066998099e-01 -9.986558467127498728e-02 -8.981510474336031891e-01 -6.106985683575358315e-02 -4.354252732444248708e-01
-3.447671808963976292e-01 4.042186111057711750e-01 -5.911954860218861241e-02 -9.201069942161317350e-01 -2.125452239114935388e-02 -3.910899697927310292e-01
-3.408374573557929055e-01 3.959071411995104262e-01 -3.485783251839303515e-02 -9.270412156470844156e-01 -9.784528769841500939e-02 -3.619680706454510011e-01
-3.922122726090720990e-01 5.543278388108183741e-01 1.760619011928175534e-02 -9.160124466725951820e-01 -3.460231696776756571e-01 -2.029511359591281983e-01
-4.005935215974014141e-01 5.818169215379414005e-01 -7.226891753961977097e-03 -9.786356531069049236e-01 -1.317122838432857324e-01 -1.578737874151599496e-01
-3.822672795209988150e-01 6.043335287464687289e-01 -4.495039102603876763e-02 -7.419367608851442641e-01 -3.308421756574189132e-01 -5.831580383168235571e-01
-3.077787797754540366e-01 4.668902326907313771e-01 -1.366917553158724374e-01 -8.350197172518477595e-01 2.350077360552234318e-02 -5.497179144257408057e-01
-3.609579790689003698e-01 6.587772258636126477e-01 -1.088988672302058230e-01 -8.082897060044731408e-01 -4.878467804688063625e-01 -3.296562906322623165e-01
-4.805411174190581947e-01 3.810184946069287287e-02 2.160375113199744235e-01 -8.229596624484223355e-01 2.492338822706435530e-01 -5.105094180434692763e-01
-5.860746217027172911e-01 -1.878465897160993825e-01 3.738130316022036381e-01 -6.804977604299360383e-01 7.169391932279502999e-01 1.513968007042988950e-01
-5.819326812980281094e-01 -4.682859995824859567e-01 4.531757383463834721e-01 -8.225919594575987759e-01 5.501384042656937146e-01 -1.438408995651251909e-01
-6.093270295119131985e-01 -4.516849233858902801e-01 4.465875154241891187e-01 -8.158167055638658738e-01 4.538702816761677750e-01 3.583920623201871103e-01
-4.650319540600517665e-01 -6.683889782125563839e-01 4.971722361358813513e-01 -6.456527568128097583e-01 3.099213694748494952e-01 6.979120735184716207e-01
-4.586263391605490125e-01 -6.646460391770012688e-01 5.117708679044545850e-01 -2.734670139900751695e-01 6.417503229815815224e-01 7.165000455075964947e-01
-1.246700029946854332e-01 1.430398134414851141e-01 3.227369225443219580e-01 -4.246298600762092312e-01 2.342976533310149045e-01 8.745250662932644303e-01
-1.515039685671874803e-01 5.078620329136270678e-02 3.412986163469083345e-01 -3.703693900880782874e-01 -4.443947017234939345e-01 8.156836788644675762e-01
-1.614593033109926884e-02 5.073906840186781508e-01 4.259021643834706161e-01 -3.831427938048481696e-01 5.939819053898691692e-01 7.073804461708256275e-01
-2.292036940726190422e-02 5.178959362577892911e-01 4.183227226759950179e-01 -6.252505803779180305e-01 5.107023733635808194e-01 5.901226970536570526e-01
-9.177691862074326135e-02 4.443464274975690298e-01 4.057272104427166459e-01 1.450762729946157292e-01 4.907353369074016758e-01 8.591459155023499772e-01
-1.460601135652612459e-01 4.514017943545837741e-01 3.945194812793349493e-01 -5.792588662841134939e-01 3.237193556955375584e-02 8.145005976785554269e-01
-1.774706816235566698e-01 3.956911222411039764e-01 3.341379448520342965e-01 -7.176006619550291399e-01 -3.079700295244245933e-01 6.246629097972995481e-01
-1.940757983182569979e-01 9.886116868345953823e-02 3.215885806304986105e-01 -7.999670823819403642e-01 1.558038293610014280e-01 5.794634016586155401e-01
-1.268901837060745497e-01 1.296088389772658833e-01 3.186363430306455302e-01 -5.312518370559403680e-01 2.998751868095194117e-01 7.923675649347620142e-01
-2.220998083009264601e-01 -6.911723043487020268e-01 3.565414194618095611e-01 4.679914109547584355e-01 -8.834679412027636181e-01 -2.164338558369791055e-02
-1.792419892735253595e-01 -6.683409400474012996e-01 3.449928341197224246e-01 4.460357630185565192e-01 -8.949888398252108246e-01 6.861100259947228858e-03
-1.705057161775279106e-01 -6.276551377982324542e-01 -2.609010369741843749e-01 2.397860952664634393e-01 -9.079703432417248754e-01 3.436458704980563938e-01
-1.862125994636646686e-01 -6.449351061783821226e-01 2.771632365669592923e-01 3.760175363455200981e-01 -9.017550302580596977e-01 -2.131869549595638291e-01
-2.261219182138889117e-01 -6.538130849070498130e-01 2.731401325156068149e-01 2.541697795429485596e-01 -9.240055943874803113e-01 -2.856770636710760924e-01
-1.201085140895881559e-01 -6.274814385637560443e-01 2.779706049522116529e-01 4.638003383529853418e-01 -8.564295215755705071e-01 -2.267547589743058034e-01
7.004097873144867759e-01 -1.663709097471709891e-02 -3.051081526394425550e-02 7.239694148161264498e-02 7.772451413545080623e-01 -6.250189381970108204e-01
4.647809563725651127e-01 6.320072846737371242e-01 -1.772850460874328959e-01 9.491754454860318324e-01 -2.484946870389981577e-01 -1.931744398200328228e-01
5.255088813813195703e-01 7.143899773049640078e-01 -1.850840598548293692e-01 7.319177800175498128e-01 -2.920904577575611505e-01 -6.156131315860309261e-01
7.006989507974012987e-01 -1.169065199525532936e-02 5.564453515695642893e-04 -7.722617445720851570e-02 9.149941818069473598e-02 -9.928061112076713712e-01
7.715035743561066139e-01 -2.207482271793439754e-01 -3.757295384051888287e-02 4.727363809785107840e-01 3.270236395685138242e-01 -8.182761473137923902e-01
7.494283087352486827e-01 -3.465535521386791107e-01 -3.287203312970287533e-02 5.332304184389774493e-01 -5.478538772538473767e-01 -6.446095329959985465e-01
4.855314231367844346e-01 7.933163518200828657e-01 2.119765298643405127e-01 8.018613759228760962e-01 4.212844864868971473e-01 4.237189106572225028e-01
4.621931313521089879e-01 8.180785493675386544e-01 1.866634668384292151e-01 8.198025832853848005e-01 4.438419532262945499e-01 3.618398057081025354e-01
5.413593909236895652e-01 6.203507943918978862e-01 2.741144557546564345e-02 4.325939386026673716e-01 -6.107890950637486771e-01 -6.631735561943333801e-01
5.131738333100183125e-01 7.236100078179836803e-01 -1.598371264292440704e-03 9.595219999363679975e-01 -2.807227576397711144e-01 2.263327155395208554e-02
5.276130064141527631e-01 7.207679968797331416e-01 -6.295482359687316898e-02 9.551079151898459463e-01 -1.948695381258832016e-01 -2.231473357499723364e-01
5.191257231152273111e-01 6.599039604521405034e-01 -4.440114157406160889e-02 9.017117377143173407e-01 2.533364329691719652e-01 3.503378281012233808e-01
7.052935321681129688e-01 3.966478302109190807e-04 2.642095520406582965e-03 1.766051603455406072e-01 9.832676314110357918e-01 -4.466970291660000980e-02
4.495423588550009342e-01 5.811473626907135426e-01 2.017844754293244558e-01 9.845359736921309723e-01 -1.750683999024469639e-01 6.322330399830993104e-03
7.421953096537708960e-01 -2.363172948079379221e-01 1.022250111465836525e-01 3.025199048857062367e-01 -1.005552559594549145e-01 9.478240066841902012e-01
7.496569794330411041e-01 -3.256000681291010279e-01 1.067227164876645151e-01 3.961296929409513501e-01 -1.529097332742946624e-01 9.053727850120588672e-01
7.931643280405810126e-01 -2.051158771083582133e-01 6.424506046368193279e-02 8.195024475195986091e-02 8.017977744252354766e-01 5.919497329265661634e-01
7.773688010289309114e-01 -3.348937113346293626e-01 6.595898194962669658e-02 5.108183409533461061e-01 -4.331774580260878138e-01 7.425778830558635857e-01
7.727436451840705711e-01 -2.830474903502898099e-01 8.379356453074915390e-02 5.458440893694761487e-01 -4.310099265568909099e-01 7.185295215297914373e-01
1.558513092732582428e-01 7.140843378893416693e-01 4.618401243529341449e-01 8.915950023512994038e-01 -4.289288026560335587e-01 1.451841383700294974e-01
1.718255057972935540e-01 6.981089975335968978e-01 4.745696402398588143e-01 7.895453912100128813e-01 -5.978055207920092151e-01 1.387322404116008434e-01
3.092708940823819530e-01 6.989328304818240856e-01 4.347489164502622017e-01 -3.417224462354829240e-01 -1.869358959979316726e-01 9.210215744087041356e-01
2.154522911589243361e-01 6.880552313998132830e-01 4.278816423046158390e-01 -2.321503938108822607e-01 5.124467415124090985e-01 8.267433288311230033e-01
-3.686991997060446585e-02 7.967042955950651706e-01 3.784411248139766260e-01 -1.475424290924298998e-01 9.578549873995203523e-01 2.464651186910023772e-01
-5.134198429200033387e-02 8.153617257359407899e-01 3.629060643650803830e-01 -1.388819667419005643e-01 9.599997856477410219e-01 2.431300287298815699e-01
-2.472623678832902919e-02 8.145503775855534867e-01 3.999436464185229800e-01 -9.292528042715562930e-02 9.584328367571439689e-01 2.697617276101047512e-01
-2.289313727674503057e-02 8.047712796995722950e-01 3.618783734208064207e-01 -8.558030069452721156e-02 9.894091325645845147e-01 1.172415478012408807e-01
7.793635948065129326e-02 7.946546864703630808e-01 3.987334630362921462e-01 -7.821603077663032144e-02 9.923553943607767991e-01 9.546215906114945138e-02
1.535213336116210067e-02 8.055951078648300179e-01 3.686349059316542665e-01 -5.218816686517972758e-02 9.927779883384292292e-01 1.080197255595182343e-01
3.779959184021619567e-02 7.956936727819061694e-01 3.677976556980009359e-01 -7.179909670224234042e-02 9.928548536676854441e-01 9.531069856664049766e-02
3.815851731673094299e-02 7.953595527057788495e-01 4.123532408479478328e-01 -1.093072118215348693e-01 9.267912141358516376e-01 3.593187705149789579e-01
1.748159972131684836e-01 7.579479170308364155e-01 4.641873515374953518e-01 6.847931902074299026e-01 -6.220770260165678356e-02 7.260774672048118106e-01
-4.201740370235897137e-02 5.206913011266348090e-02 3.255301226333058850e-01 3.755492044890140768e-01 1.446323417113190568e-01 9.154475849215885086e-01
2.458488438286287464e-03 2.778087023638547981e-01 4.157199597360743959e-01 -3.302955688699282799e-01 -8.474871690547775005e-01 4.155362023607683808e-01
-4.077286320991766605e-02 1.260883571049134511e-01 3.259941850748392933e-01 1.825973181722919669e-01 -3.922543746013181787e-01 9.015512880598727241e-01
-3.102194007400979059e-01 -6.837198806935588236e-01 5.156188483071415529e-01 2.457889557675587977e-01 9.305276271553495349e-01 2.714887185931081359e-01
-8.875984654924031630e-03 -4.811280924253622665e-02 2.950104224788754892e-01 -2.358268688548526559e-01 -6.107043360958464007e-01 7.559271802229680093e-01
-3.478740057388123308e-01 -6.844803377736339289e-01 5.100211723347807258e-01 5.476006018808957793e-02 9.530105296592654707e-01 2.979467505558048290e-01
1.845496429500121938e-01 -1.926176650747407348e-01 2.661120144583864477e-01 5.744188649147781156e-01 -2.474099766635941833e-01 7.802764068439707046e-01
4.369404832657393656e-01 -5.102893267647015119e-01 1.749081111787780807e-01 1.164685426183431211e-01 -6.462244944778865186e-02 9.910898130884643331e-01
3.371978680946481899e-01 -2.968752230638852518e-01 2.145854701914531315e-01 2.644365261749305196e-01 -4.005719763605441464e-01 8.772772739443003287e-01
3.442521811387405095e-01 -2.707706794243078807e-01 2.212295285449042137e-01 4.600107042427512005e-01 -7.665231015531639991e-02 8.845985390729181885e-01
-1.645570534621269287e-01 -6.292055111994636629e-01 3.750665994957271820e-01 6.271191685681468675e-01 -4.775214510748099911e-03 7.789086889621740228e-01
1.084134338014553778e-01 2.032025937624117595e-01 3.098439469695649651e-01 6.513402147867007885e-01 -3.462636569099329376e-01 6.751721295380718191e-01
2.292302447124482945e-01 5.927712566180500797e-01 3.758305425962056856e-01 5.794889361973466491e-01 -2.602345107628295517e-01 7.723150731617881570e-01
3.338263464943175829e-01 -1.650195263608675578e-01 2.057329822775234296e-01 9.018608973155034514e-02 -1.933715296842353493e-01 9.769718116335350810e-01
1.976702684818685551e-01 -7.251555361735088912e-02 2.719334824845168197e-01 7.424346661293182992e-01 -3.006928996146618904e-01 5.986439230884871288e-01
1.630614381499229659e-01 2.537143850183565252e-01 2.895202347952774424e-01 7.956152935390337078e-01 -2.167777247643140337e-01 5.656887154016816410e-01
3.340370318842524888e-01 4.719581801051359743e-02 1.757729836794500178e-01 8.666413893098716681e-01 4.303170216700561435e-01 2.525073527564457021e-01
4.499182842997187515e-01 -1.445869378051155563e-01 1.638807566016049766e-01 4.387323452601100127e-01 7.200455786360738797e-01 5.376321176317547801e-01
7.389593384511160545e-01 -2.140421952025773900e-01 8.110099488950334168e-02 -6.627615530526977106e-02 6.640517031786150604e-01 7.447434502857560590e-01
6.511654392667626245e-01 -2.382665353228615446e-01 1.328758225368429080e-01 1.399902936430133249e-01 1.298093807891132212e-01 9.816069693848398225e-01
5.011373085335599775e-01 7.835726913377668579e-01 -2.364229482255189585e-01 7.759089397705870583e-01 9.574853782921714795e-02 -6.235363138484001366e-01
4.539400841410933807e-01 8.141014251720349870e-01 -2.346123553388582417e-01 1.455842626299445608e-01 9.831416468941311937e-01 -1.106242496778655771e-01
4.442021888192332346e-01 8.356258041866376773e-01 -2.189742171340879340e-01 5.161270628880024747e-01 6.483710435702622066e-01 -5.596676199443854083e-01
4.886441159482544649e-01 8.149794217754130488e-01 -1.708139557284289456e-01 7.872980921942781540e-01 4.656629383523023247e-01 -4.041283730107917971e-01
4.746252641366696112e-01 8.339784692688806400e-01 1.432244336626608550e-01 8.170917311209471290e-01 4.325729880042033515e-01 3.811059078299482983e-01
4.587577589809015421e-01 8.333197302222179470e-01 2.110509668073468348e-01 7.242180322302700368e-01 5.174586628697622759e-01 4.557902741541918767e-01
3.762005541403854458e-01 7.683679810853115688e-01 3.807959537151305307e-01 7.945812237119691535e-01 5.925244419961995801e-01 1.324970360479119091e-01
3.268938186478006491e-01 8.005629113292108689e-01 3.636859131894693564e-01 3.998797238729553394e-01 6.796126123320560541e-01 6.149982956029127479e-01
3.617770563160064290e-01 8.020580043235560064e-01 3.963765089709919143e-01 4.040221397660234692e-01 8.310225983242165437e-01 3.823186519820236384e-01
-1.916093302638285367e-01 8.033110026366744316e-01 2.653861984537199681e-01 -1.036494963260039398e-01 9.856566658109503498e-01 1.331830284000417586e-01
-1.815574411464042914e-01 8.047353664592660216e-01 2.524181853190843317e-01 -7.011579239822152143e-02 9.938056066126161880e-01 8.622176014034679814e-02
-7.924978866980282588e-02 8.056036292587698266e-01 3.338307493378491198e-01 -9.578181545476908976e-02 9.883093663078240665e-01 1.186188867609875019e-01
-1.459785435287644373e-01 7.723529888272548938e-01 3.279598871967178697e-01 -1.002868393882506981e-01 9.873133907387730002e-01 1.231049077552237303e-01
-2.327826539676329798e-01 7.902910791371436927e-01 1.882667879379730236e-01 -1.355337972842042271e-01 9.861100051891776852e-01 9.600858013492495624e-02
-2.659334065201582331e-01 7.832043354809029578e-01 -2.107157121854692783e-01 -2.592180635997415883e-01 4.125742383538751334e-01 -8.732631295035421237e-01
-2.521854226755035899e-01 7.831066645067876753e-01 -2.274365860109172910e-01 -5.484951623024442169e-01 7.077791303226171893e-01 -4.451985620041634673e-01
-2.645509771306541191e-01 7.496271805973135915e-01 -2.308532815038582542e-01 -7.117295054458835368e-01 4.662994248704210309e-01 -5.253626913316864488e-01
-1.894349942619888150e-01 7.470744693438579054e-01 -3.074568809086448140e-01 -5.611593267382039008e-01 5.795573855586931833e-01 -5.909428456789183048e-01
-1.990038130950052830e-01 7.775738441762831687e-01 -2.782484956679028842e-01 -3.287429674019851089e-01 7.509372905297205802e-01 -5.727313917323018089e-01
-1.719961619899391947e-01 7.511266767066502315e-01 -3.231852950665779489e-01 -3.139964189307455356e-01 7.980562367941684832e-01 -5.143077792650988522e-01
-1.158665763466888432e-01 7.484319054569696927e-01 -3.992160939912055562e-01 -5.882538717428298369e-01 6.151480190995576303e-01 -5.249288494429132923e-01
-9.251158712804490036e-02 7.473058714670069991e-01 -3.834980670313364870e-01 -4.853809555055201286e-01 7.401020510633038452e-01 -4.654613647172439750e-01
-5.468576171166990990e-02 7.613759019799378747e-01 -4.563779739903027766e-01 -5.388481273071846767e-01 6.075155863727546013e-01 -5.835816206938907458e-01
-1.271061866684459474e-01 7.403877138264848279e-01 -3.246305934959272665e-01 -4.503698717492676251e-01 8.223418883806673518e-01 -3.477366780123521406e-01
3.364269498642979278e-02 8.246050285103649902e-01 -4.467230585682978039e-01 -5.060493783101899234e-01 5.184970485036762833e-01 -6.892567282260266825e-01
-3.178236496311708237e-01 7.753990766710489035e-01 -1.421382471155246130e-01 -3.287887322188138839e-01 7.358713093611355394e-01 -5.919386671143160861e-01
-1.238809454295922013e-01 8.182783604606153061e-01 -2.421025970057726073e-01 -7.223052872016848536e-01 4.182989413582069438e-01 -5.507277619106329958e-01
-1.663248624745703730e-01 7.967592952569879650e-01 -2.196441679129732261e-01 2.979892019039054318e-02 9.678441559491285373e-01 -2.497793309115182436e-01
-2.842237928358758436e-01 7.908450219396511160e-01 4.715352154125532214e-02 -4.206077461459485356e-01 9.037043413981926676e-01 -8.004740607967496258e-02
-3.493155110802387275e-01 7.362745044394075622e-01 -6.126951007644441949e-02 -8.272847827311506919e-01 5.455543307038188683e-01 -1.340535732898639754e-01
-3.297496739042428682e-01 7.780224528663001182e-01 -5.609375418432271249e-02 -5.255937400082532074e-01 8.406885305855184010e-01 1.303610946797344461e-01
-2.750922330366079027e-01 7.990262996808286111e-01 1.442657525306076105e-01 -2.795244027260379016e-01 9.549783667253389785e-01 9.941039868774129151e-02
-2.916303754290415773e-01 7.851118018395675247e-01 -2.787150161002219934e-02 -3.536821743909051019e-01 8.816454102191766395e-01 3.124264555980835745e-01
-2.879547330555503604e-01 8.115553921306496443e-01 -1.544626672882177532e-01 -5.033380019224417135e-01 7.588709902420228692e-01 -4.132380379270711446e-01
-7.582717471866559644e-02 7.065429100156019881e-01 -3.921389569370801187e-01 -7.713342686427412387e-01 -5.891646133781373168e-02 -6.336973225450754921e-01
-1.684649127770781185e-01 7.270894726807822783e-01 -3.542397331380580661e-01 -3.833041146841151825e-01 4.374602104159105442e-01 -8.134534528595314118e-01
-5.984514930284353523e-02 7.132190836500316156e-01 -4.501055471949310105e-01 -5.556444553232162686e-01 1.789263022982956197e-01 -8.119388016435877820e-01
-4.049353733928506838e-02 4.670708320895735066e-01 -3.917429543824514915e-01 -3.120746025096451381e-01 4.472181177934229646e-01 -8.382156032822074554e-01
-1.138842253529383508e-01 6.773220492624084654e-01 -3.836813979968459187e-01 -3.771006358851223816e-01 -4.422910162813497026e-01 -8.137406019929490641e-01
1.423278950522599909e-03 6.613035920185674765e-01 -4.382465889906105305e-01 3.917978322630585319e-01 -6.420237602605568528e-01 -6.590143776086098137e-01
2.046280795926902485e-01 6.731869878434694199e-01 -3.863730916563498652e-01 -1.746847105132303402e-01 -9.418011816660233626e-02 -9.801098699916421797e-01
-1.367917040042561649e-01 1.701939032101910665e-01 -2.701436817954657177e-01 3.390888099686968638e-02 3.131607674410999409e-02 -9.989341775747273555e-01
-1.323803344178721142e-01 1.513066255264492455e-01 -2.418820653364396889e-01 1.133487894175945476e-01 5.353806958395777166e-02 -9.921117512875194944e-01
-5.125954446666203257e-01 -2.590900922541065632e-01 -4.315281677910805525e-01 4.797423158646950681e-01 5.387544967779374083e-01 -6.925250194544095850e-01
-4.804578301371281168e-01 -2.902061499716105941e-01 -4.069466736949612917e-01 2.114612515823595107e-01 3.993634387509455985e-01 -8.920722968841942047e-01
-2.156136618759505949e-02 2.981201392178075560e-01 -3.478024482442887977e-01 -3.206754366495940256e-01 -7.213109989060464411e-01 -6.139036627898173393e-01
