-4.015694071209600646e-01 5.775315317930366232e-01 4.876302234340550157e-02 -1.660026847068953038e-01 1.006950091411550618e-01 9.809707558353438772e-01
1.480670727538841991e-01 5.962973415536021449e-01 1.583943222230809467e-01 8.711934596691013333e-01 -4.002106199034092399e-02 4.893059067975238929e-01
1.445600101133606152e-01 6.154540649031950972e-01 1.810011246620272518e-01 7.120167021814146624e-01 6.166942521623065832e-02 6.994491388286944167e-01
-1.062056298514180985e-01 6.007623897186059603e-01 9.257388797860931218e-02 7.884662643359345857e-01 2.004619170205728940e-01 5.814945999994951542e-01
-3.428081641282605951e-01 5.889729386364827013e-01 3.427155530403386968e-02 7.410343081912528218e-01 5.019746208511585150e-01 4.459704408420440691e-01
1.250212701155646866e-01 6.141872003840250782e-01 1.951475395349497322e-01 5.222524830190753420e-01 7.633118652776746393e-02 8.493679379065784962e-01
-7.096212969386719860e-02 6.197737811721119039e-01 9.204927869123144535e-02 8.732686188654762427e-01 2.805720835687233183e-01 3.983481206516343853e-01
-3.807091076901258919e-01 6.039233962652285070e-01 3.307368767401519527e-02 6.578476136461065549e-01 5.174852066224420177e-01 5.472162078621679582e-01
-3.759051519330323665e-01 5.992748088079979940e-01 5.931713998223606815e-02 5.109803969807322765e-01 4.618816208479818441e-01 7.249582072259436183e-01
1.518026143161773367e-01 6.239901577047053394e-01 1.696588484587767398e-01 8.177715510093068740e-01 4.857628246442637771e-02 5.734893505042344408e-01
-9.449758802320938622e-02 6.063241771792389212e-01 1.222730390605116374e-01 7.527992489133786824e-01 1.612798329054201396e-01 6.381865764284397891e-01
-3.616172678060418644e-01 5.900004270935053086e-01 6.645047503833519109e-02 7.149130297208267093e-01 4.418679593513304971e-01 5.418967304146422581e-01
1.764231108446134288e-01 6.362389789303073417e-01 1.742875442143893838e-01 8.531610626437019507e-01 4.931001748827198994e-02 5.193117785723480040e-01
1.407032370254760467e-01 6.227739461536314636e-01 1.827071150538382149e-01 4.332966722994598952e-01 -1.119991370713552779e-02 9.011817550900411700e-01
9.660505082817735789e-02 6.231767746309156975e-01 1.881927681290244680e-01 -1.143825090073638806e-01 1.981939659207798965e-01 9.734658666362026036e-01
1.726883763292988150e-01 6.361453908575945837e-01 1.776868963978237570e-01 7.318015509565035659e-01 9.217830175541086302e-02 6.752552485565325169e-01
-8.737209595873474122e-02 6.292414170316923405e-01 9.404331868751375501e-02 8.516192224135964439e-01 2.618862356578153250e-01 4.540487854720463012e-01
-3.806098367849750641e-01 6.373701742540899273e-01 3.533252947732461180e-02 6.306998790169136004e-01 3.778171800182248963e-01 6.778435225707529765e-01
1.223237635716195315e-01 6.184523305518915270e-01 1.738948504273646889e-01 3.189052476897928368e-01 1.994362340812643186e-01 9.265660427251771747e-01
-3.581865039685032670e-01 6.397954099803040418e-01 3.936008450727405961e-02 8.705799984853773710e-01 4.602257231776022972e-01 1.740193953640038205e-01
1.442583248315838507e-01 6.368911676823322265e-01 1.655728597852751394e-01 5.720871347202808321e-01 2.856939737998553941e-03 8.201878737111836237e-01
9.664462289222169877e-02 6.520276190379473702e-01 1.935244119795967721e-01 -2.029098639122108583e-01 6.230928091048124756e-02 9.772129453908942054e-01
-3.645884210005945758e-01 6.349641501721968728e-01 1.406508074230861972e-02 7.077173008076845795e-01 4.885008019509549659e-01 5.103951299050168977e-01
-3.788694411671478801e-01 6.434862430384700183e-01 3.195925118317492070e-02 5.514891430359547542e-01 3.634908598601011009e-01 7.508222958274697323e-01
-1.127259434051944426e-01 6.469343319592357755e-01 8.239685614210569276e-02 8.314779709338963043e-01 1.921563700005462783e-01 5.212679860876399118e-01
1.451185017715158898e-01 6.743137854844063472e-01 1.851944753664236665e-01 6.679586320760025897e-01 2.463208754306808052e-02 7.437906466865700228e-01
1.383244718058055100e-01 6.495991830988677718e-01 1.651433677021221791e-01 5.777431893451077105e-01 1.600380134121582865e-01 8.003753128554333962e-01
1.305266515568637153e-01 6.550847019409583583e-01 1.770945535113272740e-01 1.061162660645872807e-01 3.471124757573057495e-02 9.937476879813335051e-01
1.230025440386625923e-01 6.502008869451024742e-01 1.730693941280717074e-01 2.093887369975667434e-01 1.646669123996848949e-01 9.638678149929679195e-01
-9.269601246934786043e-02 6.464079323497948781e-01 7.397205394784608923e-02 9.236198212586359535e-01 2.520450518813347474e-01 2.887900926283670788e-01
1.177502096537002135e-01 6.623888628694345471e-01 1.826117790762449289e-01 -1.359715253534581614e-01 6.306901027288416839e-02 9.887032134246621640e-01
-1.125393784007991255e-01 6.557952440411879413e-01 1.015758224672798499e-01 8.593456077597904086e-01 3.833897824629389078e-02 5.099561247509306616e-01
-3.801208191977643036e-01 6.711792116071553238e-01 3.438707890586358007e-02 7.741843230894615013e-01 4.389081695501866331e-01 4.560682543047881454e-01
-3.914107522826556496e-01 6.240565037500234169e-01 2.183680806438532962e-02 5.050960464474542055e-01 4.517507400526502015e-01 7.353905443538379938e-01
1.502919071227519776e-01 6.640538932896428159e-01 1.832730017211362250e-01 8.112570002929893054e-01 -1.223123637660580715e-01 5.717532379843425216e-01
8.266313240092240666e-02 6.687060765727348421e-01 2.086921108176989503e-01 -7.757860684223868986e-02 1.950662471808633502e-01 9.777170955706930844e-01
-1.058046773110153382e-01 6.630947858029936359e-01 7.888647493938027999e-02 8.829162887255550540e-01 2.868329675994043537e-01 3.717333396417536462e-01
-1.291913981584421611e-01 6.573682312334315769e-01 1.186973285663452671e-01 6.023948319321383860e-01 2.539216279447679137e-01 7.567326300109765702e-01
-1.673367451129541272e-01 6.798329422524096444e-01 1.094279836782271892e-01 -3.565363541579786300e-01 1.334944153227303199e-01 9.246951223194479486e-01
1.582163959280014076e-01 6.752168755193866945e-01 1.822380735652273931e-01 5.574740532561006656e-01 2.404856738556724327e-01 7.946001010674472731e-01
9.800706317389104583e-02 6.647100655698486849e-01 1.839367669250014103e-01 -2.557192549754156996e-01 7.768221427779030408e-02 9.636249977142135048e-01
-1.186616701970447663e-01 6.708950287273318658e-01 8.311393234701654198e-02 9.052933324480425537e-01 1.169029162260129540e-01 4.083842435782406022e-01
-1.306212253775721477e-01 6.794723558472062219e-01 9.007036348259087055e-02 7.050648426146030046e-01 3.652300575897184931e-01 6.078573621680137817e-01
1.759541378040556936e-01 6.998534268587524032e-01 1.806053357224056688e-01 9.191559289795939724e-01 2.226647809428128622e-01 3.249196416798291742e-01
-1.744561592050591914e-01 7.022583599158215284e-01 1.149389187962188974e-01 -2.381963769776403173e-01 3.962180182673247231e-02 9.704084700860401425e-01
-1.211094067645418770e-01 6.727127036932338822e-01 7.330488059853741689e-02 8.466393155870479692e-01 1.767227501723602490e-01 5.019670695113501724e-01
-1.405893681789693317e-01 6.865479531626702547e-01 9.979446254087902257e-02 7.761418025336529469e-01 1.615039363627778501e-01 6.095247172175544126e-01
1.440209250303623456e-01 7.030902137502188509e-01 1.606115384043475813e-01 7.257652723511291981e-01 1.121796957085652857e-01 6.787344733545107589e-01
-1.379276002600732243e-01 7.165697752676946086e-01 8.024332457162572374e-02 5.673171101487425316e-01 2.449545865872513883e-01 7.862242345809167254e-01
1.495058484654448183e-01 7.295623217592296372e-01 1.905430440214161136e-01 4.109020508984964071e-01 1.989674849660417744e-01 8.897030091517603712e-01
-1.127370510061239117e-01 7.357702412210637144e-01 1.006513051089783922e-01 5.759107937873302330e-01 2.650026436284911302e-01 7.733694825044225007e-01
1.546279938402467802e-01 7.198820891464057237e-01 1.884425343861013125e-01 5.940467342709928600e-01 6.462111471380077576e-02 8.018307733151143202e-01
-1.002871292932041997e-01 7.419391879665476752e-01 8.532039085439774295e-02 7.992074149637897751e-01 2.562561268163706663e-01 5.436913695617845432e-01
-1.233854655010478973e-01 7.486813589090688392e-01 7.003475338275283457e-02 7.569093335638609199e-01 2.847379467999217040e-01 5.882283250712062594e-01
1.486765496853457158e-01 7.308576371751763778e-01 1.585882777614625039e-01 7.105802647424486196e-01 1.488592897608818633e-01 6.876893188136904422e-01
-1.074595901405571985e-01 7.255391592931843547e-01 6.435791020457123923e-02 8.923814253525625961e-01 2.526265136869170203e-01 3.739454990611904561e-01
-1.218214430521569053e-01 7.299013020913095451e-01 5.192165895207370707e-02 7.171987646026839469e-01 2.877991446596055991e-01 6.346633630402683801e-01
-1.304785748309576499e-01 7.808305873799170627e-01 7.080166986634382764e-02 5.951262134877629562e-01 4.315176843845902610e-01 6.779507932608963561e-01
-1.259200142278428802e-01 7.569577163007663589e-01 7.272488269275451112e-02 7.910743601171594808e-01 2.843542358629110312e-01 5.416124309061292053e-01
-1.490536545312630412e-01 7.820624570042030710e-01 7.534695458382265065e-02 7.345738806489315875e-01 2.061574263676001495e-01 6.464521091479681347e-01
-1.275513126974293920e-01 7.992339085548899602e-01 5.327029294628094630e-02 8.756355548408268907e-01 3.325185214008133938e-01 3.502767591833835792e-01
-1.261513332933220377e-01 8.083820039969336069e-01 7.860623913475167646e-02 6.226806012560738290e-01 2.982588707645165149e-01 7.234020423178592063e-01
-1.377963159209653066e-01 7.792704542238045873e-01 9.080201343506838496e-02 3.225830187721583919e-01 3.563318986425921819e-01 8.769080761457306306e-01
-1.513733416897882211e-01 8.085765105738927927e-01 6.126507516981714863e-02 8.443845987279462451e-01 3.758134187579366681e-01 3.818100623510556346e-01
-1.393194979105632225e-01 8.465608736674827828e-01 5.473955045204356024e-02 4.539647058616640418e-01 5.998504602798381269e-01 6.588592195105107407e-01
-6.559844737386478775e-01 3.209713230371702974e-01 -1.046863630335521100e-01 -9.621072684565674660e-01 1.910125484897107484e-01 -1.945862541458370232e-01
-2.235378777466706657e-01 8.419280905422350525e-01 1.101009663176015507e-02 -8.164713528546343468e-01 5.769519492212790146e-01 -2.238254358847262260e-02
-1.120849372849942599e-01 -9.415585839376814370e-01 -9.495366310484823491e-02 -8.993545902335130515e-01 9.915721453503274774e-02 4.258276269003257730e-01
-1.010233570919777668e-01 -9.575208295773943723e-01 -7.766830967050876444e-02 -8.614916808025041561e-01 5.979604009769380613e-02 5.042385521721949315e-01
-1.202469960964918649e-01 -8.474521334232485437e-01 -1.423172301089589975e-01 -9.910209691668999676e-01 9.347300449210881046e-02 9.560458201737236095e-02
-1.237742355066954320e-01 -8.465336842023463149e-01 -1.788369096932554969e-01 -9.988395396389641023e-01 3.062207022497459574e-02 3.717341615938622029e-02
-1.459923761909765194e-01 -8.010228071228259195e-01 -2.125176508742050163e-01 -9.786787993150412035e-01 7.107809622939939564e-02 -1.927062842973045476e-01
-1.149026153785865922e-01 -8.337657571841209370e-01 -1.843717278915060487e-01 -9.591702686922424226e-01 -7.596391501797167267e-02 -2.724369271446036023e-01
-9.290700004134903878e-02 -9.210729085661900628e-01 -9.400211895408960849e-02 -9.054689860063541706e-01 6.885689076040156509e-02 4.187894984063415538e-01
-1.256478060802614649e-01 -9.394252269465815930e-01 -1.218769070629810575e-01 -9.650692355449459470e-01 6.668178190504267522e-02 2.533671457917576197e-01
-9.694126003030237304e-02 -9.394404010808588001e-01 -7.765158319439587065e-02 -7.656115184513336835e-01 6.405579022992169413e-02 6.401061306944836327e-01
-9.996164061692570935e-02 -9.219599826674812482e-01 -6.747322039170942920e-02 -7.815114564914072970e-01 8.670759215928706964e-02 6.178362540630145672e-01
-7.762378982213498368e-02 -9.410694187892141294e-01 -9.084234518159847727e-02 -8.283430605215434950e-01 7.574385299768549018e-02 5.550771503303548737e-01
-1.128657900059507613e-01 -9.231637182482674842e-01 -8.520000930697818609e-02 -9.050861802202675443e-01 8.263614177605975442e-02 4.171214145145898944e-01
-1.002810904163724121e-01 -9.493469904345097632e-01 -1.313574148159753485e-01 -9.482795831567575329e-01 2.226374469444182547e-02 3.166546349577519237e-01
-1.007096811025404298e-01 -9.201731040638857495e-01 -9.199405382509096007e-02 -8.026081969195706378e-01 1.286498467007089475e-01 5.824682816955786269e-01
-9.066407187711662818e-02 -9.144388942132629650e-01 -9.409595580712194762e-02 -9.422897215630702261e-01 -2.659468806050086301e-02 3.337406226451258284e-01
-1.084790552370542283e-01 -9.182569418729324973e-01 -1.336015515337999060e-01 -9.525216893192244294e-01 4.660258271673606290e-02 3.008830847033125422e-01
-1.227273287951293063e-01 -8.976053375134607215e-01 -1.653765744877744026e-01 -9.966998091933743087e-01 3.560398017006140281e-02 7.295099005456519292e-02
-1.168262356467942159e-01 -8.789399006523275215e-01 -1.091275170800781597e-01 -9.541437146528541913e-01 -1.115569810952459218e-01 2.777855499434189190e-01
-1.340500189732144465e-01 -8.838869037341141599e-01 -1.800218219126944186e-01 -9.982504491383743517e-01 2.030836336879216289e-02 -5.553027257555159107e-02
-1.274767196806425029e-01 -8.780876097088670118e-01 -1.989340740190237433e-01 -9.880535513004500281e-01 1.773955904862659777e-02 -1.530865369891463990e-01
-1.367297728495737996e-01 -8.669464249634406539e-01 -2.127157157900301521e-01 -9.690210090610583693e-01 6.290852093338683559e-02 -2.388321628094967619e-01
-1.120843706941358486e-01 -8.720769266786628782e-01 -1.482206365169829176e-01 -9.951431547968984104e-01 4.804435640585016931e-02 8.591764241658350620e-02
-1.024626385858184302e-01 -8.658334042688219379e-01 -1.755586804104250220e-01 -9.899169141786114956e-01 -2.890279651483369794e-03 1.416197348769992759e-01
-1.199491783788757537e-01 -8.489186196007800778e-01 -1.797018970945432892e-01 -9.982314116468015142e-01 3.116256056492221205e-02 -5.062552341133422923e-02
-1.332351719171651627e-01 -8.534777470846769409e-01 -1.636459008691231731e-01 -9.986886455176805510e-01 2.860508012689829543e-02 -4.245867055142264063e-02
-1.002573151635246518e-01 -8.642338394098052490e-01 -1.955166134775260245e-01 -9.261206527348913031e-01 -1.156597003691740289e-01 -3.590590066944593928e-01
-1.066545187513814191e-01 -8.518887857224167748e-01 -2.020101927749199944e-01 -9.944568964697242386e-01 -3.718709963620949691e-03 -1.050792665563026612e-01
-1.281385400339860314e-01 -8.446910770340911867e-01 -1.622190093156214430e-01 -9.991328703561865865e-01 -2.816103975723704012e-03 -4.154006418152775271e-02
-1.133959246065177756e-01 -8.305321637881620811e-01 -1.883055465460714561e-01 -9.818598374512969018e-01 1.257492068591912759e-01 -1.419098184566415788e-01
-1.970382346954838437e-01 8.518523504822799186e-01 2.895441449754758423e-02 -5.098292836322877442e-01 8.595225798784321691e-01 3.598661181762925071e-02
-2.117325769130029844e-01 5.230453793322570322e-01 3.465626300337645849e-02 -9.867103005802746463e-01 1.082487441945973947e-02 -1.621283590942281527e-01
-2.053203998600463820e-01 5.688262475258977213e-01 4.794865176114519734e-02 -9.201508407191679728e-01 -8.548095532528447726e-02 -3.821196626718980638e-01
-4.647303221633456438e-01 6.445811327858379514e-01 1.777802229710103571e-04 -9.373659973512854515e-01 -3.477549470633715112e-01 2.028506353407629262e-02
-4.902292999741331703e-01 6.427497687572342189e-01 -2.173551555871459234e-02 -9.698469653439496518e-01 2.328816903516713888e-01 7.185389420261070748e-02
7.151534464921140144e-02 6.587728880273365784e-01 1.047982910136857765e-01 -8.495596776911576997e-01 2.137723974921367232e-01 -4.822340885003466027e-01
5.752880388841132009e-02 6.677942066700188750e-01 1.155710156115443282e-01 -8.942894002719014024e-01 1.183089759245159744e-01 -4.315662808619495916e-01
-2.279270192202408618e-01 7.103304405727038917e-01 5.767134155216303154e-02 -9.594487479631532700e-01 -1.434760229543719789e-01 -2.426370352380986806e-01
5.834078536071774651e-02 7.335001189183066872e-01 1.064840080030080849e-01 -8.709844178237782231e-01 2.488921343939481251e-02 -4.906798049263312311e-01
-2.386380114765163651e-01 7.428645893010178414e-01 3.313774700516614047e-02 -9.986430363823086687e-01 -5.204787656604189378e-02 1.761939297787707597e-03
-2.152099386782596047e-01 8.075002195434369812e-01 2.005249530497351870e-02 -9.968563356222088778e-01 4.828823642077550993e-02 -6.281474630398042880e-02
-6.371252318548877858e-01 2.389851825389865680e-01 -6.550693649753341896e-02 -7.122979781235972974e-01 -6.980556288102686135e-01 7.314321190196568234e-02
-3.113888161414002931e-01 2.249871862949790469e-01 8.860082419794454434e-03 -8.005564885261094998e-01 -5.006073570081530644e-01 -3.293957844114836497e-01
-6.665863678961886363e-01 2.802352242614853384e-01 -8.072810947916148061e-02 -7.277673359992963276e-01 -6.823163944736944098e-01 -6.927512168812820226e-02
-6.631784946068052244e-01 2.726287122745955083e-01 -6.673200892457331612e-02 -8.542781915117408920e-01 -4.399490967522306506e-01 2.768638000431365431e-01
-6.801392979412563822e-01 3.129120145419792554e-01 -9.074969034222944708e-02 -9.742285730068626082e-01 7.225609592292679684e-02 2.136767281174747624e-01
-3.474959772363780952e-01 3.183368466228207461e-01 9.800151449614741272e-03 -8.501462522022086299e-01 -4.754335700729692693e-01 -2.263057010201241781e-01
-3.517278089694646503e-01 3.229887800140370246e-01 7.314898613857302029e-03 -8.642741408585665752e-01 -4.354474533487378007e-01 -2.518247899141097257e-01
-3.883828567664820985e-01 3.857315544887345848e-01 -2.081707914690478917e-02 -9.157216617109701362e-01 -2.476988170358129515e-01 -3.163844722996980163e-01
-4.030997325183429680e-01 3.201049588138474289e-02 -2.703332144014873942e-02 -6.344132871100578441e-01 -6.712569412155532378e-01 -3.833195794740343332e-01
-3.951925996815482955e-01 2.735236852224386811e-02 -6.404801309710109192e-02 -6.317370683939447229e-01 -6.920304028893343729e-01 -3.492881301931831106e-01
-4.915990569943261557e-01 9.736051193274369853e-02 -3.496690824108712736e-02 -5.837938483792464162e-01 -7.231744015419404592e-01 -3.690576209062831348e-01
-5.474016337974279001e-01 1.722246356399792511e-01 -3.935714433003281720e-02 -6.974037913705267711e-01 -7.110072693993644277e-01 -8.998119049709424333e-02
-5.764733231672609648e-01 1.822056196388228688e-01 -3.974725140335008677e-02 -5.677002486869213715e-01 -7.272063978298147768e-01 -3.858591486490799971e-01
-6.048231732991302678e-01 2.311794323587030020e-01 -8.011762228966781696e-02 -7.314300763291701202e-01 -6.787350619602262602e-01 -6.579330594332682969e-02
-2.299006850453779449e-01 -2.928899680430253616e-01 -1.267638197641634823e-01 -7.496890036597585460e-01 -1.500776503289778241e-01 -6.445487542951048310e-01
-2.602054524454648354e-01 -2.385852037284941496e-01 -1.099086022461797790e-01 -8.466675334481678084e-01 -5.476046149467494323e-02 -5.292970618298252772e-01
-1.325074434295003545e-01 -3.785537078217952600e-01 -1.799889463827709923e-01 -7.567528443047585318e-01 -2.755976976554627145e-01 -5.927655874657925539e-01
-4.493064718203958890e-02 -9.304901413763191353e-01 -3.049467739786217990e-01 -6.915783097986721861e-01 -1.912743560514795077e-02 -7.220481858042320233e-01
-4.570249120475333021e-02 -9.220900722301499375e-01 -3.104868562012222388e-01 -4.760868108927557296e-01 4.122010439647253582e-02 -8.784316999559552697e-01
-6.213503796659217149e-02 -9.381498528749320220e-01 -2.899245892062521368e-01 -6.862214678440551330e-01 -1.652012575324263155e-02 -7.272050484664195347e-01
-1.288407403022917841e-01 -8.688655627024538530e-01 -2.319223779138572528e-01 -9.210411477667929114e-01 -4.175093007830235625e-02 -3.872209497922672328e-01
-1.259515100186855141e-01 -8.430417328821934175e-01 -2.302859975974705098e-01 -8.922688836689335323e-01 7.654645059997479406e-02 -4.449684035262962412e-01
-8.519915572910721768e-02 -8.564764253583533327e-01 -2.273833894839109582e-01 -8.853975330553415235e-01 -5.767499934819492885e-02 -4.612426724726380600e-01
-9.312404515108399505e-02 -8.415429583594495888e-01 -2.257681970146753203e-01 -9.480466887593697045e-01 5.825299177080263402e-02 -3.127524018806980832e-01
-1.170897365471982865e-01 -8.311976717691238470e-01 -2.465037115969693216e-01 -8.684130864584054255e-01 -3.265723082218521811e-02 -4.947648093213709575e-01
-1.046612420297428486e-01 -8.584255900027505382e-01 -2.420299877999756155e-01 -8.598140004883068066e-01 2.701699763597729606e-02 -5.098921125130605470e-01
-1.062697165590707621e-01 -8.392699967702752506e-01 -2.143733885022752472e-01 -9.382501862833081407e-01 -5.330883367154343189e-02 -3.418256224918154174e-01
-1.151733000891910080e-01 -8.348582829136027561e-01 -2.543451531133245624e-01 -8.482492225141768927e-01 -5.670781821479216854e-03 -5.295668973204684660e-01
-1.086762719609127292e-01 -8.398025938454470873e-01 -2.395511723359814993e-01 -8.408479999459352872e-01 -7.949187124199395479e-03 -5.412129446077439399e-01
-1.000421017855138983e-01 -8.116983770097000450e-01 -2.524505766892115588e-01 -8.736314192780153531e-01 -6.082680500957855091e-03 -4.865502484309341402e-01
-1.142382583013221570e-01 -8.015247420978565129e-01 -2.333524566975959391e-01 -9.647502503846653310e-01 5.113364591439890222e-02 -2.581517085711933501e-01
-8.157309771815894617e-02 -7.996368442840962043e-01 -2.663975704585969106e-01 -8.986329437133490083e-01 1.982606240787817761e-02 -4.382530772538620889e-01
-9.634026234581999359e-02 -8.068214816092252883e-01 -2.295283676758476388e-01 -8.883873573187471839e-01 8.114380442770356694e-02 -4.518667794374924274e-01
-1.024574193046698806e-01 -7.844319848666164718e-01 -2.107711604947073991e-01 -9.837703802154006416e-01 6.898586896446413930e-02 -1.656405412151988887e-01
-8.991074739880944300e-02 -7.837653799395020160e-01 -2.481663305931585684e-01 -8.701258305025522111e-01 2.800113170369840712e-02 -4.920335107648218798e-01
-1.294985466173663169e-01 -7.892343192338304725e-01 -2.094621602549819050e-01 -9.701914177697839037e-01 8.783967340386077127e-02 -2.258601440320086029e-01
-1.025258240145791033e-01 -7.908439087025609382e-01 -2.878428889114841294e-01 -8.826531768703888003e-01 -2.238802477037387870e-02 -4.694913691512245801e-01
-1.130963665050580824e-01 -7.879704076631874887e-01 -2.336053291620117101e-01 -9.623069388351551678e-01 4.498439469969262722e-02 -2.682196109594058298e-01
-8.487064036363564656e-02 -7.979549612366608757e-01 -2.110474844622321211e-01 -8.995981241048472965e-01 -3.476733435788931237e-02 -4.353325712242153700e-01
-8.829921266799432844e-02 -7.751383012854448085e-01 -2.618490076815068179e-01 -8.821489534517309439e-01 -1.119642824626092617e-02 -4.708374070935127387e-01
-1.006011741300524565e-01 -7.534247031817614682e-01 -2.582939064052559019e-01 -8.240967876569738060e-01 3.972665941327518935e-02 -5.650542249247573201e-01
-1.049434886651959414e-01 -7.607461854477297614e-01 -2.445781001020788381e-01 -8.640960189431787786e-01 -1.233306767557745542e-01 -4.879832109996328771e-01
-8.333952252055118470e-02 -7.323622346902968205e-01 -2.409787319148836982e-01 -9.503887270841442358e-01 1.325513356347973737e-01 -2.814096850728685095e-01
-1.105939038671736457e-01 -7.619800601522873640e-01 -2.439331338270505634e-01 -9.351273629455262304e-01 -1.954338946056288773e-02 -3.537723434624857610e-01
-9.455996706729880019e-02 -7.746120057081757881e-01 -2.570119888102924133e-01 -9.099342806476578005e-01 1.593443825730957511e-02 -4.144462553572580976e-01
-8.001229014923585958e-02 -7.368482834642702262e-01 -2.169346106976481614e-01 -9.573058995368498580e-01 9.313690006257870080e-02 -2.736620773119212147e-01
-9.820105209724194761e-02 -7.211887989950719335e-01 -2.217060680781994808e-01 -9.398686433713544508e-01 1.367737691781712728e-01 -3.129534618311263228e-01
-8.036579522862330460e-02 -7.264724545772220932e-01 -2.518576551222866944e-01 -8.601878668003272166e-01 3.091136036538618542e-02 -5.090396071131046973e-01
-8.390385708404214660e-02 -7.120653730840942330e-01 -2.672785606772745126e-01 -8.716674409404175927e-01 5.939255077707184666e-02 -4.864857627069641977e-01
-1.035306506007969141e-01 -7.148045364176640604e-01 -2.290147045211588517e-01 -9.550489410324578543e-01 -3.910363361343730665e-02 -2.938578330945204597e-01
-8.685195697151010252e-02 -7.322211094526452912e-01 -2.466846503733762797e-01 -9.552015834483231771e-01 5.057158952314047551e-02 -2.916032395411942146e-01
-7.884124740082742999e-02 -7.075756217029665063e-01 -2.696690762945502251e-01 -9.328696073015787515e-01 6.690192961258187299e-02 -3.539469276418590882e-01
-8.049148571781060413e-02 -6.804842948948532921e-01 -2.117165241405450926e-01 -9.355692614026765996e-01 1.805910358211310629e-01 -3.034749329013867181e-01
-1.044423627372587232e-01 -6.735552125453517780e-01 -2.534130454720194270e-01 -8.706454438426081133e-01 3.877890649706901977e-02 -4.903801663271051825e-01
-8.848938997467216405e-02 -6.676871990028955262e-01 -2.320678220071210884e-01 -9.306001971853263832e-01 1.515881186898771771e-01 -3.331731010611381216e-01
-1.097271063382133510e-01 -6.702155073156920162e-01 -2.230822524261494577e-01 -9.781096615975164443e-01 1.430846802722074429e-01 -1.510902517073557383e-01
-1.113632425539674703e-01 -6.734493631275793035e-01 -2.585088998991933451e-01 -9.199075204051069266e-01 1.780562782424441048e-01 -3.493796154336672455e-01
-8.523524535097673493e-02 -6.742122897311858543e-01 -2.141815508905811627e-01 -9.606876807535456031e-01 7.054518124668890389e-02 -2.685191938227979858e-01
-8.455763348577181870e-02 -6.465334819266614907e-01 -2.720687101204699032e-01 -9.410502800127331646e-01 9.985416281857591170e-02 -3.231926927635552782e-01
-8.998892184761152213e-02 -6.752680542822583343e-01 -2.257083599365703463e-01 -9.418226384018948405e-01 1.368785109525747501e-01 -3.069762059722214165e-01
-8.643440009267928936e-02 -6.382541161796436713e-01 -2.483328321914635428e-01 -9.212510535423531488e-01 3.237961963240639646e-02 -3.876184420013645271e-01
-1.003967532635245824e-01 -6.585212676070661963e-01 -2.433018372103732674e-01 -9.475167747069772606e-01 1.542654495311089613e-01 -2.800252358803618224e-01
-1.058724230889109830e-01 -6.238271449014403114e-01 -2.499027915916213205e-01 -9.228091825139579374e-01 6.210985411148405716e-02 -3.802178042782460854e-01
-7.468185709493158075e-02 -6.364449945097808703e-01 -2.455732784483373177e-01 -9.591377888263055151e-01 1.005431568721203983e-01 -2.644726368673580574e-01
-9.645579343530986949e-02 -6.033796201403218706e-01 -2.374242280570858787e-01 -9.347658716565752091e-01 1.653820078609109789e-01 -3.144225765781085702e-01
-1.057214519858192536e-01 -6.077672506715229295e-01 -2.191561393717741113e-01 -9.787919504655352432e-01 2.879234674230191689e-03 -2.048365878244508276e-01
-8.918050937289735691e-02 -5.928612199652770753e-01 -2.282977861334209158e-01 -9.422090620281746709e-01 5.203420836241690745e-02 -3.309600045203102692e-01
-6.115231829281807252e-02 -5.953080135932203865e-01 -2.539472965039068497e-01 -9.166046538831864599e-01 1.140655478708135495e-01 -3.831774514094159478e-01
-9.516934105989693915e-02 -5.930278025428495914e-01 -2.607080958864273490e-01 -9.032602418617350359e-01 9.418558857122596994e-02 -4.186287261731710951e-01
-8.554918323937701907e-02 -5.744614446614269010e-01 -2.378768022068959154e-01 -9.323612619058795348e-01 8.470853589446424026e-02 -3.514639970806289204e-01
-7.627221509792658782e-02 -5.863705458969968864e-01 -2.319172245807469557e-01 -9.684808135948451691e-01 2.445054702408595848e-02 -2.478852243456425852e-01
-8.076046360421906822e-02 -5.557641520199834151e-01 -2.507454695228208963e-01 -9.518233298956869648e-01 1.767313150925592380e-01 -2.505960712619825226e-01
-1.310040990599332100e-01 -5.580044358985168929e-01 -2.217551266340213323e-01 -9.541004958234705624e-01 3.690974652390048572e-02 -2.972034900214816644e-01
-7.835009579921504985e-02 -5.764143535269696805e-01 -2.181068813648671945e-01 -9.395007770306088579e-01 -1.074268325351587956e-02 -3.423782772247633832e-01
-9.578238024116901561e-02 -5.663819005149934860e-01 -2.301466157210490249e-01 -9.771315802867923672e-01 1.260268413980424572e-02 -2.122617420985424275e-01
-8.229964025595765120e-02 -5.590816224424265402e-01 -2.465491378192271599e-01 -9.184773601119214925e-01 4.913753980517016409e-03 -3.954430350678265760e-01
-9.197574778922512628e-02 -5.550248317631847339e-01 -2.228033612239936068e-01 -9.438203867641348221e-01 -1.454498112596154524e-01 -2.967278718505245161e-01
-1.082738511843879120e-01 -5.289066688452719323e-01 -2.297422512903268266e-01 -9.578292437277563520e-01 -1.821347189366164243e-01 -2.222387995328315435e-01
-8.511317824189226777e-02 -5.348479438015976140e-01 -2.497445259693621966e-01 -9.500521116970446212e-01 -8.634531950334209741e-03 -3.119718415466123940e-01
-8.905956488105586100e-02 -5.110486952073174383e-01 -2.261138691600369510e-01 -9.013765213683463395e-01 -1.271272117853309014e-01 -4.139553584018289545e-01
-7.689272589874550368e-02 -5.234618230943907102e-01 -2.386938829925552008e-01 -9.354631766226750855e-01 -1.606503983018925386e-01 -3.148016751995721951e-01
-1.041514011882422597e-01 -5.148308077626431167e-01 -2.151673249771500207e-01 -8.937122564182929940e-01 -2.316270244477895701e-01 -3.842230137214406871e-01
-1.205349363403966506e-01 -4.920256920010027124e-01 -2.282082816466447228e-01 -8.891876160257339290e-01 -2.638709524334817424e-01 -3.737880468505102582e-01
-8.418083214099907063e-02 -4.926216649010591309e-01 -2.631137383001168062e-01 -9.027074980182719921e-01 -1.300909068546286240e-01 -4.101164822039365943e-01
-9.463022387198280483e-02 -4.948296561437192098e-01 -2.313078440619100173e-01 -8.899012920720565933e-01 -1.636154740705359767e-01 -4.258000317204755913e-01
-6.117391750263439371e-02 -4.757143649007291586e-01 -2.450301920704585357e-01 -8.666869493350443099e-01 -2.628051840037075038e-01 -4.240131685609442314e-01
-1.024435534638434980e-01 -4.546001603661098955e-01 -2.111084312381231176e-01 -8.904049039314935188e-01 -1.306169777289320488e-01 -4.360255866158628257e-01
-1.044611262372924371e-01 -4.771058208577174109e-01 -2.285405356098679230e-01 -8.321786460410659503e-01 -1.265133504134803022e-01 -5.398824624308647957e-01
-1.025916046285373223e-01 -4.610420642087963983e-01 -2.255812203167217866e-01 -8.676849938927894135e-01 -2.333459550545401995e-01 -4.389446623812101600e-01
-9.531027740562453276e-02 -4.513549502181026241e-01 -2.311132176155418771e-01 -8.125479729220346226e-01 -3.531421132596496842e-02 -5.818235971312246679e-01
-1.171049727635529586e-01 -4.501648925553476954e-01 -2.436977104491693802e-01 -8.337228450931712942e-01 -2.126070932403596736e-01 -5.096120499690258709e-01
-1.092669382914230464e-01 -4.484001354184847243e-01 -2.063135158275458125e-01 -8.850362923123389347e-01 -6.398313172129627135e-02 -4.611040231283646262e-01
-1.114050843447736971e-01 -4.448641316314161931e-01 -2.295577638397345022e-01 -8.447056997128944422e-01 -1.709771302301150431e-01 -5.071874424814001303e-01
-1.340919408713966421e-01 -3.988261820901038979e-01 -2.218358274212026138e-01 -8.178249992426469550e-01 -1.058452591252888181e-01 -5.656492302960066665e-01
-1.162307582766736180e-01 -4.227875725733599710e-01 -2.256692679546010161e-01 -8.781172127338900957e-01 -2.145956520890661134e-01 -4.276200028119970242e-01
-1.129026844084724951e-01 -4.327699873894842453e-01 -2.076408353637015369e-01 -8.244263549271884095e-01 -1.093816352926568480e-01 -5.552988773283932256e-01
-9.417936682159117057e-02 -4.029010307163993776e-01 -2.644672979101033161e-01 -7.177615058746149579e-01 -6.529325281013322047e-02 -6.932208968446328390e-01
-1.340593043786028060e-01 -4.002845291746348066e-01 -2.171538280754236605e-01 -7.669675384690842757e-01 -1.259452184576253519e-01 -6.292047336776279698e-01
-1.368021871525047228e-01 -3.905697445630770259e-01 -2.349815104365506058e-01 -8.562593163016536391e-01 -1.171261129614279556e-02 -5.164133983382405146e-01
-1.114279321023867592e-01 -4.148159496482527464e-01 -2.286241727506022614e-01 -8.661044273344773448e-01 8.611882011694316219e-02 -4.923887384712233861e-01
-1.179063237722155627e-01 -3.993785372603366191e-01 -2.316624486426269447e-01 -8.169241344815784123e-01 7.238968089576594545e-02 -5.721841422141416000e-01
-1.355874864274304592e-01 -4.204287541368715297e-01 -2.059173949098583034e-01 -7.997052124910367654e-01 -1.472147488670919324e-01 -5.820647651513231047e-01
-1.333949162127206489e-01 -3.856017071225090187e-01 -2.197431916979260269e-01 -7.549371601886347705e-01 -2.533230596794974199e-01 -6.048944631924954018e-01
-1.261448044682333680e-01 -4.080521640540481498e-01 -2.139400469636578705e-01 -8.280099221054889602e-01 -2.887586764104277948e-01 -4.806433144157525317e-01
-1.102193966383344242e-01 -3.553232669216916384e-01 -2.388243247799544111e-01 -7.832212301363618012e-01 -5.428538085155047710e-02 -6.193687125529399040e-01
-1.375133956582814121e-01 -3.655034055580392294e-01 -1.965527128298653059e-01 -8.184608740487482326e-01 -1.990530791027506352e-01 -5.389802123928791877e-01
-1.240716797686497730e-01 -3.748665119577612170e-01 -1.672816284818621768e-01 -6.883554637565137968e-01 -2.036945387908998262e-01 -6.961862469076199877e-01
-1.482152512970676128e-01 -3.425444817657022911e-01 -2.104002382163134843e-01 -6.534740422583390496e-01 -3.645382293039023391e-01 -6.633879373869576712e-01
-1.292171191670007380e-01 -3.632067646559307139e-01 -2.142766206493560144e-01 -7.950670772990613422e-01 -1.532510772970530621e-01 -5.868410772112165885e-01
-1.154396853611572987e-01 -3.262592875469296771e-01 -2.390564407287709692e-01 -7.632429874889345989e-01 -2.167976395991468852e-01 -6.086533705757362078e-01
-1.239219014760038484e-01 -3.757453844450426295e-01 -2.199238703919330906e-01 -6.555014850341767119e-01 -3.124106415216712507e-02 -7.545474133734930700e-01
-1.369300601257657235e-01 -3.515039940370429106e-01 -2.205573935768464222e-01 -7.680528663775204601e-01 -3.511128398291506469e-01 -5.355507148313628507e-01
-1.691358221664257533e-01 -3.567765119641803651e-01 -1.822809092742509740e-01 -7.520101356044620600e-01 -4.633427908409354923e-01 -4.688221561785360092e-01
-1.743328566186708450e-01 -3.361204444814602788e-01 -2.161892722781055265e-01 -7.615353839293731442e-01 -2.519823066454806026e-01 -5.971338008865056945e-01
-1.373373183392747054e-01 -3.251163770364324801e-01 -2.282270930114227159e-01 -7.669918895996680197e-01 -3.131833772810364569e-01 -5.600353680645310250e-01
-1.784686153065129788e-01 -3.120349060528041507e-01 -1.985823007319092448e-01 -7.914341187950408862e-01 -3.742995267852318175e-01 -4.832513837077640484e-01
-1.353553633031039094e-01 -3.364779577834919322e-01 -2.308024091282001033e-01 -6.853111563724716415e-01 -2.912724538777732852e-01 -6.674645882467821201e-01
-1.799617975442854567e-01 -3.268996026026828039e-01 -1.783001523067809235e-01 -7.767050315512951109e-01 -2.601725546376338905e-01 -5.736196786863478891e-01
-1.575977359628158159e-01 -3.331162453218214359e-01 -1.940552920887479715e-01 -7.166411192441672906e-01 -2.015201363665156120e-01 -6.676938975663085918e-01
-1.698981224821065616e-01 -3.021349731297201524e-01 -2.003136246872760373e-01 -7.590645388304486652e-01 -1.922755053003009085e-01 -6.219735974714942772e-01
-2.068531889025183590e-01 -3.426657982498024224e-01 -1.696576276868379252e-01 -7.237757210902764360e-01 -1.496126909597221208e-02 -6.898730796221056449e-01
-1.502845786926547134e-01 -3.124232959756321759e-01 -2.061009192700589410e-01 -7.597739810182696507e-01 -1.357198064586048469e-01 -6.358644760501163118e-01
-1.573828062317039478e-01 -3.054718419392724038e-01 -2.122888007094479723e-01 -6.426159448536973295e-01 3.328346726387707618e-03 -7.661812249904448313e-01
-1.839625031012975531e-01 -2.996454581680583762e-01 -1.751640431525273156e-01 -7.352988273616402060e-01 -2.135388756167472535e-01 -6.432237426284358461e-01
-1.605582312829329228e-01 -2.769690126177382083e-01 -2.061758961301725923e-01 -6.350131629881504702e-01 -3.506493431040284825e-02 -7.717050817596006196e-01
-1.554004745829505318e-01 -2.746207008134378125e-01 -1.932810774200080517e-01 -7.432357697616368553e-01 -3.343711598750741254e-02 -6.681934972904667314e-01
-2.051585729951207748e-01 -2.813366311267118114e-01 -1.809717984538025126e-01 -7.424194065638763940e-01 -6.511327777400402472e-02 -6.667635906487899833e-01
-2.243047941261295808e-01 -2.841840978709867516e-01 -1.629206291925720806e-01 -7.737558305538793091e-01 -1.555632614381567691e-01 -6.140863020574550690e-01
-1.989197915350533197e-01 -2.686305950552889121e-01 -1.462584810507932542e-01 -7.277624257378441097e-01 -2.681212303856463364e-01 -6.312470653402328935e-01
-1.771292737501922454e-01 -2.543670674765939888e-01 -1.743455302912683968e-01 -7.741494257001587664e-01 -1.021701183635372601e-01 -6.247030763504332063e-01
-1.599165030794695019e-01 -2.833033064714968186e-01 -2.079739911631611204e-01 -7.462747777724385578e-01 5.315389675746715059e-02 -6.635123354695026121e-01
-2.071827801661642598e-01 -2.754754889178752109e-01 -1.760820386815713234e-01 -6.839722767502033340e-01 -6.368812147903553378e-02 -7.267226072027861417e-01
-2.024271683313590975e-01 -2.524172904984406385e-01 -1.670910630276336573e-01 -7.002513569428411300e-01 -1.112398997599394757e-01 -7.051763763776467409e-01
-2.224769702561953388e-01 -2.511751283828229098e-01 -1.488234468186705739e-01 -7.007716588336893038e-01 -1.866718253174749209e-01 -6.885293834021328774e-01
-1.738274490554218565e-01 -2.511505175830324732e-01 -1.869001838077045119e-01 -6.402340543185225386e-01 2.518046765769052855e-02 -7.677670869081372196e-01
-2.477950055478747304e-01 -2.425912417477953109e-01 -1.563526961667267290e-01 -7.116958481741878506e-01 -1.042282838296665695e-02 -7.024104101877496342e-01
-2.350303713122502969e-01 -2.465110396813243177e-01 -1.360629344347623337e-01 -7.646423361385974449e-01 -2.162955441208072316e-01 -6.070735831659883619e-01
-2.138576900098748956e-01 -2.538578019501340766e-01 -1.626621966114968620e-01 -7.662542932228373349e-01 -1.228280554864664455e-02 -6.424200267779827112e-01
-2.014097631476192696e-01 -2.670123400351829268e-01 -1.800773191947964980e-01 -6.646211306584488554e-01 2.370146195323635796e-02 -7.468045215339583764e-01
-1.756371898149793609e-01 -2.398765108753220521e-01 -1.576853757580968796e-01 -7.522481300799505055e-01 3.717895016802902353e-02 -6.578301273547915162e-01
-2.055520276683687197e-01 -2.291130074293684094e-01 -1.119613355743411531e-01 -6.990143160597158678e-01 -5.573695440806851475e-02 -7.129322393165288263e-01
-2.059824540277085114e-01 -2.364291014835357974e-01 -1.629775036964000723e-01 -6.863855213496091734e-01 -7.473688366623425228e-02 -7.233873888183876000e-01
-1.987875965457081007e-01 -2.341742808887791460e-01 -1.438929607738958227e-01 -6.777279689644486460e-01 7.906100467543480947e-02 -7.310500377012740802e-01
-2.320212133282302247e-01 -2.322346711026758992e-01 -1.240760234112948113e-01 -6.962652295023418203e-01 3.211667849339223165e-03 -7.177774135312957604e-01
-2.083720992415550310e-01 -2.239337107304600338e-01 -1.491255976157921936e-01 -7.813389409534086116e-01 -2.987951639129574066e-02 -6.233912686668207082e-01
-1.732089651786548612e-01 -2.317159362182447946e-01 -1.857181910155832338e-01 -6.175656824305653103e-01 5.640696330448825846e-02 -7.844940295342192060e-01
-2.051748283850995391e-01 -2.197175027002691849e-01 -1.738366759773901649e-01 -6.732154375219636666e-01 -5.272133860305047715e-02 -7.375645294738716329e-01
-2.489286581696777689e-01 -2.130183291729044470e-01 -8.633669145855904503e-02 -8.634653690612036359e-01 -1.660438721804145534e-01 -4.762950649999780905e-01
-2.199126428504990793e-01 -2.118979063501075788e-01 -1.098739554984651812e-01 -8.401020833630787887e-01 -2.244673895747105741e-01 -4.938044962801874105e-01
-2.447317672728016036e-01 -2.131742457265213275e-01 -1.367247389137716262e-01 -6.909095338876903858e-01 -2.015058880952239895e-01 -6.942905681672836282e-01
-1.929204357274886539e-01 -2.006504071403917566e-01 -1.619725570233028766e-01 -6.032876216479782228e-01 1.201697025516449968e-01 -7.884182190658552969e-01
-2.115917627652087740e-01 -2.116390583974132600e-01 -1.466937584627980296e-01 -7.405251851701091237e-01 1.793023935960107737e-03 -6.720262161507841725e-01
-2.255260588856687620e-01 -2.075372108050940467e-01 -1.536268552258492626e-01 -7.007487483946293061e-01 2.866010668120402144e-02 -7.128322312496696567e-01
-2.421175097131278153e-01 -2.049275428624278417e-01 -1.257999822530156131e-01 -6.995708353169822757e-01 4.767714525931510822e-02 -7.129709224041480553e-01
-2.389707930675034619e-01 -1.895465582385772729e-01 -1.670536855946324895e-01 -7.097228276338760633e-01 6.719132165934926793e-02 -7.012694448135078362e-01
-2.219545575425636297e-01 -2.038038508783554525e-01 -1.502545245204600644e-01 -7.056176451694590179e-01 -1.089623910153782738e-01 -7.001649349758377605e-01
-2.037186747523226926e-01 -2.003742349199924000e-01 -1.674914355193460602e-01 -6.229970343361755925e-01 5.542267514270852319e-02 -7.802583048506154251e-01
-2.495701953311592058e-01 -1.959272012271591756e-01 -8.914002807858883992e-02 -8.181892515558847334e-01 -1.643465878528950486e-02 -5.747140598845937864e-01
-2.019452275652186546e-01 -1.575150418047208678e-01 -1.456370486705936274e-01 -6.848645606230503446e-01 -1.598184234854546984e-02 -7.284951024665453634e-01
-1.848294989297509794e-01 -1.765635055933420516e-01 -1.754359022797159495e-01 -6.238763712848167664e-01 8.370301132036525593e-02 -7.770277210295603032e-01
-2.114730264296251494e-01 -1.879358613630304486e-01 -1.036506690505952649e-01 -7.167318882727203855e-01 1.151789420802065977e-01 -6.877711913378642405e-01
-2.249347122840135993e-01 -1.733303255851788294e-01 -1.359904547554908749e-01 -7.481036711419474239e-01 -6.768259510225158038e-02 -6.601211733796801262e-01
-2.529101971686079642e-01 -1.759547609185292683e-01 -1.242144612653305613e-01 -7.592416633719470953e-01 7.565271927154090803e-02 -6.463967532924500548e-01
-2.402697115302201702e-01 -1.661795021795772487e-01 -1.206484292355499838e-01 -7.034389070943849465e-01 7.554513886017483193e-02 -7.067295352399347586e-01
-1.972292432586379707e-01 -1.697027214656802452e-01 -1.358363508062730429e-01 -6.141205630496029411e-01 9.329865798856229464e-02 -7.836780553627694657e-01
-2.699377230880902201e-01 -1.789206891527288790e-01 -1.003566689454972044e-01 -7.710011905342794014e-01 -1.076568255045657133e-02 -6.367426986420390289e-01
-2.174803407711591030e-01 -1.616487199498301275e-01 -1.205348759650165386e-01 -7.411322985325627943e-01 -1.330138279909379162e-01 -6.580503306245178985e-01
-2.085464668232878682e-01 -1.475019869627759994e-01 -1.620813579441902352e-01 -6.258604486902601405e-01 7.823111467761471871e-02 -7.760016697543401509e-01
-2.551478370724532541e-01 -1.522061462152486944e-01 -1.180309344520295567e-01 -7.164844695186023404e-01 -6.222417449467827766e-02 -6.948223924479569602e-01
-2.393879962674910489e-01 -1.574163812646917349e-01 -1.675932008195630818e-01 -7.077322322163982493e-01 -1.153330056354543859e-01 -6.970031458272526459e-01
-2.242610678323115614e-01 -1.615261613213203329e-01 -1.589470230035787135e-01 -5.959821351556041646e-01 4.583036952927325991e-02 -8.016887624285234937e-01
-2.601036549409395660e-01 -1.485973130763701966e-01 -9.805171411135213400e-02 -7.451979839000899553e-01 -1.562405549062072796e-01 -6.482814618619304747e-01
-2.504608026679968624e-01 -1.484529315769703983e-01 -1.101564746052585558e-01 -7.070185463478362298e-01 -7.949747962798101031e-02 -7.027125485239260616e-01
-2.845277891316581598e-01 -1.270757661934993621e-01 -8.360086059121073221e-02 -8.094579220454518609e-01 -1.503807658410415693e-01 -5.675944835028976510e-01
-2.124306985833996630e-01 -1.248130951453877702e-01 -1.415290871108991488e-01 -7.049821408229549613e-01 3.798814836422328717e-03 -7.092148828997609789e-01
-2.233636601366714991e-01 -1.317971346287311607e-01 -1.301215477988476033e-01 -5.910007043630882695e-01 -1.317442107898648407e-01 -7.958402040395353705e-01
-2.490928544557914071e-01 -1.160934523020516890e-01 -1.404164135736430674e-01 -6.306707799174469109e-01 -5.813536104390693710e-02 -7.738699161710668184e-01
-2.705408482180541863e-01 -1.038534877326981049e-01 -8.418045571301407959e-02 -8.025014182368299664e-01 -2.362023611150950997e-01 -5.479050267441709643e-01
-2.585861506063630855e-01 -1.278942340363867780e-01 -1.106417890836721152e-01 -7.471707930178637103e-01 -1.879311983502127414e-01 -6.375089573862546821e-01
-2.831375833508838480e-01 -1.137478522202349102e-01 -9.311939443885038081e-02 -7.801658065834760070e-01 -2.423739199030662539e-01 -5.767115372426464548e-01
-2.561983695578013975e-01 -1.291248760402699813e-01 -1.268717035665066495e-01 -6.374453032890327053e-01 -4.827117180093695725e-02 -7.689820409396551648e-01
-3.050278961052160231e-01 -1.017352365395128300e-01 -7.132320904608541179e-02 -8.303944347319482944e-01 -2.623924702777318263e-01 -4.915234219320150921e-01
-2.836232300845469290e-01 -7.410463261565564119e-02 -6.622731235077461420e-02 -5.701830449637227405e-01 -4.417439931441706769e-01 -6.926424328302014377e-01
-2.913010728025470786e-01 -9.651166348793448202e-02 -1.043350222591538229e-01 -7.781643278329096747e-01 -1.863465414699091161e-01 -5.997793305629657290e-01
-2.495602825204576436e-01 -9.566922098839984734e-02 -1.086279452541438484e-01 -5.783578577063543946e-01 2.768550707760236013e-02 -8.153132533739239074e-01
-2.731477741391823977e-01 -8.590797000670336026e-02 -9.107544349223492541e-02 -6.207188865124133592e-01 -7.977226499047909702e-02 -7.799643899980809314e-01
-2.850021764366198473e-01 -9.699724800039996597e-02 -6.916990934263114732e-02 -7.504767855292663326e-01 -2.004473150097694778e-01 -6.297662012898388451e-01
-2.732415432935367261e-01 -8.002343577696184596e-02 -7.094920744697591486e-02 -7.678021323154919919e-01 -2.120293560212523909e-01 -6.045853436835835204e-01
-2.886724265600514872e-01 -6.920260306851153120e-02 -1.049527243006678073e-01 -7.332618776898274238e-01 -1.634723469444329669e-01 -6.600028867446473546e-01
-3.343324911545262901e-01 -8.365999502376873787e-02 -5.646830503967131820e-02 -7.815920549589607802e-01 -2.990583850874924399e-01 -5.474284811131858719e-01
-3.072368772701230544e-01 -7.974916937988729693e-02 -7.343349147703125135e-02 -7.513241973013617958e-01 -2.761626113805890070e-01 -5.993714729822551268e-01
-2.758237873786067440e-01 -7.639778499820615298e-02 -7.454641803379764842e-02 -5.602455925210249044e-01 -3.530840370805548578e-01 -7.493040363027969608e-01
-3.077309749532790573e-01 -7.537692488189023932e-02 -5.932178012464717903e-02 -6.850825648488427788e-01 -3.706349222666593390e-01 -6.271296785645841254e-01
-2.694996817765549779e-01 -6.722770555740709142e-02 -1.297074500257188734e-01 -6.191941588414718867e-01 1.091282386822247652e-01 -7.776179146462082192e-01
-3.538998942743992182e-01 -4.868717380888441110e-02 -4.178412171096523853e-02 -7.748242946593604241e-01 -3.257682004722928237e-01 -5.417770685131187980e-01
-3.256997750401435243e-01 -6.952833877044006794e-02 -7.919110858934484687e-02 -7.521924449434133075e-01 -1.742705037624016906e-01 -6.354811698928999331e-01
-3.492850092178832466e-01 -4.128981573468892829e-02 -3.906297353219724544e-02 -6.820458451838300462e-01 -4.417976616155395719e-01 -5.827763647047776718e-01
-3.237222973069928678e-01 -3.556665509506801853e-02 -6.937506660359436805e-02 -5.731205471904420312e-01 -4.645019857645774075e-01 -6.751079495968719257e-01
-3.148712001120383963e-01 -4.948555055240223821e-02 -8.227246821793968157e-02 -6.837673497261720357e-01 -2.516251521208500153e-01 -6.849430591433173232e-01
-3.166731195676912858e-01 -2.283950149610065178e-02 -4.021363474689906153e-02 -7.669523088533534150e-01 -3.738075050823531087e-01 -5.215861434975215261e-01
-3.346845122043954901e-01 -1.230806207030317630e-02 -6.094918392039055249e-02 -6.556063718993453415e-01 -3.762551037374097795e-01 -6.546849486864106948e-01
-3.345782662390128226e-01 -2.166097102534847441e-02 -5.610010399058174696e-02 -6.119734243935830431e-01 -3.232494398700311855e-01 -7.218021387192631311e-01
-3.626920220293745056e-01 -1.196890188527272719e-03 -5.505155010925977949e-02 -7.714589123477829657e-01 -3.889826708420086043e-01 -5.035311592580872242e-01
