-2.729155996760004310e-01 6.694936136377129809e-01 5.527989438302811642e-01 0.000000000000000000e+00 1.000000000000000000e+00 0.000000000000000000e+00
-2.782042708298948508e-01 -5.343454640649337728e-01 6.314295138797995088e-01 0.000000000000000000e+00 0.000000000000000000e+00 1.000000000000000000e+00
-3.983489251572518430e-01 -5.318041172483831680e-01 -3.086522280909678034e-02 -1.000000000000000000e+00 0.000000000000000000e+00 0.000000000000000000e+00
1.841098811460009643e-02 -5.736189784797821600e-01 5.528237259376735935e-01 0.000000000000000000e+00 -1.000000000000000000e+00 0.000000000000000000e+00
3.920276446743535537e-02 5.271115391963866748e-02 2.414939631950551446e-01 0.000000000000000000e+00 0.000000000000000000e+00 1.000000000000000000e+00
3.290195665126699476e-01 -3.988671323722565165e-01 1.940875255155115053e-01 4.551282133211299041e-01 -7.786669823023950610e-03 8.903918672203735563e-01
2.816191966571484073e-01 -4.453138484954194398e-02 -3.974053358163567307e-01 -4.407389876128213202e-01 -1.084454395433322518e-02 8.975697970990600405e-01
-3.439010323238049227e-01 -5.338987333270812652e-01 -5.590312047405376905e-01 0.000000000000000000e+00 0.000000000000000000e+00 -1.000000000000000000e+00
3.253748394658213111e-02 -3.463792823020862832e-02 8.335404425125740591e-02 4.800823604274316314e-01 1.673131380226413820e-02 -8.770638462192339446e-01
1.041031652508937061e-02 -5.917923077243740781e-01 4.283398552973202156e-01 0.000000000000000000e+00 -1.000000000000000000e+00 0.000000000000000000e+00
-3.171268320693814147e-01 1.627892825173141433e-01 -5.494502628780875142e-01 0.000000000000000000e+00 0.000000000000000000e+00 -1.000000000000000000e+00
7.339511041085004794e-02 -5.759344101621385326e-01 4.107821906536976986e-01 0.000000000000000000e+00 -1.000000000000000000e+00 0.000000000000000000e+00
7.287206345868879609e-02 -5.679824830522565149e-01 4.465712745008701967e-01 0.000000000000000000e+00 -1.000000000000000000e+00 0.000000000000000000e+00
4.588317838324086628e-02 -5.770228043034654197e-01 3.194121589131210248e-01 0.000000000000000000e+00 -1.000000000000000000e+00 0.000000000000000000e+00
4.667820536265344100e-01 5.954199852087645878e-02 4.699377312572076970e-02 8.432726939692160029e-01 1.895005693440001554e-02 5.371518025177648425e-01
4.409755372675474017e-01 7.397316144468066290e-02 1.084469586014123604e-01 7.534024774937404523e-01 1.710679972192557380e-02 6.573371009684207955e-01
-1.723914670845341224e-01 -2.679344010349766769e-01 6.421205839568583373e-01 0.000000000000000000e+00 0.000000000000000000e+00 1.000000000000000000e+00
-2.789099365680907106e-01 -5.792164732048870057e-01 2.600055397268629109e-01 0.000000000000000000e+00 -1.000000000000000000e+00 0.000000000000000000e+00
-3.904908435452952853e-01 -4.062296220744832098e-01 6.172496195058555513e-01 -1.000000000000000000e+00 0.000000000000000000e+00 0.000000000000000000e+00
-1.191444936146041356e-01 -3.367883551099952466e-03 4.932217696586760347e-01 1.000000000000000000e+00 0.000000000000000000e+00 0.000000000000000000e+00
-2.690167719621014975e-01 -3.401623465749942787e-01 6.377862934083100566e-01 0.000000000000000000e+00 0.000000000000000000e+00 1.000000000000000000e+00
-1.128452039843860916e-01 3.841227250225954237e-01 4.888211966323838809e-01 1.000000000000000000e+00 0.000000000000000000e+00 0.000000000000000000e+00
4.860774078093881845e-01 9.029983844444826324e-02 -3.274792387698111096e-01 8.935502891014576177e-01 -9.054612849519227177e-04 -4.489622044076350127e-01
4.259689210636514317e-02 -1.798691213975640579e-01 6.310479807079082404e-01 0.000000000000000000e+00 1.000000000000000000e+00 0.000000000000000000e+00
3.683111690147033990e-01 3.201835913969969943e-02 -4.787182805819764631e-01 5.436662652855814848e-01 -1.061181009149708178e-02 -8.392344019861255333e-01
4.876078805521787407e-01 -1.513311859496352663e-01 -3.469990967649022040e-01 8.810838023215843418e-01 2.248359694201102280e-02 -4.724254662431826013e-01
-2.660463396638580447e-01 -2.901256873052890373e-01 -5.555442925065624538e-01 0.000000000000000000e+00 0.000000000000000000e+00 -1.000000000000000000e+00
-1.103382642559836840e-01 -4.721426255853961029e-01 4.259480835485460193e-01 2.772101632950030661e-02 9.893130871395429127e-01 1.431473397171144357e-01
-3.144795183432327890e-01 -3.658305528215649027e-01 3.356801602971858367e-01 -5.163733138885536617e-02 -2.349329896538489976e-02 9.983895286463899676e-01
7.933934281276963651e-02 -2.445872084861704099e-01 -5.393367169226279678e-01 4.074935447214631770e-04 1.126466170989329397e-04 -9.999999106298713691e-01
1.497220385160716871e-01 -2.110541045319734299e-01 4.203791909485581901e-01 1.000000000000000000e+00 0.000000000000000000e+00 0.000000000000000000e+00
-3.704692144062548542e-01 -5.384188795009039463e-01 1.181266484461614835e-01 -1.000000000000000000e+00 0.000000000000000000e+00 0.000000000000000000e+00
-1.193961618074384640e-01 7.369680704738219845e-02 -1.362203699974514626e-01 9.981644539717110520e-01 -1.909647819064864971e-02 -5.747214410538607071e-02
2.349379950046595611e-01 -3.727502336449267650e-01 -5.306354608501477887e-01 2.015769818093846311e-01 1.236343809424583599e-02 -9.793946425231806474e-01
1.464601402247647233e-01 -4.419688590700661113e-01 2.495793712284709032e-01 1.000000000000000000e+00 0.000000000000000000e+00 0.000000000000000000e+00
-4.001640167715740382e-01 -2.031089381129715099e-01 -1.772143029804441050e-01 -1.000000000000000000e+00 0.000000000000000000e+00 0.000000000000000000e+00
-2.701053067338163305e-01 -5.141343394072850348e-01 -5.250803231700981177e-01 0.000000000000000000e+00 0.000000000000000000e+00 -1.000000000000000000e+00
-4.028093077043717885e-01 2.523517704925412053e-01 -1.502944384913427467e-01 -1.000000000000000000e+00 0.000000000000000000e+00 0.000000000000000000e+00
-1.040136949501667407e-02 -2.515801910514421369e-01 6.431516452678698315e-01 0.000000000000000000e+00 0.000000000000000000e+00 1.000000000000000000e+00
-2.607549695121860189e-01 -5.634116549339129865e-01 -3.260698561954634145e-01 0.000000000000000000e+00 -1.000000000000000000e+00 0.000000000000000000e+00
3.377188432933331264e-01 -2.710221016321915366e-01 1.666003322992081204e-01 5.205905318543204707e-01 -1.001415840857655150e-02 8.537477465709667479e-01
-3.914964019839242138e-01 4.405834904904119553e-01 4.650234626547324335e-01 -1.000000000000000000e+00 0.000000000000000000e+00 0.000000000000000000e+00
2.102204693255534940e-01 -2.536480315302627742e-01 2.184530634236381275e-01 1.684602388366592540e-01 -1.513856973939201565e-02 9.855921933727667117e-01
-2.099454642718234787e-01 6.576713658896448100e-01 -1.389686972390075104e-01 0.000000000000000000e+00 1.000000000000000000e+00 0.000000000000000000e+00
-2.617112819598343409e-01 -5.756898367506761982e-01 5.839394706043640193e-01 0.000000000000000000e+00 -1.000000000000000000e+00 0.000000000000000000e+00
5.349860994524777702e-01 -2.796516037356318041e-01 -1.769303537489279321e-01 9.971788055941910311e-01 -1.266447757067212104e-02 -7.398676017777969238e-02
-7.470110900337423310e-02 -5.681762749088746789e-01 4.381065461575668341e-01 0.000000000000000000e+00 -1.000000000000000000e+00 0.000000000000000000e+00
5.129419369446187593e-01 -2.838471406427005017e-01 -2.952326326291604408e-01 9.511854091226943364e-01 -1.177525295479827684e-02 -3.083952997208989077e-01
-4.018336643337502290e-01 -2.375007919432706727e-01 -1.654198275698341436e-01 -1.000000000000000000e+00 0.000000000000000000e+00 0.000000000000000000e+00
9.299227639983900784e-02 -4.756572347869533757e-01 1.040199010381763767e-01 2.883702618176931520e-01 2.863223158775145272e-02 -9.570907937147343780e-01
5.018006707391959864e-01 -3.041946329131044457e-01 -3.328502103165359438e-01 9.061448218517340614e-01 1.517043598109002987e-02 -4.226954219097159848e-01
-3.969440048619913841e-01 5.670719932534713514e-01 -1.586089119331466624e-01 -1.000000000000000000e+00 0.000000000000000000e+00 0.000000000000000000e+00
-2.804165545353723421e-01 -5.861075817068065463e-01 -5.394312141837608321e-01 0.000000000000000000e+00 -1.000000000000000000e+00 0.000000000000000000e+00
5.949960960972591750e-02 -2.726416774479784033e-01 4.616431142988500769e-01 -4.681384782873837525e-02 -9.508762228904263925e-01 -3.060112291944592222e-01
-2.938112409984259266e-01 5.379909602518078565e-02 -5.408536029668222778e-01 0.000000000000000000e+00 0.000000000000000000e+00 -1.000000000000000000e+00
8.996052132002342605e-02 -3.704629778930023654e-01 9.877305945699341172e-02 2.895417317083351372e-01 -1.213443078998673215e-02 -9.570884709308442595e-01
3.955612725230530091e-01 6.649661382216491834e-01 -3.004570409989981705e-01 -8.520385890721872135e-01 3.879064463799542645e-02 5.220397768565583352e-01
3.659859039365775946e-01 6.775284850110144252e-02 1.684573243133054288e-01 5.863051577464255537e-01 -1.645706377905748613e-02 8.099230994679132989e-01
-1.125515595968798604e-01 1.723904578217903827e-01 4.611963465068079637e-01 1.000000000000000000e+00 0.000000000000000000e+00 0.000000000000000000e+00
-3.854185896127709787e-01 5.644872377659544693e-02 3.033268290212229323e-01 -1.000000000000000000e+00 0.000000000000000000e+00 0.000000000000000000e+00
-3.136160829776578063e-01 6.716742141292001422e-01 2.907969272936677951e-02 0.000000000000000000e+00 1.000000000000000000e+00 0.000000000000000000e+00
-1.149211535721277877e-01 2.631908028454084669e-01 -1.427638576588500796e-01 9.989508606396765300e-01 -2.137819315360121875e-02 -4.049877633629141160e-02
-2.348376949813395231e-01 -4.016969607143719978e-01 6.422439895642575447e-01 0.000000000000000000e+00 0.000000000000000000e+00 1.000000000000000000e+00
-1.100012437996425591e-01 -9.772026604518965764e-02 -1.113203184169592325e-01 9.901133677206842565e-01 -1.704235392645215771e-02 -1.392303028562765776e-01
-1.250513164363571406e-01 -3.621828911328668632e-02 -1.382686138681277765e-01 9.923405829593974214e-01 -1.910368960331686183e-02 -1.220459604220617417e-01
4.022629645788188268e-01 -1.218723110932559833e-01 -2.812939524271015901e-01 -8.927948028322073570e-01 -1.202454215552592205e-03 4.504619785727310144e-01
-3.701969506561971768e-01 -4.975781257402316360e-01 2.807863037766937242e-01 -1.000000000000000000e+00 0.000000000000000000e+00 0.000000000000000000e+00
1.580267807096306099e-01 -1.986265013896253151e-01 5.340237967446297418e-01 1.000000000000000000e+00 0.000000000000000000e+00 0.000000000000000000e+00
-3.952410809972785322e-02 -2.952356671727327520e-01 -5.635525524468228964e-01 0.000000000000000000e+00 0.000000000000000000e+00 -1.000000000000000000e+00
-3.870178786854858721e-01 3.398402240015963721e-02 3.264432701373727874e-01 -1.000000000000000000e+00 0.000000000000000000e+00 0.000000000000000000e+00
-3.883405632778981764e-01 4.937205829648068367e-02 2.643877895332634176e-01 -1.000000000000000000e+00 0.000000000000000000e+00 0.000000000000000000e+00
5.195997412254910186e-01 -4.172843340467072282e-01 -2.488249119620188354e-01 9.598174565435417804e-01 2.048512135682488758e-02 -2.798764190089666481e-01
-3.955908440141169269e-01 -1.974280055967191638e-01 -1.993233190110062225e-01 -1.000000000000000000e+00 0.000000000000000000e+00 0.000000000000000000e+00
4.300129740597906369e-02 -1.837967910634399071e-01 3.767645534490553505e-01 0.000000000000000000e+00 1.000000000000000000e+00 0.000000000000000000e+00
-3.950600018768928856e-01 -2.432959270760630122e-01 -2.384502377625960789e-01 -1.000000000000000000e+00 0.000000000000000000e+00 0.000000000000000000e+00
4.741032960169772048e-01 -3.993127356206492284e-01 -3.882531691958960307e-01 7.947492263614885921e-01 -2.679293763109424908e-02 -6.063462753995537691e-01
-4.083929245190444091e-01 -1.486447997611317073e-01 -1.682838802462394145e-01 -1.000000000000000000e+00 0.000000000000000000e+00 0.000000000000000000e+00
3.756604248135343438e-01 -4.165432493868809205e-01 -4.721590824741080938e-01 6.161946842895328347e-01 -4.656553122618342470e-03 -7.875801086659942607e-01
1.171399837136075789e-01 -3.803127221088257182e-01 -5.373857214176883668e-01 5.652924953708286749e-04 -4.987327205681049886e-05 -9.999998389785127451e-01
6.173339765351860270e-02 -4.874414127148916087e-01 4.267603840549683558e-01 -2.217530980682162409e-02 9.941702306020289148e-01 1.055168622528183386e-01
5.128840529256601943e-01 -4.223254225083681312e-01 -4.022462019260532318e-02 9.527979951793827951e-01 1.499227800995716307e-02 3.032345824311947768e-01
-2.506780826687071140e-01 1.001997922823207321e-01 6.401234567048023072e-01 0.000000000000000000e+00 0.000000000000000000e+00 1.000000000000000000e+00
-2.671764987697701210e-01 6.806717907812938062e-01 2.329127025903232340e-01 0.000000000000000000e+00 1.000000000000000000e+00 0.000000000000000000e+00
-1.623558500155085904e-01 -3.703408475836727498e-01 -5.418328047768063982e-01 0.000000000000000000e+00 0.000000000000000000e+00 -1.000000000000000000e+00
-2.819900931792541643e-01 -4.648721870877378648e-01 -5.447572692582437481e-01 0.000000000000000000e+00 0.000000000000000000e+00 -1.000000000000000000e+00
-2.770559928980161346e-01 -2.855304189135720594e-01 -5.284051517065412318e-01 0.000000000000000000e+00 0.000000000000000000e+00 -1.000000000000000000e+00
-1.915453974471700016e-01 -2.926597235870007641e-01 -5.461344560847521956e-01 0.000000000000000000e+00 0.000000000000000000e+00 -1.000000000000000000e+00
-3.100614822504943469e-01 -2.849543923190192007e-01 6.497597141675843790e-01 0.000000000000000000e+00 0.000000000000000000e+00 1.000000000000000000e+00
-9.653833241900161913e-03 -3.655971794751534110e-01 -5.342770683698346845e-01 0.000000000000000000e+00 0.000000000000000000e+00 -1.000000000000000000e+00
1.086141153488790478e-01 -3.865012405344153690e-01 -5.456643485463006371e-01 2.297396270265424437e-02 4.427599537195201461e-03 -9.997262592330339315e-01
1.528910184180252152e-01 -2.347313624922038322e-01 2.868108202825032094e-01 1.000000000000000000e+00 0.000000000000000000e+00 0.000000000000000000e+00
-3.548884469731912183e-01 -5.767388153643681070e-01 4.298748903957125278e-01 0.000000000000000000e+00 -1.000000000000000000e+00 0.000000000000000000e+00
2.400578658835972878e-01 -5.864781194206614146e-02 -4.056444578672011025e-01 -2.942493312109278891e-01 2.616102129929947367e-02 9.553705731528991940e-01
1.478217663349473687e-01 -7.657109023733403574e-02 -4.153553235744462668e-01 7.331441679551510548e-02 -6.711049153764517793e-03 9.972862969625068130e-01
3.851612457503882370e-01 -8.787412127961473363e-02 -2.649227196949047736e-01 -8.880570265612515168e-01 -3.728857415180035668e-03 4.597181888913749459e-01
-3.231965710905105871e-01 -5.739166563976622060e-01 -1.767817039624122455e-01 0.000000000000000000e+00 -1.000000000000000000e+00 0.000000000000000000e+00
-3.758340568781088353e-01 4.219769896739108961e-02 1.535190965881753355e-01 -1.000000000000000000e+00 0.000000000000000000e+00 0.000000000000000000e+00
-1.256904322875632418e-01 -1.478789402277857767e-01 -1.370071391646921766e-01 9.987541298913736876e-01 3.616368523523469380e-02 -3.438569317509702905e-02
-3.458353465534992344e-01 -3.685596673283548230e-01 -5.347824272564438708e-01 0.000000000000000000e+00 0.000000000000000000e+00 -1.000000000000000000e+00
-3.957682029476203844e-01 2.831502731209981777e-02 5.417446051192457146e-01 -1.000000000000000000e+00 0.000000000000000000e+00 0.000000000000000000e+00
-3.748550350422431565e-01 3.627827241870206221e-01 4.681705158672436196e-01 -1.000000000000000000e+00 0.000000000000000000e+00 0.000000000000000000e+00
3.049567077199336063e-02 -3.462195786978822243e-01 6.353306790116138858e-01 0.000000000000000000e+00 0.000000000000000000e+00 1.000000000000000000e+00
9.232358967546086537e-02 3.203450464540973930e-01 1.042284647457969449e-01 2.730264905382522311e-01 -2.610646897134375269e-02 -9.616522176661446153e-01
-4.094437878895178240e-02 -1.826524400953436211e-01 4.729374529414676620e-01 0.000000000000000000e+00 1.000000000000000000e+00 0.000000000000000000e+00
-2.099179180814963741e-01 4.670343415137329091e-02 -5.370983912564847307e-01 0.000000000000000000e+00 0.000000000000000000e+00 -1.000000000000000000e+00
-2.646012213158036586e-01 6.593478711138669457e-01 3.708763882923062916e-01 0.000000000000000000e+00 1.000000000000000000e+00 0.000000000000000000e+00
2.128932105345830716e-02 6.500427069185496509e-02 -5.395693724129427826e-01 0.000000000000000000e+00 0.000000000000000000e+00 -1.000000000000000000e+00
-2.829031846831768227e-01 -5.767000107539008713e-01 1.349826371794446422e-01 0.000000000000000000e+00 -1.000000000000000000e+00 0.000000000000000000e+00
3.322761159587983570e-01 8.021947627245512580e-02 1.741886621432821025e-01 4.598392189529396656e-01 -1.802580071230956704e-02 8.878192176459295260e-01
3.781404018402746980e-01 2.861270106558970183e-01 -2.743597549688467363e-01 -8.597084418982189336e-01 -1.662249425434281572e-02 5.105145322257744755e-01
1.503866810600831827e-02 -1.805669326101815020e-01 3.374838305291391061e-01 0.000000000000000000e+00 1.000000000000000000e+00 0.000000000000000000e+00
1.615541423311507296e-01 -2.928858711428889428e-01 -5.443788167811496326e-01 7.674978505919484439e-02 -2.091847272754468728e-03 -9.970481907452390935e-01
1.461738805043439060e-01 -4.009282097594653593e-01 5.514466673391742457e-01 -2.087854481678758090e-02 7.843887951145493698e-02 -9.967002701651689334e-01
-3.109896261779384607e-01 4.347429666895686884e-01 6.371849267701830133e-01 0.000000000000000000e+00 0.000000000000000000e+00 1.000000000000000000e+00
-1.324409228367623981e-01 -4.825342596063440515e-01 4.343968705858209378e-01 5.611260676817713539e-02 9.966317876157322342e-01 -5.980347210279671893e-02
5.906016791596119253e-02 -5.702382930438896214e-01 1.811038021221459959e-01 0.000000000000000000e+00 -1.000000000000000000e+00 0.000000000000000000e+00
1.668704292461063998e-01 -4.296404584302745966e-01 3.112421696962933693e-01 1.000000000000000000e+00 0.000000000000000000e+00 0.000000000000000000e+00
-1.172317798937782124e-01 -1.755458958410447690e-01 -1.687243516217305228e-01 9.981251518607758833e-01 -4.302453355548521707e-02 -4.353241017031020399e-02
-3.847494714993602849e-01 -3.940861459016286594e-01 -8.890919041660910738e-02 -1.000000000000000000e+00 0.000000000000000000e+00 0.000000000000000000e+00
-7.776782152418844352e-02 -5.336052364337162679e-02 -1.460283656395305191e-02 8.621848858027606477e-01 -3.049416248023984963e-02 -5.056751217411327159e-01
-2.418445720217507200e-01 6.694239038122726804e-01 -1.446083369582384925e-01 0.000000000000000000e+00 1.000000000000000000e+00 0.000000000000000000e+00
-3.006021042453059233e-01 6.454858742241028624e-01 -5.466144117042437411e-01 0.000000000000000000e+00 0.000000000000000000e+00 -1.000000000000000000e+00
4.751743966062412783e-01 -5.404234329279256066e-01 2.981102003864349523e-02 8.526257535575085811e-01 3.995253991862728060e-03 5.225068059997221015e-01
-3.853677290795721189e-01 6.139445992978481703e-01 -1.884607129426891237e-01 -1.000000000000000000e+00 0.000000000000000000e+00 0.000000000000000000e+00
5.002894842237556317e-01 5.884788122371163999e-01 -3.306297026839037922e-01 8.855948714978046921e-01 6.093114469955401152e-03 -4.644185585577332298e-01
4.910902995889370182e-01 -4.814546770528541075e-01 -3.278900713492129970e-01 8.971967235063990076e-01 4.085216927953129462e-02 -4.397375803755448342e-01
3.895298780931032989e-01 -5.679304608581429159e-01 1.376729785455481359e-01 6.386112576841614930e-01 2.326561147508974040e-02 7.691777251596302323e-01
-3.493409007044545045e-01 6.527652618183662492e-01 -1.501414679138345365e-01 0.000000000000000000e+00 1.000000000000000000e+00 0.000000000000000000e+00
-6.005728813657428000e-02 -3.499587368681415511e-01 -5.328085486468875365e-01 0.000000000000000000e+00 0.000000000000000000e+00 -1.000000000000000000e+00
6.866401983529799025e-02 5.958765933732887987e-01 2.313199955697666788e-01 3.633717225780322131e-04 -2.180862098938630853e-05 9.999999337426854762e-01
-2.591667857038548184e-01 -5.747121515564980188e-01 -1.004287298576067022e-01 0.000000000000000000e+00 -1.000000000000000000e+00 0.000000000000000000e+00
-1.241974984407392402e-01 -2.310979656589192133e-01 -1.523879199454538091e-01 9.989613504076112482e-01 3.096907510152940163e-02 -3.342359614340870838e-02
-1.054826616040022563e-01 5.874179027549477627e-01 4.857804883178377109e-01 1.000000000000000000e+00 0.000000000000000000e+00 0.000000000000000000e+00
3.804775200336281693e-01 -3.815775825188780224e-01 -2.896548777699911592e-01 -8.979345279402135560e-01 2.694294908961115953e-02 4.393036091669863530e-01
-3.944024412581333405e-01 -3.705609958731386211e-01 -1.495052745056116572e-01 -1.000000000000000000e+00 0.000000000000000000e+00 0.000000000000000000e+00
-1.239621837881653282e-01 -5.391065114667704661e-01 -5.371043382094188301e-01 0.000000000000000000e+00 0.000000000000000000e+00 -1.000000000000000000e+00
-2.738149373471460146e-01 4.515162406199356715e-01 -5.501106055592334121e-01 0.000000000000000000e+00 0.000000000000000000e+00 -1.000000000000000000e+00
-3.143862035995340087e-01 6.715662947889288192e-01 -9.174028259423767928e-02 0.000000000000000000e+00 1.000000000000000000e+00 0.000000000000000000e+00
-1.626987829926136164e-01 -5.718436068490050372e-01 4.299606247938962955e-01 0.000000000000000000e+00 -1.000000000000000000e+00 0.000000000000000000e+00
1.099600718602145866e-01 -1.700225144631003216e-01 4.867690928598993327e-01 0.000000000000000000e+00 1.000000000000000000e+00 0.000000000000000000e+00
1.267271899977083678e-03 -8.121607757103718739e-02 -3.743153879990729349e-01 6.059271293051811114e-01 5.477817768327662186e-03 7.955012932010100402e-01
7.424684140818044176e-02 4.205148070624475376e-01 1.058278628359042711e-01 2.829382375475829048e-01 2.037420474325053049e-02 -9.589217097941560297e-01
1.690302879018166782e-01 -5.456683861420926762e-01 5.043808203368931320e-01 1.000000000000000000e+00 0.000000000000000000e+00 0.000000000000000000e+00
1.129468451872226997e-01 -2.497278957340133207e-02 8.244138562348415911e-02 1.453084005277743007e-01 5.925556623646692918e-05 -9.893864084496197808e-01
-1.104813970356110370e-01 3.932186060309993403e-01 -1.368844113742975765e-01 9.993595364072694887e-01 -1.730322180103846877e-02 -3.132276340222136385e-02
-2.571812487620585008e-01 -4.866626304262468561e-01 4.048326239285517936e-01 3.319642051095830770e-02 9.624674693266647152e-01 2.693591805622844171e-01
-5.507541507113895840e-02 1.131956412335972662e-01 2.247820677115577037e-01 0.000000000000000000e+00 0.000000000000000000e+00 1.000000000000000000e+00
5.147557218949921909e-02 -5.725648985219943254e-01 1.533942867115519471e-01 0.000000000000000000e+00 -1.000000000000000000e+00 0.000000000000000000e+00
-3.801182859569331440e-01 3.465999471583462027e-02 -3.586253755693008527e-01 -1.000000000000000000e+00 0.000000000000000000e+00 0.000000000000000000e+00
-1.782608383408006841e-02 -4.037829465321520206e-01 3.289939719612618441e-01 -2.774132944320971753e-02 1.721467240817995403e-01 9.846806203173840144e-01
-2.127766933817858142e-01 -4.831464451674526983e-01 4.139239796298291307e-01 1.812522813513596856e-02 9.753888320812502677e-01 2.197455400144083526e-01
5.212093469166371174e-01 4.140682674180521522e-02 -2.252451891137042250e-01 9.833901374700566578e-01 1.192548921533484983e-02 -1.811121758292299211e-01
4.216093179552621861e-01 -2.734595235833970350e-01 1.248529430367210369e-01 7.033716765005589844e-01 1.096217843047473696e-02 7.107377261274734348e-01
-1.778782786146120010e-02 -6.563601619686018629e-02 -3.371682672799494185e-01 7.444404766786651972e-01 1.492844902890818996e-02 6.675219233044206169e-01
-2.217700517507457947e-01 -3.823244231087488121e-01 5.626016529850040859e-01 -1.706995984645379508e-02 -1.085397635281906553e-01 -9.939455398582384138e-01
2.578077086233532267e-01 -5.354553531995022153e-01 2.173177431300103990e-01 2.653213090104789562e-01 -1.703364392960260779e-02 9.640095735828796419e-01
-1.134487394526279974e-01 -2.358451698843995192e-01 -1.301438719912563491e-01 9.996564790464804728e-01 -1.233855376816422877e-02 -2.312323487974227501e-02
5.174694609696894876e-01 -5.559278485695196004e-01 -2.004446408922971601e-01 9.968869541692495506e-01 7.769766660898246718e-03 -7.846038065923370552e-02
2.349358832264625968e-02 -3.887298031887012617e-01 5.596574668424485477e-01 -8.990107909262665120e-02 1.073453178935073471e-01 -9.901488669408875509e-01
-3.895832822049759003e-01 -5.434542639360160354e-01 -3.578668251629973929e-01 -1.000000000000000000e+00 0.000000000000000000e+00 0.000000000000000000e+00
-3.758704098937872273e-01 -5.329596210784182109e-01 -3.207188412882060469e-01 -1.000000000000000000e+00 0.000000000000000000e+00 0.000000000000000000e+00
-3.112628974376482338e-01 6.792162808612475233e-01 4.837818577732286296e-01 0.000000000000000000e+00 1.000000000000000000e+00 0.000000000000000000e+00
-3.013693082473493101e-01 6.813756194811666500e-01 3.458281450901265486e-01 0.000000000000000000e+00 1.000000000000000000e+00 0.000000000000000000e+00
-2.783324212013696952e-01 -3.812749054039639152e-01 -5.547882989275956245e-01 0.000000000000000000e+00 0.000000000000000000e+00 -1.000000000000000000e+00
-1.829898353600863115e-01 6.654065308770382714e-01 4.841518284797309279e-01 0.000000000000000000e+00 1.000000000000000000e+00 0.000000000000000000e+00
-2.609681745303807920e-01 6.702972269251267212e-01 2.855629228202113956e-01 0.000000000000000000e+00 1.000000000000000000e+00 0.000000000000000000e+00
-4.015389675390229063e-01 -5.241216968864962356e-01 -1.690963210750824064e-01 -1.000000000000000000e+00 0.000000000000000000e+00 0.000000000000000000e+00
-3.871193866667724248e-01 -5.039246427085433133e-01 -1.620896536938114252e-01 -1.000000000000000000e+00 0.000000000000000000e+00 0.000000000000000000e+00
-3.525681245164503097e-01 -4.016393999482109067e-01 3.224478497412122113e-01 3.561950668957555161e-02 -7.856429696116713768e-02 9.962725038794298937e-01
1.277110352277323613e-01 -1.837746587928686115e-01 4.615358786499501598e-01 0.000000000000000000e+00 1.000000000000000000e+00 0.000000000000000000e+00
4.063568012732738932e-01 -6.109510250438046630e-02 -8.364704276912827974e-02 -9.629139972124318714e-01 1.878843699346283147e-02 -2.691535409533367673e-01
5.405546738171700394e-01 -5.495981614747693644e-01 -1.559050369672815295e-01 9.970685950628246363e-01 1.135238770869079032e-02 -7.566597671844799144e-02
-3.923528007261434802e-01 6.687494021734925465e-01 4.673821102505519298e-01 0.000000000000000000e+00 1.000000000000000000e+00 0.000000000000000000e+00
-3.955473552339527354e-01 -5.318794459416967824e-01 1.976212942761455260e-01 -1.000000000000000000e+00 0.000000000000000000e+00 0.000000000000000000e+00
3.903405891524863169e-01 -4.392033321805884349e-01 -2.957691227039357940e-01 -8.613826812962738222e-01 3.438032803937018933e-02 5.067917416520786311e-01
3.878777414792113354e-01 -4.033941862788034127e-01 -2.965187331111486246e-01 -8.613588690093052502e-01 3.436279595761164429e-02 5.068334016548100562e-01
-2.972311366439305269e-01 6.687806271728384822e-01 -1.350362437606502097e-01 0.000000000000000000e+00 1.000000000000000000e+00 0.000000000000000000e+00
-2.001304483935409384e-01 -2.440015279502346923e-01 6.391149869878665069e-01 0.000000000000000000e+00 0.000000000000000000e+00 1.000000000000000000e+00
1.557250474089585945e-01 -5.185687030562236011e-01 3.750242518142823944e-01 1.000000000000000000e+00 0.000000000000000000e+00 0.000000000000000000e+00
3.892999264949057459e-01 -3.780974002484410179e-01 -2.750690979692292371e-01 -9.124422335023136821e-01 -1.885182799665538825e-02 4.087710595217005083e-01
4.988042554231060244e-01 -5.771144562693450997e-01 -1.201206506473124352e-02 9.238853228170473830e-01 2.643454827164623197e-03 3.826603225183097257e-01
-3.845833341290970098e-01 -5.310324586272072711e-01 -4.609462229784013210e-01 -1.000000000000000000e+00 0.000000000000000000e+00 0.000000000000000000e+00
-3.935834076607244714e-01 3.722912284241075009e-01 -1.316006726863148957e-01 -1.000000000000000000e+00 0.000000000000000000e+00 0.000000000000000000e+00
-2.115300654097154731e-02 -5.311862556821067560e-01 6.335490296946533206e-01 0.000000000000000000e+00 0.000000000000000000e+00 1.000000000000000000e+00
8.310373987919444927e-02 1.153818474256932680e-01 1.088786534010248164e-01 2.796386636372745760e-01 2.312702014936853304e-02 -9.598267337067508675e-01
-3.821495250518956999e-01 -2.912610336853103665e-01 -1.519235357895041272e-01 -1.000000000000000000e+00 0.000000000000000000e+00 0.000000000000000000e+00
-1.439540942540339374e-01 -5.685850208155649455e-01 -1.554213988617220987e-01 0.000000000000000000e+00 -1.000000000000000000e+00 0.000000000000000000e+00
4.551964062403848071e-02 -9.979177067826186520e-02 9.630700703603203849e-02 3.469105250190888112e-01 3.339716467239049746e-02 -9.373034284706449615e-01
3.058116016973645990e-01 4.768519224349958285e-02 1.989429202552386866e-01 4.157357738005967862e-01 -1.461087186665544109e-02 9.093680711382575721e-01
2.542828894455465560e-01 7.096130495764843560e-02 2.163551617139610750e-01 2.436658103733652658e-01 7.065471310013728481e-03 9.698335176566432736e-01
3.480948817688403474e-01 -4.113345298090493873e-01 1.904973663648061588e-01 5.603843219093620487e-01 2.262362494404989571e-03 8.282296139804036228e-01
-3.892747647978179737e-01 9.563886620845800379e-02 4.887196879569898345e-01 -1.000000000000000000e+00 0.000000000000000000e+00 0.000000000000000000e+00
1.596839758533985520e-01 -8.176391793959944532e-02 1.192352151658874759e-01 -5.380708346913663787e-02 3.146177394727119048e-02 -9.980555869031725313e-01
-2.769808078780900962e-01 8.543821052851563458e-03 -5.489762834056277629e-01 0.000000000000000000e+00 0.000000000000000000e+00 -1.000000000000000000e+00
-2.747465690861192189e-01 6.643619326925160468e-03 -5.530495260741170593e-01 0.000000000000000000e+00 0.000000000000000000e+00 -1.000000000000000000e+00
-7.053554789672142333e-02 -4.262218317525887784e-02 -3.124795096548435569e-02 8.824669631228249100e-01 1.070092618671239157e-02 -4.702526439856827278e-01
3.973673786242079564e-01 6.595002628788797505e-01 -2.932888023423116941e-01 0.000000000000000000e+00 1.000000000000000000e+00 0.000000000000000000e+00
3.038838964137000054e-01 -3.948442704989357233e-01 -5.352065651040232019e-01 4.272506495408692762e-01 -1.640895518210148257e-02 -9.039843077491649392e-01
-2.776621165102810540e-01 6.719104976728020873e-01 1.752164842065473127e-01 0.000000000000000000e+00 1.000000000000000000e+00 0.000000000000000000e+00
-2.843956504785789541e-01 -3.988867761449417793e-01 -5.440005174654890530e-01 0.000000000000000000e+00 0.000000000000000000e+00 -1.000000000000000000e+00
4.856470545182670073e-01 6.401311071332961289e-01 -3.350344117141710876e-01 8.719139899966558138e-01 -5.665678266266414853e-02 -4.863702324633233931e-01
3.709498330240841857e-01 -5.590515241882118014e-01 -4.579224863441468951e-01 5.875389618247753853e-01 -2.798270744601677115e-02 -8.087118995179036762e-01
-3.873257912937714265e-01 -3.780155662427890362e-01 1.454507216319555485e-01 -1.000000000000000000e+00 0.000000000000000000e+00 0.000000000000000000e+00
1.518349391948016491e-01 -2.244674985657846289e-01 3.434752321246645201e-01 1.000000000000000000e+00 0.000000000000000000e+00 0.000000000000000000e+00
9.560380488228653606e-02 -5.420859310122916330e-01 6.320785949950575855e-01 0.000000000000000000e+00 0.000000000000000000e+00 1.000000000000000000e+00
-1.715510996367166641e-01 6.888310675335573841e-02 6.205912087190168513e-01 0.000000000000000000e+00 0.000000000000000000e+00 1.000000000000000000e+00
-3.956921342147476373e-01 -2.257047529506506500e-01 -9.651567668290696872e-03 -1.000000000000000000e+00 0.000000000000000000e+00 0.000000000000000000e+00
-3.705644309754193566e-01 -2.399962353454354880e-01 3.894100945222267462e-01 -1.000000000000000000e+00 0.000000000000000000e+00 0.000000000000000000e+00
-3.311844518776080881e-01 4.591981529499680748e-02 -5.404685934468348441e-01 0.000000000000000000e+00 0.000000000000000000e+00 -1.000000000000000000e+00
5.878136716557123831e-02 -5.348233460488308610e-01 -5.445152135031584573e-01 0.000000000000000000e+00 0.000000000000000000e+00 -1.000000000000000000e+00
-3.834609337205320267e-01 5.473275997830787803e-02 -1.061274372415775269e-01 -1.000000000000000000e+00 0.000000000000000000e+00 0.000000000000000000e+00
5.278869720465518833e-01 -3.977652779338535227e-01 -1.037610322214141123e-01 9.933494165548980570e-01 -8.014883005131869312e-03 1.148594718795869080e-01
-3.704653141368468572e-01 5.171290568215273220e-01 -1.473374498029960955e-01 -1.000000000000000000e+00 0.000000000000000000e+00 0.000000000000000000e+00
1.402560885563959858e-01 -5.407661013543648698e-01 2.223493102982291580e-01 1.000000000000000000e+00 0.000000000000000000e+00 0.000000000000000000e+00
-3.846422467062854955e-01 3.363830736266833488e-01 -1.639764409825424096e-01 -1.000000000000000000e+00 0.000000000000000000e+00 0.000000000000000000e+00
-3.792677391971284728e-01 5.907226221765533858e-02 -2.915640225114021211e-01 -1.000000000000000000e+00 0.000000000000000000e+00 0.000000000000000000e+00
-3.854582623661902407e-01 -2.315243923815953064e-01 1.167762457430094637e-02 -1.000000000000000000e+00 0.000000000000000000e+00 0.000000000000000000e+00
3.987652652283428245e-01 -5.091641671790161916e-02 -1.427197365345361513e-01 -9.906813893291782636e-01 3.094712273489981166e-02 -1.326373266891341662e-01
4.381895158879057228e-01 -5.626998006710194344e-01 -2.934516866184585515e-01 0.000000000000000000e+00 -1.000000000000000000e+00 0.000000000000000000e+00
-2.028948369608631064e-01 -5.272249231075050169e-01 6.374977646323677360e-01 0.000000000000000000e+00 0.000000000000000000e+00 1.000000000000000000e+00
1.566889547732749216e-02 -5.241618843188687871e-01 6.391554637362687474e-01 0.000000000000000000e+00 0.000000000000000000e+00 1.000000000000000000e+00
-4.054210917619449073e-01 -3.804791415370191165e-01 -1.826872025223885421e-01 -1.000000000000000000e+00 0.000000000000000000e+00 0.000000000000000000e+00
-2.860373538389983650e-01 -3.897996257378835705e-01 3.260985660296913391e-01 6.638226277092010297e-02 -1.719538113952940673e-03 9.977927832862327762e-01
1.893833802079882278e-01 6.092011628513036708e-02 2.291244941554893555e-01 4.832713474522861569e-02 -1.067255525569074832e-03 9.988309912157109505e-01
3.152188949946846397e-01 3.010841945446359261e-02 -5.151257285689208043e-01 4.418823378871755692e-01 -1.541825020162541741e-02 -8.969405091889227633e-01
-3.174966910388041796e-01 6.591324787313850297e-01 -1.451438164064885183e-01 0.000000000000000000e+00 1.000000000000000000e+00 0.000000000000000000e+00
1.790008797689771891e-01 -5.394930205953989838e-02 1.094119123721551123e-01 -1.619236981214192683e-01 -3.089180718844518336e-02 -9.863196298539917972e-01
1.623948162472442780e-01 -1.839210277133137561e-01 4.894357232897731391e-01 1.000000000000000000e+00 0.000000000000000000e+00 0.000000000000000000e+00
1.303665832759667298e-01 -6.687479308701881064e-02 1.256171006970704107e-01 1.411084972600056275e-01 1.317070761021640370e-02 -9.899065230929984249e-01
-8.747417370315159479e-02 -5.955693328329508818e-02 -6.767885610227483695e-02 9.441386432846416987e-01 -4.220036639225895232e-03 -3.295214917837676061e-01
-3.827940137334241988e-01 6.336170019727853375e-02 3.419872590124170553e-02 -1.000000000000000000e+00 0.000000000000000000e+00 0.000000000000000000e+00
-2.796529168871639270e-01 -5.606101440602205832e-01 2.933397967926780758e-01 0.000000000000000000e+00 -1.000000000000000000e+00 0.000000000000000000e+00
-2.735382170400131319e-01 -3.183906360505912858e-02 -5.544749169258377242e-01 0.000000000000000000e+00 0.000000000000000000e+00 -1.000000000000000000e+00
3.170641265879821091e-01 -5.494226356475274686e-01 1.802717707016520399e-01 5.225201830403197745e-01 4.377131042084561781e-03 8.526156807374299929e-01
1.529513291983460865e-01 -3.880158936202791065e-01 5.932650068580098690e-01 1.000000000000000000e+00 0.000000000000000000e+00 0.000000000000000000e+00
1.418161408743187635e-01 -5.055691933148949158e-01 6.282646622541714354e-01 1.000000000000000000e+00 0.000000000000000000e+00 0.000000000000000000e+00
6.796258951342669385e-02 -4.062735424591411570e-01 6.276701824460807488e-01 0.000000000000000000e+00 0.000000000000000000e+00 1.000000000000000000e+00
6.993837536952875189e-02 -7.143968369760227144e-02 -3.990645020813992083e-01 2.805231115590822166e-01 7.560427118254611605e-03 9.598174950598682420e-01
7.559950228259035288e-02 -4.053006075437794453e-01 3.320478695524701207e-01 2.274410878924717702e-02 1.452809186652838369e-01 9.891289906716687064e-01
6.271040100284458463e-02 5.845034985991666432e-02 2.282647581661492453e-01 0.000000000000000000e+00 0.000000000000000000e+00 1.000000000000000000e+00
2.022746339462914988e-01 -7.343059968042528474e-02 -4.127041429370285064e-01 -1.699518042384929040e-01 -1.192515323325963293e-02 9.853802184722627588e-01
-4.143503216841056824e-01 2.329356846536323189e-01 -1.622117484320300951e-01 -1.000000000000000000e+00 0.000000000000000000e+00 0.000000000000000000e+00
3.863308127419494697e-01 -4.431149715074865492e-02 -2.676370844056421561e-01 -8.853796303261479705e-01 1.152068436559423696e-02 4.647259235670870847e-01
1.192195624499046286e-02 -4.406382180288112571e-02 6.507286311122548184e-02 4.801359778972107972e-01 1.656777181187588099e-02 -8.770375999156927449e-01
-3.857883758653739004e-01 -1.163620606958344905e-01 -1.609666765618138484e-01 -1.000000000000000000e+00 0.000000000000000000e+00 0.000000000000000000e+00
-9.920655159352965990e-02 2.695435347704853296e-02 4.858889967045785796e-01 1.000000000000000000e+00 0.000000000000000000e+00 0.000000000000000000e+00
-1.067048187121573538e-01 2.155283718599551590e-01 -1.381247117614804176e-01 9.999821491151781316e-01 2.831400335592975694e-03 -5.261617919357208101e-03
3.719745837924547799e-02 -4.386884258774002565e-01 6.389295375324243187e-01 0.000000000000000000e+00 0.000000000000000000e+00 1.000000000000000000e+00
2.939996116850273830e-02 -5.766940775752746884e-01 3.501064090288811270e-01 0.000000000000000000e+00 -1.000000000000000000e+00 0.000000000000000000e+00
-2.757877288561957907e-01 2.345779389175893515e-01 -5.702803727990998217e-01 0.000000000000000000e+00 0.000000000000000000e+00 -1.000000000000000000e+00
-2.549637206422640801e-01 -1.277126066089515344e-01 6.389834915030190299e-01 0.000000000000000000e+00 0.000000000000000000e+00 1.000000000000000000e+00
-2.502341358988973141e-01 -6.490862610891680318e-02 6.523659809181933111e-01 0.000000000000000000e+00 0.000000000000000000e+00 1.000000000000000000e+00
-3.880410716220902279e-01 -5.155018767800723101e-01 -2.736445056954992516e-01 -1.000000000000000000e+00 0.000000000000000000e+00 0.000000000000000000e+00
-1.197220711713652824e-01 5.110078505012284611e-02 4.685740566377890604e-01 1.000000000000000000e+00 0.000000000000000000e+00 0.000000000000000000e+00
2.155722469714629330e-01 -5.326580248134450413e-01 2.321276388579038563e-01 1.641063970513717829e-01 -1.100114670901859021e-02 9.863812980880690695e-01
1.581665056433645689e-01 -1.890440169603373188e-01 4.751476348642676983e-01 1.000000000000000000e+00 0.000000000000000000e+00 0.000000000000000000e+00
-4.100651730521150395e-01 6.284563762592512703e-02 2.845266952106769720e-01 -1.000000000000000000e+00 0.000000000000000000e+00 0.000000000000000000e+00
5.057950601006888647e-01 1.468740533898442099e-02 -3.453666411336496211e-01 8.759034810260220016e-01 -9.649253437154515708e-03 -4.823898670521621357e-01
4.365876905239698957e-01 7.068875742949863594e-02 1.034586114372014753e-01 7.534592313106817096e-01 1.726856201978869618e-02 6.572678171936348068e-01
4.832968350491731457e-01 -2.888091443233916644e-01 6.367548140757162134e-02 8.341187079290857120e-01 -4.111712923824978327e-03 5.515696464632047213e-01
2.074459234259123930e-02 -4.257667595545824302e-01 6.428431922338567750e-01 0.000000000000000000e+00 0.000000000000000000e+00 1.000000000000000000e+00
4.975082407916586180e-01 5.008968226263276619e-02 1.806026786456073341e-02 9.026332517814836809e-01 1.460389080891915346e-02 4.301626891672800657e-01
5.188263846082044051e-01 5.770108909050000734e-02 -2.369873667698618735e-02 9.500045230937228524e-01 2.978219940162477389e-02 3.108125266141473220e-01
-2.428374092424051556e-01 -5.862903049546709378e-01 2.616502492468406049e-01 0.000000000000000000e+00 -1.000000000000000000e+00 0.000000000000000000e+00
-3.917563174195679565e-01 2.921086381600795923e-02 5.129118762810984666e-01 -1.000000000000000000e+00 0.000000000000000000e+00 0.000000000000000000e+00
-3.873476769485714732e-01 4.940778989342343303e-02 7.299273133012777748e-02 -1.000000000000000000e+00 0.000000000000000000e+00 0.000000000000000000e+00
-3.716245943236153315e-01 -3.918663539700215637e-01 6.254372462522020948e-01 0.000000000000000000e+00 0.000000000000000000e+00 1.000000000000000000e+00
-2.647093275476742891e-01 -5.698777371836061256e-01 -4.527854169243382687e-01 0.000000000000000000e+00 -1.000000000000000000e+00 0.000000000000000000e+00
-1.107890232986373791e-01 -3.720004974769233752e-01 6.420885805511421518e-01 0.000000000000000000e+00 0.000000000000000000e+00 1.000000000000000000e+00
-3.814475265014473648e-01 -4.580538470138711959e-01 -1.629093488152961733e-01 -1.000000000000000000e+00 0.000000000000000000e+00 0.000000000000000000e+00
-2.671585837869804858e-01 -3.203065537122931072e-01 6.326839576313663116e-01 0.000000000000000000e+00 0.000000000000000000e+00 1.000000000000000000e+00
-2.751625989687470630e-01 -2.734754555452646452e-01 4.712779247603786081e-01 2.995158281389554561e-02 -9.817719589714155592e-01 -1.876878346200723802e-01
-1.266467241453464454e-01 1.836789834644620700e-01 -1.435653104439726935e-01 9.999863844556249326e-01 -4.982586597789331710e-03 -1.550720530188162694e-03
-2.081220897915014578e-01 -5.442742912845233150e-01 -5.357645973129162575e-01 0.000000000000000000e+00 0.000000000000000000e+00 -1.000000000000000000e+00
-1.072330196371064498e-01 3.143968557403624686e-01 -1.350909291839019755e-01 9.986955304034552672e-01 2.229825071634174150e-02 -4.593501460925377561e-02
-3.186216080064289136e-01 -4.930888966925175976e-01 6.320528900510675729e-01 0.000000000000000000e+00 0.000000000000000000e+00 1.000000000000000000e+00
-3.509221166967710914e-01 -4.956555758638934162e-01 6.271290332447869709e-01 0.000000000000000000e+00 0.000000000000000000e+00 1.000000000000000000e+00
5.895513408761559465e-02 -5.791984695290554042e-01 1.181642593757522980e-01 0.000000000000000000e+00 -1.000000000000000000e+00 0.000000000000000000e+00
2.954065477254565891e-02 -1.829748358486531778e-01 6.336264394012479650e-01 0.000000000000000000e+00 1.000000000000000000e+00 0.000000000000000000e+00
3.830719385394467102e-01 8.518957854211617331e-02 -2.896751430026043295e-01 -8.332366392556369572e-01 2.160411544846872756e-02 5.524943123667978018e-01
-1.343047775654892806e-01 -3.641714315244205524e-01 5.447425142631617812e-01 7.701979243642291528e-02 -4.067382906163075768e-02 -9.961995739822998575e-01
-2.775231335870640970e-01 -3.343077243611405902e-01 -5.329890960620834450e-01 0.000000000000000000e+00 0.000000000000000000e+00 -1.000000000000000000e+00
-2.536748100658247629e-01 -3.096421932215687733e-01 -5.525024633508155425e-01 0.000000000000000000e+00 0.000000000000000000e+00 -1.000000000000000000e+00
-3.028604568866155589e-01 6.722056547168439034e-01 9.117490859588268937e-02 0.000000000000000000e+00 1.000000000000000000e+00 0.000000000000000000e+00
-3.765685584032641975e-01 2.159429279019144457e-02 1.811102725150838810e-01 -1.000000000000000000e+00 0.000000000000000000e+00 0.000000000000000000e+00
5.243408789333025011e-01 5.090214134628086307e-02 -8.544863587992353182e-02 9.744366635805428167e-01 -9.992746646411936398e-03 2.244400447435364043e-01
-3.783928347137701653e-01 -3.529726658502486125e-01 -1.653864662435415578e-01 -1.000000000000000000e+00 0.000000000000000000e+00 0.000000000000000000e+00
-3.933972528535300550e-01 -4.074259358758142158e-01 6.028960275758471488e-01 -1.000000000000000000e+00 0.000000000000000000e+00 0.000000000000000000e+00
-2.840693518836973630e-01 4.362188287233509931e-01 -5.484807514233052128e-01 0.000000000000000000e+00 0.000000000000000000e+00 -1.000000000000000000e+00
1.531955886388979005e-01 -5.526716369363193770e-01 3.411536957457613206e-01 1.000000000000000000e+00 0.000000000000000000e+00 0.000000000000000000e+00
-1.125353079644220156e-01 1.059496659969360877e-01 3.094158667187218437e-01 1.000000000000000000e+00 0.000000000000000000e+00 0.000000000000000000e+00
1.540806261367617391e-01 -5.713596018139378563e-01 3.569986238112058952e-01 1.000000000000000000e+00 0.000000000000000000e+00 0.000000000000000000e+00
2.151245836556241187e-01 -2.831798704248555398e-01 -5.372884011237331059e-01 1.776187543008812264e-01 -1.134727785103256670e-02 -9.840339513482116995e-01
2.371232631889594045e-01 -2.839741249812500201e-01 -5.374240659909454987e-01 1.776245616607646516e-01 -1.145351165471334386e-02 -9.840316723386480779e-01
3.781698659254813938e-02 -5.757332439649418543e-01 2.256809070171963694e-01 0.000000000000000000e+00 -1.000000000000000000e+00 0.000000000000000000e+00
-3.808837000752229862e-01 -1.545399513086310461e-01 4.695676658941024262e-01 -1.000000000000000000e+00 0.000000000000000000e+00 0.000000000000000000e+00
-3.724716211346894568e-01 -1.221803210846852256e-01 4.576604580957078228e-01 -1.000000000000000000e+00 0.000000000000000000e+00 0.000000000000000000e+00
-3.831251076255936527e-01 4.788944594290092116e-01 -1.620573756367827967e-01 -1.000000000000000000e+00 0.000000000000000000e+00 0.000000000000000000e+00
-2.965137075491362517e-01 -7.409045547090331585e-02 -5.418389806296250999e-01 0.000000000000000000e+00 0.000000000000000000e+00 -1.000000000000000000e+00
-1.127190806302744153e-01 1.215874055951867705e-01 -1.391464271949282017e-01 9.977540110595878309e-01 2.602354725836097601e-02 -6.172283534151445927e-02
-3.765811431627469896e-01 6.437298872459353005e-02 -3.087245009975143062e-01 -1.000000000000000000e+00 0.000000000000000000e+00 0.000000000000000000e+00
-1.131300338157473356e-01 4.936012169867636801e-01 -1.640661092060267667e-01 9.983090231436028139e-01 -1.988033736721655717e-02 -5.462477914125773298e-02
1.313510578900587422e-01 -4.097581081982133444e-01 5.598324218124491880e-01 6.540849272555059046e-02 1.682396506082755594e-01 -9.835736622351053393e-01
8.561464916433486616e-02 6.717366235745411140e-01 1.685258534475007064e-01 0.000000000000000000e+00 1.000000000000000000e+00 0.000000000000000000e+00
3.244698726718986403e-02 6.821370263829175107e-01 1.896325355771154297e-01 0.000000000000000000e+00 1.000000000000000000e+00 0.000000000000000000e+00
-3.853943320159691210e-01 -1.780197873340109427e-01 -1.609997467519602155e-01 -1.000000000000000000e+00 0.000000000000000000e+00 0.000000000000000000e+00
-2.170136886709337076e-01 -3.696161138068951302e-01 6.242267666952904248e-01 0.000000000000000000e+00 0.000000000000000000e+00 1.000000000000000000e+00
-2.889474345417501477e-01 6.691100807344332324e-01 -3.411322666556278888e-02 0.000000000000000000e+00 1.000000000000000000e+00 0.000000000000000000e+00
5.104314680869778131e-01 -1.204991857968134156e-01 -3.278854533246047254e-01 8.860117640903748537e-01 -4.820759228143497999e-03 -4.636376971018708049e-01
-1.358703333583139439e-01 -2.663650232084195935e-01 -5.438772328344462226e-01 0.000000000000000000e+00 0.000000000000000000e+00 -1.000000000000000000e+00
5.054924495238052179e-02 6.662960318049458985e-01 2.279991317741798806e-01 0.000000000000000000e+00 0.000000000000000000e+00 1.000000000000000000e+00
3.659103013638562163e-01 4.363431331658556012e-01 -2.921226759291359332e-01 -8.327213110879013724e-01 1.284536782387609918e-02 5.535433267464400231e-01
-3.736729497515700604e-01 4.588318141734269023e-02 -3.794350545440967060e-01 -1.000000000000000000e+00 0.000000000000000000e+00 0.000000000000000000e+00
-2.851468591135274955e-01 -4.099203242622785903e-01 6.426829285381292500e-01 0.000000000000000000e+00 0.000000000000000000e+00 1.000000000000000000e+00
