-1.016962847063473258e-01 -6.139186582216555887e-01 -2.194212792943139312e-01 -8.665045891845437470e-03 -9.342765505128566295e-01 -3.564438863853465200e-01
-1.027327506284917147e-01 -5.937705634336954974e-01 -1.872166880810939293e-01 -5.355868742222533868e-02 -8.195165144935694368e-01 -5.705472368471514732e-01
-1.041401103088971380e-01 -5.856148751269449892e-01 -2.070564606625839299e-01 -3.559563913551942044e-02 -8.259563268200021957e-01 -5.626091864345476035e-01
2.469924177735417781e-02 -5.495253324579665311e-01 -2.561216255693398725e-01 1.509593674284629983e-01 -8.151430827818603175e-01 -5.592432601100202350e-01
1.982790968170889540e-02 -5.921603204458063541e-01 -2.136797173756403434e-01 4.877725083001835382e-02 -7.233236388849589860e-01 -6.887842138374593581e-01
8.818125665128651383e-03 -5.903640432681340755e-01 -1.998178418674034229e-01 7.277520990261213130e-02 -8.477701364470219270e-01 -5.253470896200230777e-01
-3.580139151694450295e-02 -5.645789290857824438e-01 -2.219058623067152736e-01 5.612749759773567881e-02 -8.853331284973362525e-01 -4.615570989580112249e-01
-2.110567832926869489e-02 -6.033609978277693076e-01 -1.667311126781104436e-01 5.612749759773567881e-02 -8.853331284973362525e-01 -4.615570989580112249e-01
-6.336163642213971797e-03 -5.580277191396761927e-01 -1.928194643805930808e-01 -1.642247798491414806e-02 -7.503856311114061040e-01 -6.607962672703074913e-01
1.157204161449999213e-01 -5.457943092176605893e-01 -2.152655162154473723e-01 1.503530328177384856e-01 -6.623937551412388824e-01 -7.339131274697274776e-01
8.454792763709578773e-02 -6.085314105714815236e-01 -1.971311784990543992e-01 5.446470851101184452e-02 -5.868071575094884196e-01 -8.078929108628474243e-01
8.658304572758088180e-02 -5.451827981302628245e-01 -1.967307915841243759e-01 6.508741769323984905e-02 -7.090106713015738027e-01 -7.021876501609222165e-01
3.090114206185195708e-02 -5.884149869734595084e-01 -1.953669123317439693e-01 -1.209930817803537423e-02 -6.962521491477356994e-01 -7.176953055083835631e-01
3.790016129629316527e-02 -5.794601184032213137e-01 -1.755315838033380260e-01 7.772970521362100593e-02 -7.918424119132180250e-01 -6.057587701576107042e-01
8.831376735533344458e-03 -5.829899547074191002e-01 -2.155086381292746212e-01 6.020147490553253572e-02 -6.638998522659848023e-01 -7.453943711756900736e-01
2.219454802417564210e-01 -5.451590510237438458e-01 -2.205064065558347830e-01 1.578019808039363842e-02 -4.194891992602925446e-01 -9.076231580631369811e-01
1.617446874633901022e-01 -5.509409310432344942e-01 -2.086293874831522122e-01 -2.353514030359735859e-02 -3.923306728260527731e-01 -9.195231048379083338e-01
1.686183163967279741e-01 -5.859855448097888164e-01 -2.472846779313554177e-01 -3.249201379534058520e-02 -4.381130267941784617e-01 -8.983324800945174937e-01
1.844510018805369800e-01 -5.531448896683344163e-01 -1.933398553218396432e-01 -3.249201379534058520e-02 -4.381130267941784617e-01 -8.983324800945174937e-01
1.334376320434899066e-01 -5.830531546460276937e-01 -2.005682423479232257e-01 -4.180590626328010290e-02 -5.252004578216682429e-01 -8.499510252393462917e-01
1.205396239325939173e-01 -5.615232740583127047e-01 -2.167440770571031905e-01 2.674293656422597337e-02 -5.866549395708284820e-01 -8.093953281438368563e-01
1.217286057562050605e-01 -5.863593316452863080e-01 -1.783756574043177112e-01 -7.603667621641957419e-02 -4.106363719139519697e-01 -9.086232409152353862e-01
1.597549536874523779e-01 -5.953584075784548180e-01 -1.761476500571931281e-01 -7.603667621641957419e-02 -4.106363719139519697e-01 -9.086232409152353862e-01
2.205477214008271514e-01 -5.826088307417431889e-01 -2.022203193150879097e-01 -5.541398478064143984e-02 -3.134175369053862625e-01 -9.479972246008379066e-01
2.315710467715514365e-01 -5.667627242654884601e-01 -2.156332552976520378e-01 -5.541398478064143984e-02 -3.134175369053862625e-01 -9.479972246008379066e-01
2.949026764205006090e-01 -5.935171286129177215e-01 -1.903077403914735788e-01 -1.247292195341169890e-01 -2.302421067392624865e-01 -9.651068303968614037e-01
2.588041116096706507e-01 -5.850876507090398970e-01 -2.109502064738306426e-01 -1.247292195341169890e-01 -2.302421067392624865e-01 -9.651068303968614037e-01
2.665921561801694040e-01 -6.194430267560605552e-01 -2.205716426357842708e-01 -1.337606790315648830e-01 -2.232182913920845446e-01 -9.655473448428166794e-01
2.392581594396246680e-01 -6.120088108038427288e-01 -2.148705390925276515e-01 -1.337606790315648830e-01 -2.232182913920845446e-01 -9.655473448428166794e-01
2.495032576289145654e-01 -5.730218047341935073e-01 -2.275942243353679117e-01 -1.377742916902924553e-01 -2.331118770435591514e-01 -9.626406896295557347e-01
1.885437450532002901e-01 -5.910290801169241215e-01 -2.020844503550038862e-01 -1.148236190012145580e-01 -3.069599798132117696e-01 -9.447703992571616638e-01
2.153602774551242327e-01 -6.127781208238494148e-01 -1.946018345892370216e-01 -1.491040690065786323e-01 -2.263756151879169065e-01 -9.625601578363679467e-01
2.518363455243512461e-01 -5.914558198633416142e-01 -1.931854279822464160e-01 -1.491040690065786323e-01 -2.263756151879169065e-01 -9.625601578363679467e-01
2.172772877607644926e-01 -5.562297647140715950e-01 -2.135296567799338796e-01 -8.093261121031451732e-02 -2.976723566610242067e-01 -9.512313496319138029e-01
2.989608976266321383e-01 -6.610220714080454751e-01 -1.998529678455310821e-01 -1.967312704869609019e-01 -1.305859368216064353e-01 -9.717222444284219218e-01
3.069174924733558130e-01 -6.089631277338670712e-01 -2.167973095627839519e-01 -1.708843053758334063e-01 -1.637500158762956459e-01 -9.715886405659196479e-01
2.877893902136217652e-01 -6.480291437431835444e-01 -2.066532689045125215e-01 -1.751228835089076175e-01 -1.701511914600562503e-01 -9.697322041245453050e-01
3.246150295654497420e-01 -6.462863668103324688e-01 -2.003681757578915090e-01 -2.061009961513505517e-01 -1.306314223359918425e-01 -9.697720406796108694e-01
3.343702634809006535e-01 -6.405762927484718317e-01 -1.733470698504018803e-01 -2.061009961513505517e-01 -1.306314223359918425e-01 -9.697720406796108694e-01
3.404684618057023382e-01 -5.819163255490227282e-01 -2.189249454327684419e-01 -1.887399543119848977e-01 -1.635088407562949875e-01 -9.683192080305143001e-01
2.914387160527178722e-01 -5.739420277096393130e-01 -2.028968681124725948e-01 -1.887399543119848977e-01 -1.635088407562949875e-01 -9.683192080305143001e-01
3.635733974383557054e-01 -6.693371775174862259e-01 -2.290060726757763010e-01 -2.242698179379926104e-01 -1.147373154224836239e-01 -9.677491396078329311e-01
3.797140217255636219e-01 -6.622597334254461954e-01 -2.299306034224323503e-01 -2.242698179379926104e-01 -1.147373154224836239e-01 -9.677491396078329311e-01
3.294611171515651193e-01 -6.343570256974069288e-01 -2.374115210488002836e-01 -1.970293819489744302e-01 -1.203332022946232149e-01 -9.729847599393972590e-01
3.571080675951831540e-01 -6.210026746538312992e-01 -2.131175856280615455e-01 -2.174372689762973931e-01 -1.081382363019894322e-01 -9.700655420690008635e-01
3.656659150028575556e-01 -6.097177477964347281e-01 -2.225748184952950348e-01 -1.758264800876817580e-01 -1.511423684454357153e-01 -9.727492140118543240e-01
3.998867349626651913e-01 -6.001860822464808454e-01 -2.457394637621928002e-01 -1.989170553298108268e-01 -1.338962433285333098e-01 -9.708263496225384426e-01
3.687587692297397135e-01 -5.932509840042503590e-01 -2.030711180002953420e-01 -1.989170553298108268e-01 -1.338962433285333098e-01 -9.708263496225384426e-01
4.075112949081322600e-01 -5.704617234138191773e-01 -1.958799451484565246e-01 -1.989170553298108268e-01 -1.338962433285333098e-01 -9.708263496225384426e-01
3.668974917774204259e-01 -5.965324362566569727e-01 -2.366226283953495046e-01 -2.104720718926564038e-01 -1.446710553149457013e-01 -9.668359699076531921e-01
3.991500868050856798e-01 -6.624653834919540518e-01 -1.956579885368435745e-01 7.628818725146910840e-01 -5.275911262373054189e-01 3.737095825693129703e-01
4.309744674716016188e-01 -6.740546891861552981e-01 -2.229674554099634332e-01 7.862864221855694336e-01 -4.996400388755091182e-01 3.634741996883634751e-01
4.485100941126585750e-01 -6.451466303318417195e-01 -2.439737535819804792e-01 -2.316275887697696878e-01 -1.102171381568346070e-01 -9.665406574879401580e-01
4.175473880707480934e-01 -6.919510989644287458e-01 -2.016128197450094972e-01 -2.281101500747594601e-01 -1.099721815494849458e-01 -9.674047129914749021e-01
3.978729241464872834e-01 -6.354033377850721864e-01 -2.182334098837130087e-01 -2.281101500747594601e-01 -1.099721815494849458e-01 -9.674047129914749021e-01
3.880824532257233783e-01 -6.495939056007411505e-01 -2.089475254427267670e-01 -2.281101500747594601e-01 -1.099721815494849458e-01 -9.674047129914749021e-01
4.028159813068060702e-01 -5.859140664099785623e-01 -2.204722744089528952e-01 -2.280423581106272857e-01 -1.098657844042943976e-01 -9.674327843961944007e-01
4.396061046991968646e-01 -6.160216321444516030e-01 -2.481928758602874874e-01 7.839052971533810865e-01 -5.152849870487781203e-01 3.463724400367468870e-01
4.354539918528138598e-01 -5.952929252816839822e-01 -2.359735087893352068e-01 8.005581081065112903e-01 -4.878625053054543859e-01 3.479897864334656199e-01
4.300250771520660042e-01 -6.117516659289191638e-01 -2.080665671809537876e-01 8.077791419820452568e-01 -4.842770436881189688e-01 3.361080224205408862e-01
4.280999622318255038e-01 -5.990844084581466999e-01 -1.823918604147206635e-01 8.077791419820452568e-01 -4.842770436881189688e-01 3.361080224205408862e-01
-4.341484666105204226e-01 -5.191263106902829216e-01 -2.018544396573973831e-01 -3.087044207427277476e-01 -9.436477972708627870e-01 1.192913044599043931e-01
-4.941007064615428046e-01 -5.072031479517505881e-01 -2.389226771386311066e-01 -2.940236058853181178e-01 -9.281979794695239816e-01 2.280320812756143345e-01
-4.294425646000795682e-01 -5.105901213771958380e-01 -2.310669336387483064e-01 -3.403253237909735773e-01 -9.143759100971522447e-01 2.193065640161591667e-01
-4.616697596402579151e-01 -4.968699769101358465e-01 -2.676521503824949577e-01 -2.825931304625454166e-01 -9.263178458538852134e-01 2.491513015579017998e-01
-4.289016319454868054e-01 -5.288784671764467094e-01 -2.770227945957406401e-01 -2.792111429049777271e-01 -9.269330566151208206e-01 2.506715903963695480e-01
-3.703072753023012864e-01 -5.294893997435274891e-01 -2.760080766575512268e-01 -2.253348154262599101e-01 -9.600011747434410436e-01 1.661985723405180748e-01
-3.459689643252228386e-01 -5.293456323989286227e-01 -1.851082574768243005e-01 -2.656953919780916662e-01 -9.640078845837325439e-01 9.734328020213676644e-03
-3.468967955308811524e-01 -5.363594976923312663e-01 -2.016355229070167510e-01 -2.930298608895232082e-01 -9.523209493366707745e-01 8.496063842491370643e-02
-4.064845343954330836e-01 -5.084870050087352267e-01 -2.392995781045494097e-01 -2.650005031377523079e-01 -9.498071175986968484e-01 1.662563463317814350e-01
-3.727731284060717409e-01 -5.264888979686048742e-01 -1.858635607148613200e-01 -2.871753936159065490e-01 -9.404448299061856087e-01 1.819170558366498547e-01
-3.699339137116613441e-01 -5.570441908396448483e-01 -1.875564758027317147e-01 -2.943524705963214139e-01 -9.553531648295016110e-01 2.563110423093604637e-02
-3.920312857250735084e-01 -5.283925378883228552e-01 -1.690453583221553369e-01 -3.525000732323022579e-01 -9.347164574107054147e-01 4.526414272691637458e-02
-3.756898331699385363e-01 -5.426588363228520562e-01 -2.056504505318217657e-01 -3.196032092339244346e-01 -9.469757687109520150e-01 3.302547685769106900e-02
-3.746720901422793681e-01 -5.391420480984712160e-01 -1.900664823278647164e-01 -3.196032092339244346e-01 -9.469757687109520150e-01 3.302547685769106900e-02
-2.914933365087911676e-01 -5.735703059968183526e-01 -3.062811852260001744e-01 -1.360911829877973767e-01 -9.730981555266573491e-01 1.859009672476160113e-01
-2.921230693849801163e-01 -5.620755417246514618e-01 -2.053668617023181042e-01 -2.184588387980538338e-01 -9.749392384734278938e-01 -4.206206171668944171e-02
-3.004846741065161364e-01 -5.890336083364716702e-01 -2.538529923626847151e-01 -1.850289702843867790e-01 -9.796819706106046910e-01 7.737904507049592207e-02
-2.807103314132652905e-01 -6.029152018169843252e-01 -2.836573785546524507e-01 -1.752819558896963614e-01 -9.794662173189053744e-01 9.961006510628006572e-02
-2.894009013286345522e-01 -5.542919077495093161e-01 -2.329305692342993062e-01 -1.453545123370572345e-01 -9.864063306873850356e-01 7.664604701552192589e-02
-3.427127456384720938e-01 -5.730607580986369909e-01 -2.353304813500839976e-01 -1.778797767334178437e-01 -9.694809085415745376e-01 1.687173761136432359e-01
-3.312691546804016895e-01 -5.711476939173240064e-01 -2.938532129438109486e-01 -1.778797767334178437e-01 -9.694809085415745376e-01 1.687173761136432359e-01
-3.253958023338762717e-01 -5.750483159067077965e-01 -2.596105889288141677e-01 -1.547684934341684304e-01 -9.732185306828089466e-01 1.699776602254314817e-01
-3.497138383797213090e-01 -5.525478086766871799e-01 -2.637001358728620071e-01 -2.070016767895983545e-01 -9.635586830725758611e-01 1.694254115584139242e-01
-3.094236227040454423e-01 -5.652773204304282206e-01 -1.816486237294550610e-01 -2.089963105701649060e-01 -9.767221900172435856e-01 -4.831465301519237421e-02
-2.795213301676349182e-01 -5.345930589305546432e-01 -1.744998341637939709e-01 -2.494286006530069821e-01 -9.674443707813139559e-01 -4.285746865868721167e-02
-3.006606293197221502e-01 -5.296146326887849476e-01 -2.257164040639345060e-01 -1.898788138611689214e-01 -9.785360104603314513e-01 8.008315852321162831e-02
-3.298849316139553789e-01 -5.494272768583665645e-01 -1.731487705561211288e-01 -2.810193583986214105e-01 -9.592047729782910981e-01 -3.089213008020650839e-02
-3.588181454520053548e-01 -5.451151030053824620e-01 -2.001898753006846332e-01 -2.195772354040048113e-01 -9.723433531304016553e-01 7.958794704891575256e-02
-2.177208492237333870e-01 -5.744859610510467673e-01 -2.142998517464959340e-01 -5.118025650494151951e-02 -9.971365911755274425e-01 -5.567045790127327781e-02
-2.198239165072196077e-01 -5.890569430316496824e-01 -3.119337843936403898e-01 -5.846822468463320870e-03 -9.954891002633793340e-01 9.469564891709698895e-02
-2.060376778537525155e-01 -5.763372428802746583e-01 -2.828796446953093513e-01 -5.846822468463320870e-03 -9.954891002633793340e-01 9.469564891709698895e-02
-1.829582813249852613e-01 -5.651765187358825937e-01 -2.101676233898914226e-01 -6.074816383128157915e-02 -9.970789650999997145e-01 -4.629468593954967626e-02
-2.551749824090256968e-01 -5.802273030357439909e-01 -2.209144866851048827e-01 -1.845980373858528700e-01 -9.811534553093231859e-01 -5.710920878341104595e-02
-2.569450817915044372e-01 -5.363764887457876940e-01 -2.430576263597368780e-01 -1.268723927792228812e-01 -9.909914297562072427e-01 4.288801814286634373e-02
-2.432772902096571321e-01 -5.683031683621926344e-01 -2.621473974335528645e-01 -6.828572515225662942e-02 -9.937138666777235452e-01 8.871195473462496761e-02
-2.169807618431041085e-01 -5.929330644374321002e-01 -1.945342349914544189e-01 -1.222962007050384936e-01 -9.908923319895523996e-01 -5.635623920578451684e-02
-2.226469292448514381e-01 -5.726892449656908468e-01 -2.592422030144676537e-01 -1.222962007050384936e-01 -9.908923319895523996e-01 -5.635623920578451684e-02
-2.630918461241210649e-01 -5.420907596618838031e-01 -2.067812393181822916e-01 -1.058047222939908216e-01 -9.929497782407434858e-01 5.344247965757026320e-02
-2.992375689036150255e-01 -5.698439395086286607e-01 -2.787885548237025168e-01 -7.182023653824343157e-02 -9.822720881559703354e-01 1.731571495875943723e-01
-2.573874469601488690e-01 -5.519408443471309766e-01 -2.626505409893626908e-01 -7.182023653824343157e-02 -9.822720881559703354e-01 1.731571495875943723e-01
-2.400586920134270275e-01 -5.750035500084860196e-01 -2.836083729551876487e-01 -3.237677149345204869e-02 -9.928308762787535491e-01 1.150590968816597032e-01
-2.159434738323035285e-01 -5.769071167885125861e-01 -2.797129108748996340e-01 -3.237677149345204869e-02 -9.928308762787535491e-01 1.150590968816597032e-01
-2.831695995840908808e-01 -5.800212023448786391e-01 -2.640837796195918963e-01 -8.834902291486534942e-02 -9.868614630819785294e-01 1.352734372805144691e-01
-1.497259534297201433e-01 -5.509714721278493599e-01 -2.885974978940056279e-01 9.237524970412579195e-02 -9.956692866559424537e-01 1.046350095078740251e-02
-1.935983437130885942e-01 -5.615811095549910759e-01 -2.929268768677159573e-01 4.320003658807065189e-02 -9.970889850226497542e-01 6.282764348033097190e-02
-1.629985199975261256e-01 -5.597485740586594094e-01 -2.661685955302668383e-01 1.434969512044275385e-02 -9.988515035388095820e-01 4.571389425776224702e-02
-1.150490577998972280e-01 -6.085017502027724179e-01 -2.332834937743327175e-01 3.030470666362578697e-02 -9.865560251695764116e-01 -1.605890219026131494e-01
-1.472648005008089789e-01 -5.602050513691889666e-01 -2.611620719072495489e-01 -9.530749263443348551e-03 -9.955104428254961668e-01 -9.417071224038797705e-02
-1.170567858802388506e-01 -5.870448968691274194e-01 -2.552292603205003618e-01 5.166733792186656293e-02 -9.984001346384945297e-01 -2.297079332334515250e-02
-1.419835309697809189e-01 -5.677706190132617570e-01 -1.824186619432061895e-01 6.734089751927188616e-02 -9.882595815364352276e-01 -1.371430020917170922e-01
-7.649506933561471544e-02 -5.758929630720194259e-01 -2.896999162426479590e-01 1.542991628631753820e-01 -9.837321702182236782e-01 -9.199339985818069665e-02
-1.354625947694370613e-01 -5.590919470034841909e-01 -2.977034247558372204e-01 1.110455436919450256e-01 -9.919555050288073605e-01 -6.077140173802336731e-02
-7.297317756027638103e-02 -5.663691091689804225e-01 -2.682938458988687880e-01 1.107660232200578104e-01 -9.919811194176172409e-01 -6.086334544686550913e-02
-7.198446217130749503e-02 -5.639289697448627292e-01 -2.163942962332487951e-01 7.838637214841961964e-02 -9.743678609009387426e-01 -2.108621547474521241e-01
-1.929769239599401359e-02 -5.533350377837478185e-01 -2.569972093471968866e-01 1.545199249122591323e-01 -9.837045010178121496e-01 -9.191870039555016803e-02
-4.749420816684367386e-02 -5.786407509432619500e-01 -2.209293872808259507e-01 1.376880652308210828e-01 -9.594938973826638851e-01 -2.457914920789959767e-01
2.980848076685018930e-03 -5.459757563474070263e-01 -3.063284386994308273e-01 2.605627169218626693e-01 -9.497112682942607798e-01 -1.736536133375982394e-01
-1.006629541172041065e-02 -5.892256554156994897e-01 -2.044773612517203909e-01 1.803294130783513749e-01 -9.391220757134574049e-01 -2.924568851753436838e-01
-3.374797574155230517e-02 -5.688696209734038778e-01 -2.642497836659736810e-01 1.932531224772042477e-01 -9.721873856579275053e-01 -1.323061518615627208e-01
-7.565705963273508528e-03 -5.880100181350060851e-01 -2.248532140826935144e-01 1.458388427453093938e-01 -9.387882222208092653e-01 -3.121020758761487435e-01
1.896347772607070298e-02 -5.462946803041164312e-01 -2.546683611115660439e-01 2.209981186565760092e-01 -9.097710368851280593e-01 -3.513922195997130071e-01
8.821134191878352016e-02 -5.190263714274606643e-01 -2.939456209675034848e-01 3.348701346837392734e-01 -8.837384355808478587e-01 -3.269072810048896383e-01
4.369598350738423953e-02 -5.738379305743458447e-01 -2.384257061231461750e-01 2.511149193374654920e-01 -8.676510695888890456e-01 -4.290954657502165093e-01
5.608186305523327198e-02 -5.403921448852206932e-01 -2.469771342311128659e-01 2.511149193374654920e-01 -8.676510695888890456e-01 -4.290954657502165093e-01
2.493351885734184856e-02 -5.275202613567060439e-01 -2.412755070873532359e-01 3.040208118662164338e-01 -9.225311859872966647e-01 -2.377131818664640073e-01
5.861690302233798361e-02 -5.485593811814042375e-01 -2.653284897084264293e-01 2.500561707392700561e-01 -9.273116486594390473e-01 -2.785049689605660905e-01
9.824311218450408612e-02 -4.999845071375206285e-01 -2.108335089805298268e-01 1.653296184684237558e-01 -7.800030965465598598e-01 -6.035406255049144963e-01
7.078485245150401006e-02 -5.391828740733942693e-01 -2.370142817374031596e-01 1.716503403625484481e-01 -8.541612203392541236e-01 -4.908612536368880397e-01
8.862761038038992345e-02 -4.983304137163674929e-01 -2.349047453364156990e-01 2.687152578699738559e-01 -8.871759326040159488e-01 -3.751146155457927844e-01
8.550677765997771740e-02 -5.486117273976212072e-01 -2.628231315380825106e-01 2.619975992020106004e-01 -8.029852265641863607e-01 -5.353241858276580611e-01
1.199733191874643307e-01 -4.672144074016349458e-01 -2.637647174499120339e-01 3.347696585260087621e-01 -8.004002101722813567e-01 -4.972813884377206284e-01
1.084440686462498776e-01 -5.257508924478910828e-01 -2.009284838664297801e-01 2.304306329383536411e-01 -7.286811853500269054e-01 -6.449228275697097557e-01
1.287470159163208172e-01 -5.004178470706118764e-01 -2.866560931408682067e-01 2.790597470850847972e-01 -8.414270903320686390e-01 -4.627376245909958219e-01
1.224530751531466566e-01 -5.035371824132603980e-01 -2.468237182317217226e-01 2.193613078953789430e-01 -7.297599377700955126e-01 -6.475577579059764721e-01
1.603925030883614766e-01 -4.749863443586852529e-01 -2.510930734269728459e-01 2.267462342493720973e-01 -7.180571875141131821e-01 -6.580121736814986688e-01
1.931903602401739695e-01 -5.202857399732303545e-01 -2.244920484028714858e-01 1.432822099179329178e-01 -6.094828786555936961e-01 -7.797440791354073308e-01
1.488729049061897902e-01 -5.570865274290808244e-01 -2.132699912225169969e-01 8.974415357240378421e-02 -5.960087046469593197e-01 -7.979471228625529822e-01
1.496967978177929648e-01 -5.318212291641692957e-01 -1.972320225019363604e-01 1.465289923225700508e-01 -5.697606624279432097e-01 -8.086420975676467116e-01
3.083364153668080587e-01 -5.281223279202623688e-01 -2.043603600074037629e-01 -1.277221730254964605e-01 -2.379127123079574080e-01 -9.628523188111021147e-01
2.712721563586143469e-01 -5.655544580760129003e-01 -2.216947675622558678e-01 -1.277221730254964605e-01 -2.379127123079574080e-01 -9.628523188111021147e-01
2.529897187309025353e-01 -5.373509653449165535e-01 -2.418016225785612205e-01 -6.215307819502269987e-02 -3.436726680953464674e-01 -9.370304648596593511e-01
2.515244811634100852e-01 -5.646171755271568449e-01 -2.040682544591493341e-01 -6.215307819502269987e-02 -3.436726680953464674e-01 -9.370304648596593511e-01
2.781182840021835800e-01 -5.023915127049258800e-01 -2.112866990148138668e-01 -2.912904512462278356e-02 -3.510719581910682341e-01 -9.358952820171798637e-01
2.572889347154803663e-01 -4.969361901886180655e-01 -2.137860813575300500e-01 -2.912904512462278356e-02 -3.510719581910682341e-01 -9.358952820171798637e-01
2.575574062083055282e-01 -5.077540017617349077e-01 -2.259843421934162877e-01 -2.425440066085172985e-02 -3.299507456310193376e-01 -9.436865101855156368e-01
2.491494158931485403e-01 -4.818695096663854760e-01 -2.634599449142119854e-01 9.259031348108943960e-02 -4.546642685278426410e-01 -8.858371389671554352e-01
2.212065189928173470e-01 -5.223123809809273599e-01 -2.647457963901130862e-01 1.130071618372750775e-01 -4.546795113463788507e-01 -8.834568033216462224e-01
2.136554454225472188e-01 -5.365567695463999698e-01 -2.234978550419878529e-01 5.952070128149464234e-02 -4.349718529992114835e-01 -8.984746925859355970e-01
3.355503753403063505e-01 -5.620037596126259416e-01 -1.949393553043562155e-01 -1.755562497568705083e-01 -1.859233513130093829e-01 -9.667535935324175211e-01
3.579349281680366257e-01 -5.571496680831908854e-01 -2.234614227240485085e-01 -1.755562497568705083e-01 -1.859233513130093829e-01 -9.667535935324175211e-01
3.938358250383423020e-01 -5.602188135385626211e-01 -2.448069633930034517e-01 -1.621829435398847441e-01 -1.836582590672332649e-01 -9.695186108069981934e-01
3.577025775819250297e-01 -5.329726379780027612e-01 -2.444250470995304181e-01 -1.621829435398847441e-01 -1.836582590672332649e-01 -9.695186108069981934e-01
3.649972246970664136e-01 -5.531044966969195231e-01 -2.460216330352454350e-01 -1.612129842362720333e-01 -1.775811640850132045e-01 -9.708116727130176038e-01
3.752505156136001774e-01 -4.945752124969914343e-01 -2.254395460060962253e-01 -1.002897768152599678e-01 -2.427276972758598550e-01 -9.648964844176310951e-01
3.049786506636339434e-01 -5.303724899697894735e-01 -1.978801340757741223e-01 -1.081685637104842640e-01 -2.304865730883140507e-01 -9.670447256724046259e-01
3.290760705003773490e-01 -5.729285271446966643e-01 -1.989136378957613860e-01 -1.081685637104842640e-01 -2.304865730883140507e-01 -9.670447256724046259e-01
3.109435826726136831e-01 -4.973396708594646221e-01 -2.044290197751872373e-01 -2.253630493739066949e-03 -3.419266261288226305e-01 -9.397239506864545344e-01
3.031073456688683776e-01 -5.226285637144908458e-01 -2.496078694345842119e-01 -1.121413070602290118e-01 -2.477551362204674090e-01 -9.623106149924779418e-01
4.469261326111617083e-01 -6.107171489822267318e-01 -2.370699759312580035e-01 -2.310635218006598379e-01 -1.091668697640604396e-01 -9.667948300642658088e-01
4.057027423691401680e-01 -5.688352569042772755e-01 -2.387901378567053035e-01 -2.135537682157895856e-01 -1.252080393403929570e-01 -9.688744681151276739e-01
4.447339847583081096e-01 -5.488634153222153866e-01 -2.576288379432408737e-01 -2.224953483702127310e-01 -1.152267179365707023e-01 -9.681005234102416646e-01
4.256363060448531410e-01 -5.596521926379139922e-01 -2.510878234823969990e-01 -2.169430556119936182e-01 -1.447728487914075601e-01 -9.653893167393926555e-01
4.342410241508228852e-01 -5.680802755778472379e-01 -2.367295416659276064e-01 -2.169430556119936182e-01 -1.447728487914075601e-01 -9.653893167393926555e-01
3.922493240884238341e-01 -5.419288968177323751e-01 -2.354275000478651680e-01 -2.010825764036952568e-01 -1.502899576704507523e-01 -9.679766144335647526e-01
4.337796757078324905e-01 -5.684828765930854955e-01 -2.608623395287352209e-01 -2.010825764036952568e-01 -1.502899576704507523e-01 -9.679766144335647526e-01
3.973386985548094108e-01 -5.188161535445784400e-01 -2.395466825331734051e-01 -1.649775071372289736e-01 -1.850406473509701999e-01 -9.687839702259319896e-01
3.893125975731686061e-01 -5.417539888878203369e-01 -2.180006845046225661e-01 -1.649775071372289736e-01 -1.850406473509701999e-01 -9.687839702259319896e-01
4.331156722858516273e-01 -5.245951768334378151e-01 -2.641467114932162241e-01 -1.975614232074247578e-01 -1.373990193460976894e-01 -9.706137200467482851e-01
4.344005587968890469e-01 -5.762879152425058882e-01 -1.690562903594898247e-01 8.215986728785765747e-01 -4.989564989255418359e-01 2.757136792111111179e-01
4.598855546190729893e-01 -5.970671442833872522e-01 -2.237944638425453658e-01 8.231601064706860482e-01 -4.556422706753422980e-01 3.388178866131285605e-01
4.451657741922954159e-01 -5.954335317770742542e-01 -1.789505764813479338e-01 8.295549535228886606e-01 -4.910425358457882750e-01 2.659244386583820008e-01
4.974926401689221955e-01 -5.564014443399866172e-01 -2.640708469658403779e-01 8.494740977280516026e-01 -4.182091817441482839e-01 3.217061354621676417e-01
4.710909164237151447e-01 -5.657530224826781140e-01 -2.394245902668535875e-01 8.494740977280516026e-01 -4.182091817441482839e-01 3.217061354621676417e-01
4.862875565032839242e-01 -5.307815883014330716e-01 -2.033913216546411329e-01 8.480492095628453519e-01 -4.582035726290128452e-01 2.661992189880391657e-01
4.511362475870475675e-01 -5.641128930318447532e-01 -2.433142721903987227e-01 8.262428151459701997e-01 -4.532096579898724498e-01 3.345501701155821350e-01
4.560401728578674097e-01 -5.274622617279407510e-01 -1.928908159114505194e-01 8.458537141173250173e-01 -4.206379834296915532e-01 3.280170440847988700e-01
-6.077044514220072413e-01 -4.441973248271819386e-01 -1.896458488720052515e-01 -4.732451460120697395e-01 -8.103785918226555918e-01 3.454353335887117016e-01
-5.974195950556515644e-01 -4.533696756179158571e-01 -1.841274505854343657e-01 -5.205095529734795612e-01 -8.062206515240923910e-01 2.812082259099412118e-01
-6.100308210726209657e-01 -4.554024905916155830e-01 -1.922324839676415320e-01 -5.205095529734795612e-01 -8.062206515240923910e-01 2.812082259099412118e-01
-6.301347889813725400e-01 -4.297486752058047310e-01 -2.188213103080676181e-01 -5.082388980102935383e-01 -7.861944675471186361e-01 3.515558017549774150e-01
-5.712111036419088572e-01 -4.389137417974151578e-01 -2.346219551051669794e-01 -1.246441518732191445e-01 2.314003284516434611e-01 -9.648407761886296230e-01
-5.705632446217168141e-01 -4.562533590645431736e-01 -2.418384780596890271e-01 -1.246441518732191445e-01 2.314003284516434611e-01 -9.648407761886296230e-01
-5.837705419523533390e-01 -4.757621488507079999e-01 -2.539836061418984658e-01 -1.418235753726450887e-01 2.248708065984995064e-01 -9.640120299084757871e-01
-5.338837665163219670e-01 -4.717297811649633354e-01 -2.123927370626555178e-01 -1.418235753726450887e-01 2.248708065984995064e-01 -9.640120299084757871e-01
-5.571315818008859555e-01 -5.049211969063783778e-01 -2.367712640165504090e-01 -4.100494409435344600e-01 -8.570281317092574014e-01 3.120292252992252213e-01
-5.452482307012750384e-01 -5.203994177262193377e-01 -2.433394270393086922e-01 -1.208776231984222266e-01 2.283142540858572045e-01 -9.660544506347036320e-01
-5.651650612779671734e-01 -4.549505785767097299e-01 -1.945995152170201248e-01 -4.551417316725989148e-01 -8.497870127388046368e-01 2.659098288339987737e-01
-5.776590402392214330e-01 -4.484283519364345993e-01 -2.426755647713378095e-01 -4.364966392154195352e-01 -8.358092946463003825e-01 3.330067671031590737e-01
-5.674249185019933917e-01 -4.769258317011799697e-01 -2.061447111304635649e-01 -4.080088377108056497e-01 -8.594984214053402738e-01 3.078818798688962022e-01
-5.326441666538710429e-01 -4.834582453103657418e-01 -2.435586095031552767e-01 -4.080088377108056497e-01 -8.594984214053402738e-01 3.078818798688962022e-01
-6.004676191551566733e-01 -4.154664541618330875e-01 -1.976518497989694367e-01 -4.611898613318006213e-01 -8.276260521474166909e-01 3.199047195832471213e-01
-5.655556120671144660e-01 -4.884878322198850653e-01 -2.327266071849398987e-01 -4.611898613318006213e-01 -8.276260521474166909e-01 3.199047195832471213e-01
-4.344879125102982242e-01 -4.901501588627876771e-01 -2.480455910265258745e-01 -1.817170498967233261e-01 1.667812187602753238e-01 -9.691041940089150097e-01
-4.603655707831386668e-01 -4.268755948799931588e-01 -2.724468896928132211e-01 -1.899497104464384079e-01 1.753631257408352351e-01 -9.660056322981342980e-01
-4.891587815011179119e-01 -5.025439438943473114e-01 -2.505982416318507933e-01 -1.711359869823625146e-01 2.096223646584412514e-01 -9.626894297719156279e-01
-4.868006775590958402e-01 -5.085945572107146706e-01 -2.613634094613906389e-01 -1.495466034186437310e-01 2.322220702197541065e-01 -9.610976659574188563e-01
-4.740826007451748314e-01 -5.239242067467269059e-01 -2.870268758517942054e-01 -1.495466034186437310e-01 2.322220702197541065e-01 -9.610976659574188563e-01
-4.921383151211524698e-01 -4.570038194853216496e-01 -2.352723192532162610e-01 -1.534685028356796987e-01 2.217688556500642116e-01 -9.629465163242640902e-01
-4.622948104185518048e-01 -5.064179217947384348e-01 -2.688655097433395591e-01 -1.430283024990993967e-01 2.134703700573869489e-01 -9.664229435354835251e-01
-4.685300157501154361e-01 -5.542990825162738000e-01 -2.483296117080169285e-01 -1.456493352998422530e-01 2.294950822161772874e-01 -9.623503927184234863e-01
-5.383716284789210604e-01 -4.797214394000234305e-01 -2.508658267631282413e-01 -3.663414768021285295e-01 -8.790501962268657543e-01 3.050650338664602779e-01
-5.215040959829185807e-01 -5.043350483879021073e-01 -2.221258344348519542e-01 -1.350658106447734097e-01 2.198184557659090266e-01 -9.661454721208195817e-01
-5.221640757083201301e-01 -5.070939607719346931e-01 -2.730711848449045021e-01 -3.662750377651178835e-01 -8.792154183959237645e-01 3.046684177348252809e-01
-4.235749746063926513e-01 -4.300795251821681320e-01 -2.576034404688792856e-01 -2.136073129331769738e-01 1.567019912277483606e-01 -9.642698801718979640e-01
-4.051967358536732178e-01 -4.488938773420549921e-01 -2.659662028169547110e-01 -2.136073129331769738e-01 1.567019912277483606e-01 -9.642698801718979640e-01
-4.201065506666863958e-01 -4.184473183693796505e-01 -2.907755263672486823e-01 -2.595726334362150056e-01 7.451899573827264200e-02 -9.628442071514724532e-01
-3.743899705354520879e-01 -3.908287169019080132e-01 -2.658770529095620394e-01 -2.595726334362150056e-01 7.451899573827264200e-02 -9.628442071514724532e-01
1.649689899364944756e-01 -4.976456494441309775e-01 -2.296637888676015538e-01 2.760275110312825353e-01 -7.435111922650424754e-01 -6.090976277498463265e-01
1.577860380112358907e-01 -4.915531119477751232e-01 -2.588592844125640058e-01 3.909517315577391572e-01 -7.742877599699690139e-01 -4.976295895067868180e-01
2.068324466738267475e-01 -4.713498004369308658e-01 -2.875755415761536704e-01 4.369565054418908523e-01 -7.250188835801759657e-01 -5.323688860218693808e-01
1.856203357864878722e-01 -4.874679730043871562e-01 -2.810352244367993468e-01 3.503741651990378014e-01 -6.971776133263576369e-01 -6.254448975230683105e-01
1.760322637678876923e-01 -4.810713822745774082e-01 -2.604003356364117949e-01 3.679453273470593699e-01 -7.684452000502872693e-01 -5.235534457943518127e-01
2.243522494884345742e-01 -4.905836844779907224e-01 -2.365185470050845951e-01 1.517315188467658060e-01 -5.541032273149328891e-01 -8.185029991805951033e-01
2.164043248402094943e-01 -4.332515207554343828e-01 -2.706301133413950288e-01 4.108279266250386419e-01 -7.271550469857124277e-01 -5.499690467182478670e-01
2.093802649414586436e-01 -5.080270056397209189e-01 -2.596023951036319777e-01 2.370416088635642071e-01 -5.817416010435625395e-01 -7.780668257178463554e-01
2.381744431277720564e-01 -4.714735369685389421e-01 -2.703215464773565668e-01 2.488528562457127669e-01 -6.307025846221977483e-01 -7.350418394140770806e-01
2.903617025168581667e-01 -4.588595793387776900e-01 -2.508050887555976494e-01 1.890183043406459817e-01 -5.414151713819095324e-01 -8.192323802326689774e-01
2.607169889010771957e-01 -4.613229191093978776e-01 -2.611849719268710124e-01 3.546373488219306536e-01 -6.211474417199459586e-01 -6.988620797162474751e-01
2.900978118065539180e-01 -4.336293441170046559e-01 -2.499922237864431185e-01 2.819233049178248018e-01 -5.830412209768126575e-01 -7.619594377564192778e-01
2.761621340485107545e-01 -4.520286899412737647e-01 -2.482451610741969739e-01 3.635221097709160354e-01 -6.399278870636166960e-01 -6.770110597811510589e-01
2.883932235560179858e-01 -4.302877323331500414e-01 -2.899026958493152728e-01 2.963535782990237566e-01 -5.594493492938913404e-01 -7.740742743458187691e-01
2.698306731116010271e-01 -4.804400573532758845e-01 -2.769704660698146248e-01 1.237258188783081636e-01 -4.464507281701743935e-01 -8.862131058945208473e-01
2.825316245372740398e-01 -4.040003172500246653e-01 -2.839620123291647924e-01 1.727125804919038554e-01 -4.394791257268503837e-01 -8.814921795400063598e-01
2.919223245071861927e-01 -4.658261740372913740e-01 -2.506668012328315265e-01 1.727125804919038554e-01 -4.394791257268503837e-01 -8.814921795400063598e-01
3.203573076729674951e-01 -4.472030301650511963e-01 -2.566597052835002390e-01 8.887263589153256843e-03 -3.187760129947352361e-01 -9.477884099761282322e-01
3.340292083099938303e-01 -5.016616999428697987e-01 -2.811491692244494356e-01 -1.000292925915055170e-01 -2.417208568868204621e-01 -9.651762367410130494e-01
3.204875572227188774e-01 -4.762834537228097243e-01 -2.169844398312377465e-01 9.942316301501763313e-04 -3.407379706641271988e-01 -9.401577776369017814e-01
4.606076031475939692e-01 -4.899369939987480715e-01 -2.716817964215404446e-01 -2.163292210450648845e-01 -1.428046567771669162e-01 -9.658201168565454520e-01
4.666829971539979693e-01 -5.303496172509737372e-01 -2.484622765787352083e-01 -2.163292210450648845e-01 -1.428046567771669162e-01 -9.658201168565454520e-01
3.863804661904171045e-01 -5.118165016008333623e-01 -2.523247622292939529e-01 -1.640126287485962064e-01 -1.811392162263462113e-01 -9.696847126545206086e-01
3.950829741235473147e-01 -4.814660396600596304e-01 -2.392640232040170734e-01 -1.651566339448623799e-01 -1.917687630894966411e-01 -9.674440695808348423e-01
4.191937035525346023e-01 -5.166373164202643364e-01 -2.435516149088857163e-01 -1.631657153114967063e-01 -1.805435801409143171e-01 -9.699386398204726811e-01
3.976901450757607259e-01 -4.740220987750063397e-01 -2.641419826215561373e-01 -1.631657153114967063e-01 -1.805435801409143171e-01 -9.699386398204726811e-01
3.738063337855236923e-01 -4.996734299886759212e-01 -2.443772767119580525e-01 -1.021558133780769012e-01 -2.427310084236402321e-01 -9.646998742317250963e-01
3.073462088949762139e-01 -4.469990155802664455e-01 -2.533122761733918038e-01 -1.225951780553866111e-02 -3.252025778353244134e-01 -9.455649039555324986e-01
3.608174312115946525e-01 -4.143260780744839056e-01 -2.458079979519326719e-01 -1.225951780553866111e-02 -3.252025778353244134e-01 -9.455649039555324986e-01
3.910979973736072868e-01 -4.575796213793253964e-01 -2.352203518617151934e-01 -9.997670665541763535e-02 -2.354538555754201457e-01 -9.667296106052643001e-01
5.297330715333060658e-01 -4.564731380807446337e-01 -3.209586482645033767e-01 -2.180167909535478399e-01 -1.618632838611603619e-01 -9.624286759027902427e-01
4.918870987436823050e-01 -4.419192936113474635e-01 -2.548761071039258863e-01 -2.180167909535478399e-01 -1.618632838611603619e-01 -9.624286759027902427e-01
5.134145831327769915e-01 -5.020675671954620833e-01 -2.599610798791521793e-01 -2.155868177886529624e-01 -1.600130820522827346e-01 -9.632850759603263091e-01
4.945940061134407872e-01 -5.043229238324600239e-01 -2.727611463925579960e-01 -2.290620041807287788e-01 -1.423301421552534418e-01 -9.629500136947779509e-01
5.076470708506656271e-01 -4.718423770590230992e-01 -2.572525637957993050e-01 -2.264736809971385489e-01 -1.392274492154086940e-01 -9.640152432407783634e-01
4.467288095456732333e-01 -4.707117229721905494e-01 -2.576716037755804600e-01 -1.824396444406303497e-01 -1.610344031711483936e-01 -9.699400482151916414e-01
4.845055444505273479e-01 -5.089512969728319236e-01 -2.148183958998232113e-01 -2.106427858698937394e-01 -1.367850403025855921e-01 -9.679460054726141127e-01
4.604676230037010876e-01 -4.885841477375028052e-01 -2.511219834514204496e-01 -2.106427858698937394e-01 -1.367850403025855921e-01 -9.679460054726141127e-01
4.381534825664228361e-01 -4.742043197345665040e-01 -2.616735717326558186e-01 -1.534698553190678716e-01 -1.803420109497433366e-01 -9.715573902734450096e-01
4.782374624138403529e-01 -4.865904546240819584e-01 -2.736274076249151088e-01 -1.994052491052645260e-01 -1.808149921303764951e-01 -9.630905903652881017e-01
5.352757956335478795e-01 -5.354527657772109039e-01 -2.093974242910249528e-01 8.784464471847196476e-01 -4.008356195118384924e-01 2.601204443312833403e-01
4.936090133025930471e-01 -5.149376051392965392e-01 -1.969854515065461720e-01 8.784464471847196476e-01 -4.008356195118384924e-01 2.601204443312833403e-01
4.926689721818687251e-01 -5.441476818089043821e-01 -2.587294755319838879e-01 8.713625586999054207e-01 -3.765926592040169107e-01 3.144920671966164316e-01
4.883372677086816327e-01 -5.027801429428547797e-01 -2.700858826946890834e-01 8.956705355989122985e-01 -3.423753319831290831e-01 2.838193504844229165e-01
5.094698972138289594e-01 -5.011816261344554935e-01 -2.534053826761472061e-01 8.956705355989122985e-01 -3.423753319831290831e-01 2.838193504844229165e-01
4.810593004676178563e-01 -5.252755789225982408e-01 -2.166624968856000200e-01 8.656459842532272519e-01 -4.043555697008784366e-01 2.952178910536070733e-01
5.031287163735254087e-01 -5.099807577198018915e-01 -2.345556418972088442e-01 8.656459842532272519e-01 -4.043555697008784366e-01 2.952178910536070733e-01
5.551875856852755975e-01 -4.569268909504753950e-01 -2.761598355499477742e-01 9.065546069940647600e-01 -3.203515874334774693e-01 2.748337769756254434e-01
5.313787024371225964e-01 -4.641287980847673689e-01 -2.708460883362544536e-01 9.219517068384414094e-01 -2.720003121622819875e-01 2.757188431016383556e-01
5.335175289886756600e-01 -4.525261202132743188e-01 -2.221318720936707181e-01 9.174124619542127768e-01 -3.661366678465605706e-01 1.558791682981645610e-01
5.622061171439571847e-01 -4.620343276371819408e-01 -2.231227803943048316e-01 9.222237016415075761e-01 -2.974686847018689351e-01 2.470138169260490957e-01
-6.717532868538004243e-01 -3.840720882513778411e-01 -2.032618404598054707e-01 -5.481776692778869142e-01 -7.431155817519026208e-01 3.837713838505874553e-01
-6.439957109238544364e-01 -4.317628998180967348e-01 -2.187160282654645460e-01 -5.043828169079881407e-01 -7.797858224580933584e-01 3.708531314433218817e-01
-6.636281280030400520e-01 -3.793582912289941711e-01 -1.819617457629164325e-01 -5.278613570666232935e-01 -7.628747613596105204e-01 3.733423177143197491e-01
-7.060313370762376639e-01 -4.378438605433364605e-01 -2.174472313284929459e-01 -5.144702773264184792e-01 -7.685502063781886051e-01 3.803300067358894032e-01
-6.511052185478735099e-01 -4.019917430300979366e-01 -2.132343085570340691e-01 -5.275308602218093945e-01 -7.640026088128279991e-01 3.714985938611758964e-01
-6.244532454352456075e-01 -4.283381262896379105e-01 -2.280504838552761815e-01 -4.922355800779970036e-01 -7.939609294033010967e-01 3.568335414255842108e-01
-6.312933108837144314e-01 -4.354123322194256018e-01 -2.397348132392066178e-01 -1.081798899213026466e-01 2.378680042445576182e-01 -9.652543312377965812e-01
-5.925904114690839775e-01 -4.293860559169188074e-01 -2.325621188639516446e-01 -1.022735546921562100e-01 2.304150992760264915e-01 -9.677029513421200324e-01
-5.913910343016405280e-01 -4.238615240087369451e-01 -2.392762327094737906e-01 -1.195749225425147139e-01 2.214687982741656291e-01 -9.678085602483316174e-01
-6.274171962438831462e-01 -4.442273618515537592e-01 -2.479728989161469332e-01 -1.133775283557441338e-01 2.198353727322732154e-01 -9.689261813779235233e-01
-5.959717934947751372e-01 -3.637998330109338818e-01 -1.866142726064690949e-01 -1.532454487355898731e-01 1.928334942397087748e-01 -9.691909388459694075e-01
-6.327777296115816297e-01 -4.301111869447648561e-01 -1.948018469593911506e-01 -1.199403354418222961e-01 2.223445068748959030e-01 -9.675625231460044384e-01
-6.004436127996020112e-01 -3.963080864722737795e-01 -2.380349447376153282e-01 -1.199403354418222961e-01 2.223445068748959030e-01 -9.675625231460044384e-01
-5.047858704215213432e-01 -4.468359837350999730e-01 -2.516024897130557103e-01 -1.418117814931494358e-01 1.992943739118017976e-01 -9.696242422489457224e-01
-5.423286483508218403e-01 -3.955921716859593373e-01 -2.567653925446802265e-01 -1.225045880088932448e-01 2.173282661930993898e-01 -9.683806331346537233e-01
-5.760523760163296370e-01 -4.379602279138077314e-01 -2.399029618327818414e-01 -1.225045880088932448e-01 2.173282661930993898e-01 -9.683806331346537233e-01
-5.728451263977450969e-01 -4.219803425314710976e-01 -2.359895382176354084e-01 -1.225045880088932448e-01 2.173282661930993898e-01 -9.683806331346537233e-01
-4.997705696161124367e-01 -3.882765967977572785e-01 -2.146598116815405244e-01 -1.566673846181664831e-01 1.764600615132625450e-01 -9.717598351895592179e-01
-5.255796794629949975e-01 -3.933607278727705436e-01 -2.574468290052102648e-01 -1.555418077081268946e-01 2.105385071753049786e-01 -9.651322619471810471e-01
-5.229254687615896291e-01 -3.717750265870732873e-01 -2.321493292568467259e-01 -1.684228234627571652e-01 1.885263383099656798e-01 -9.675182542465384783e-01
-5.495378924384453079e-01 -4.000643450026652448e-01 -2.398298156978933282e-01 -1.292830284833085541e-01 2.244015874214314032e-01 -9.658829256741863212e-01
-5.708824746229689273e-01 -4.514561517181592265e-01 -2.594591633281636556e-01 -1.292830284833085541e-01 2.244015874214314032e-01 -9.658829256741863212e-01
-5.756150449780461642e-01 -3.993252717379298655e-01 -2.282238138992971621e-01 -1.499274708358468156e-01 1.846128172780295840e-01 -9.713083244703688557e-01
-5.637916362360579914e-01 -3.912161263793421662e-01 -2.354124390459193805e-01 -1.499274708358468156e-01 1.846128172780295840e-01 -9.713083244703688557e-01
-4.957146590447202850e-01 -4.473464481597343445e-01 -2.290123767354337314e-01 -1.718831913950124024e-01 1.759843063618150572e-01 -9.692707013163126550e-01
-4.513844423573198927e-01 -4.012969647700672660e-01 -2.330018330541035465e-01 -2.132399878100270929e-01 1.034632305196873936e-01 -9.715060820855468959e-01
-4.547072570413939752e-01 -3.763975267249087264e-01 -2.541785300754800248e-01 -2.184893742013388762e-01 1.455246003333199589e-01 -9.649274501530852310e-01
-4.495911482344160381e-01 -3.798084719702030654e-01 -2.762612320575341673e-01 -2.424719912154880141e-01 1.229463173155810191e-01 -9.623364985983503539e-01
-4.607105670918291151e-01 -3.666151399587251336e-01 -2.526883222371451021e-01 -2.424719912154880141e-01 1.229463173155810191e-01 -9.623364985983503539e-01
-4.986590830779602523e-01 -4.027909813563124719e-01 -2.376599777329977126e-01 -1.777912599253954617e-01 1.508553669386175911e-01 -9.724365923596024475e-01
-4.258511439877656901e-01 -3.897308382583829500e-01 -2.361746060018563576e-01 -3.076319268436838450e-01 -2.353219726184717711e-02 -9.512143992173750506e-01
-3.951491625763747795e-01 -3.771379907607152471e-01 -2.838593365229754584e-01 -2.956191004937863132e-01 8.592517676459887708e-04 -9.553055056418571223e-01
-4.338608853230591644e-01 -3.156868324286067340e-01 -2.415705793691088066e-01 -3.662218498664546740e-01 -1.182259944751894581e-01 -9.229865496911341394e-01
-3.791376969232840288e-01 -3.470383287132708938e-01 -2.453087288170346381e-01 -3.662218498664546740e-01 -1.182259944751894581e-01 -9.229865496911341394e-01
-4.185414090316106339e-01 -3.540855075780295902e-01 -2.678472651417975192e-01 -3.255350382180960400e-01 5.788666922551630612e-04 -9.455298005910206527e-01
-4.446486416944425701e-01 -4.152057001317416285e-01 -2.427599236435990793e-01 -2.443520066699380322e-01 7.335312582299963191e-02 -9.669081733899914655e-01
2.992339057168245109e-01 -4.236643310763102965e-01 -2.625384923967708506e-01 3.229235178253673233e-01 -5.189753794274994947e-01 -7.914448541644405477e-01
3.206791394071951129e-01 -3.722060669995118087e-01 -2.831545781657362482e-01 3.204624571261721067e-01 -4.757489005776620039e-01 -8.191256296636079126e-01
3.253011345590229308e-01 -4.339394722916199432e-01 -2.617799139977022294e-01 1.468723304190446277e-01 -4.012402761617437918e-01 -9.041209871156218325e-01
3.729362888663518838e-01 -4.050880578698107248e-01 -2.830890634784438142e-01 7.836073093455189764e-02 -3.778688934422609336e-01 -9.225370969322177483e-01
3.873416424682112336e-01 -4.057763283436244817e-01 -2.679228210139646960e-01 7.836073093455189764e-02 -3.778688934422609336e-01 -9.225370969322177483e-01
3.644983056066099514e-01 -3.883629779890679368e-01 -2.786299731154521231e-01 7.836073093455189764e-02 -3.778688934422609336e-01 -9.225370969322177483e-01
3.615506851907686614e-01 -3.982019135149587608e-01 -2.404319505111532917e-01 1.089685195309487015e-01 -4.094677540507329905e-01 -9.057935858372377913e-01
3.455454341884535152e-01 -4.012295504762861120e-01 -2.685639663766261065e-01 1.306355319047259878e-01 -3.660586682614637155e-01 -9.213769094103744228e-01
3.869154056485899495e-01 -4.567148078411472079e-01 -2.407355455311187553e-01 -9.804090828142249248e-02 -2.236447839993211395e-01 -9.697272765542127582e-01
3.778894624834457927e-01 -4.341996636787078256e-01 -2.644584568040338479e-01 -3.178076580582549909e-02 -3.047112360225615046e-01 -9.519144108408055249e-01
3.767652358669715817e-01 -4.255384467502021928e-01 -2.479543960687114468e-01 -3.178076580582549909e-02 -3.047112360225615046e-01 -9.519144108408055249e-01
4.737398814609558584e-01 -4.166270018751823123e-01 -3.070952577358470048e-01 -1.605904031504951646e-01 -2.113046336246171830e-01 -9.641374768282413577e-01
4.768002916523916834e-01 -4.220142030758677332e-01 -2.650139639782740364e-01 -1.605904031504951646e-01 -2.113046336246171830e-01 -9.641374768282413577e-01
3.874070625212046037e-01 -4.568358859345545975e-01 -2.677683963591939720e-01 -1.335685960967226138e-01 -2.328990468055769647e-01 -9.632847264094891448e-01
4.197074079327454132e-01 -3.964035437606441281e-01 -2.690348524987019041e-01 -6.583711484917290080e-02 -2.818206146742282536e-01 -9.572056286153864946e-01
