-5.317270653366074074e-01 -2.677322577752505595e-01 -2.163782979400210860e-01 -7.632948680316291590e-01 -4.924558187124466468e-01 4.181724656799293838e-01
-1.255710831621844603e-01 -1.900871917334870098e-01 1.154319176728070412e-01 5.779989952072773773e-01 8.087632274718796754e-01 1.087161599241165677e-01
-4.294200480744464477e-01 -3.739984034428959769e-01 -1.540079581926337426e-01 -7.479069107270671646e-01 -6.634724551852939634e-01 -2.096554547567852297e-02
-4.690374011289452638e-01 -2.806110398812290407e-01 -1.954099635296630277e-01 -7.710768585804633757e-01 -5.695059812572571545e-01 2.847866139303122379e-01
5.594020251186446746e-01 -5.629001951151447747e-01 -3.635522588326828841e-01 -5.791708153756216504e-01 7.713272442623979597e-01 -2.638473969470090386e-01
3.617064720740032491e-01 7.945855214312695924e-01 -2.059886285044119567e-02 1.471491874014028700e-01 1.910612214225141658e-01 9.704858197396002417e-01
-4.329129324941344836e-01 -3.365519340586803909e-01 -1.749449671529525185e-01 -7.838762460314325775e-01 -6.206891687613893538e-01 1.682220823687076428e-02
3.278453556753418985e-01 -4.699715590190582937e-01 -1.651385529640593819e-01 3.236666907165314244e-01 -7.788917385902659474e-01 5.371848218969352828e-01
-4.073294477547026449e-01 1.786829388888809822e-01 1.429867949116463144e-01 4.575608743380792792e-02 3.762887596784778577e-01 -9.253718981049631198e-01
3.234357961048796581e-01 6.539484208759949180e-01 1.516578407233401538e-01 1.581196928983268357e-01 4.728868328294049683e-01 -8.668195925648619626e-01
8.727175550692047867e-01 2.799367253398766242e-01 -1.353636741494966267e-01 7.610359946146233456e-01 5.902761502287313250e-02 6.460185411933953015e-01
-5.142537475455671858e-01 -2.740242091854132589e-01 -1.854319630656707796e-01 -8.649268484549416103e-01 -5.006932391384402159e-01 3.475380702684250506e-02
-4.080793926599386445e-01 -4.097483043127894131e-01 -1.555005668770346461e-01 -6.964422062093292842e-01 -6.999506712126462027e-01 -1.582318276430123294e-01
4.078165185327678466e-01 5.440961650350207846e-01 1.311770277785508643e-01 2.072523701087855275e-01 4.439576038429600136e-01 -8.717500221246388126e-01
-3.594737242698678448e-01 -3.988527848423820132e-01 -1.456164750232338267e-01 -6.651036623924099223e-01 -7.093456636884540867e-01 -2.333791928998589227e-01
-9.379837860109256631e-02 -2.098897563129858146e-01 1.132509332042159339e-01 3.830277435889752891e-01 9.161819422579962069e-01 -1.178999419910970459e-01
-5.063004090366233223e-01 -2.774944401661527671e-01 -1.813746899903438958e-01 -8.585497244155984031e-01 -5.084482431323701368e-01 -6.612680819082654426e-02
-4.580133469482801645e-01 -3.539237992897857898e-01 -1.568189801419327400e-01 -7.750124378129354952e-01 -6.166110314049157992e-01 -1.383710850756645905e-01
6.582158560479819398e-01 2.235226128184296945e-01 4.084931247073651100e-02 3.310123787383900118e-01 2.329483462610946187e-01 -9.144210589745699336e-01
-4.537071190932518427e-01 4.237188759404622584e-01 1.270890714186975190e-01 -8.283931600186106303e-01 5.558706963466056861e-01 -6.908358254694392520e-02
-4.505511214366234030e-01 -3.568458492984042385e-01 -1.313279287461527889e-01 -7.941521101875386179e-01 -5.915027078744743427e-01 -1.394524021372305356e-01
6.401356069676508165e-01 1.539168339011846298e-01 2.383343546374490363e-03 3.473120058600033255e-01 2.462295143234947692e-01 -9.048455099416236047e-01
-4.130488534000815726e-01 -7.882121674101378872e-01 -4.445952654743597771e-02 -4.246283927215996346e-01 -6.955298832165572875e-01 -5.795937453487858271e-01
-7.214638461044542428e-02 -2.239319077506138345e-01 1.070025451893132501e-01 4.021941087464926401e-01 9.026265040995290478e-01 1.533143600145709107e-01
7.423714588364243028e-01 4.510431146155587101e-02 1.892965476090883656e-02 3.294241990497656092e-01 1.980625743989958276e-01 -9.231743679841110106e-01
6.794866845662052013e-01 1.598594866959623592e-02 4.329273419906046194e-02 3.295563803120254431e-01 1.982654009961390684e-01 -9.230836489525073851e-01
-7.093538238860597200e-01 -5.562377438069422420e-01 -6.259621932033143307e-03 -7.132231339776067269e-01 -4.498104581613502351e-01 -5.375716816275175614e-01
7.358174717772376638e-01 -2.883734736357152981e-03 5.638100764534495490e-02 3.286312042655289978e-01 1.932902602345345222e-01 -9.244676343071476232e-01
-2.599946631709453282e-01 -9.058660675828063003e-01 -2.350176001590752531e-02 -2.610115170649583982e-01 -9.621500295063329933e-01 -7.836012174831838428e-02
6.883215721801552167e-01 -2.605765627779599303e-01 -2.648126050431640413e-03 3.119054778552426410e-01 9.350816413419789364e-02 -9.455005003299282729e-01
-8.019242436710637412e-01 -4.488300112636643413e-01 1.233618947913569033e-02 -8.427426877025090413e-01 -4.176863987618640306e-01 -3.395921592341267781e-01
-2.865520066459654736e-01 -8.975407434995001932e-01 -2.854157604154186970e-02 -3.055339432722734561e-01 -9.404709455650641647e-01 -1.488738058103208639e-01
6.853813566191081508e-01 -3.072854398625651240e-01 -2.222089666341435163e-02 3.337185618587580893e-01 1.420515485858779015e-01 -9.319084069881955479e-01
-5.378924422438204900e-01 2.753299608783500441e-01 2.941957492180722472e-02 -8.584123482277415673e-02 2.144198345463982636e-01 -9.729621868074815882e-01
5.390403763438234019e-01 6.475739169722871669e-01 -4.146155800950532960e-02 2.086072577479143320e-01 1.116646499292187622e-01 9.716038379767136801e-01
-3.875968544021597406e-01 -8.804320799516304197e-01 -4.204234788939267831e-02 -4.713232982569218743e-01 -8.803584612064792037e-01 5.313500072811207925e-02
-5.189830122879297569e-01 -7.730826118635449884e-01 1.639285353699226899e-03 -4.958432390925544553e-01 -8.366239457030941740e-01 -2.328086246735504017e-01
4.251008398455243253e-01 -4.706605774867230196e-01 -7.756489449173659123e-02 1.121541259398823737e-01 1.009235537718584097e-01 -9.885524206276163905e-01
-4.252594733641076180e-02 -2.026308023807708025e-01 1.072165348538698382e-01 1.878914399171264238e-01 9.809445030172124769e-01 -4.944379441530430408e-02
4.824049006670092510e-01 -5.264839007727378783e-01 -8.429150299372463462e-02 2.221579360860553298e-01 -4.477465429449630635e-02 -9.739820746640014404e-01
-1.303362363809443258e-01 -9.541985688119356546e-01 -1.535562478423043754e-02 -3.863071885224426960e-02 -9.954927719659530938e-01 8.661298127014017967e-02
-7.386037685599632086e-02 -6.044777068315794200e-01 -1.125169948578832180e-01 -5.985219235663096632e-02 -4.520269575269896811e-01 8.899940138781821108e-01
-5.678392588639911143e-01 -7.607829361153405356e-01 -1.381747394164254197e-03 -5.902745314034530955e-01 -7.776088913029525207e-01 2.165649781082498171e-01
-4.254003516337091784e-02 -9.456021075989158309e-01 -2.259353575361189650e-02 -7.264909799646070664e-04 -9.981814854326986897e-01 -6.027598485489223112e-02
5.304460780054930380e-01 3.905777731030002919e-01 -4.958352337287590117e-02 2.231859673820129619e-01 -9.481588095781355932e-03 9.747297694494289066e-01
-7.638209042225245771e-01 2.509966370600399399e-01 3.487199004411305203e-02 -2.062017608382875344e-01 2.886431050246111019e-01 -9.349684442530351580e-01
-7.113783548132728285e-01 2.791473991966534896e-01 4.768946491142346533e-02 -2.313209285114290747e-01 3.088775631400244581e-01 -9.225428331634746293e-01
2.957661242537659163e-01 5.365207753761226384e-01 9.014261068028336932e-02 2.398118587784983380e-01 3.426127611127318118e-01 -9.083538783491330593e-01
-6.377172474555803383e-01 -3.628044119347722529e-01 -3.210809430157310351e-01 2.609820871226474770e-01 3.583838481088508776e-01 -8.963533720669537574e-01
-4.227733622069426711e-01 -8.471332961351183410e-01 -1.454926192614121316e-03 -2.826531824596332232e-01 -4.557788857703929386e-01 8.440217922135306861e-01
2.488495352581865105e-01 8.274338409040387088e-01 -3.219727922703431722e-02 1.393414407184289661e-01 3.546273496817105020e-01 9.245666042834547182e-01
1.528584061443191700e-01 9.183442349951225214e-01 -5.973891874240677691e-02 1.162343988392700450e-01 6.691492590551686437e-01 7.339814940667047649e-01
2.039882752028855661e-01 4.956136670924777277e-01 1.476904574950582139e-01 -3.924771494696091545e-01 -8.966555062558881906e-01 -2.048672502993263145e-01
-7.032476416023837329e-01 -6.359986030324585871e-01 1.868251652719138747e-02 -7.157093868951998061e-01 -6.976077463228949060e-01 -3.321905748796669805e-02
1.201029260949852268e-01 -9.153381063688391661e-01 2.940302075012076952e-03 5.116270663378771899e-02 -7.398778676156624323e-01 6.707929028115946490e-01
-4.439722767806413284e-01 3.137816284940699862e-01 2.854734156831285896e-02 8.233707789814639355e-01 -5.625326735061384476e-01 -7.495032726742030527e-02
4.544250443822449581e-01 -6.094611536092314763e-01 -3.100461496311103238e-01 -1.644834634187029854e-01 4.832680428430411457e-01 -8.598820785598714211e-01
-7.312294618192177742e-01 -6.150618090590105336e-01 2.558823721229690901e-02 -7.207230272110535241e-01 -6.270813239294995567e-01 2.955119815279254603e-01
-7.619854572927390324e-01 -5.798475604120637561e-01 4.794924511683779089e-02 -7.206401622410933960e-01 -5.975519453772852874e-01 3.515813264963775775e-01
7.581085942172463010e-01 4.276968558870740678e-01 -8.542997036046343085e-02 5.769197097801888052e-01 1.564454250443177152e-01 8.016785374761167260e-01
5.226667746833693062e-01 3.562823176428714378e-02 2.204977889711008665e-02 -9.969817843691523018e-01 -5.440616742270513312e-02 -5.538312543070918886e-02
5.334503701078804339e-01 -1.463916032537712977e-02 -1.935258469366669606e-02 -9.977778516269771858e-01 5.913682430743674029e-02 -3.069519202554886819e-02
6.325210970806950384e-01 5.837452943412512196e-01 -7.950737558065210098e-02 3.533314960129237958e-01 1.489237745226282272e-01 9.235683858313917804e-01
5.632119188282155298e-01 -6.768441461577866247e-02 -2.048659559646016232e-02 -9.824531542396587325e-01 1.861783034149167571e-01 -1.111031332088273892e-02
5.144346613958896697e-01 -1.019690831603991127e-01 -2.543332295829266523e-02 -9.825743674347696688e-01 1.857101010652430495e-01 -7.705246426911446962e-03
5.271656023407159664e-01 -1.328496381850325647e-01 -6.432358452708386576e-02 -9.761772663963788066e-01 2.169574581735663754e-01 -2.721380855103174273e-03
-2.213360277182151725e-01 -5.160565660796720966e-01 1.108417620887444666e-01 -2.964889294846852485e-01 -8.423123635335119097e-01 4.501157594792856709e-01
5.155376615509669191e-01 -1.420909980478487766e-01 5.367616189469952281e-02 -9.789400212696869330e-01 2.035902646551861206e-01 1.508107735329383345e-02
-3.840827669966265789e-01 -4.105399662280705408e-01 1.332843277212120148e-01 -5.762412893925543678e-01 -7.663306752671259492e-01 2.840480109837724143e-01
8.483460489475891375e-02 -5.332999140670234839e-01 1.457314564793200928e-01 1.037221980786833392e-01 -9.602227399032529087e-01 2.592566207417203450e-01
-1.208159829268317664e-01 -5.101172072725185247e-01 1.435611823736865356e-01 -2.312039897828961910e-01 -9.116566066420268566e-01 3.397454145009395909e-01
5.055518466364435914e-01 -1.928717801253050090e-01 -8.163850946061920744e-02 -9.278846228930883733e-01 3.712072892887722797e-01 3.514647887673889859e-02
-1.209991567659135514e-03 -5.503433224290832371e-01 1.448947612622750181e-01 -5.659178610267881493e-02 -9.585844622753364463e-01 2.791293578791251284e-01
-6.219756999651533669e-02 -5.589720643850624171e-01 1.481108362949088986e-01 -1.332665793003602883e-01 -9.271167552383424715e-01 3.502778054600497737e-01
-1.467657734424540616e-01 -5.329079101151057429e-01 1.192094599837198454e-01 -2.655124163502680101e-01 -8.998390423786284398e-01 3.461110437055635591e-01
-5.007365620556428198e-02 2.109356070865385513e-01 2.815672522767175834e-01 -4.888427959455249328e-02 -2.006435474315023670e-01 9.784439146331402881e-01
2.385590587572865295e-02 1.986175959164709903e-01 2.933960365535784875e-01 -5.294816724948805953e-02 -1.999426209415696154e-01 9.783759195298787903e-01
1.401002926444945562e-01 1.650350537832443731e-01 1.600427942374809120e-01 6.200992446199714986e-02 2.361836989537032250e-01 -9.697278121291376118e-01
-3.072061885729117092e-01 -3.261447566337787735e-02 2.469163975346443940e-01 -4.684833343235068892e-02 -2.194172425021422568e-01 9.745056733274400917e-01
-2.724694389920956361e-01 -6.333024264781933477e-02 2.418177543009276953e-01 -4.930449001156106403e-02 -1.921109887844833775e-01 9.801338863915215471e-01
5.595328776085785050e-01 -6.113561566926956070e-01 -4.311035570714351617e-01 -3.806758771663007468e-01 6.615178287094849452e-01 -6.461269525744580688e-01
1.152936126874812006e-01 -6.795925164011678010e-01 -3.296582952890639295e-01 8.688524978673450860e-03 4.698089312309854382e-01 -8.827253693359526920e-01
-1.036647438751616829e-01 -5.311321088987399630e-01 1.478849239958482109e-01 -1.354206913239810461e-01 -6.865797340638407631e-01 7.143315092687433365e-01
1.970086435661937974e-01 -5.007873343513259412e-01 4.312446951258783190e-02 -1.774129814147388517e-01 8.585389037125463751e-01 -4.810775247687137934e-01
-2.429665488252020222e-01 -1.457301448764040941e-01 2.046103743776881978e-01 -4.219964428727941003e-02 -1.956801320612567563e-01 9.797593969636199107e-01
-1.982967272787461155e-01 -1.757190894637036538e-01 2.335791349622141078e-01 -4.265457052055145193e-02 -1.945653255133739379e-01 9.799616940072618521e-01
-4.557178100190556469e-01 -2.831977441045525068e-01 1.628181486768287001e-01 -8.320926405440673967e-01 -5.013862744572840091e-01 2.371363349177988689e-01
2.066539085963246467e-02 -5.573486029525601682e-01 1.420263023318391604e-01 -1.674843378136848804e-01 -9.853343153539791954e-01 -3.263868215808587298e-02
-3.025055832470713302e-01 -3.977187633740512096e-01 1.652477172617081436e-01 -2.858498632881798507e-01 -5.466564799619710868e-01 7.870556197459719350e-01
-4.754646512118057555e-01 2.936191105518964894e-01 1.906506342094687612e-01 -6.839508072200733459e-03 2.114998465640055558e-01 -9.773540996142250359e-01
-2.105776121934103684e-01 -1.376003545548843410e-01 1.591541231506457266e-01 8.356246069849818658e-01 5.297975478067031840e-01 1.450726526234309699e-01
4.112084495027539671e-02 -5.483992844796199417e-01 1.836893613006208570e-01 -1.929215673025688966e-03 -9.779711144053305771e-01 -2.087313524980926316e-01
-4.127986307322315529e-01 -3.636788000022139200e-01 1.610366031463525416e-01 -5.283150829981846375e-01 -8.476800459344483452e-01 4.818415508435158756e-02
-4.436687256175732563e-01 -3.169640583105144960e-01 1.716365640199066511e-01 -8.890520974348488092e-01 -4.531895322783492386e-01 -6.485071996537276895e-02
-4.302857498715734752e-01 -3.048018019637303011e-01 1.779276323181268604e-01 -8.922739771561435385e-01 -4.438995897705495519e-01 8.246395510461350387e-02
-3.354473890417684068e-01 -4.082825872673516709e-01 1.629488721084387803e-01 -1.181144434829528578e-01 -7.363742884087444152e-01 6.661845732311937329e-01
-3.670358801464048137e-01 -4.133049749258732031e-01 2.084512724572505915e-01 -2.632982964085922584e-01 -9.252665508393709271e-01 2.730491109784958237e-01
1.286716154890202579e-01 7.558881685540008721e-01 1.843961943230569278e-01 8.229980139465849220e-02 4.753540572145626419e-01 -8.759367916579676727e-01
2.381779622183712308e-01 7.738842722332256452e-01 2.169959301161829002e-01 1.116374669487664867e-01 4.568403518013506859e-01 -8.825157046417254625e-01
-4.107544628459038755e-02 -5.239904512117051771e-01 1.750740608117232755e-01 -8.107729800146490362e-01 -5.304878445309628709e-01 2.474466037007953534e-01
-4.176745068574080899e-01 -3.806092427221572372e-01 2.030233059271961127e-01 -7.162964176677004691e-01 -6.972201829814580476e-01 -2.834534317522710567e-02
2.785548179831582871e-01 8.434419726746853474e-01 -5.210033376216188783e-02 1.722581824573509723e-01 4.549456939779283893e-01 8.736999107859808600e-01
1.182638960734576777e-01 -6.463345083602172192e-01 -2.975444299519632296e-01 3.643094324463556325e-04 -5.203037193021857743e-01 8.539812099566065351e-01
3.887773543992176783e-01 6.564735333750842949e-01 1.811629223190215077e-01 1.794569942026535136e-01 4.548263372632192492e-01 -8.723119798348942799e-01
-4.450995860494718626e-01 3.224584718090178215e-01 5.315780845239698182e-02 8.175740304484233612e-01 -5.702348444383384951e-01 -8.003078735526875098e-02
1.283931473625050945e-01 -6.110686692694726752e-01 -2.572529000928060472e-01 1.028095280148300927e-01 -4.752056173996465072e-01 8.738477110693766425e-01
5.285878926947452233e-02 -5.292081004475561734e-01 1.926649292126324242e-01 7.805688836240778916e-02 -9.424930702874078081e-01 3.249829759224222014e-01
-5.251536822015832051e-01 2.222117923905524428e-01 1.595991703564316952e-02 9.388286568370841634e-01 -3.412791241199540360e-01 -4.614447465724970388e-02
-3.681712358038898292e-01 -4.059050937780174229e-01 2.153092117886225565e-01 7.140496307699749357e-02 -9.444440570964387494e-01 3.208219977856742733e-01
6.875252399604976361e-01 2.397964473868623991e-01 1.039695874352645905e-01 3.149789653101997544e-01 2.352192516310922243e-01 -9.194890728411213576e-01
7.411016857592915841e-01 5.087265601238454282e-01 -7.464992699187984748e-02 4.596960133729166564e-01 1.541888694315172170e-01 8.745886849442301436e-01
-5.680259576115137543e-01 8.633371056317766523e-02 -5.513937427013927695e-02 9.901136460409349915e-01 -1.385225159704817632e-01 2.205630278930999222e-02
-3.358881568056907435e-02 -5.121577427857846310e-01 2.225589160055974347e-01 -6.945965534481371995e-01 -5.160706722191357176e-01 5.012052366179532426e-01
-3.611990124098285460e-01 -3.892991477427990565e-01 2.054597721773618046e-01 -1.585743341256483641e-01 -7.188772031178728428e-01 6.768085012719858851e-01
-5.343558392264901036e-01 -9.708493568804683893e-02 2.414291947679234746e-02 9.825714883310779912e-01 1.490495493985663777e-01 1.110743091040159169e-01
7.500181757645146829e-01 7.142571290243637794e-02 4.797800029857517135e-02 3.188426111600489166e-01 2.026267090451674413e-01 -9.258951377397803828e-01
2.906208813974673344e-01 -2.645137701644786343e-01 2.758650355262938225e-01 -6.729967967086237790e-01 -7.235426900383912230e-01 1.534968641762433084e-01
-2.358916320626260055e-01 1.459949991327709196e-01 1.566229680274598413e-01 4.135443259199468591e-02 2.004009863711696815e-01 -9.788407713037173830e-01
-4.387014645660284873e-01 1.051284824345530625e-02 2.828706390752260824e-01 -4.853117204841966292e-01 -8.655650952699658340e-01 1.235702221854610566e-01
-4.644153634919667151e-01 4.079935033513798492e-02 2.696379283903499458e-01 -7.422544872813722217e-01 -6.542782006877233547e-01 1.448389181660180158e-01
3.771637726528356271e-01 -2.864881264050344600e-01 2.386953259378487013e-01 2.634192832126614620e-02 -9.169103035422289105e-01 3.982230506517857593e-01
-2.239689851966180367e-01 1.427029088160604864e-01 1.430551762757386325e-01 2.125641793087819365e-02 2.088646450891977480e-01 -9.777135187407973715e-01
-9.884515382354752688e-02 2.025999793925783721e-01 1.797236516543018192e-01 3.659484629141662726e-02 2.173752757847537687e-01 -9.754018693351013125e-01
-3.983709129701304419e-01 4.356364501253534929e-03 3.016802229482900555e-01 -6.636676947980957308e-02 -8.911300970211480932e-01 4.488681344135414530e-01
-4.317260363078931906e-01 2.052362545609355549e-02 2.885224447206029552e-01 -1.999613055617378288e-01 -8.600081695619071764e-01 4.694693009823147078e-01
-3.935014508064835215e-01 -1.138752329823420339e-01 8.470474848306117077e-02 4.323525790072534070e-02 2.036232225605578428e-01 -9.780942161715870942e-01
-3.148422658122955187e-01 9.230692141544328821e-01 -1.329384301003499191e-01 -2.283798766128450064e-01 2.944891302829304447e-01 9.279648614594762090e-01
-3.196242529869869897e-01 -1.706665911760589516e-02 1.175829323355106482e-01 4.018662755464750408e-02 2.061719551217745250e-01 -9.776902167287186973e-01
-3.996279964879682622e-01 -6.191929508131360782e-01 -3.254088562321923450e-01 -1.531674046008994483e-01 -6.151859041513653148e-01 7.733602326867419219e-01
-4.002222796519968595e-01 -3.837574046244892068e-01 -1.073669317745066104e-01 6.845389978482394611e-01 7.101235984010534352e-01 1.647144056203567464e-01
-2.655258116814792624e-01 -1.649786113479101424e-02 1.014781957337062557e-01 3.585964756561640931e-02 2.068756168856616950e-01 -9.777098571737153909e-01
-3.120962151028047193e-01 -5.936879495124305350e-01 -3.107972335807100972e-01 -1.826520525653345661e-01 -4.546418262160699109e-01 8.717448236431272202e-01
-3.505545174464611557e-01 -4.258331282122529426e-01 -9.733369665792003522e-03 6.588593257361745614e-01 7.202113050494152180e-01 2.172557593471156068e-01
-3.707656934323335096e-01 -1.547089030216537708e-01 7.430865003108073907e-02 4.358583773430739494e-02 1.982976222130198030e-01 -9.791722666485509485e-01
-4.183333780801158919e-01 2.956421087259512026e-01 2.054938413420306642e-01 4.281052650618075162e-02 2.409228643922174395e-01 -9.695996247077000030e-01
-7.663381025892934684e-02 -6.542264568529013724e-01 -2.885424081809348507e-01 -6.806668712209940075e-02 -4.976798345065878149e-01 8.646859016022625521e-01
-3.379115051293225536e-01 -1.040240770367499706e-01 8.773905095298872858e-02 4.314908368401310090e-02 2.032932944073275461e-01 -9.781666489030617084e-01
5.140537294095839371e-01 -3.896879578248197418e-01 -1.013158119667694201e-01 3.678231485566272468e-02 2.191461875612717436e-01 -9.749984665583936172e-01
1.332702129553457460e-01 3.282388833437869802e-01 2.149698897484694782e-01 4.229317993015797167e-02 1.988224638883751838e-01 -9.791225228666488034e-01
-1.673215192641506754e-01 -3.453249729835879411e-01 7.247177861155500167e-02 5.058780485715928116e-02 2.029234496176409996e-01 -9.778869809926966639e-01
3.744401301934822679e-01 4.515284000402995934e-01 5.381560297992530467e-03 5.045088224668811128e-01 5.182844656355691804e-01 6.905447565031056500e-01
-5.384774621794641281e-01 -4.811099550476958808e-01 -3.105572224924210700e-01 -2.797195139389798135e-01 -3.888386380137638376e-01 8.778163288008158371e-01
-5.054403210446138939e-01 -4.821787666754793755e-01 -2.834264710510491780e-01 -2.362732990754650431e-01 -3.967399889980182670e-01 8.870018654286180304e-01
2.982784549371663152e-01 -3.942189736576486303e-01 8.601975001005686405e-02 2.027591696232386442e-01 -2.952900281699464766e-02 -9.787833044787433989e-01
1.329205024651629839e-02 -6.413988261033140015e-01 -2.664897483036038350e-01 -4.539154516550598234e-02 -4.903206545985001052e-01 8.703592725430033816e-01
-6.490132253223153402e-02 -6.495316781905940973e-01 -2.728439943600343143e-01 -9.224651949097911752e-02 -4.829255074302486461e-01 8.707890295100400024e-01
-4.966114498215751794e-01 -4.197504054108737725e-01 -2.571055772071601520e-01 -2.702616496214521047e-01 -3.924113958751572762e-01 8.791882262241699220e-01
1.523890203305064139e-01 -2.121965043128539452e-01 7.611715861591777932e-02 5.634564529707637714e-02 1.926545787639956375e-01 -9.796475802743166428e-01
-2.565714635412756350e-01 -5.649390005299836925e-01 -2.643297710389423405e-01 -1.664696802707629486e-01 -4.821177272011771264e-01 8.601455357489923292e-01
-3.267414978425247085e-01 3.560345645820114369e-01 1.727687845203386974e-01 2.307534513815310065e-02 2.221275929312995778e-01 -9.747445105797221121e-01
3.059623007513662674e-01 -3.972923957089459224e-01 7.215595807812758000e-02 1.243007940615803303e-01 1.208960318216706076e-01 -9.848520000921124895e-01
3.116110733012584372e-02 -6.537485271615904869e-01 -2.705077141197190227e-01 -4.372364716959636910e-02 -4.791970333135294191e-01 8.766176167187724744e-01
1.584353393086303796e-01 1.550568864772485789e-01 2.988474906451858426e-01 1.666630376151757582e-04 -1.872520165064971431e-01 9.823118926988935184e-01
2.800757755932120063e-01 -2.299982456177086243e-01 2.570556725965048583e-01 -8.497519843661456296e-01 -4.655386826354063201e-01 2.473768381152284812e-01
4.769033107657116299e-01 1.206032873909552855e-01 3.066909886022768372e-01 4.201319485443847923e-01 -6.036964532841223967e-04 9.074628264358218788e-01
8.560230645971673713e-01 2.640273040873317711e-01 -1.910091172898857603e-01 8.733316282909624473e-01 1.152253188118295968e-01 4.733022215576094816e-01
1.314192310648613360e-01 6.308046893241943121e-01 1.419444190619755658e-02 1.610406313274164586e-02 3.191494132431698105e-01 9.475675760478283749e-01
9.217151802818646100e-01 4.725407290007139008e-03 -3.100078998420703891e-01 6.253765849199856008e-01 -1.687577473542521689e-01 7.618562526761426534e-01
4.345817317924421941e-02 2.824641960664495688e-01 2.031270919973278688e-01 4.115790510741858949e-02 2.046571395279216943e-01 -9.779680373547069427e-01
-6.133975553053158114e-01 2.450168317889241457e-02 -2.228938678263538489e-02 6.119147576143410538e-02 1.709350779840439760e-01 -9.833802938887511447e-01
-3.277515281395392277e-01 3.700330997474516881e-01 2.052213291018103458e-01 -1.943416835722801272e-01 4.481266960126419341e-01 -8.725902671627073781e-01
3.275617059301689782e-01 -3.138459053063223370e-01 6.365693369784622413e-02 4.154508471126362040e-02 2.195934183553670815e-01 -9.747064873854788258e-01
-3.928241130795757929e-02 -2.274886188085861460e-01 1.501927185747099769e-01 3.253011397059672460e-01 8.982534525339510578e-01 2.954994137334892579e-01
7.874189546831665831e-01 3.848459327338339953e-01 -1.308308312618580993e-01 6.951413478249234279e-01 1.979989373610102910e-01 6.910679614539075866e-01
-3.202877568274845044e-01 -3.738225141262913054e-01 4.707708822481545402e-02 -3.043877446979240120e-01 -2.355333997101184407e-01 -9.229691861046636081e-01
-2.680956289179667329e-01 3.222306443949006227e-01 1.836537231992796670e-01 3.556713187081891187e-02 2.140285806251986944e-01 -9.761796688141208822e-01
-1.339525350357285427e-01 -5.854431997649840458e-01 -3.119013962596972611e-01 8.651267091724798575e-02 4.568365810455703446e-01 -8.853337766003045450e-01
4.714870195876185166e-01 -6.215393798241778400e-01 -4.017471644717399148e-01 -4.933716230581918771e-01 8.417090869114530749e-01 -2.193404991596704934e-01
1.834149887918367916e-01 -9.381896696171295735e-01 -3.468052396137450213e-03 6.597097751776348495e-02 -9.475168907057859302e-01 3.128251459722996564e-01
-1.910991286812830092e-01 2.785166396209972084e-01 1.695760775169357637e-01 3.979135441815919577e-02 1.929464440663296865e-01 -9.804021204769638453e-01
3.114841294416479944e-01 1.202904451556275900e-01 1.714120083992310695e-01 7.081655477020847023e-02 1.872642384875375654e-01 -9.797536019602892665e-01
8.411902327007853009e-01 -4.016487463749773834e-01 -3.931724153358682194e-01 7.008209281134598623e-01 -3.725383001598535082e-01 -6.083298789572937348e-01
-1.863952000063444636e-01 -4.023299995478197832e-01 2.113770371886041638e-02 3.817414686117626826e-02 2.040157982920567659e-01 -9.782230259806176109e-01
3.256138655821614325e-01 1.284845416520122574e-01 1.799143334333889732e-01 6.814851966064891520e-02 1.967460289948582131e-01 -9.780832169824900113e-01
2.300324511885550316e-01 -2.394077038744694685e-01 9.366112008721036442e-02 7.357267635747748169e-02 2.136233588107261105e-01 -9.741417360240867129e-01
8.648013661160591781e-01 -3.587253593702587895e-01 -3.703765977306209822e-01 7.075950734711254908e-01 -2.655189137726626236e-01 -6.548350314608847311e-01
2.316359730223562646e-02 -2.600162989683777459e-01 1.728212728300479173e-01 -7.203784375588601074e-02 9.408200168102801575e-01 3.311619619402370041e-01
1.368676935486010382e-01 -2.051597466985790597e-01 2.117115965795246246e-01 -5.120728994236420917e-01 5.619352989632345752e-01 6.496230179534625560e-01
1.034009867088074019e-01 -2.317427308698613575e-01 1.858433191934912299e-01 -5.206931458246486510e-01 6.410182120774329251e-01 5.638920993206788523e-01
8.087933447399087150e-01 -4.106539738425575292e-01 -4.051587476310384850e-01 6.293831050943877736e-01 -4.968122886531288196e-01 -5.975403391110820639e-01
5.834518122225016423e-01 -6.405270621195873204e-01 -4.878094709453054123e-01 5.522850336725891873e-01 -6.549782478511982919e-01 -5.157370807136533175e-01
-1.059285995493811500e-01 -3.201110693880673264e-01 4.438943762357307893e-02 3.945116811438992982e-02 1.996869617667327290e-01 -9.790652289989577595e-01
-9.261363153008159155e-02 -3.345338046295776580e-01 6.667717940577448654e-02 4.466924418255151935e-02 2.033681382475973909e-01 -9.780828487249255687e-01
6.339308037277169294e-01 5.927429139615186804e-01 -5.498378144994086475e-02 4.440814804705713326e-01 2.658269673830894742e-01 8.556445886669156176e-01
-1.332652440173882347e-01 -3.874115762418416931e-01 2.884643935889368710e-02 3.304974913074824189e-02 2.001462996474554223e-01 -9.792084419671970297e-01
-1.172292856594274596e-01 -4.128963375035861194e-01 3.541300212537348141e-02 3.400159011237648132e-02 1.927835520874761621e-01 -9.806520248866900102e-01
6.211926595224066538e-01 6.184717287701464450e-01 -6.412563356775270729e-02 4.132936594863791946e-01 2.451904791812692386e-01 8.769663505216244159e-01
6.170468523314523446e-02 -2.651170280380066302e-01 9.887871147370597136e-02 4.991736084499519971e-02 1.768416987068056889e-01 -9.829726703651336939e-01
5.624489551344058480e-01 6.882566572891728462e-01 -4.488022638151385746e-02 3.849926801568475110e-01 3.438435726899294331e-01 8.564766393460317984e-01
6.249893668156304427e-01 5.203658182139092592e-01 -7.866636427203596571e-02 -1.971112766479420908e-01 2.714513685036377272e-02 -9.800052480285978973e-01
6.107821258264841680e-01 -6.409700348491956801e-01 -4.214097885815338285e-01 6.213784410277012338e-01 -6.879741855541829931e-01 3.749404659903252113e-01
1.164696876099156342e-01 -2.741520358731610041e-01 3.242327153024547604e-02 4.492158341069525662e-02 1.867918832867992707e-01 -9.813719191428122990e-01
-3.270028682959473521e-02 9.320564373539054204e-01 -6.938677594048542341e-02 -6.226158221615864241e-02 8.391439442565372664e-01 5.403340968303980141e-01
7.336290122093228616e-01 -5.393471853845214214e-01 -4.096961566798876797e-01 5.086216114994103199e-01 -6.374648811526203440e-01 5.787422410821752017e-01
-1.328443858943465228e-01 3.726954998447988832e-01 1.568559770893646621e-01 7.804457574181228319e-02 2.390731778427555299e-01 -9.678600414488899295e-01
-1.223526980088339156e-01 7.429621861982222963e-01 1.460325773324681886e-01 7.348696405777205287e-02 6.874610696543712596e-01 -7.224935597105620610e-01
-1.497419796543537351e-01 6.016145208861443106e-01 -6.970934629406674160e-03 -1.749491435442475651e-01 2.863395658002762523e-01 9.420204086061211290e-01
6.039840788740360455e-01 3.937179805532431964e-01 -6.214082682173761862e-02 -2.106880829389068122e-01 5.618727409944640483e-02 -9.759372530735784812e-01
8.356810220385029186e-01 -3.743447703545406124e-01 -3.322092149410656448e-01 7.193891744046805314e-01 -4.909228636691942982e-01 4.913999976355207244e-01
5.338318659299611246e-01 4.283190274522723495e-01 1.182435270850738379e-01 2.539481322159898857e-01 3.271889294982071594e-01 -9.101965450153209902e-01
7.029533645941329345e-01 -5.299614005059353206e-01 -4.004855897786954722e-01 4.592200151763699556e-01 -6.490750413975127087e-01 6.064804764345113064e-01
2.769124973781140753e-01 -1.034633634991845852e-01 1.047949727295838518e-01 4.378702914288403608e-02 1.855283951337670101e-01 -9.816628294266462884e-01
6.590751261206283518e-01 3.216896666340944289e-01 -7.301689729870428081e-02 -2.184734507589049246e-01 7.229643687640535665e-02 -9.731611256767670470e-01
1.670532472347825703e-01 -6.019456592489283997e-01 -2.671792019592474365e-01 9.340420637845210650e-02 -4.886751329222738249e-01 8.674515944386806954e-01
8.095378439943889948e-01 -3.929725508184703786e-01 -3.767052506962781933e-01 5.137271295385528180e-01 -5.328056973398228591e-01 6.724600547677936913e-01
7.987618435128520655e-01 -4.302642406333174740e-01 -3.898474454776878484e-01 4.428573596673781587e-01 -5.191024218148108105e-01 7.310335386659333468e-01
6.427925587003527896e-01 -6.055667040399413947e-01 -3.921058150165697143e-01 4.058259349523138382e-01 -5.927179693020372397e-01 6.956944152331178133e-01
2.814165815021567596e-01 8.792669944984538022e-01 -2.163830184763331291e-02 2.168011780103032138e-01 5.905350299436139538e-01 7.773452435197889532e-01
6.250815594045445733e-01 -6.707673437283847573e-01 -4.286623278193250619e-01 4.384320614860713339e-01 -6.909298149046108062e-01 5.747985023788370063e-01
8.817070255553168812e-01 -1.992147348323030365e-01 -3.148149539618628201e-01 7.134151034565692218e-01 -3.574381985674766060e-01 6.027245012150160841e-01
8.522971140232543652e-01 -3.007184012660839567e-01 -3.463842890283775899e-01 4.995984399766028039e-01 -3.996989604686965181e-01 7.685324585033401767e-01
-5.442443402646961470e-01 7.787878986018067495e-01 -1.459520367511613903e-01 -5.681378170453327270e-01 6.522224968127843248e-01 5.018219161159280794e-01
2.139440935703708080e-01 3.368706182461508880e-02 1.381880141680054686e-01 6.375228735995290552e-02 2.145173889415314394e-01 -9.746373354730886174e-01
3.052535031338843297e-01 -5.357202761382429124e-02 1.269953511545511282e-01 -5.316503724593746316e-03 2.779930732378251834e-01 -9.605683661353497937e-01
9.228490877751610588e-01 -1.547814267055669102e-01 -3.433065626347417965e-01 8.543708127722493550e-01 -3.214978266456571809e-01 4.082764525967729208e-01
8.875984008715823714e-01 -2.543158380024447829e-01 -3.339898385043498785e-01 6.031618351393701616e-01 -3.917423181567466495e-01 6.947904409219268773e-01
7.021026552857655423e-01 -4.078812825491449634e-01 -3.278539619286918172e-01 -7.746401789846009134e-01 5.610486202382789500e-01 -2.918167898381254788e-01
2.381679760421782366e-01 2.171798586215455823e-02 1.502057481431939845e-01 3.743450808046095563e-02 2.093151157606470691e-01 -9.771314343111068279e-01
4.910393207091446888e-01 -7.386962477927915272e-01 -4.359400819244337866e-01 3.599293046291637821e-01 -7.225464516230781786e-01 5.902351403602342783e-01
7.421837262518571343e-01 2.802168753669543877e-01 -1.176774559838668077e-01 -2.386858103078301208e-01 1.185806631282413232e-01 -9.638297102132517002e-01
1.491120283320503115e-01 -5.170702825690486337e-01 -6.580903784808975199e-02 -2.517018259919648338e-01 9.485711525301944169e-01 1.919868729362750326e-01
9.180017326851185322e-01 -1.415360972827797437e-01 -2.911879634042777165e-01 9.018984784658803378e-01 -2.119430887982472478e-01 3.763764892386192717e-01
-4.786123521415864279e-01 7.484633744038808878e-01 2.761933953172890366e-01 -5.136619740556296332e-01 8.563745638544193461e-01 -5.266861297230888278e-02
8.021819200338149436e-01 -3.789670772330394066e-01 -3.298156286372781465e-01 4.682683766336476205e-01 -4.527459308124301973e-01 7.587791836744562923e-01
6.886634343584461249e-01 -5.269632320186917740e-01 -3.987222049817693570e-01 5.317857816886921718e-01 -5.886025527409568525e-01 6.088931903877523588e-01
6.488222442200721751e-01 -5.666018016309700700e-01 -3.856967832509974325e-01 5.236058880919944869e-01 -6.636719153056851450e-01 5.342063859501093859e-01
7.523556367830516178e-01 2.658473071968832646e-01 -1.528467242537615567e-01 -2.483159318946158711e-01 1.150529597276620936e-01 -9.618222363956935306e-01
4.036802702967449141e-01 -7.873494225954175141e-01 -4.748309814090270198e-01 4.158969287429010731e-01 -8.465016142691260681e-01 3.323623951381775021e-01
7.354984553078701692e-01 1.773083320440873301e-01 -1.481070479404859308e-01 -2.430426306606296161e-01 1.430677031581480685e-01 -9.594070627187465394e-01
9.446098202407618993e-01 -8.313949605769749285e-02 -2.923942538263049062e-01 8.447370048808691134e-01 -2.344731523970798315e-01 4.810839151227925825e-01
2.150400147783064764e-01 -5.035370160611769563e-01 -7.764382081769041766e-02 -3.535659061404876624e-01 9.163592789630735647e-01 1.878212497917418899e-01
8.402012102780708203e-01 -3.159101819337477024e-01 -3.244776123636652354e-01 6.252831451848348543e-01 -4.025241795400484324e-01 6.685770510819014634e-01
6.035855500779978566e-01 2.322050423236416139e-01 3.802756942947949081e-02 2.365894706496391997e-01 2.541426467751169427e-01 -9.377829906048955610e-01
4.132725180921071884e-01 4.226991882228320341e-01 3.517087490796261609e-03 6.254454496619954451e-01 5.864357902330955552e-01 5.146951072535945748e-01
4.083573281941103028e-01 -5.995778453770925776e-01 -1.250582470009226621e-01 1.926774536637636537e-01 -5.942811648251421913e-02 -9.794609220489549628e-01
5.815794400486421489e-01 -6.152126035211579191e-01 -3.865651052434336266e-01 4.068314127672333358e-01 -6.808491830247702659e-01 6.090423561299493915e-01
8.487983885857789401e-01 -4.508908033940929594e-02 7.415533554378710146e-02 5.813741249164442459e-01 3.360874626765150697e-01 -7.409786395769453193e-01
1.260034747197669169e-01 8.409832052079350140e-01 2.363084010241394417e-01 1.096339700191569094e-01 6.775311772671241961e-01 -7.272770424321556293e-01
8.158674085611555826e-02 -2.087319395290173352e-01 1.623987526022420136e-01 -4.463641408229684915e-01 8.787072526632423441e-01 1.692117546283057328e-01
3.786438768573764935e-01 -7.747134504436642422e-01 -4.293521362303219790e-01 3.441397367585384282e-01 -9.116131196277027504e-01 2.247873699886434595e-01
5.990884513875672779e-01 -5.968649119706677109e-01 -3.831873312006552901e-01 -5.829023824497654438e-01 7.285916822145982463e-01 -3.596928872553491474e-01
9.233274890567258475e-02 8.551174047020794200e-01 2.451901727676738807e-01 1.243783561035813612e-01 9.096883530062603862e-01 -3.962286271052713471e-01
7.975909473546174411e-01 -3.528673153833087328e-01 -3.723511801346194861e-01 5.669027473344957491e-01 -4.719307666087133590e-01 6.752056180103310767e-01
-5.411063516398387230e-02 -6.396201781866168723e-01 -3.227269912608335400e-01 6.648963745222637167e-02 4.715375947676813118e-01 -8.793357861660022756e-01
5.070840309373236821e-01 -6.894939382055095267e-01 -3.938380219208408861e-01 3.515975504397852447e-01 -6.780548928589157365e-01 6.454616369659988973e-01
8.231034368700366199e-01 6.704664439844122692e-02 8.610673348997498200e-02 2.591057124799607259e-01 2.466279446783194440e-01 -9.338302236830846592e-01
2.624372021173974612e-01 -8.324625064929084273e-01 -4.724397171966021047e-01 2.771824609198705325e-01 -9.572740836952969845e-01 8.243914145437211682e-02
8.539756293569125134e-01 -2.095763871737261752e-01 -2.857624616893674752e-01 6.803237166100123412e-01 -3.840478276238706301e-01 6.242330548083188102e-01
1.628547235015011946e-02 -5.845799102205525566e-01 -2.886715031357876549e-01 2.645378569963460422e-02 4.745908795473196551e-01 -8.798088964500526687e-01
7.393060330813682191e-01 -4.070632326732664952e-01 -3.504836731753817602e-01 7.136588143179800614e-01 -5.823805948531479704e-01 3.892607602684200474e-01
6.141209142342874960e-01 -5.733741529620434152e-01 -3.719915146465980760e-01 5.873132969639819345e-01 -7.497832066966514386e-01 3.047757112451449646e-01
2.270827965815795380e-01 7.921658399432049968e-01 2.395320532831943516e-01 1.832995416230924768e-01 7.023246255066265542e-01 -6.878527447410099915e-01
2.101172131790104425e-01 8.740024189802998444e-01 -3.343020347658540170e-02 2.192919792736588436e-01 6.769964043880838389e-01 7.025573971369508675e-01
2.954874874649872085e-01 -8.133700627448172682e-01 -4.688979379919691604e-01 2.473264719186952787e-01 -9.046083533018014489e-01 3.471503181978289332e-01
6.597054929620312091e-02 -6.033882153601232146e-01 -3.354354223077370412e-01 1.644614813606355697e-02 4.670237604692642486e-01 -8.840918116172289398e-01
1.924770418693828866e-01 7.848858024848497372e-01 2.310755272968036955e-01 1.199707703706109768e-01 4.801154336533614564e-01 -8.689627061183505807e-01
7.786356617064923435e-01 -3.930086731965185542e-01 -3.254708671529751851e-01 7.710461534170410802e-01 -5.416510645657686140e-01 3.348162982227034234e-01
1.839596378873192273e-01 8.724833999337185952e-01 2.581317451991612666e-01 1.945855433147476721e-01 9.428180743596025204e-01 -2.706114280546103590e-01
8.716045802217980976e-02 8.568860376208032870e-01 3.307279930491905939e-01 1.108958104648527093e-01 6.702859045337925537e-01 -7.337703492269628258e-01
2.674457365086969074e-01 7.926561634014170910e-01 2.211966681148156977e-01 2.029773899221377353e-01 7.185651156547951945e-01 -6.651799408764572652e-01
7.179060751133808926e-01 8.434346782905612072e-02 -1.556993298407389481e-01 -2.385707271180834144e-01 1.835192075209874651e-01 -9.536271329158046983e-01
4.833039559837233323e-01 -7.066642379704713983e-01 -4.033736350336379894e-01 3.494376976302178694e-01 -7.793572978090879122e-01 5.200918167272093884e-01
8.317861291770058951e-01 3.115052719752618993e-01 -1.471686419484350417e-01 8.493665038948010615e-01 2.040138013878464718e-01 4.867801463749350521e-01
3.992802870891448141e-01 -7.636013850179647067e-01 -4.449943749871101972e-01 2.138684245260925321e-01 -6.459890107273512649e-01 7.327745185322871446e-01
1.790513181553761157e-01 5.896760166731085384e-01 2.792264617727147069e-02 2.478919129998281290e-01 8.063976157001027101e-01 5.369101273606924352e-01
9.179842730490628266e-01 -9.457171405879068182e-02 -2.914198719481010946e-01 7.273448862216821409e-01 -2.005326919655999185e-01 6.563200864975853310e-01
-4.889177239264694830e-01 -7.682295197404688247e-01 -9.128371029806098269e-02 -5.104472977116913945e-01 -7.717894371206001081e-01 -3.791894262870460497e-01
1.653574042686321299e-01 5.835270056843397946e-01 5.560366090061798217e-02 3.402574204430898197e-01 7.289811707100617433e-01 5.939792425528034325e-01
1.263569188768310092e-01 -5.967825234847834448e-01 -2.977266729668021084e-01 -1.062470878558201444e-02 4.619872695101538973e-01 -8.868229126346330871e-01
7.070448552036802115e-01 -4.254806982826917494e-01 -3.753853186620494942e-01 -6.334621034184886312e-01 5.414288783060140497e-01 -5.527933911226827757e-01
7.211394531726726953e-01 -5.693498258362682772e-03 -1.614990395411476654e-01 -2.326847084002374721e-01 2.125628108632933444e-01 -9.490389232874446579e-01
6.472202043863934939e-01 -5.852692028764915344e-01 -3.838290367136887316e-01 6.377610341583879183e-01 -7.318005591821380440e-01 2.402681936710181765e-01
2.889070639729294232e-01 -6.003715420135018466e-01 -1.439405717078164892e-01 1.744077179959871160e-01 -7.679090714922305605e-02 -9.816746428846125916e-01
3.304559691056497828e-01 7.593463346227988797e-01 2.051276897345320482e-01 2.097892281981748042e-01 5.687510477225399264e-01 -7.953054290312163710e-01
2.628088622929964924e-01 -6.764000046848200887e-01 -1.039353727560060059e-01 1.757659360739631804e-01 -9.813349786677942610e-02 -9.795285357315908215e-01
1.199389135265023637e-01 -7.014273084895275012e-01 -1.654391339066382804e-01 1.680834147531665712e-01 -1.265747926887508812e-01 -9.776128004177905284e-01
3.638467447619379014e-01 7.353836047692561273e-01 1.782432058622536730e-01 1.665869198698655129e-01 4.788029481414488586e-01 -8.619724676457641843e-01
5.769753748588217768e-01 -6.210788642005873328e-01 -3.439623495232303485e-01 5.849844273574232867e-01 -7.831756329277540507e-01 2.107822282297996119e-01
2.550176711633455606e-01 -7.202879652654474718e-01 -1.302223072787092040e-01 1.510760215724846200e-01 -1.084835398002469559e-01 -9.825514527485257332e-01
4.547943995190746880e-01 -7.098424479662076569e-01 -4.348842546502688644e-01 4.110152318705321273e-01 -8.496845650790580962e-01 3.303068558731783733e-01
6.365115182595826315e-01 -1.362314552536090795e-01 -1.754183302027987057e-01 -2.478763896290034074e-01 2.677692353534473213e-01 -9.310515195534135868e-01
3.207385360715118705e-01 -7.239699662665073365e-01 -1.054661139399213909e-01 1.523467660839430693e-01 -5.743299475031188317e-02 -9.866569383416785577e-01
9.019810004714370333e-01 -6.312525393311141375e-02 -2.828271377405719988e-01 7.619291901035580850e-01 -1.997821571949687236e-01 6.160771046992908895e-01
8.563714333454008898e-01 -1.975659355786182625e-01 -2.621408435313304364e-01 8.673468156658226125e-01 -3.317117443113511421e-01 3.710482718465058505e-01
5.752493179500318687e-01 -5.783888647717145837e-01 -4.122576449390898401e-01 -5.437056263337853856e-01 7.348377980888688432e-01 -4.054597420125565788e-01
2.787353762529762857e-01 7.981327296949538574e-01 2.266655407645334352e-01 3.075478915011980452e-01 8.993317611754798602e-01 -3.108322341298870861e-01
3.352924707979815233e-01 7.613544467265757065e-01 2.534439514943043759e-01 2.643737852192286075e-01 7.505029133958529552e-01 -6.056829852927966273e-01
7.619311212868434824e-01 2.667970403601184204e-01 1.187560347476934036e-01 3.257252606027707387e-01 2.815508972112792385e-01 -9.025697462716002484e-01
6.873715779252905778e-01 -5.085022544342208128e-01 -3.468881938143856258e-01 6.858120593437680990e-01 -6.831510605066509756e-01 2.509311614512991229e-01
1.318397160337892449e-01 8.758534846378216443e-01 3.738296295568811489e-01 2.967939894169445252e-03 9.987827632770506225e-01 4.923599408404041866e-02
1.099245617890753229e-01 -6.666225579329125850e-01 -3.267410839299307312e-01 -5.586981198836891808e-04 4.710223313848906357e-01 -8.821211091415697148e-01
3.906411942802290316e-01 7.241022289182934557e-01 1.985926224931017781e-01 1.709734092680160189e-01 4.294404153489219667e-01 -8.867632282566846325e-01
5.407865907593530919e-01 -6.148932710403366420e-01 -4.274467174351648246e-01 -4.924682945949168666e-01 7.563965626407876952e-01 -4.305104166497893958e-01
8.201778675175301903e-01 -3.192623881014551857e-01 -2.892312094361672026e-01 8.253502130818449745e-01 -4.679452785343539700e-01 3.159497461039638688e-01
7.334231011250413879e-01 -4.533003818368301907e-01 -2.963431227329290651e-01 7.263521204508369689e-01 -6.348018554319180273e-01 2.635131902899112144e-01
6.481483754361695437e-01 -5.542934831557424502e-01 -3.393500529046937220e-01 6.747769131148605437e-01 -6.976540639273239863e-01 2.407382907077089129e-01
5.816037811958699733e-01 -5.819233710259635872e-01 -3.472237330605857375e-01 6.021065231277756835e-01 -7.628620951569962116e-01 2.356038169887308409e-01
5.594713460229675528e-01 -6.344787119329305947e-01 -3.841039044759771426e-01 5.654384714275976220e-01 -7.922764338966853392e-01 2.292975955425028134e-01
3.603221159027331644e-01 7.345035851744750044e-01 2.295264630643223114e-01 2.943418708911438308e-01 7.525983489462425569e-01 -5.890319076278388577e-01
3.948969887255442957e-01 7.511975486280567660e-01 2.146301733946992529e-01 2.699798958001628502e-01 6.260436680181619140e-01 -7.315601011523924502e-01
3.879519821450176931e-01 -7.317379169995872346e-01 -3.686024660514333195e-01 4.318679136794693063e-01 -8.741416035174174315e-01 2.221858729400695842e-01
-6.324617535256300549e-01 -6.127868526468619459e-01 -5.171999900960021213e-02 -7.138555098357454165e-01 -6.019050926806337465e-01 -3.579393391096678534e-01
7.477482197360174609e-01 3.062007546799514479e-01 1.256572569755030899e-01 3.408927971467946016e-01 2.999900334197160290e-01 -8.909534671924633775e-01
4.631430515141073956e-01 3.795812535212818584e-01 -7.538080354580341605e-03 7.277043431259586637e-01 5.869593379914377351e-01 3.548593024570020904e-01
8.359651664681946315e-01 2.184932187983170959e-01 1.270235291689154333e-01 6.289003864908809804e-01 3.205563271865965458e-01 -7.083275689765720085e-01
8.069807036068273876e-01 -3.294488075517156278e-01 -2.706198880672607832e-01 8.140515087788317006e-01 -5.002593776231484268e-01 2.950604957546979490e-01
8.151108403434020877e-01 -4.207581766561737657e-01 -3.318567528158786195e-01 7.716806393026884869e-01 -5.318641924617447669e-01 3.487541708745719449e-01
7.421487097676825462e-01 3.127923214804116392e-01 1.375978168622699893e-01 3.202314207043652217e-01 3.141521551879635776e-01 -8.937338868949870063e-01
1.555797915026310985e-01 -6.034382758244095646e-01 -2.919948444808806998e-01 -3.400451738818635605e-02 4.584136255523419967e-01 -8.880881942156160225e-01
5.160639225919209094e-01 -6.520424594034079924e-01 -3.790744154962441548e-01 5.153125376889807763e-01 -8.258022906419899556e-01 2.291365646748353690e-01
1.920404260176513389e-01 8.628482356933949715e-01 3.435637927308630157e-01 1.542269470080897265e-01 7.376165267486132215e-01 -6.573704498103608573e-01
3.530029548330467781e-01 -7.602395132926937915e-01 -3.990545240818080264e-01 3.615471082675133507e-01 -8.937513234374419024e-01 2.655037859564723934e-01
2.971186292554440778e-01 -7.799128219888370461e-01 -4.470190623562513843e-01 2.427155612915039284e-01 -8.794073937456583501e-01 4.095507198533763771e-01
