-2.380471662175908665e-01 -4.580285067005893662e-01 -4.645925223821398276e-02 1.670091936677558231e-01 1.898467280876141583e-01 -9.675051157822751602e-01
-2.087634390681112895e-01 -4.252430031465592175e-01 -8.986897430975707146e-04 1.953205145196991732e-01 1.490879652086954943e-01 -9.693413615634539626e-01
-2.416765565112638792e-01 -4.350923765154730005e-01 -3.857249386660809715e-02 1.953205145196991732e-01 1.490879652086954943e-01 -9.693413615634539626e-01
-2.228627321520828541e-01 -4.035959047939091660e-01 -4.618106568999178624e-02 1.501824032724062563e-01 -4.743556526153508250e-03 -9.886469260655229574e-01
-1.893272635287940042e-01 -4.093679474437158516e-01 -2.923878129926922934e-02 1.501824032724062563e-01 -4.743556526153508250e-03 -9.886469260655229574e-01
-1.833928283571804874e-01 -4.234702562957502470e-01 -1.876023750786624811e-02 1.500759910926609542e-01 -4.797367318313461824e-03 -9.886628253172913272e-01
-2.324360951509201745e-01 -3.713204688680311061e-01 -8.190916912505771807e-03 7.032188466681198180e-02 -1.891505049309546160e-01 -9.794268318875446466e-01
-2.118562950905710784e-01 -3.519337772026205347e-01 -8.477994113869645465e-03 9.512525356438011892e-02 -2.407254315602097294e-01 -9.659205209200512066e-01
-2.113662885278383141e-01 -3.500829639368219781e-01 -4.513735833319652141e-02 4.763183231586921168e-02 -3.637791006824606654e-01 -9.302666147169277311e-01
-2.008897124146552249e-01 -3.423008710930609544e-01 -3.105055105367188900e-02 2.981051282808433456e-02 -3.710558850590363611e-01 -9.281319213818592928e-01
-1.764933570151386022e-01 -3.358056085073883867e-01 -2.493687298753918813e-02 -3.837900199203077983e-02 -5.303527366085797334e-01 -8.469079211920774730e-01
-1.840637648704807061e-01 -3.317206511660153456e-01 -8.972469874548594237e-02 -3.837900199203077983e-02 -5.303527366085797334e-01 -8.469079211920774730e-01
-1.644956830796067970e-01 -3.006586272759611544e-01 -5.952193708377438719e-02 -1.244352870998544636e-01 -6.775084828994928365e-01 -7.249124877691131008e-01
-2.191357627388772489e-01 -3.430376749604551190e-01 -4.026884441003521220e-02 2.345337956424070336e-01 -2.413152360347883552e-01 -9.416798052199271130e-01
-2.229210853304774698e-01 -3.920794058579827324e-01 -2.739749228311449264e-02 2.671462485621433069e-01 -6.247840136388446708e-02 -9.616284788015520002e-01
-2.564081821071396705e-01 -2.398546573275197880e-01 -8.183472940756181258e-02 -6.106450650391780366e-01 -2.816367539281648402e-01 -7.401306258898520118e-01
-2.678809162260696874e-01 -2.524559141473882717e-01 -6.249230088669126965e-02 -5.148150331119387690e-01 -1.387649914447475208e-01 -8.459963113579705984e-01
-2.921745569356659633e-01 -2.853984499744969261e-01 -5.311680247889675327e-02 -3.683535480948227914e-01 -1.993057803784816298e-02 -9.294721274277308876e-01
-2.778280301802876218e-01 -3.104495054643771068e-01 -7.393632435851392459e-02 -3.683535480948227914e-01 -1.993057803784816298e-02 -9.294721274277308876e-01
-3.139306402333906787e-01 -2.990832866091120978e-01 -6.430784675817283191e-02 -3.121122415360929048e-01 -2.264941356871092923e-02 -9.497752116939612854e-01
-2.899183486989321823e-01 -2.709665420545616099e-01 -3.978401261626859919e-02 -3.121122415360929048e-01 -2.264941356871092923e-02 -9.497752116939612854e-01
-3.128277128667161233e-01 -2.844192718571794676e-01 -3.402750652531226494e-02 -3.079131190582188871e-01 -2.657711174034025833e-02 -9.510431999879818132e-01
-3.373824117460405003e-01 -2.802220767072202690e-01 -3.319914321958750830e-02 -8.822499548221446330e-02 1.545017491016325434e-02 -9.959807439240021543e-01
-3.233369666436624601e-01 -2.871649879693566887e-01 -4.278376287138760392e-02 -8.822499548221446330e-02 1.545017491016325434e-02 -9.959807439240021543e-01
-3.278774908083113560e-01 -3.224056501443083311e-01 -3.134886270880191811e-02 -8.339075306108380270e-02 1.647539730367525435e-01 -9.828031902026521660e-01
-3.062738706950701162e-01 -2.897910218932813198e-01 -3.669401821600171837e-02 -2.496252306468056403e-01 1.471506990142291138e-01 -9.570966074561922943e-01
-2.843131630557815814e-01 -2.009528037312078852e-01 -7.807442490054339324e-02 -6.392774008134092245e-01 -2.183894448706944491e-01 -7.373129967512587202e-01
-2.610069692876660907e-01 -1.852614704524351563e-01 -6.982714329136227582e-02 -6.392774008134092245e-01 -2.183894448706944491e-01 -7.373129967512587202e-01
-2.876319543383499822e-01 -2.055199954666453166e-01 -4.884565200911242938e-02 -5.656038179519103926e-01 -2.033515284112090982e-01 -7.992124104460889278e-01
-3.150963253069140602e-01 -1.874700230667096790e-01 -4.904652790836092763e-02 -5.656038179519103926e-01 -2.033515284112090982e-01 -7.992124104460889278e-01
-2.975776826593389268e-01 -2.094633209828811182e-01 -4.917733631343817330e-02 -5.004832644290936328e-01 -9.912651347945038161e-02 -8.600525776670902012e-01
-2.896516169503426941e-01 -1.919029859375935287e-01 -4.854387695609770764e-02 -4.272840360166914597e-01 -1.004828807606563124e-01 -8.985163010426279184e-01
-3.129953080914618102e-01 -2.480041139532278005e-01 -4.065470080836280919e-02 -4.272840360166914597e-01 -1.004828807606563124e-01 -8.985163010426279184e-01
-2.960751671727855916e-01 -2.214764749270587418e-01 -2.881525111819065524e-02 -3.307685201627638127e-01 2.983836363451809054e-02 -9.432400850923106095e-01
-3.461074137388032157e-01 -1.499694569892394969e-01 -2.633489962010195432e-02 -7.063147362564745624e-01 -4.249319331285419249e-02 -7.066214133954781262e-01
-3.519354246869461633e-01 -1.326153585821664149e-01 -2.614822833455614920e-02 -5.533796324996269611e-01 8.187365234826907145e-02 -8.288954622784062698e-01
-3.637848206733861334e-01 -1.629336136293547399e-01 1.908849268512742645e-03 -4.676720935486933239e-01 1.683449528178276866e-01 -8.677227608957516214e-01
-3.896196097977793760e-01 -1.576463322627927877e-01 1.279443202563821172e-02 -4.676720935486933239e-01 1.683449528178276866e-01 -8.677227608957516214e-01
-3.895143670175640893e-01 -1.906415916846416758e-01 -7.095676629485955962e-03 -3.251944184614432021e-01 3.637748069948364416e-01 -8.728782732989710524e-01
-3.376868932161643522e-01 -3.575775404431973808e-03 2.443757696591464940e-02 -7.316651591181863035e-01 4.207733409388920154e-01 -5.362983222868425992e-01
-3.267276829364927360e-01 -2.144799020913673929e-02 -1.241467088852341374e-02 -7.316651591181863035e-01 4.207733409388920154e-01 -5.362983222868425992e-01
-3.506811801815711838e-01 1.914401708848835135e-02 4.226543823970571601e-02 -7.208458435524545127e-01 4.132982190722950810e-01 -5.563864232211451766e-01
-3.534684098351027481e-01 -5.547849202241033478e-03 3.712082984823834170e-02 -7.208458435524545127e-01 4.132982190722950810e-01 -5.563864232211451766e-01
-3.246832830398874714e-01 7.103671426762259850e-03 1.782308641964507057e-02 -7.658626247208192295e-01 1.974423127109713183e-01 -6.119403346790279752e-01
-3.358793697488161034e-01 4.963386020507346008e-04 4.705646029321240709e-02 -6.748316302925174703e-01 1.814084212413865083e-01 -7.153273764224676867e-01
-3.112026301429799968e-01 3.661801641256306333e-02 5.378256146542200605e-02 -6.748316302925174703e-01 1.814084212413865083e-01 -7.153273764224676867e-01
-3.470925427892754267e-01 2.929186302865557923e-02 9.029937445055657985e-02 -6.566082933044378178e-01 3.976109101362503007e-02 -7.531829822860043322e-01
-3.646056068628132918e-01 7.733152760641373580e-02 7.914311374900769025e-02 -6.566082933044378178e-01 3.976109101362503007e-02 -7.531829822860043322e-01
-3.286552214233809388e-01 4.576668936695219014e-02 5.944623257230310931e-02 -6.620806106455632278e-01 3.025638825007469224e-02 -7.488216182624929385e-01
-3.393601376377275991e-01 3.494713402761584486e-02 7.737400097289010015e-02 -6.130890240898856369e-01 2.716072778603724758e-01 -7.418566810063720318e-01
-3.619415903977690752e-01 9.088967811657081702e-03 4.780037573194541312e-02 -6.130890240898856369e-01 2.716072778603724758e-01 -7.418566810063720318e-01
-3.681773989925192780e-01 -7.071191072203129868e-03 3.685036693043596684e-02 -6.265145660330827537e-01 4.219259085353775918e-01 -6.553304710258590626e-01
-3.841979145487835479e-01 -2.652374203212673476e-02 3.156673004888765899e-02 -5.616542030012374731e-01 4.850669350685971604e-01 -6.702645930930576368e-01
-4.233319886491311301e-01 6.831678021990800209e-02 1.768903198194838877e-01 -9.851843535211206593e-01 -1.575462018864095259e-01 -6.775679927755204335e-02
-4.177141360244437940e-01 4.376819554362408604e-02 1.396554036373326979e-01 -9.893040666252931326e-01 7.232555804845958169e-02 -1.266746912829724014e-01
-4.366197165454207552e-01 5.494046688761044378e-02 1.614710718872674755e-01 -9.893040666252931326e-01 7.232555804845958169e-02 -1.266746912829724014e-01
-4.273603632829500731e-01 3.598332946396360504e-02 1.613558314339231525e-01 -9.546891096754465122e-01 2.122159629159238725e-01 -2.086458457548832357e-01
-4.211555700966403415e-01 5.971751934082503155e-03 1.735400744415905583e-01 -9.546891096754465122e-01 2.122159629159238725e-01 -2.086458457548832357e-01
-4.521757456409710718e-01 2.901718703978199004e-02 1.705290509613184013e-01 -9.508181314562724751e-01 2.149140294571680598e-01 -2.230624146656850770e-01
-4.235656776836532189e-01 7.518257433335969950e-03 1.809459456982966119e-01 -8.525018856922129684e-01 4.690912950824394079e-01 -2.306380102435432733e-01
-4.524365007752131351e-01 -5.580103320979180187e-03 2.006303772684436271e-01 -8.525018856922129684e-01 4.690912950824394079e-01 -2.306380102435432733e-01
-4.307580445718139917e-01 -2.932885798888179921e-02 1.634369676264264826e-01 -8.338905806339744764e-01 5.060365339805251716e-01 -2.203486460292180260e-01
-4.257575689832016064e-01 -9.443406314491887069e-03 1.752776363827772965e-01 -8.338905806339744764e-01 5.060365339805251716e-01 -2.203486460292180260e-01
-3.041306091475537432e-01 1.429311945054181632e-01 2.996503107047094883e-01 -3.600186077256489203e-01 7.939509606434375089e-02 9.295606601035882877e-01
-3.441397384509692903e-01 1.430535091351381460e-01 3.109182201886335761e-01 -3.091451221975565211e-01 1.410869373791189263e-01 9.404912384081197674e-01
-2.862119392678301177e-01 1.252765725538697028e-01 3.374641655099361315e-01 -3.091451221975565211e-01 1.410869373791189263e-01 9.404912384081197674e-01
-3.245094032259338013e-01 1.066317982283746801e-01 3.108537917230199676e-01 -2.913903459510205907e-01 2.961646801570514409e-01 9.096032918333222250e-01
-2.878477844231290272e-01 1.240024382502005473e-01 3.334793605406289330e-01 -2.913903459510205907e-01 2.961646801570514409e-01 9.096032918333222250e-01
-2.913070812148746414e-01 8.805063303073869252e-02 3.088132287726076397e-01 -2.913903459510205907e-01 2.961646801570514409e-01 9.096032918333222250e-01
-3.076625148436478718e-01 9.612045107477969197e-02 3.353173939571673645e-01 -2.358893709877856737e-01 3.376670090315955775e-01 9.112283992867228344e-01
-3.107809385901387778e-01 9.264796954080406488e-02 3.425884697733594941e-01 -2.358893709877856737e-01 3.376670090315955775e-01 9.112283992867228344e-01
-3.174710690501677535e-01 7.373694334391681093e-02 3.381809176252973392e-01 -2.039517128148974623e-01 4.991029711816269421e-01 8.421994555908604019e-01
-2.208424229357200119e-01 1.478205768153593169e-01 3.465107122616899460e-01 -6.231947074851819091e-01 8.060111071379989778e-02 7.779021901975596842e-01
-2.450529292079262345e-01 1.334108636527782110e-01 3.623413799862011397e-01 -6.231947074851819091e-01 8.060111071379989778e-02 7.779021901975596842e-01
-2.320719995913791966e-01 1.342625458926056115e-01 3.638186855208490056e-01 -6.231947074851819091e-01 8.060111071379989778e-02 7.779021901975596842e-01
-2.647938986611047540e-01 1.231341419863409281e-01 3.260834182527466707e-01 -5.359096159904499501e-01 1.702947743415690052e-01 8.269223502366608303e-01
-2.750688152265810538e-01 1.021836922143068010e-01 3.423445577034509024e-01 -5.195077781131729466e-01 2.563108792591722862e-01 8.151174158692133798e-01
-2.827499299670694910e-01 9.265399155005357712e-02 3.313792632575537911e-01 -4.014104368640455389e-01 3.551795254370521127e-01 8.442257789755810427e-01
-2.616036578242273425e-01 9.867540247014099097e-02 3.202960519664440064e-01 -4.014104368640455389e-01 3.551795254370521127e-01 8.442257789755810427e-01
-2.593091994574026060e-01 1.278666841938116139e-01 3.212022346641794646e-01 -4.014104368640455389e-01 3.551795254370521127e-01 8.442257789755810427e-01
-2.868229404970024099e-01 6.272272108071191843e-02 3.578267281610987283e-01 -3.947128721379163929e-01 4.168688444535675330e-01 8.187930844191249058e-01
-2.940230284390742965e-01 1.005251142322940439e-01 3.387538680725531992e-01 -2.426209142881470826e-01 5.193504825196407770e-01 8.193962217734469533e-01
-2.982810516432914949e-01 4.249589651324899020e-02 3.389530430568639674e-01 -2.505906428660149565e-01 5.673583866502914796e-01 7.844162101879179616e-01
-3.206022102197528811e-01 6.087027972502002948e-02 3.188902913108802029e-01 -7.140139230127416636e-02 6.573717518778796620e-01 7.501761266598978573e-01
-1.362797080787674364e-01 1.099684609173928219e-02 3.451121135435520348e-01 -2.780656858750093358e-02 -6.214380987741529028e-01 7.829696572252048403e-01
-1.725819698810024672e-01 2.302043124070894675e-02 3.518574457360843510e-01 1.412106911172474888e-01 -5.192402549470981343e-01 8.428814260361072730e-01
-1.388211911851116032e-01 -2.188561444015790433e-02 3.426172012893762275e-01 1.320678060181283697e-01 -4.872830023644734720e-01 8.631994961885823825e-01
-1.751382380037355968e-01 -1.753173778445308445e-02 3.445164662349513018e-01 2.812903229556786844e-01 -3.737508726928774339e-01 8.838472941480347567e-01
-1.975184934790910340e-01 -1.448191126457928218e-02 3.450292799369482633e-01 2.815348502341395998e-01 -3.359373744411326412e-01 8.988237917173971248e-01
-1.953628387576765990e-01 -3.103804736059980959e-02 3.374775954182495097e-01 2.754866442229286227e-01 -3.246930478902838035e-01 9.048102196076851511e-01
-2.096149012715136650e-01 -7.614635429818399082e-02 3.091244529827793519e-01 3.716224731687256533e-01 -1.255794155149815572e-01 9.198513726873898122e-01
-2.193519241118221663e-01 -6.426710739083513202e-02 3.459323740741371278e-01 4.511634716814701407e-01 -1.154985662590562456e-01 8.849359315862509456e-01
-2.156579475018272074e-01 -4.406249426188822704e-02 3.530893368125669340e-01 5.185087831352079846e-01 -4.230295329515797870e-02 8.540252349633198348e-01
-2.065275705919666638e-01 -6.461980003335290879e-02 3.402862917416969446e-01 5.280138443377166979e-01 3.149997439653699771e-02 8.486513605720096276e-01
-2.336301598422734493e-01 -8.523490640291610243e-02 3.538317022597409212e-01 5.280138443377166979e-01 3.149997439653699771e-02 8.486513605720096276e-01
-2.268640709107520581e-01 -6.824365574170541959e-02 3.447586391810254502e-01 5.280138443377166979e-01 3.149997439653699771e-02 8.486513605720096276e-01
-1.976900275555897313e-01 -7.904099901213362811e-02 3.334682691155546608e-01 5.280138443377166979e-01 3.149997439653699771e-02 8.486513605720096276e-01
-3.217158593887204932e-01 -1.871004667081227202e-01 3.610215079970490182e-01 2.716259683762580202e-01 -6.328588004241157694e-02 9.603198585319984160e-01
-3.590418793246451523e-01 -1.694050793000136668e-01 3.874977687245466096e-01 2.716259683762580202e-01 -6.328588004241157694e-02 9.603198585319984160e-01
-3.594544520076108918e-01 -1.552625324472568513e-01 3.830072240594760147e-01 4.283695771353548398e-01 4.270786132151130343e-02 9.025937867979259011e-01
-3.651678240447707169e-01 -1.931661518577131309e-01 3.929216149157018778e-01 4.790189712708546321e-01 5.083191573043869226e-03 8.777898303842689431e-01
-4.004720030461893510e-01 -2.060160387493805145e-01 3.866095109926769857e-01 5.837603199116557784e-01 6.778691770271023931e-02 8.090913562046050389e-01
-3.879063406704264527e-01 -2.163539934046646851e-01 4.128880620003969049e-01 5.872380795125381470e-01 9.972265626071916134e-02 8.032476764975622352e-01
-4.210819687114787935e-01 -2.346269610947599449e-01 4.007767250998372499e-01 7.032843273154786301e-01 1.791883213076674586e-01 6.879554494728236103e-01
-4.355192743223036400e-01 -2.499569323273322929e-01 4.030184168132457390e-01 6.995607372277912184e-01 2.015928080601138705e-01 6.855473103059681605e-01
-4.380285640633934663e-01 -2.263441234639002875e-01 4.240460551716208060e-01 7.983988477148645790e-01 2.799366574561841237e-01 5.330991913141825966e-01
-3.776747614235047568e-01 -1.711997038962782269e-01 3.661538602007291532e-01 3.154384043275246796e-01 -1.584438512687358358e-01 9.356250098572802543e-01
-3.565334822748127408e-01 -1.700943535152875108e-01 3.661808547174634776e-01 3.064224523303610836e-01 -1.970382742460034253e-01 9.312793346735468436e-01
-3.448800976873886981e-01 -1.630554237479274748e-01 4.007993506627320901e-01 3.064224523303610836e-01 -1.970382742460034253e-01 9.312793346735468436e-01
-3.178908503952884712e-01 -1.334707939437418944e-01 3.816409210977494970e-01 1.225400222586409266e-01 -2.864471460356368127e-01 9.502273283130150405e-01
-3.308986512144029279e-01 -1.672455685801164105e-01 3.732979295560655553e-01 7.673181334786989549e-02 -2.741194943518984739e-01 9.586296112871786068e-01
-3.141638946230991269e-01 -1.480833391056209924e-01 3.634952963308004659e-01 7.673181334786989549e-02 -2.741194943518984739e-01 9.586296112871786068e-01
-3.028816508736636437e-01 -2.206832449762241577e-01 3.240651803925295171e-01 1.553910468562668956e-01 -3.083430966787685246e-01 9.384978195432640558e-01
-3.021866623650734662e-01 -2.412179065534404976e-01 3.550385166579522189e-01 1.553910468562668956e-01 -3.083430966787685246e-01 9.384978195432640558e-01
-3.056247632979676165e-01 -2.333182969671644125e-01 3.529084434912814761e-01 3.264923566217847739e-01 -1.965934600077630934e-01 9.245289354853796215e-01
-3.162738974275448589e-01 -2.638413357923388713e-01 3.401313513824242296e-01 3.264923566217847739e-01 -1.965934600077630934e-01 9.245289354853796215e-01
-3.164600990104974865e-01 -2.660338700466098882e-01 3.606902242116425961e-01 3.515038662798732894e-01 -1.334759451016138687e-01 9.266224711658637148e-01
-3.425907171383661964e-01 -2.649831774501096859e-01 3.690665893609593740e-01 3.515038662798732894e-01 -1.334759451016138687e-01 9.266224711658637148e-01
-3.436706092275454427e-01 -2.818326497216039339e-01 3.677557050335821254e-01 3.515038662798732894e-01 -1.334759451016138687e-01 9.266224711658637148e-01
-3.409922673918441838e-01 -2.597290392259606340e-01 3.393030930878366269e-01 3.515038662798732894e-01 -1.334759451016138687e-01 9.266224711658637148e-01
-3.228897464975476472e-01 -2.749201243971532427e-01 3.392625745916857949e-01 3.495710254831110864e-01 -1.303652432191812205e-01 9.277957757519106341e-01
-3.505093137500788769e-01 -2.958141435695427202e-01 3.467619002061935185e-01 4.024945376349771675e-01 -1.343122766367441101e-01 9.055155214123392637e-01
-3.640754091673933379e-01 -2.992463944217043093e-01 3.592986766018834155e-01 5.650665178297887836e-01 2.087333362998228942e-02 8.247812645610279603e-01
-3.821972542822413832e-01 -2.671882786816413002e-01 3.771420032831880875e-01 6.599564020565171774e-01 -1.036545692447844724e-01 7.441191286744984756e-01
-3.950653626301171562e-01 -2.706532477643523449e-01 4.021666763951003976e-01 7.433939446325827927e-01 -2.323424344659628590e-02 6.684501574650668632e-01
-3.757079126980734096e-01 -3.138674300000026118e-01 4.028282452606091746e-01 7.433939446325827927e-01 -2.323424344659628590e-02 6.684501574650668632e-01
-4.148904235503490523e-01 -2.997242649119766789e-01 4.238472890372220192e-01 7.918007703444228662e-01 -7.370009447064311547e-02 6.063166137893605256e-01
-3.954931900627809971e-01 -2.427023683925852715e-01 3.810100769187378944e-01 6.585467331814337522e-01 -1.100251409241823214e-01 7.444532682315760930e-01
-3.477917971650748563e-01 -2.435516489530780704e-01 3.854954573441870536e-01 5.117439840296164055e-01 -2.065061327537514591e-01 8.339504253518824628e-01
-3.690184604048153405e-01 -2.498579942607220272e-01 3.788318058539078548e-01 5.117439840296164055e-01 -2.065061327537514591e-01 8.339504253518824628e-01
-3.421182102270601266e-01 -3.382498249064900264e-01 3.518165628360619412e-01 3.255150424915753127e-01 -2.264411460518432617e-01 9.180219847511472686e-01
-3.446352709737082742e-01 -3.434841660596750779e-01 3.504731736302325040e-01 4.734340200198567383e-01 -1.762442356839036273e-01 8.630169164483593169e-01
-3.781269044272780322e-01 -3.646073792858462448e-01 3.541618004389029961e-01 4.734340200198567383e-01 -1.762442356839036273e-01 8.630169164483593169e-01
-3.913387863585512938e-01 -3.659337000459516043e-01 3.537510551153276173e-01 6.311671742213845748e-01 -2.782033245637939578e-02 7.751477454572186510e-01
-3.978694662922255265e-01 -3.621558455428067758e-01 3.602822013797148393e-01 6.243498564572655951e-01 -1.855175552542235595e-01 7.587954226497994892e-01
-4.199063359403712448e-01 -3.460594481203540518e-01 4.000605395985196711e-01 7.212632176938511552e-01 -2.324659101844550324e-01 6.524867595622344529e-01
-4.346790982268839421e-01 -3.686708370337910545e-01 3.967015286846179434e-01 7.272079261010323536e-01 -2.270580418385458044e-01 6.477756385140462925e-01
-4.265643152168860364e-01 -3.464452488215418180e-01 4.309786150799980176e-01 8.446971829650518071e-01 -2.893867801587203248e-01 4.502687648063924408e-01
-3.879872230980299652e-01 -3.521476229503396338e-01 3.876843023855328640e-01 5.396830488583920227e-01 -2.346939946790270459e-01 8.084930028370754806e-01
-3.029629704482566521e-01 -4.427479561776214156e-01 2.922508799555845194e-01 6.123007146565584424e-01 -4.104299340268072194e-01 6.757478110107485447e-01
-3.360692100554572015e-01 -4.424264209374634826e-01 2.958125319216383109e-01 6.609964285523218797e-01 -3.969001102849268880e-01 6.368312365901095395e-01
-3.068928354791733981e-01 -4.794145912620517147e-01 2.855921574493654469e-01 7.158188882282574550e-01 -2.765939514754160444e-01 6.411701063390874422e-01
-3.721856160110127987e-01 -5.138061979934547274e-01 2.852313786620445102e-01 6.966253690811441412e-01 -2.359112311339912338e-01 6.775389185702945793e-01
-3.308524780069887483e-01 -5.217659015289438651e-01 2.736967253329670724e-01 7.494847031302137585e-01 -5.309794705300591167e-02 6.598888450281392704e-01
-1.669255112716349909e-01 -2.629998240538459764e-01 2.329887059683195261e-01 6.983014578087662905e-01 -5.643270375369214831e-01 4.403522098581473254e-01
-1.293023724449687273e-01 -2.513582709900315515e-01 2.090038788543057136e-01 6.983014578087662905e-01 -5.643270375369214831e-01 4.403522098581473254e-01
-1.616693054843649224e-01 -2.578110097849101723e-01 2.056291337921309914e-01 6.720955410361930671e-01 -5.604416498506734623e-01 4.839346452073068350e-01
-1.055674405815219541e-01 -2.529106817656364692e-01 2.001078971623534430e-01 5.155582428111512572e-01 -6.737075231050922985e-01 5.294505374263769326e-01
-1.554112697128256781e-01 -2.742888501647892663e-01 2.190798388602070434e-01 7.829802066748390299e-01 -4.764808107259723147e-01 3.998850246825284005e-01
-1.752830049516232169e-01 -3.117110583822582659e-01 2.218094256273911158e-01 8.924289866754526734e-01 -2.674570358494039457e-01 3.633692855981024428e-01
-1.244685147936990394e-01 -2.844489160271222450e-01 1.587265977112516380e-01 6.884501718839588502e-01 -6.253404129092138275e-01 3.674040402819235829e-01
-1.419734447226546625e-01 -2.893830317710144873e-01 1.499156099533976438e-01 6.975601366959566230e-01 -5.944998878186779079e-01 3.999746730435535524e-01
-1.223267781435857099e-01 -3.196661102453439707e-01 1.585424152444890877e-01 6.975601366959566230e-01 -5.944998878186779079e-01 3.999746730435535524e-01
-1.628458985784799473e-01 -3.052338590691471842e-01 1.700100593508406810e-01 8.107064801459142878e-01 -4.662980541241266708e-01 3.540072425381651233e-01
-1.527580073152419449e-01 -3.244637904140353357e-01 1.593642101656974341e-01 8.107064801459142878e-01 -4.662980541241266708e-01 3.540072425381651233e-01
-1.351616530832459862e-01 -3.386750666325997750e-01 1.465039085743235492e-01 8.239374877745012649e-01 -4.227523075244914996e-01 3.773691862388363072e-01
-1.725937874298952013e-01 -3.483842280094571198e-01 1.849926695987959002e-01 9.004215276831426529e-01 -2.919958439050089338e-01 3.224585238863398318e-01
-1.556769328052713675e-01 -3.510141862629261311e-01 1.583785781764353029e-01 9.116380897575169229e-01 -2.350266414874731813e-01 3.371623809003374550e-01
-1.709783348145995641e-01 -3.611215279741600837e-01 1.369038029805206835e-01 9.116380897575169229e-01 -2.350266414874731813e-01 3.371623809003374550e-01
-7.109420315251728517e-02 -2.986998247286373753e-01 1.158375117408896732e-01 5.722575865823658070e-01 -7.509250220301919576e-01 3.295950028260166698e-01
-5.908932675462460343e-02 -2.889328148323396239e-01 5.568001418851662582e-02 5.722575865823658070e-01 -7.509250220301919576e-01 3.295950028260166698e-01
-9.652797034140840615e-02 -3.002816571432103121e-01 9.006739941490010670e-02 5.920792719491425604e-01 -7.289099371177253373e-01 3.437039995391487079e-01
-1.099666045137187714e-01 -2.956403034400494345e-01 9.763168121793559806e-02 7.287520432987296681e-01 -6.108576709078851197e-01 3.094727213841636515e-01
-1.144404938073124017e-01 -3.132604224348964350e-01 7.846475768487126690e-02 7.287520432987296681e-01 -6.108576709078851197e-01 3.094727213841636515e-01
-1.390864753253854558e-01 -3.161653080168282948e-01 8.069763055251341632e-02 7.399637935425371627e-01 -5.898157839231631394e-01 3.233742804881704069e-01
-1.503115641035399630e-01 -3.192406289348275195e-01 9.917188804415341674e-02 8.566159701471713905e-01 -4.374330623438010268e-01 2.736081059788700309e-01
-1.538499100629280025e-01 -3.518319707398123719e-01 1.167821321330397843e-01 9.432228176816981335e-01 -2.472354833419754538e-01 2.218227490165462501e-01
-1.253685764874925002e-01 -3.289291448207799506e-01 2.279562651434480919e-02 5.721088245929419891e-01 -8.004417510004780967e-01 1.788420981709029911e-01
-1.375841922707324305e-01 -3.309682566511526480e-01 3.714310573280873301e-02 7.234517022314965740e-01 -6.702415876292954211e-01 1.655108720009399736e-01
-1.467550476903774215e-01 -3.497498122831675937e-01 3.608215323800433028e-02 8.458343942712038821e-01 -5.168766542634900540e-01 1.319193001241527607e-01
-1.158339055895019482e-01 -3.626986921668789443e-01 7.904743317997860175e-02 8.556050854970951303e-01 -5.052878682891907003e-01 1.123570551023568703e-01
-1.642111419759339497e-01 -3.696258852622370528e-01 2.220529176921226533e-02 8.556050854970951303e-01 -5.052878682891907003e-01 1.123570551023568703e-01
-1.426627129131485261e-01 -3.934438335770489292e-01 4.499968181024368435e-02 9.344265010194453547e-01 -3.444693261413330210e-01 9.048755461549598533e-02
-1.512191147569048877e-01 -3.874487182526754059e-01 6.290795729400494585e-02 9.419870383555342119e-01 -3.277691710073714071e-01 7.230345847405697524e-02
-1.613919245010585202e-01 -3.871264355643552757e-01 6.059895442736684679e-02 9.419870383555342119e-01 -3.277691710073714071e-01 7.230345847405697524e-02
-1.782048230481090012e-01 -4.431577336575791004e-01 7.600895427928996972e-02 9.764545263521561269e-01 -2.083268105321865737e-01 5.600444607236741007e-02
-1.604768640788443446e-01 -4.073341663396601309e-01 5.131695209765697180e-02 9.764545263521561269e-01 -2.083268105321865737e-01 5.600444607236741007e-02
-1.683519402926967889e-01 -4.315717767715215314e-01 5.640813595651000129e-02 9.764545263521561269e-01 -2.083268105321865737e-01 5.600444607236741007e-02
-1.680566165406637835e-01 -4.181575003972779481e-01 2.774589844118407339e-02 9.840951972467546494e-01 -1.508896699616370518e-01 9.374940135669877772e-02
-1.581951988624277772e-01 -4.361054252182142155e-01 6.871045903582541359e-02 9.973810612438954726e-01 8.821105645492320277e-03 7.178583960080205106e-02
-1.657273880123964482e-01 -4.902217531699049058e-01 5.052802372919855400e-02 9.973810612438954726e-01 8.821105645492320277e-03 7.178583960080205106e-02
-1.622177151407547535e-01 -4.504418267834352507e-01 3.413305062572986881e-03 9.936381342225748536e-01 4.376683603303197639e-02 1.037676360063097825e-01
-1.665045410973359785e-01 -4.521165564959722660e-01 1.955042686094469670e-02 9.936381342225748536e-01 4.376683603303197639e-02 1.037676360063097825e-01
-1.565876780712080474e-01 -4.850315447077629960e-01 3.082499035873876789e-02 9.723395389126531230e-01 2.200211878063058069e-01 7.839960448517330205e-02
-1.648601268315179336e-01 -4.622285260264171747e-01 2.231100290881761830e-02 9.633567816622217173e-01 2.421215009875007929e-01 1.154161599818941397e-01
-1.560139478107604449e-01 -5.125225502402644961e-01 5.167907642416860736e-02 9.006981364439485827e-01 4.265851635019692889e-01 8.226764422539617483e-02
6.980584099099287551e-03 -1.550485740909713916e-01 4.340256308043215216e-02 8.704541964051581981e-01 -4.776017792115637706e-01 1.191890618076963670e-01
-6.246174777202852593e-04 -1.799849396039034655e-01 3.830685142851077835e-02 7.879810393997721540e-01 -5.805677195798176760e-01 2.050048890352244302e-01
4.895816387225545782e-03 -1.874683444077027972e-01 1.745570767263154160e-02 7.879810393997721540e-01 -5.805677195798176760e-01 2.050048890352244302e-01
-1.406899873191961962e-02 -1.996093237528191455e-01 2.130738621629056292e-02 7.879810393997721540e-01 -5.805677195798176760e-01 2.050048890352244302e-01
2.125697484642472684e-02 -1.653706761765424693e-01 2.481155036044268083e-02 7.514574112435667974e-01 -6.336941812345934233e-01 1.836938860074965041e-01
3.677650924294362245e-02 -1.478831603963310926e-01 1.876630930834128491e-02 6.301910636280065869e-01 -7.276477449211434800e-01 2.709021643224289733e-01
-2.068251865544498691e-02 -1.786539506965059143e-01 4.152452978843541170e-02 9.065149633136297957e-01 -4.024289988483498726e-01 1.275990680781139419e-01
-1.700986556666610541e-02 -2.057475531744039077e-01 4.829710843485195138e-02 9.065149633136297957e-01 -4.024289988483498726e-01 1.275990680781139419e-01
-3.584020612210389589e-02 -1.910016754197770006e-01 2.849747029970293305e-02 9.065149633136297957e-01 -4.024289988483498726e-01 1.275990680781139419e-01
7.118569470144353595e-02 -1.398996360403160777e-01 -2.507713432305584342e-02 3.756987376741020013e-01 -8.752471226611860944e-01 3.046193243761808334e-01
8.143946726655905410e-02 -1.379514169076546115e-01 -7.303636907390639865e-02 3.756987376741020013e-01 -8.752471226611860944e-01 3.046193243761808334e-01
5.658610187462607966e-02 -1.550249367550149138e-01 -3.987382491385440403e-02 4.472214361259611581e-01 -8.578939882794022198e-01 2.530037389911337087e-01
3.000142633231503431e-02 -1.411005940589654117e-01 -1.360961152161100154e-02 4.472214361259611581e-01 -8.578939882794022198e-01 2.530037389911337087e-01
4.553102401145640160e-02 -1.616992702318404140e-01 -1.079151141619057869e-02 5.457174144359735468e-01 -7.961619496478178348e-01 2.613783723155025385e-01
1.042277338515243401e-02 -1.758416929343988855e-01 -2.744596672811018545e-02 6.334903687274259232e-01 -7.511023396488920589e-01 1.858365628813394843e-01
2.877630338122407969e-02 -1.578328835822622733e-01 -1.803139823854109369e-02 6.334903687274259232e-01 -7.511023396488920589e-01 1.858365628813394843e-01
3.872721857866592843e-03 -1.689941305946651984e-01 -3.884858328866878929e-02 6.986765064144709880e-01 -6.841614029525820984e-01 2.092231203629849878e-01
8.211646104010469904e-03 -1.899487609707084246e-01 -1.156588582842780176e-02 7.918089033864526005e-01 -6.013885481867864424e-01 1.066324276556277206e-01
9.179231039896545638e-03 -1.837651923687957656e-01 -5.920937431272649785e-03 8.256045277456115494e-01 -5.445309630958231617e-01 1.478620776124867642e-01
-6.956748979586907522e-02 -5.367300603934174741e-02 -1.883415796311367074e-01 -7.426402934397875466e-01 -2.801541183413772118e-01 -6.082754840826909426e-01
-1.328920456034749509e-01 -7.411246538753170354e-02 -1.670978822600479030e-01 -7.426402934397875466e-01 -2.801541183413772118e-01 -6.082754840826909426e-01
-7.709195351678020669e-02 -7.188507203447383476e-02 -1.990021661380350637e-01 -7.426402934397875466e-01 -2.801541183413772118e-01 -6.082754840826909426e-01
-1.169072108400878302e-01 -5.165329912178485972e-02 -1.590459537281499747e-01 -7.426402934397875466e-01 -2.801541183413772118e-01 -6.082754840826909426e-01
-9.410690293466102141e-02 -6.830566433181757546e-02 -1.553202022043711494e-01 -6.913946819492735596e-01 -2.513395882916419910e-01 -6.773491013721437692e-01
-9.779671509244797223e-02 -5.555731668666199358e-02 -1.712184712760299043e-01 -6.913946819492735596e-01 -2.513395882916419910e-01 -6.773491013721437692e-01
-9.108201331391067856e-02 -1.147312349720477631e-01 -1.707618021809636510e-01 -6.671837331090730849e-01 -1.488255088294523631e-01 -7.298745331879280540e-01
-1.322025344699478411e-01 -4.669498716568942775e-02 -1.383226402629220142e-01 -6.671837331090730849e-01 -1.488255088294523631e-01 -7.298745331879280540e-01
-9.082653726970456309e-02 -8.889593433989922966e-02 -1.286393879622459713e-01 -5.804505019847576719e-01 -1.020537516873404743e-01 -8.078751428978251381e-01
-1.206565266940837627e-01 -8.523487917538424830e-02 -1.626218630425323441e-01 -5.655582721070546715e-01 -1.137528711847576694e-02 -8.246298828530621572e-01
-1.172838675988481238e-01 -1.275291233679905489e-01 -1.367019906895245163e-01 -4.394862886208556474e-01 5.120615366448799666e-02 -8.967885659067886817e-01
-1.281183110415701210e-01 -1.538893211400721994e-01 -1.433877623693002312e-01 -4.440399630284331267e-01 1.329557358568976833e-01 -8.860876274593041391e-01
-1.611221666742478353e-01 -1.325815264798402837e-01 -1.159716788523064562e-01 -2.704070624072061335e-01 2.079309887241751198e-01 -9.400237893417869861e-01
-1.343962234036070458e-01 -3.674037339721049344e-02 -1.307868240684087191e-01 -6.480371105397397802e-01 -2.898537051463742076e-01 -7.042959129344881219e-01
-1.234581598615503290e-01 -5.796690134120444093e-03 -1.444140085048831734e-01 -6.480371105397397802e-01 -2.898537051463742076e-01 -7.042959129344881219e-01
-1.680817416064328829e-01 -7.240268721970971599e-02 -1.245111903352562749e-01 -5.263527403878882627e-01 -1.954267070300430009e-01 -8.275029878287775142e-01
-1.348580218838412170e-01 -5.359980030281530361e-02 -1.213511812735701967e-01 -5.384322043990273920e-01 -1.380552929236079918e-01 -8.312830428691425633e-01
-1.712789436404903165e-01 -7.321802914251171468e-02 -1.248959017338855670e-01 -4.041909607137382787e-01 -4.573064469969737034e-02 -9.135307194685111654e-01
-1.576895570321374951e-01 -1.088733105207830842e-01 -1.240772387126085896e-01 -3.951782636597019338e-01 2.146717715042140498e-02 -9.183535812725377445e-01
-1.589898042788153443e-01 -8.992522772199174064e-02 -1.153591475402543642e-01 -3.951782636597019338e-01 2.146717715042140498e-02 -9.183535812725377445e-01
-1.752672193121770639e-01 -6.395632750433244418e-02 -1.008435468187974110e-01 -2.666750975407610191e-01 9.946215710503156227e-02 -9.586405330756881948e-01
-2.005328596356752424e-01 -1.238299951528944454e-01 -1.303655489658032962e-01 -2.368700724535332536e-01 1.754914561870607181e-01 -9.555602113845065304e-01
-2.129446343104658690e-01 -1.344893551711973667e-01 -1.247910985595544753e-01 -2.368700724535332536e-01 1.754914561870607181e-01 -9.555602113845065304e-01
-1.746015787628364679e-01 -4.365376312783532387e-03 -1.197660200177166206e-01 -5.553198452260528217e-01 -1.079127192259609624e-01 -8.246057934112345222e-01
-2.153259455476071449e-01 -3.738144166376965172e-02 -9.761494736606686484e-02 -4.435254409150343191e-01 -2.276212663460629518e-02 -8.959726942559101959e-01
-1.800176098374325906e-01 -3.476287755688538955e-02 -1.084038682233426781e-01 -4.484476579805996566e-01 2.390179249054364546e-02 -8.934894528574212069e-01
-2.749376846832650712e-01 6.447601316079688838e-02 1.239875897058711693e-02 -7.987160092160034974e-01 2.252326546284725561e-01 -5.579632496061658342e-01
-3.076735401077039245e-01 8.430523833646097476e-02 1.088198276328817930e-02 -7.026697691447024718e-01 1.508101563608054696e-01 -6.953499063554692272e-01
-2.835190968800754829e-01 8.717265710370232512e-02 -2.071768084802778215e-02 -7.004932844080951071e-01 1.393570861476731704e-01 -6.999205390896809931e-01
-3.083049647506716506e-01 8.850094198530052136e-02 2.408082122827609126e-02 -7.004932844080951071e-01 1.393570861476731704e-01 -6.999205390896809931e-01
-2.906462015907393948e-01 7.828429720901280975e-02 4.150535261348427957e-02 -6.083092723773619870e-01 6.850218757221476773e-02 -7.907384393322141047e-01
-3.205263314459481094e-01 6.462899945436348381e-02 3.089226113087177594e-02 -6.083092723773619870e-01 6.850218757221476773e-02 -7.907384393322141047e-01
-2.884529155295099678e-01 9.736165418704822994e-02 2.190825930093171989e-02 -6.067649465590294611e-01 -6.284374290605704988e-03 -7.948564689722250609e-01
-3.387752307360606951e-01 1.153078028354395518e-01 3.847116950007461317e-02 -4.628308715743886803e-01 -1.013174328200663887e-01 -8.806374748580957368e-01
-2.999870221916894897e-01 5.336000412038854890e-02 2.709089556903458360e-02 -6.251145731088205704e-01 2.922686625812079830e-01 -7.237477456683156785e-01
-2.889515672858973261e-01 2.882070722597591256e-02 3.467315958208623539e-02 -7.141076970303827931e-01 3.896984793236683009e-01 -5.815370084997029121e-01
-2.980949892661218792e-01 2.446123678524431827e-02 -1.165206070152806535e-02 -6.957472231811347996e-01 4.470914793292087297e-01 -5.621788065615423990e-01
-2.826610815087722828e-01 3.363908779733240650e-02 -1.833356961068906277e-02 -8.002246153050184274e-01 2.487424774267328609e-01 -5.456809919573401002e-01
-2.916961554052132088e-01 5.814307562337484026e-02 -1.103741850340628737e-02 -8.002246153050184274e-01 2.487424774267328609e-01 -5.456809919573401002e-01
-2.714374375285655838e-01 6.635148291323181291e-02 -2.897976788462492542e-02 -8.002246153050184274e-01 2.487424774267328609e-01 -5.456809919573401002e-01
-2.729198754802826254e-01 1.339690626774950599e-01 -2.578328429304099431e-02 -8.036960997107345239e-01 2.167457341957802763e-01 -5.541605056458689393e-01
-2.965121377891026255e-01 1.122703476518275290e-01 4.915302790410788769e-03 -6.756519185426742569e-01 1.974976629274897977e-01 -7.102740021342349719e-01
-2.776801888261969387e-01 1.328909945048070973e-01 -6.187381842559139256e-03 -6.872961898612978127e-01 8.584758558594193789e-02 -7.212864475721190161e-01
-2.770240162926960736e-01 1.503239233204289871e-01 9.604015140088109984e-03 -5.693140046299030033e-01 6.850210384147333020e-02 -8.192612684007188895e-01
-3.234974638378645961e-01 1.685378573358647381e-01 4.902511672188461511e-02 -4.858443544667896408e-01 -1.563861086738943529e-01 -8.599410725431048119e-01
-3.025520741289519644e-01 1.362186839342006683e-01 3.164547402109400831e-02 -4.858443544667896408e-01 -1.563861086738943529e-01 -8.599410725431048119e-01
-2.559013866847632546e-01 3.058724764899218851e-01 6.271559662936548873e-02 -7.453519252249410920e-01 5.060337873144092891e-01 -4.340280102248114669e-01
-2.739657322064038558e-01 2.635661168384266229e-01 7.560717454879350985e-02 -7.453519252249410920e-01 5.060337873144092891e-01 -4.340280102248114669e-01
-3.008679359595983760e-01 2.961202510263339915e-01 8.643308237790522930e-02 -4.224966234904307116e-01 7.744910466195742416e-01 -4.708080520183376416e-01
-3.306045556247479422e-01 2.598477784875742325e-01 7.572801995177667889e-02 -4.224966234904307116e-01 7.744910466195742416e-01 -4.708080520183376416e-01
-2.785154729613656399e-01 2.923115790637179079e-01 1.835617452788550485e-01 -4.840744055170932425e-01 7.889869054526359449e-01 3.783802755794046790e-01
-3.003128584479418106e-01 2.748844516876832178e-01 1.884519264672852856e-01 -3.773697030630748794e-01 9.177024300790944666e-01 1.241545691346526981e-01
-2.986285455631724206e-01 2.691492059523311053e-01 2.090894594301701825e-01 -3.773697030630748794e-01 9.177024300790944666e-01 1.241545691346526981e-01
-2.985260372419635266e-01 2.977537066576112501e-01 2.347108218247647704e-01 -3.773697030630748794e-01 9.177024300790944666e-01 1.241545691346526981e-01
-1.064159921941620207e-01 2.919731456252644963e-01 2.376636949021538048e-01 1.777342915751309316e-01 7.350789456070984107e-01 6.542701776204099540e-01
-1.661889020141175607e-02 2.926408672620092744e-01 2.627042138755791845e-01 -7.565114388712942950e-02 6.339920514043411170e-01 7.696304198670192998e-01
-6.483737082223614556e-02 2.783529194513142957e-01 2.158398701529692099e-01 1.204445203529229125e-01 6.833624608077147888e-01 7.200755965006583326e-01
-1.320681465187380915e-02 3.177148240124061385e-01 2.425916789101385251e-01 7.590945713817842666e-02 6.339795694167871254e-01 7.696152674415264183e-01
-2.876390708628107779e-02 2.980636511841909253e-01 2.285276447257117149e-01 7.590945713817842666e-02 6.339795694167871254e-01 7.696152674415264183e-01
-6.826690478067160006e-02 3.253805905786917307e-01 2.515579130860206569e-01 2.806563820361632211e-01 5.077710320061018523e-01 8.144940603085017994e-01
-3.730118697042741904e-02 3.058995947240673585e-01 2.485299660259844001e-01 2.806563820361632211e-01 5.077710320061018523e-01 8.144940603085017994e-01
-5.571738111733816334e-02 3.071126948923533218e-01 2.037289284625199148e-01 1.201595469428341639e-01 5.292430635537344052e-01 8.399187240196225313e-01
-3.215189069375920528e-02 3.174381642991976338e-01 2.219247855250954804e-01 7.331616185664875662e-02 4.687912896703806398e-01 8.802610221631940179e-01
-3.210377904187365974e-03 3.009626587788598595e-01 2.372605022656829044e-01 -1.315543529133931799e-01 4.986923700683003058e-01 8.567376332724037091e-01
1.014268058414392534e-02 3.483019712358048636e-01 2.206444877175353925e-01 -1.601957173825298286e-01 4.786911643646429293e-01 8.632450991992476341e-01
1.167624104643093415e-02 3.219860944681301462e-01 2.396029796505843301e-01 -2.601820937403623857e-01 4.858559964182021518e-01 8.344155013189515913e-01
3.869578229791822976e-02 3.352416474762942022e-01 2.257119032030621697e-01 -2.601820937403623857e-01 4.858559964182021518e-01 8.344155013189515913e-01
6.205965029902357766e-02 3.247321536240917461e-01 2.228760581574757704e-01 -3.682078205893440925e-01 3.999114395789470922e-01 8.393413139782526233e-01
2.859396018324875111e-02 3.174470153044148812e-01 2.333422620673655801e-01 -3.682078205893440925e-01 3.999114395789470922e-01 8.393413139782526233e-01
3.068179926247797604e-02 2.978312073041077257e-01 2.515311811232165407e-01 -4.825313273514183487e-01 4.129971898956772969e-01 7.723968146378855648e-01
5.619057580566821919e-02 3.331318675860246992e-01 2.413805996658798525e-01 -4.825313273514183487e-01 4.129971898956772969e-01 7.723968146378855648e-01
6.627688569622379455e-02 3.374214732762161328e-01 2.479045003125683877e-01 -5.663517353453879632e-01 3.412517315997353196e-01 7.501952862764800223e-01
6.206565802397497750e-02 3.229852878645509962e-01 2.642956221411947859e-01 -5.663517353453879632e-01 3.412517315997353196e-01 7.501952862764800223e-01
9.973861429043469340e-02 3.624910905630244207e-01 2.580873272899271154e-01 -7.230553339395322521e-01 1.853988722686978341e-01 6.654458972922491222e-01
6.721376556217575904e-02 3.232152488656889755e-01 2.566208831367272070e-01 -4.746765975388326231e-01 5.356525786482031481e-01 6.983970523538080011e-01
5.342939056023975064e-02 3.014094714759631977e-01 2.575626157268832150e-01 -3.098931875945700742e-01 6.134796374076865177e-01 7.263669504930755361e-01
2.715807696398513105e-02 2.858901474116898878e-01 2.662760897484640066e-01 -2.902895112698097302e-01 6.540253030488437647e-01 6.985577303405947625e-01
-2.184385452160509614e-03 2.857974022902500244e-01 2.620294358238295374e-01 -1.383514996507397010e-01 7.026615117752657014e-01 6.979438819948845518e-01
1.389555789235616748e-02 2.968986759908507911e-01 2.420551359381706846e-01 -1.383514996507397010e-01 7.026615117752657014e-01 6.979438819948845518e-01
1.253729656932845750e-02 2.814481463468055944e-01 2.715594284393667568e-01 -1.073619268827534223e-01 7.589323887209635799e-01 6.422577722428233216e-01
-2.859668283022168134e-02 2.689003812453171771e-01 2.451934392147994135e-01 -1.073619268827534223e-01 7.589323887209635799e-01 6.422577722428233216e-01
-4.308518700392983958e-02 2.777527671556649924e-01 2.573803521671393368e-01 6.015120722764047412e-02 7.922362943751676267e-01 6.072425266265204513e-01
-2.199077594952181941e-02 2.577071289083594507e-01 2.811344857077547887e-01 6.015120722764047412e-02 7.922362943751676267e-01 6.072425266265204513e-01
-1.588693348127389465e-02 2.829731633885820830e-01 2.381829281109976992e-01 6.015120722764047412e-02 7.922362943751676267e-01 6.072425266265204513e-01
-1.873735634741640829e-02 2.740080951264626252e-01 2.607132299174391155e-01 8.480819632755474957e-02 8.186194896075457139e-01 5.680402283908670968e-01
-2.748838657953815018e-02 2.470742718648640812e-01 3.004308317756924085e-01 8.480819632755474957e-02 8.186194896075457139e-01 5.680402283908670968e-01
-7.623838382614377129e-02 2.346139522394428967e-01 3.046886335211885233e-01 2.220473013578488086e-01 8.229351837729262931e-01 5.229461533163015652e-01
-5.521803805337471144e-02 2.562863144243348046e-01 3.099642957593577997e-01 2.589898589907123627e-01 8.556869315246270480e-01 4.480224638987862495e-01
-6.167510226624350195e-02 2.556127950806358351e-01 3.056493462892599933e-01 2.589898589907123627e-01 8.556869315246270480e-01 4.480224638987862495e-01
-6.734291741558846855e-02 2.657981285040800223e-01 2.923865114444609836e-01 2.589898589907123627e-01 8.556869315246270480e-01 4.480224638987862495e-01
-8.937572895976150789e-02 2.916202116121815457e-01 2.859407597680768132e-01 3.196822869936428169e-01 7.206947758934019177e-01 6.151441094430420975e-01
-7.389358392361571048e-02 2.845542872833536907e-01 2.533458303899177588e-01 2.714040366296967544e-01 6.625360186139466201e-01 6.981302693196208553e-01
-8.808306432159954125e-02 3.085227411379155571e-01 2.744431018116115784e-01 3.236877729179307717e-01 5.579526834033056160e-01 7.641433299757846020e-01
-8.947519026508939100e-02 3.013731325768263525e-01 2.347149055979807497e-01 3.236877729179307717e-01 5.579526834033056160e-01 7.641433299757846020e-01
1.338574596761101243e-01 1.720816585487121575e-01 1.876414848691519699e-01 3.133774077137360670e-01 -5.325556578392149909e-01 7.862436464850192097e-01
1.111856879371877910e-01 2.040994570136816511e-01 1.828486783951485950e-01 2.716197150637542079e-01 -5.897818164940902275e-01 7.605130763646450465e-01
1.194319117805930502e-01 2.097446768085222679e-01 1.926615467194562059e-01 3.093286491332463695e-01 -6.896996436874081038e-01 6.546985476712645635e-01
1.494828447260435345e-01 2.311664201846536093e-01 2.273176169491417653e-01 2.736800509594631836e-01 -7.300289978075784614e-01 6.262243144967208908e-01
1.460468884267295819e-01 1.882077357862495526e-01 1.984517906311150659e-01 4.486371603179836742e-01 -5.011984793824183493e-01 7.399491757185538976e-01
1.011576686968250205e-01 2.147300778396419585e-01 2.134537128227638469e-01 4.935586317756573416e-01 -5.763579729510607264e-01 6.513151034756414770e-01
1.167958358071822800e-01 2.090745591706844320e-01 1.866388671654958253e-01 4.508762009246202740e-01 -6.473665527142381526e-01 6.145137898100131446e-01
9.106724933452058079e-02 1.787223480144958798e-01 2.230234492327086704e-01 6.542536008778054857e-01 -4.084501120018050879e-01 6.364909518163932578e-01
9.551024387349563161e-02 1.673455377529786681e-01 1.918179678050678238e-01 6.542536008778054857e-01 -4.084501120018050879e-01 6.364909518163932578e-01
9.830634309314277564e-02 1.914069470641679982e-01 2.300531815036642724e-01 6.151304527189499494e-01 -5.224890074542820617e-01 5.904403130098916375e-01
7.275310984515838408e-02 1.804267424804264497e-01 2.389918434124473079e-01 6.151304527189499494e-01 -5.224890074542820617e-01 5.904403130098916375e-01
2.140590604189712143e-01 2.313751664401042241e-01 2.304098666632833081e-01 -1.255780377836526913e-02 -8.552185027037549903e-01 5.181154448551130720e-01
1.902857728967334849e-01 2.145612721051518013e-01 2.281161238257790602e-01 -1.255780377836526913e-02 -8.552185027037549903e-01 5.181154448551130720e-01
1.945496982738660341e-01 2.303645093946516398e-01 2.392853457582919952e-01 6.606926771177744351e-02 -8.247843765083392453e-01 5.615742018039822092e-01
