5.134017715190174191e-02 1.684720919816614093e-01 -2.025327198468207246e-01 -7.061711648067315883e-01 7.059500243758979332e-01 5.437691678619817337e-02
4.631588063801949512e-02 1.866988379925747232e-01 -2.046496285185477881e-01 -6.823744786837506737e-01 7.301546483401167853e-01 3.520312980971874312e-02
5.410703346125711466e-02 2.011948482429176399e-01 -1.856032350233183803e-01 -5.589321681894005023e-01 8.129370349765141501e-01 1.634876402872383616e-01
3.857248313970518261e-02 1.947241239928234335e-01 -1.755402371466033562e-01 -1.640727187338442694e-01 9.600455962463977366e-01 2.266993517749524290e-01
5.491018712799593943e-02 1.947025428234794853e-01 -2.043098409707165553e-01 -8.530958251784471758e-01 5.198953383863157418e-01 -4.400397922100342946e-02
5.865445702849702431e-02 2.133833748390414065e-01 -2.044782988754113018e-01 -7.013726882053584744e-01 7.060912583876840509e-01 9.752685306153292821e-02
5.680653077163416720e-02 1.973801874364592979e-01 -2.076826219752948011e-01 -7.422515901187911602e-01 6.472799236314604743e-01 1.734683758780740381e-01
5.717636963295484598e-02 2.021676804208772105e-01 -2.219565996070170522e-01 -7.124406829842959699e-01 6.870673783004057622e-01 1.427119157753729828e-01
5.622041436854395557e-02 1.991573689502141586e-01 -2.253125437403407927e-01 -9.041545358374400987e-01 4.241075536419138814e-01 -5.135521656515856792e-02
5.572913047023529687e-02 1.887528179165382791e-01 -2.159059731678387439e-01 -8.575630739950287351e-01 5.140560721642706277e-01 1.821891300926068574e-02
5.992485599432845894e-02 2.057957665143892168e-01 -2.239366457222715934e-01 -8.588714026216139885e-01 5.105140206204168418e-01 4.141676603451658473e-02
5.086341107693222174e-02 1.981037833637052104e-01 -2.332568192152791597e-01 -9.074542930464407631e-01 4.196867119226114218e-01 -1.974259018395166029e-02
5.298345089317833823e-02 1.879723960199927990e-01 -2.161227514185809218e-01 -7.977225369747203976e-01 5.905251735166474614e-01 1.221424309801855262e-01
5.022941142772609224e-02 2.017539541979866402e-01 -2.267832978321637216e-01 -7.536056933493184840e-01 6.560595484454760928e-01 4.079617439185787703e-02
4.641594816829423820e-02 1.905595739591872673e-01 -2.269746570787735118e-01 -7.718222472900623243e-01 6.038672305563466125e-01 1.990848724748468801e-01
4.816894816795188466e-02 1.820121709356689876e-01 -2.285833441386920795e-01 -7.926427739046487675e-01 5.814193472960028641e-01 1.834910776213210803e-01
3.469036761169171090e-02 1.611363201094347664e-01 -2.211809424353295417e-01 -7.283598908178661180e-01 6.818713192359524555e-01 6.740455067136055800e-02
3.857163868070706547e-02 1.818960941592536462e-01 -2.317471694605616750e-01 -7.283598908178661180e-01 6.818713192359524555e-01 6.740455067136055800e-02
1.208825537966625070e-02 1.605912411382749982e-01 -2.594719363904364196e-01 -5.843914749628312810e-01 8.099031210847341677e-01 5.043350521204346959e-02
-1.606299314989138340e-04 1.660698484613825077e-01 -2.524881245062283175e-01 -4.743506100804541492e-01 8.780280512602232079e-01 6.370431630961642666e-02
1.064596051380721844e-04 1.487091288737101835e-01 -2.188387813581050001e-01 -4.402895272992947695e-01 8.963321344922039469e-01 5.228610548906151290e-02
1.302646518564401328e-02 1.600158986403508177e-01 -2.443107825811962619e-01 -5.971234867328695239e-01 7.999242612785770756e-01 5.970525780786108128e-02
-1.323552979599774970e-03 1.514998758525210043e-01 -2.416588671559043722e-01 -6.069720420511014458e-01 7.939547567371976200e-01 3.493972556694198428e-02
1.075039045190341949e-02 1.482528467518193227e-01 -2.221254878733300853e-01 -5.858750780291503979e-01 8.083312163150512264e-01 5.788814796628755782e-02
6.383043222597614696e-02 2.013675166724555321e-01 -2.006257083816509190e-01 -8.357606314791774516e-01 5.308298235061945647e-01 1.404416795182575062e-01
4.973995337721250770e-02 1.927854027967571549e-01 -1.731698783040079015e-01 -7.659324419966173636e-01 6.377354021102167314e-01 8.149264502038491842e-02
5.169882822073037371e-02 1.946501464434497175e-01 -1.771726612891932062e-01 -4.703065506944973384e-01 8.807873892293176521e-01 5.500293945278478258e-02
3.633493998493959876e-02 1.938516246082200301e-01 -1.588394421380433241e-01 -2.462507850116459063e-01 9.300213035360068714e-01 2.728019901876353459e-01
3.265497710500320228e-02 1.788698977068548246e-01 -1.553539902211975576e-01 -6.267351348097662811e-01 7.667894538838702090e-01 1.386975277626095737e-01
4.971422177614522736e-02 2.016907774368877360e-01 -1.585543809640845014e-01 -6.999937380971505974e-01 7.115680711648117995e-01 6.066009168775395727e-02
5.144999250730316470e-02 2.038842589337598044e-01 -1.524533951582912328e-01 -6.389343064321081345e-01 7.545107168974675149e-01 1.499217467580689633e-01
4.543243550335039627e-02 1.713008226256182709e-01 -1.557927433393265226e-01 -6.562027467124819102e-01 7.476455756948686693e-01 1.020982289311752472e-01
5.125061715226709308e-02 1.872670440747408738e-01 -1.768201569344133861e-01 -7.243313359259956341e-01 6.641823185672897090e-01 -1.849485428389253672e-01
3.766871315970160561e-02 1.962445926230916571e-01 -1.697430327090364566e-01 -8.342434810540710899e-01 5.183548037066926240e-01 -1.880056163868037145e-01
3.831606037099288126e-02 1.929258332131189579e-01 -1.903068261812741468e-01 -7.707596744516650444e-01 6.322928132861074246e-01 7.832829952132977502e-02
3.014893267222048048e-02 1.837206518474062134e-01 -1.759110283343739700e-01 -8.357608003452129397e-01 5.439366313114474272e-01 7.507879676635532962e-02
3.834252586615146535e-02 1.828681206452278385e-01 -1.775692478899921767e-01 -7.793984898828882901e-01 6.087360116351894224e-01 1.482513477400988211e-01
4.308569129746055854e-02 1.918490462602530922e-01 -1.756358428250746340e-01 -8.008411280821449152e-01 5.964402688590466628e-01 5.396752037536742264e-02
5.029953434591277056e-02 1.772852872202937136e-01 -2.095470314520052613e-01 -7.088853584629210003e-01 7.052621156259409885e-01 -9.321846368489072540e-03
1.818200513456248030e-02 1.780931474998493358e-01 -1.980462687337350425e-01 -6.908320877245186509e-01 7.214175235536028907e-01 4.803939300167841403e-02
2.266074214443297360e-02 1.599269266794212385e-01 -2.008351156120011805e-01 -6.308914683998162465e-01 7.738250254284471108e-01 5.630972492373607918e-02
-7.725370868621034282e-02 1.319637075599498499e-01 -1.483274705678624128e-01 2.933464153594488311e-01 9.557421729287897127e-01 2.246729803774871748e-02
-7.053960998156223738e-02 1.443705722061802421e-01 -1.344431586354001007e-01 2.654174218452323153e-01 9.638170492136484135e-01 2.470400425286508814e-02
-1.635267991057960113e-01 1.489852786841199261e-01 -3.019361389173329524e-01 -8.836453687204565144e-01 4.421458562152211780e-01 1.538762625312868060e-01
-1.461822787906993659e-01 1.713828295663802348e-01 -3.033172173297046248e-01 -7.013427341176133867e-01 6.903277886986722844e-01 1.776679865671699499e-01
-1.697512308792821778e-01 1.852050362564310604e-01 -3.236651998442245937e-01 -7.452379335119339032e-01 6.578659227720162761e-01 1.087789047112804469e-01
-1.556493205913200839e-01 1.753316454460734086e-01 -3.121802311912500461e-01 -8.016483769537930959e-01 5.726955569628778830e-01 1.714050138191075823e-01
-1.559982818140210614e-01 1.735327309837625120e-01 -3.083997134774148496e-01 -6.884703469261574948e-01 7.101989561679241669e-01 1.470578935704140444e-01
-1.546702893624105069e-01 1.741801161269615483e-01 -3.111980979868407826e-01 -4.488920835168039858e-01 8.807328363571457208e-01 1.510151261239746634e-01
-1.600952750788408041e-01 1.605039270056035361e-01 -3.252812732730887002e-01 -5.535845275599656778e-01 8.296941393470638193e-01 7.177608222342887756e-02
-1.555472629187423239e-01 1.712653010607578519e-01 -3.152383630470609321e-01 -6.731970650563299241e-01 7.311279243767609959e-01 1.107143612909940733e-01
-1.478843863996967822e-01 1.802850309735757883e-01 -2.951331616544669023e-01 1.546063444321565117e-01 8.838283598851283118e-01 4.415249806342665395e-01
-1.436909805900148107e-01 1.785766466355703241e-01 -2.971069032642657537e-01 1.914680333118369271e-01 8.781836359039247863e-01 4.383303478545148568e-01
-1.460365094537084962e-01 1.694556457656745396e-01 -3.083476969174716587e-01 2.238879599177140134e-01 9.404227477945081848e-01 2.558891104258068649e-01
-1.416454477644518706e-01 1.945446365939365041e-01 -3.079421071154508915e-01 2.238879599177140134e-01 9.404227477945081848e-01 2.558891104258068649e-01
-1.437703906659089370e-01 1.872173475150548383e-01 -2.846411883066644055e-01 1.201915153084578665e-03 9.681272214836618151e-01 2.504560608615606365e-01
-7.513069223952942299e-02 1.762141311556046086e-01 -3.173443737510944218e-01 1.251255085157945424e-01 8.894170182535519054e-01 4.396373218456606224e-01
-6.820358816656452161e-02 1.630489410277314588e-01 -3.181531506736364756e-01 1.625259847218158971e-01 8.835345207263103351e-01 4.392630817347768502e-01
-9.638259007268541734e-02 1.597681226422885403e-01 -3.023482389738061382e-01 2.282019415217763636e-01 9.331651678442144382e-01 2.777168403391681584e-01
-9.655956085627713514e-02 1.716683124786868575e-01 -3.087612215370537094e-01 2.021808242996358529e-01 9.051749552230535789e-01 3.738732602399678639e-01
-9.761134693300053955e-02 1.738641817085769536e-01 -2.922305670668213784e-01 2.287193140033728644e-01 8.764393716001031009e-01 4.237233806518621582e-01
-1.257966090941733672e-01 1.911761351918563612e-01 -3.039460882327238989e-01 2.372064923704056139e-01 9.169774317507113359e-01 3.207576493822060781e-01
-1.036753657558287384e-01 1.740578060235666580e-01 -2.972175895074437024e-01 2.467260774758950892e-01 9.203661162662956086e-01 3.034014744892556403e-01
-9.794146228900048323e-02 1.741114603248163362e-01 -2.855077481864065625e-01 2.832096091774151669e-01 9.336633646666617770e-01 2.192374027142806880e-01
-1.070557653506668261e-01 1.508203873770890824e-01 -2.655522724142735380e-01 3.365391393347603732e-01 9.320059260858906125e-01 1.345598804867196852e-01
-1.115434069229828407e-01 1.593706522503302858e-01 -2.888161346493364201e-01 2.416475160124263999e-01 9.539310747559982540e-01 1.778257085460090148e-01
-2.956065477946547698e-02 1.278423730345600029e-01 -1.555120191704550403e-01 1.358340680291846847e-01 9.902189228027907797e-01 3.186833672979272336e-02
-4.712627366882350677e-02 1.371047801659880661e-01 -1.588222478271727467e-01 1.359978820158704305e-01 9.903541581058254994e-01 2.651825050223370617e-02
-6.654253352910885488e-02 1.352851835399322689e-01 -1.562208915507156404e-01 1.765820986039082774e-01 9.838587043111605146e-01 2.899676540243660214e-02
-9.136555186481229093e-03 1.510749801396782388e-01 -2.545191610769411694e-01 -4.044219796404948664e-01 8.663037402225749473e-01 2.931905388310483973e-01
5.045635647150058072e-03 1.479337112208496119e-01 -2.665843639285657707e-01 -4.981693075402192639e-01 8.517209111875674310e-01 1.624771690752838393e-01
-6.006036890900051835e-03 1.639756251946790366e-01 -2.722169894042120730e-01 -5.888035766326301657e-01 7.951537041879797041e-01 1.450549373884161553e-01
2.381610576272724655e-02 1.589899972616718449e-01 -2.672479443707369562e-01 -5.536083016644487431e-01 7.961570919254861156e-01 2.442370432693571902e-01
1.773897124406079162e-03 1.740324740555466987e-01 -2.721466341883130302e-01 -5.536083016644487431e-01 7.961570919254861156e-01 2.442370432693571902e-01
-8.380848672073823447e-03 1.628337301695310657e-01 -2.601806561157287145e-01 -4.505017656133086246e-01 8.766892767184177870e-01 1.687129848773629148e-01
2.899499757392098517e-03 1.523716479078058572e-01 -2.608278539430106124e-01 -3.535744435621733794e-01 9.117713588580872441e-01 2.089452129764559907e-01
-7.658547684750123714e-03 1.507714458251712963e-01 -2.296061933118725418e-01 -3.220879990345382748e-01 9.435276462891014626e-01 7.755579646986780762e-02
-2.081728713874763867e-02 1.643955590889960294e-01 -2.497026546653656753e-01 -4.325068204893242618e-01 8.880604900621567044e-01 1.558409965983835466e-01
-1.887616797289355663e-02 1.478643382457931477e-01 -2.482948840883116293e-01 -3.236150611798048748e-01 9.429691903649913831e-01 7.798973137524960186e-02
-2.622935695497788031e-02 1.412357621620067005e-01 -2.356550332934345127e-01 -1.384269935117849182e-01 9.875837469343707875e-01 7.427186720661464736e-02
-3.150834898219325581e-02 1.570081361176221268e-01 -2.546334813885871573e-01 -1.230499627906697230e-01 9.783684737749779314e-01 1.662944261857118855e-01
-3.719723841634666600e-02 1.441036919329072019e-01 -2.253598686136815965e-01 -1.081986691981005611e-01 9.928193923127871523e-01 5.101668581384236761e-02
-1.762247270995349890e-02 1.501083412871095091e-01 -2.181424057942881189e-01 -2.030473598315804540e-01 9.779107135053217714e-01 4.962263673906534833e-02
-4.544317820409790598e-02 1.356667480242442769e-01 -1.848590813864870452e-01 2.817641604266874975e-02 9.983178103004547443e-01 5.067187795904032344e-02
-2.663905905980997607e-02 1.521914553862387942e-01 -1.899458851833542017e-01 -8.406261558469714512e-02 9.959000825980930394e-01 3.341410094811905068e-02
-2.839171696925944788e-02 1.381666304926947864e-01 -2.024401399346641428e-01 -9.744534489578496328e-02 9.940808187017478037e-01 4.803884519224287802e-02
-1.122931048788249342e-01 1.532680284445994134e-01 -1.518664291171073766e-01 4.707338196656586649e-02 9.980772462099675169e-01 4.032254094371497122e-02
-1.045630911248078138e-01 1.680265143277002160e-01 -1.447122156418110261e-01 3.113396815423211117e-01 9.500405704809909979e-01 2.214762148130636210e-02
-9.335465278542022516e-02 1.610106001768351336e-01 -1.629197746715342898e-01 3.101551964849239562e-01 9.495166797814905690e-01 4.713628018981281392e-02
-9.449481484333621673e-02 1.414199505493152209e-01 -1.615965580974807192e-01 3.101551964849239562e-01 9.495166797814905690e-01 4.713628018981281392e-02
-9.312507845331735590e-02 1.284516030169355894e-01 -1.559832652531451258e-01 3.125128836483227479e-01 9.490195277299122711e-01 4.120234873285837096e-02
-7.772897071977628858e-02 1.437629075947491619e-01 -1.664250602196666318e-01 3.233987009643942145e-01 9.452663480927598894e-01 4.341441440258876627e-02
-9.051307069132172312e-02 1.467483922539055130e-01 -1.663385398262667014e-01 3.258761484843053502e-01 9.450046199082415832e-01 2.776696240345273570e-02
-5.638179479483938078e-02 1.412048402144631398e-01 -1.654452881416687837e-01 2.152959424081524464e-01 9.760630085207394613e-01 3.080033408956014962e-02
-6.848192753366434682e-02 1.509967955550691743e-01 -1.863420835462490655e-01 2.973526850627721818e-01 9.543677104405048350e-01 2.763428946993859783e-02
-7.994220256311532213e-02 1.509003211470490713e-01 -1.711606207700030746e-01 2.973526850627721818e-01 9.543677104405048350e-01 2.763428946993859783e-02
-7.293247173313717469e-02 1.232784071325935676e-01 -1.613890511984084342e-01 2.881472893489981923e-01 9.563560233297930813e-01 4.852109110117990703e-02
-1.188346418692911993e-01 1.709359471878784675e-01 -2.796897048778174133e-01 3.118438578349296830e-01 9.327480298467912823e-01 1.809268392128640657e-01
-1.022631337076234381e-01 1.654845797857009138e-01 -2.843645735659913742e-01 2.617212626798187114e-01 9.405195727985792287e-01 2.166215913616634792e-01
-1.001626570386749682e-01 1.601932035027112955e-01 -2.862352068048945597e-01 3.464144667659013188e-01 9.176359053967461099e-01 1.947854264106796685e-01
-8.242363641669697705e-02 1.764443021230592268e-01 -2.928214178704153792e-01 1.624876750166971695e-01 9.356713607004747413e-01 3.132361094008640490e-01
-7.779836525754854626e-02 1.652460935198785952e-01 -2.899006477332817244e-01 1.500712214580351422e-01 9.369948607719700284e-01 3.154667325995084148e-01
-8.919657454777521477e-02 1.618693709559869964e-01 -2.881044540238508200e-01 2.432862467752205937e-01 9.451119817937408962e-01 2.181172712096273447e-01
-8.402640173039005456e-02 1.667239324269292888e-01 -2.770960455529867250e-01 2.984296495181200104e-01 9.354816732248152356e-01 1.892452994105587316e-01
-9.407539765464015269e-02 1.557029405061333693e-01 -2.736452259330131587e-01 2.797892639485952126e-01 9.493212590114726845e-01 1.432030550231933319e-01
-9.612698754922466282e-02 1.648861862864044181e-01 -2.456249517532929083e-01 3.286054535754528994e-01 9.367619748340587638e-01 1.203970862831197919e-01
-1.289433036760527507e-01 1.687627882927593970e-01 -2.100812149439631182e-01 -1.904246056910657847e-01 9.756831445063354202e-01 1.085397211790762040e-01
-1.554072233410793979e-01 1.683581174730891528e-01 -2.282647916862333981e-01 -1.578292947665765333e-01 9.804478469897143222e-01 1.175241806894172375e-01
-1.539098848161100097e-01 1.591900449818041408e-01 -2.599377766349463825e-01 -5.203170510812451521e-01 8.539728689901805447e-01 7.109028040877652483e-04
-1.328017056302731314e-01 1.604142442075482400e-01 -2.656750484149077440e-01 -5.325162621493801929e-01 8.136731258963736391e-01 2.331576178049451498e-01
-1.312631391455842955e-01 1.739926633206308193e-01 -2.751009647187533935e-01 -1.214465949118188337e-01 9.527467717961739524e-01 2.784318829018936348e-01
-1.356772875062622064e-01 1.579499181786455375e-01 -2.654164476724377164e-01 1.378557459436149379e-01 9.791660175399202748e-01 1.490962890394722795e-01
-1.302558257403608200e-01 1.689176769393641864e-01 -2.294085117142563024e-01 2.635083449375479336e-01 9.588670923077480257e-01 1.055331769518907253e-01
-1.166845096304823526e-01 1.560183344657076476e-01 -2.159692116393302774e-01 3.312552027841727531e-01 9.416230976321463553e-01 6.013262537140798974e-02
-9.105631679252430832e-02 1.569410246554997224e-01 -2.074026961691705362e-01 3.384890415572638367e-01 9.397727738325448721e-01 4.745842716240795262e-02
-1.099299801591379910e-01 1.651747852032543207e-01 -2.155085473731915835e-01 3.299474313282642624e-01 9.427342183871715298e-01 4.885576774352428514e-02
-1.112882133786163713e-01 1.610158031270564061e-01 -1.861594906178515307e-01 3.432891401124030795e-01 9.365858878332076198e-01 7.042329864873682344e-02
-1.091934800403313449e-01 1.629894322042607091e-01 -2.069300384390088399e-01 3.451862793381210714e-01 9.370350253109545058e-01 5.302635097009411602e-02
-1.246270683591891026e-01 1.532188875963673980e-01 -2.112384294706778909e-01 3.362863860116386827e-01 9.410671969432354844e-01 3.611090445603120508e-02
-9.071759047569954992e-02 1.483563909450550666e-01 -1.985477197530462201e-01 3.349823411244453597e-01 9.406786778565129348e-01 5.394864373557998333e-02
-8.535594821826085477e-02 1.443317607847353357e-01 -1.934624675747549094e-01 3.349823411244453597e-01 9.406786778565129348e-01 5.394864373557998333e-02
-1.122402003841402041e-01 1.531421669902623683e-01 -1.834627611872965969e-01 3.373697923588980796e-01 9.396800331719821209e-01 5.641860031599881670e-02
-8.431349988496530945e-02 1.587499279990675360e-01 -1.933252293981150838e-01 3.253257320057013069e-01 9.444178826502728219e-01 4.730783260021467762e-02
-1.048141216052879271e-01 1.493647208700831785e-01 -1.796918684318030701e-01 3.269796034668986384e-01 9.434171688661983080e-01 5.521217623963971255e-02
-7.557735858587771860e-02 1.598949418208134021e-01 -1.925851692083571931e-01 3.285094450447552106e-01 9.426500614018148427e-01 5.909658412752587242e-02
-6.798650116072776917e-02 1.467763552832800911e-01 -1.998357447476646065e-01 2.543402760413970287e-01 9.638463871176780051e-01 7.944284752817795670e-02
-4.976594555015587812e-02 1.573793554247146509e-01 -1.806857956891264050e-01 2.017121491655149146e-01 9.781908182992610223e-01 4.954726908772192490e-02
-6.799456342996867964e-02 1.310849595180406113e-01 -1.984511798151563922e-01 3.051658861644912513e-01 9.502850798518112097e-01 6.190354539505252968e-02
-7.091100714054640597e-02 1.510249597082087558e-01 -1.965696496241930713e-01 2.787963390567976818e-01 9.584073221855288205e-01 6.105740012227055258e-02
-7.108406085162662091e-02 1.514375859606152952e-01 -2.033795760418561360e-01 2.561500548442458003e-01 9.634009924478366127e-01 7.902959669524650677e-02
-7.613404574604000496e-02 1.764655936731561736e-01 -3.273279785433916289e-01 1.416423931672798897e-01 8.188599775350945409e-01 5.562425457020258035e-01
-5.748190009922694854e-02 1.827445773476639168e-01 -3.216150313973922259e-01 6.308045299706675768e-02 8.704756254446274211e-01 4.881526830372540093e-01
-4.562908245949636593e-02 1.757192324005902584e-01 -3.332126246510486167e-01 5.529569719858774129e-02 8.540234276062879104e-01 5.172875128697091984e-01
-1.480932706255404518e-01 1.065858569890929253e-01 -3.135477908413291104e-01 -8.625073671197890368e-01 3.188059239614798174e-02 5.050392751980384842e-01
-1.514562942768689358e-01 1.028980576009951159e-01 -3.262741441391100450e-01 -8.892948218197588295e-01 -3.646319261806732492e-02 4.558784437420363433e-01
-1.488312756506856849e-01 1.042604248520276194e-01 -3.217420358156570237e-01 -8.477895826458106132e-01 -6.234938352721324656e-02 5.266548945286834149e-01
-2.041635260179342770e-01 2.755441538702802298e-02 -3.330278591468220917e-01 -5.546360989642694639e-01 4.836710879854340117e-01 6.770827692185673596e-01
-2.171651689674004293e-01 -3.674008111354679779e-02 -2.774126865261830055e-01 -9.438490700120776289e-01 2.386501333004280578e-01 2.284623533823990083e-01
-2.229622872255459520e-01 -4.695175037406935231e-02 -2.654029091401847729e-01 -9.510304619343070698e-01 2.485360796862624566e-01 1.837685434648769767e-01
-2.089929421388920794e-01 -2.976090526043230836e-02 -2.715251184814307939e-01 -6.754481059038321966e-01 7.250738001918145548e-01 1.343050278519987428e-01
-2.161168481634740124e-01 -2.378907325477672488e-02 -2.999913885775397082e-01 -5.584000135502333872e-01 7.906399979566989256e-01 2.511529782784392983e-01
-2.164564009223304830e-01 -2.738225414701198415e-02 -3.043176511315862087e-01 -7.199222637381987866e-01 6.801900054066893908e-01 1.380343823795923686e-01
-2.092174282088621329e-01 -1.899276902280440729e-02 -2.893633128963923329e-01 -5.315685272290238128e-01 8.057215438697847842e-01 2.612425972226909976e-01
-2.062023624731251781e-01 -5.292062471341661689e-02 -2.756680265161192689e-01 -6.838754941537175114e-01 7.145448924565644955e-01 1.474445833533577221e-01
-1.957004990033052727e-01 -2.144739934593438771e-02 -2.812714563365268927e-01 -5.150087646265908425e-01 8.487356556449094924e-01 1.200573162901730634e-01
-1.944675595049006056e-01 -1.256829730107316724e-02 -2.883384635989762468e-01 -5.361354975030019343e-01 8.307123125619524373e-01 1.499192518497264315e-01
-2.028609517942320806e-01 -3.053128159464642624e-02 -2.804061939193239761e-01 -5.260474121767501066e-01 8.338777605626717104e-01 1.670987749240790687e-01
-1.648635803837428526e-01 1.182171909382864240e-02 -2.700114605476346963e-01 -7.277255988855102498e-01 6.289082102639688143e-01 2.736602195959385586e-01
-1.409307363407963642e-01 9.051037965787156470e-03 -2.770457413764141896e-01 -5.104630868409960609e-01 8.369611667701791768e-01 1.972902488504232887e-01
-1.515653429261122065e-01 2.012094713904033841e-03 -2.786211535052502408e-01 -5.418894176267701202e-01 7.854792379401845936e-01 2.989619136763523310e-01
-1.676941844296781781e-01 2.793174267787237527e-04 -2.742474440310096462e-01 -6.403819775237197254e-01 7.507716169679893303e-01 1.620274730349170189e-01
-1.519478789259939289e-01 9.459294718985232497e-03 -2.808472095921107914e-01 -7.089640167062980503e-01 6.823682317599374381e-01 1.781673912378144709e-01
-1.729948976196646893e-01 1.740422579540504971e-02 -2.716951360070932187e-01 -7.015525555394818147e-01 6.863826879790280167e-01 1.915797939729203259e-01
-1.872003704379702760e-01 -2.979622018636837646e-03 -2.537311810800338963e-01 -6.063143005207061176e-01 7.933725464335712463e-01 5.424916174096747895e-02
-1.560836710244323522e-01 1.986286513010436083e-03 -2.619029843628937204e-01 -6.196433290026148732e-01 7.794424683717471325e-01 9.225824256463616146e-02
-1.888679038637221530e-01 3.362116610807686177e-03 -2.819974783030004817e-01 -6.151386708024140226e-01 7.799417240584528566e-01 1.153053457397690135e-01
-1.688967800018105203e-01 1.589017639665801784e-02 -2.853556555742374212e-01 -5.944764244303418765e-01 7.796760980692335474e-01 1.967306862084587660e-01
-1.909855182140150764e-01 -9.256950152351114264e-03 -2.861541922066662691e-01 -5.770842876876585148e-01 7.812801186630952133e-01 2.378552103398360873e-01
-1.838939123872391224e-01 -1.741882456655350839e-02 -2.903383233770324701e-01 -5.411383322912404203e-01 8.069378311896906464e-01 2.366868013217747480e-01
-1.638465277755825344e-01 2.774219040383885115e-03 -2.674276013366190252e-01 -6.125499819428509296e-01 7.856546062931332175e-01 8.677188042329653239e-02
-2.046085538333683729e-01 -8.359258311493443505e-03 -3.217269319876572276e-01 -4.763817424329997441e-01 7.098902254831224168e-01 5.187642077476248836e-01
-2.010135692751513492e-01 5.195909550575169081e-03 -3.047578619434024305e-01 -4.825157476676562585e-01 7.397644855980999301e-01 4.689638142762202477e-01
-1.991090360000564996e-01 -2.299046180813694995e-02 -3.318470316274833021e-01 -4.994894588886871767e-01 7.438739798628720701e-01 4.440290334449515375e-01
-2.159929378950204149e-01 8.717180664632322856e-03 -3.339373742492298680e-01 -4.739066558265781492e-01 5.431577141015039301e-01 6.931032961797960468e-01
-1.987055076605495352e-01 1.544526869726700960e-02 -3.561398630461559134e-01 -4.895371902085298710e-01 5.548728088056207319e-01 6.726585355519535403e-01
-2.076934293851961932e-01 2.554987705434520057e-02 -3.497728130505965427e-01 -4.438094494620744013e-01 6.050499435928405889e-01 6.610202253535597539e-01
-2.041127865124665874e-01 5.400292447272417133e-03 -3.485400940320437235e-01 -4.506887905680053152e-01 6.145243667919729758e-01 6.474870011631685962e-01
-2.115793357657703710e-01 1.493888683826408680e-02 -3.390442053663365041e-01 -4.514188329487953677e-01 6.145207674835821976e-01 6.469816563014261224e-01
-1.869173097888027213e-01 -1.460642693058867084e-03 -3.146042158210797801e-01 -4.317797858695082147e-01 7.114199428471227327e-01 5.544798296005708504e-01
-1.898756589287668994e-01 -2.700141804930584512e-03 -3.091864974712079106e-01 -5.822489944676179086e-01 6.137328390409766410e-01 5.332148823168295637e-01
-1.853605723780141212e-01 2.726071694332305242e-02 -3.465827476083684355e-01 -5.893097131055630156e-01 5.840903225096082396e-01 5.581689324837606492e-01
-1.774370180435582700e-01 6.548598004715188402e-03 -3.241157039346702629e-01 -5.893097131055630156e-01 5.840903225096082396e-01 5.581689324837606492e-01
-1.184324804509655632e-01 7.584699681092377244e-02 -2.145713728218674454e-01 -9.910255177264276627e-01 -1.302816683416999910e-01 2.991839081851661516e-02
-1.101442412094275902e-01 7.487126520876104252e-02 -2.120381329321952002e-01 -9.974440022135311334e-01 -6.520805255179905335e-02 2.921253721700877229e-02
-1.265257626497892640e-01 6.999937973562031512e-02 -2.324092491339649624e-01 -9.958255080237425894e-01 4.992239512164329054e-03 9.114074343512847121e-02
-1.304776721820998520e-01 7.253041942325466618e-02 -2.294954910106916934e-01 -9.934471733754696166e-01 -8.448831764765926677e-02 7.697037023009428713e-02
-1.230768068925118253e-01 1.113269760537793779e-01 -2.914103717366349211e-01 -9.581431509948562519e-01 -2.233902913018554481e-01 1.790488200288406773e-01
-1.460266798409003974e-01 1.390828406996623967e-01 -2.953248439287540217e-01 -9.354229151751690674e-01 -2.980031989100049294e-01 1.902053185496996313e-01
-1.353459522016250416e-01 1.349581610419503530e-01 -2.857394819928151253e-01 -9.354229151751690674e-01 -2.980031989100049294e-01 1.902053185496996313e-01
-1.573556194168783673e-01 1.263774140080070607e-01 -2.878037581412428714e-01 -9.326789499306982201e-01 -2.939583643202254848e-01 2.090417575565885477e-01
-1.367957064347876117e-01 9.663474784631942427e-02 -2.943194000369269703e-01 -9.446560067077020006e-01 -2.429191783799695692e-01 2.204887792298250715e-01
-1.481917363336456850e-01 1.430448410941307369e-01 -3.047327428618147871e-01 -8.950158949698526767e-01 -2.448198801323618889e-01 3.728401454286940364e-01
-1.498177992797914970e-01 1.552564780327341798e-01 -3.211943744747519092e-01 -8.446979340699023453e-01 -1.750832422122086396e-01 5.057976457779335133e-01
-1.435659036295206248e-01 1.498321675279357390e-01 -3.180987720163925836e-01 -8.880615158881038917e-01 -2.710138073105304857e-01 3.713465500655331319e-01
-1.605483005353947612e-01 1.509659715063097207e-01 -3.051317052699952237e-01 -8.742313607201048775e-01 -2.773168372166061046e-01 3.985158713648081497e-01
-1.604855583810862463e-01 1.357250760276931256e-01 -3.177889422569923350e-01 -8.383584600232660833e-01 -2.850278264932936678e-01 4.646657192347275478e-01
-1.471479659478442670e-01 1.370060847820058769e-01 -3.217404629346424794e-01 -8.289683505802937225e-01 -2.731017242139610612e-01 4.880849536377337428e-01
-1.551692966289074938e-01 1.243924075179820565e-01 -3.309769926482644120e-01 -8.320631274040211078e-01 -2.634300970035954870e-01 4.881347518947160014e-01
-1.512507221496986465e-01 1.200142527339425197e-01 -3.075310780644404107e-01 -8.816884376906096721e-01 -2.525933319670525812e-01 3.985249145141044891e-01
-1.412518259093596407e-01 1.268820343029076203e-01 -3.158288570835013909e-01 -8.534257478482789594e-01 -2.497881525700229310e-01 4.574607871121422198e-01
-1.233393727304989279e-01 6.590015643122049127e-02 -9.152970367284977982e-02 -9.932756606099908403e-01 -1.153307269434106913e-01 1.011362756338080558e-02
-1.232964105397447996e-01 8.434199604218788060e-02 -9.599086318786123617e-02 -9.913955117795456573e-01 -1.306694656972202939e-01 -7.773670804429862018e-03
-1.158045368946396675e-01 8.540497684561064451e-02 -9.677325645837306367e-02 -9.917074186704213368e-01 -1.280564188036051876e-01 1.086044921931411840e-02
-1.302286172549742549e-01 8.720957214601153529e-02 -1.146244094015987786e-01 -9.881595220007901581e-01 -1.504777998078348500e-01 2.995314414487207713e-02
-1.244790922071856154e-01 8.075057518353886965e-02 -1.176806201745437125e-01 -9.947843074488412762e-01 -9.892197455960731467e-02 -2.487216522053707288e-02
-1.276907946362545454e-01 8.918062715786154171e-02 -1.321234569592382446e-01 -9.717721825536492775e-01 -2.358871302137597881e-01 4.010862056215898711e-03
-1.379548494478876619e-01 1.048605242702014273e-01 -1.326957154365740743e-01 -9.715096419250883741e-01 -2.368045807474532249e-01 -9.623210670534980068e-03
-1.240667187947657457e-01 1.029404092017832534e-01 -1.286143217289903995e-01 -9.715096419250883741e-01 -2.368045807474532249e-01 -9.623210670534980068e-03
-1.183718610601899590e-01 9.153863791213716350e-02 -1.166939243150840050e-01 -9.823621073905677292e-01 -1.851844364023245981e-01 -2.591166682242654340e-02
-1.210486039513251066e-01 7.484892993377736947e-02 -1.307030148304017536e-01 -9.788753011033980433e-01 -2.037122098945715332e-01 -1.744936759891392922e-02
-1.320990792265886449e-01 1.516037358572009386e-01 -2.472187939119951383e-01 -9.600737929473991406e-01 -2.517233365348419127e-01 1.220396408523114901e-01
-1.519024726072783771e-01 1.572133915095848822e-01 -2.435830878388036969e-01 -9.984858147490972557e-01 -4.476671292320545670e-02 3.196903437520428465e-02
-1.416303411123753242e-01 1.546363186115050359e-01 -2.432975721949239278e-01 -9.603981587411489773e-01 -2.785960960062852654e-01 -4.426282488430270320e-03
-1.393353066513678129e-01 1.265395122758162239e-01 -2.452357516335245402e-01 -9.515620750696360819e-01 -3.056863585477481160e-01 3.294643360040527130e-02
-1.241540493400783984e-01 6.509931689702606883e-02 -2.666633704716422359e-01 -9.591434489417776099e-01 -2.598754989965545437e-01 -1.118417157118186955e-01
-1.267805814050153579e-01 6.869533230155229486e-02 -2.322245185255830124e-01 -9.977826441339628927e-01 3.263853004462165253e-02 -5.800449483931233857e-02
-1.316069143243241424e-01 6.909216236921780774e-02 -2.782984646425925579e-01 -9.787951783718047416e-01 -1.207128175181960798e-02 2.044854101225196674e-01
-1.194555947709649291e-01 5.934499542569964675e-02 -2.459823696371493118e-01 -9.936359162745376228e-01 1.124056295757167312e-01 -7.255365528128373230e-03
-1.271073835756574011e-01 6.718221449075884033e-02 -2.789851000866792607e-01 -8.271880982264719906e-01 -4.967625036222612644e-01 -2.626535077767199744e-01
-1.328720724738733094e-01 8.615691235476377607e-02 -2.605453153724895943e-01 -9.901642461568644915e-01 -4.509301879619042816e-03 1.398371618317774401e-01
-1.286546417397537445e-01 7.582338362468345194e-02 -2.434933045733738144e-01 -9.849840820247494078e-01 -1.570568453350303373e-01 7.169034447727162807e-02
-1.403310408522729091e-01 1.478400278035334192e-01 -2.104799480745068174e-01 -7.180097017174000840e-01 6.937221194718768968e-01 5.667176717852842605e-02
-1.387372943472835463e-01 1.657775777549892471e-01 -2.053366034270606433e-01 -7.630837012508736583e-01 6.429673114596430317e-01 6.554617669724006890e-02
-1.428677664631415045e-01 1.510551561134711451e-01 -2.010489245290936755e-01 -9.915606115121101682e-01 8.885160061447222590e-02 9.440840410671406946e-02
-1.243655294466622929e-01 8.778047357980907350e-02 -2.113326047528772400e-01 -9.784158134871793200e-01 -2.063711951132865541e-01 -1.065015238082784449e-02
-1.236312695095415776e-01 1.039092335496349523e-01 -1.759459225378380287e-01 -9.768648329097312510e-01 -2.133427561015717733e-01 -1.483127247501855525e-02
-1.209394499765294312e-01 7.940057767124442112e-02 -1.871186739653390996e-01 -9.768648329097312510e-01 -2.133427561015717733e-01 -1.483127247501855525e-02
-1.304065503946756910e-01 1.273632869602711326e-01 -1.572504756310710017e-01 -9.678446582930887443e-01 -2.512639588619380304e-01 1.196412932731394721e-02
-1.245661016106516250e-01 1.028185751574665907e-01 -1.509389082846114283e-01 -9.690469930300515955e-01 -2.467794331701188559e-01 6.916405399477485415e-03
-1.345065963887491500e-01 7.980946289048732045e-02 -1.731015969520432740e-01 -9.778575490658918401e-01 -2.090838198434266382e-01 -8.863972841137320730e-03
-1.183054525337369350e-01 8.681122204527255692e-02 -1.511199702432206582e-01 -9.723313036657293962e-01 -2.334654655652086686e-01 -8.106312362810709493e-03
-1.340330606176652339e-01 9.898654057794958883e-02 -1.511090328047004216e-01 -9.680020226036919473e-01 -2.489201627127493321e-01 3.179366022055180735e-02
-1.263476941947532239e-01 9.239238592694944130e-02 -1.730814327181779411e-01 -9.680020226036919473e-01 -2.489201627127493321e-01 3.179366022055180735e-02
-1.249209996314824961e-01 1.171598846029397456e-01 -1.670379293750691996e-01 -9.659015572756527446e-01 -2.582919603879493819e-01 1.787302020977496464e-02
-1.344813312192568999e-01 1.189964848811149167e-01 -1.783228334934459092e-01 -9.589901189609584264e-01 -2.823576317049675266e-01 2.474104996172878101e-02
-1.227008042662025011e-01 9.232077026291478361e-02 -1.582693902420420906e-01 -9.614226375383422285e-01 -2.748015895233746342e-01 1.227185496346640259e-02
-1.356730240828850909e-01 1.484488884056854030e-01 -1.730883399095721753e-01 -7.739189231115481959e-01 5.571135706013137234e-01 3.011211880650649375e-01
-1.392676614290770387e-01 1.356519210820037458e-01 -1.738146520580143572e-01 -9.833428155067203136e-01 7.422171454825569892e-02 1.659157746594141225e-01
-1.261641328509549298e-01 1.532621779805757034e-01 -1.816819249573768114e-01 -9.553602707457814480e-01 -2.822780897580884907e-01 8.721142770917003628e-02
-1.399461814715503571e-01 1.337781802509616647e-01 -1.979358115336193880e-01 -9.580625254121007961e-01 -2.854225009551526471e-01 2.549888918155826870e-02
-1.184459022301988240e-01 1.533198672892829850e-01 -1.330645201313214177e-01 -6.253130388022963837e-01 7.036115364699403463e-01 3.375120875616864913e-01
-1.279986910883810780e-01 1.382664980415329037e-01 -1.346144686182835781e-01 -9.815308150825009514e-01 -2.758173982348006287e-02 1.893053265806094732e-01
-1.379555013086483373e-01 1.316924327581949772e-01 -1.472916510425067160e-01 -9.937241763531515781e-01 -4.501470095087101858e-02 1.024008692812413551e-01
-1.202186996397866248e-01 1.222985252811404494e-01 -1.473256467165543482e-01 -9.943617515389895356e-01 -1.001025483572348940e-01 3.498838219609616551e-02
-1.310868296772005059e-01 1.364322790492698556e-01 -1.468145815125518616e-01 -9.764042433841388924e-01 -1.700394460580745282e-01 1.331215245019013449e-01
-1.233559152535739500e-01 1.366024674172731102e-01 -1.332966424278071160e-01 -6.299563008346662496e-01 6.717663479299138540e-01 3.897243036142464812e-01
-1.323394733437364967e-01 1.392664600688282572e-01 -1.445817016087004026e-01 -6.438962064660070928e-01 6.859212247126182938e-01 3.389834048849991177e-01
-1.217975554683989742e-01 1.385778069292380732e-01 -1.438732989187655187e-01 -9.679377692855605231e-01 1.949631201957353066e-01 1.583851525681506667e-01
-1.258311000690526538e-01 1.543570104877293181e-01 -1.550386422853291257e-01 -9.644134313067802555e-01 1.570840458358639113e-01 2.126765996975655548e-01
-1.383668070413003326e-01 1.461570239452236741e-01 -1.463126736348494827e-01 -9.661580949753030279e-01 1.088436673038885583e-01 2.338623347218050375e-01
-1.284230184724230450e-01 1.319417156261758761e-01 -1.644000786965469363e-01 -9.637504325285554119e-01 -2.639212643444789341e-01 3.912377829190338135e-02
-1.278517810472431793e-01 1.349759679417435465e-01 -1.480241207531126368e-01 -9.741920095830660653e-01 -2.207584344333330117e-01 4.707060750671320654e-02
-1.462979757943435599e-01 1.393634002959077134e-01 -1.856050960339690470e-01 -9.682693184771420380e-01 -2.419558996102824100e-01 6.254494015977515864e-02
-1.323916592654151292e-01 1.057176316046685716e-01 -1.802258127192685744e-01 -9.565778961284540083e-01 -2.878101310312987104e-01 4.608749411941749641e-02
-1.314950852965344197e-01 1.300593863488407054e-01 -1.856313921938610167e-01 -9.634471202347956176e-01 -2.676710180803198447e-01 -1.103959198178742183e-02
-1.391492197935679798e-01 1.248314722672010796e-01 -1.687532403363151134e-01 -9.590938009902765238e-01 -2.829921020893066963e-01 7.385868743700316902e-03
9.120182566588488915e-02 1.359817117937633657e-01 -6.459192285743446671e-02 8.513206110608811938e-01 4.376755060820099463e-01 2.892980617957615630e-01
7.429210200907129802e-02 1.390087142306027645e-01 -7.496678574360302050e-02 9.721789369893432120e-01 2.243255040225274610e-01 6.742538631190464482e-02
7.926247162210986463e-02 1.264349692070913245e-01 -3.440672085538205860e-02 8.274729753682066313e-01 5.498493724686243089e-01 1.138162669882810119e-01
8.700115980220983480e-02 1.198599336568437479e-01 -4.313231901828397385e-02 9.723535972863427412e-01 2.334993611478153319e-01 -2.555423227365836037e-03
1.011463920724178789e-01 1.223431613885162667e-01 -4.586878045036675566e-02 9.241861646319503576e-01 3.214919791943173233e-01 2.062106699872885696e-01
6.585738353709479076e-02 1.338609550603167275e-01 -4.207689908261763589e-02 8.389126753886992915e-01 4.283589493177128449e-01 3.357590409975579893e-01
6.571500251174666740e-02 1.261140316044337129e-01 -4.792123517037540775e-02 7.083361254816749053e-01 5.822505165436162589e-01 3.990542185246271356e-01
9.204752450366872341e-02 1.541782160889198505e-01 -6.500743031030237207e-02 7.407308597002882911e-01 5.525247191914391953e-01 3.821442504736830004e-01
7.063363358281236903e-02 1.482594532771537021e-01 -7.061385509041936959e-02 5.273432845079175646e-01 7.352313140824328075e-01 4.258450129765764536e-01
6.716653211098164156e-02 1.456687812135180893e-01 -5.013495409332816011e-02 4.381920792591776914e-01 8.019345001123644456e-01 4.060649691909543613e-01
6.380735619718082285e-02 1.626694145262006508e-01 -4.560748888485800095e-02 4.368758461666566451e-01 8.009549651945599980e-01 4.094027830466580031e-01
7.105261316313393749e-02 1.357532604988902214e-01 -3.623947482411265381e-02 4.446286045385906549e-01 8.064061538366469328e-01 3.898903936755195310e-01
7.887282841443793435e-02 1.295001855994715734e-01 -2.219488558333151604e-02 5.317486495454504247e-01 7.321075297206047772e-01 4.257486801306418767e-01
1.980091619280870963e-01 -3.859563288131558079e-02 -3.351368340589259143e-01 4.448074898389445808e-01 -3.105806703086238518e-01 8.400511557124501483e-01
1.948111086331049402e-01 -4.773646271135039559e-02 -3.563388442958073110e-01 4.617537918601128943e-01 -2.961489942217030436e-01 8.361095675354285328e-01
2.148093821805553416e-01 -5.125245776482949267e-02 -3.535199359919900530e-01 3.981854268207151715e-01 -2.895199810094018500e-01 8.704174552844861079e-01
2.068709116429382211e-01 -3.721090948739479154e-02 -3.505425450975928614e-01 3.868075093898312722e-01 -2.382332740646254943e-01 8.908562498002046137e-01
2.136762758694366326e-01 -4.684769935129762947e-02 -3.604718958874014167e-01 4.511172100430457799e-01 -2.629431685976315047e-01 8.528506040865634352e-01
2.216943636461896350e-01 -3.235317679957756126e-02 -3.677874140268261316e-01 3.901072466544598938e-01 -4.193573483990079565e-01 8.197290713714070476e-01
2.150781703730295369e-01 -3.021454542706771690e-02 -3.509197020985492244e-01 3.526805062317921458e-01 -4.174724023419560948e-01 8.374564190493275495e-01
2.211448373900644082e-01 -4.560701203585332264e-02 -3.617151789324433153e-01 4.882751211271866287e-01 -1.998896389221701819e-01 8.494889865912302884e-01
2.203831748727809736e-01 3.146378175460417398e-02 -2.957227800677197926e-01 8.130670518931142343e-01 -5.208146624460696650e-01 2.601423773763638092e-01
2.191505089287117958e-01 3.023033383850371944e-02 -2.864608573811321945e-01 5.938051508009446477e-01 -7.476969034430611671e-01 2.972285037877844815e-01
2.140251098941471086e-01 3.716081463366376070e-02 -2.783405401272457946e-01 5.790023890539564011e-01 -7.940680456635487161e-01 1.849653273613275084e-01
1.972872642683371480e-01 2.070199129829503049e-02 -2.714744569887082570e-01 5.525910628193828611e-01 -7.982476384183164742e-01 2.396744146790092955e-01
2.065252162542167702e-01 1.802943441410667647e-02 -2.855148585994503607e-01 5.376569485371708312e-01 -8.147623479289771709e-01 2.169961338064764766e-01
1.630242219178979213e-01 -1.647815469363393404e-01 -3.556249452337955086e-01 6.844060732898720190e-01 -7.290336176581337924e-01 9.915198849862607439e-03
1.786978885925278593e-01 -1.677577132145167127e-01 -3.423612409128027889e-01 8.409895416252167744e-01 -5.130648932273828011e-01 1.717585695520960909e-01
1.463512209585883239e-01 -1.785127336365202322e-01 -3.360861554872507928e-01 7.339812238122617183e-01 -6.726573411768518307e-01 9.382784475806150992e-02
1.677877403649218613e-01 -1.730370675380113743e-01 -3.320139825845984660e-01 7.944833227593879332e-01 -5.640664021007815165e-01 2.250007641726619878e-01
1.748017653675627281e-01 -1.105492418914937325e-01 -3.946128499728453476e-01 2.409234903352254487e-01 -2.388885487615841352e-01 -9.406849276326674225e-01
1.843392413674289076e-01 -1.283509783666476056e-01 -3.932125220313798519e-01 2.216067772206979647e-01 -2.112363154703119084e-01 -9.519819616549374253e-01
1.591369466835451385e-01 -1.238953427832820420e-01 -3.825091500681375711e-01 1.720272947341387748e-01 -1.401211370526277422e-01 -9.750757287603524226e-01
1.819701628490704992e-01 -1.245412169920270262e-01 -3.838194491783131768e-01 1.739770819046648764e-01 -1.640045474248813528e-01 -9.709966443793188740e-01
9.346595266486727727e-02 -1.742286475606663332e-01 -4.015941388305009352e-01 1.000393637276959652e-01 -1.620337937540718976e-01 -9.817011639937178735e-01
1.008232139081544354e-01 -1.709287031440937799e-01 -3.991437586297679196e-01 8.643126887506781542e-02 -1.175216786344325942e-01 -9.893019209582032403e-01
1.070143991683361606e-01 -1.641049229816354538e-01 -3.982477850407338260e-01 1.584758009982701055e-01 -1.531013336717741424e-01 -9.754206283065172123e-01
1.396203828725498530e-01 -1.080143578841650520e-01 -4.049363259231816281e-01 1.656967936493752291e-01 -9.640773478330838531e-02 -9.814530662483395007e-01
1.467300208282898144e-01 -1.154094793253753470e-01 -3.950089350085019824e-01 2.576293811656558685e-01 -1.517786046845620573e-01 -9.542485824564836960e-01
1.479959505073854820e-01 -1.291456726214837702e-01 -3.893331387507444341e-01 1.659354536829064364e-01 -1.486939247851071788e-01 -9.748618065875023220e-01
1.473868446835280566e-01 -9.501987617136815889e-02 -4.076365613541627075e-01 8.766724724529516288e-02 -7.496097562676769244e-02 -9.933253776550338143e-01
1.548416333687796798e-01 -1.092993386559584085e-01 -4.072476780844082045e-01 1.064177153149472033e-01 -1.296787105864380674e-01 -9.858289414943069984e-01
1.349476586677297307e-01 -1.253785841243173771e-01 -4.013874011833875044e-01 1.436654854946656790e-01 -1.015002163666333806e-01 -9.844074026312015224e-01
1.271618369320007547e-01 -1.565253420959810959e-01 -4.039204450655122236e-01 1.861190655017266049e-01 -1.525669650924443566e-01 -9.706096097913128329e-01
1.350962525801008562e-01 -1.366621610121805941e-01 -3.963524693521982556e-01 1.484917938074789279e-01 -1.050531804747494996e-01 -9.833178613469689688e-01
1.443697103595101283e-01 -1.272529255302627393e-01 -3.966671426720237426e-01 1.060257747914690601e-01 -1.243567269029527411e-01 -9.865566073742819686e-01
1.352353470263460422e-01 -1.524074337225439224e-01 -3.905920732745044588e-01 1.782680957590654369e-01 -1.315518283999740912e-01 -9.751485027825559371e-01
1.423423245118672076e-01 -1.472432507248823130e-01 -4.027902858689461629e-01 1.770494727341987984e-01 -1.584257557369578018e-01 -9.713674712093853802e-01
9.578289150598987001e-02 -1.449341494159211985e-01 -4.022799536968698075e-01 8.869615436639236017e-02 -1.131552954107621911e-01 -9.896104644359396962e-01
1.069594778854187356e-01 -1.548948641984798646e-01 -4.114926575101041095e-01 1.662521665031034823e-01 -8.688570325037735242e-02 -9.822479787221308767e-01
1.496751327609212867e-01 -1.927424848947896230e-01 -3.847400466561299859e-01 5.313156068932211040e-01 -7.101965050923423339e-01 -4.618708153004586481e-01
1.324413180486607722e-01 -1.997155893135535709e-01 -3.620761886014195463e-01 5.644651928502226745e-01 -7.879482883152247874e-01 -2.460010995944291179e-01
1.416691191798149785e-01 -2.064325010066208055e-01 -3.707607388920515779e-01 5.745947124892452074e-01 -7.731518502932662740e-01 -2.684718472531154587e-01
1.107345853401226071e-01 -2.009126242291292830e-01 -3.767998683989063347e-01 5.140498948718773553e-01 -8.154887186305377345e-01 -2.659527314553011834e-01
9.817355278331993396e-02 -2.150764575520391630e-01 -3.693400287656757319e-01 3.498639151516747536e-01 -9.191354431872145181e-01 -1.810670537446951445e-01
1.016853200490632908e-01 -2.106145122768321720e-01 -3.752952496162154650e-01 4.199277890842334493e-01 -8.915411291156704054e-01 -1.697500134020116791e-01
8.740847015593887492e-02 -2.153060010357153442e-01 -3.763252491865755611e-01 4.037116418979215249e-01 -7.301506639554342648e-01 -5.512684628395887465e-01
1.032997939254767517e-01 -2.093816687314815628e-01 -3.770955000379221378e-01 4.350109162615267699e-01 -7.771860331565739743e-01 -4.546948125937393392e-01
1.156197082402203730e-01 -1.902781075993988935e-01 -4.028267555307093462e-01 4.321106064455100260e-01 -5.178704633511544975e-01 -7.383025172554635862e-01
1.128302048372397809e-01 -1.884423482863180066e-01 -4.079908308137135675e-01 1.183728817858913512e-01 -3.152552921531572294e-01 -9.415954341579673148e-01
1.234657633031037427e-01 -2.191342227864020997e-01 -3.959606516471502746e-01 2.118226710790183931e-01 -5.718220556263309273e-01 -7.925595830700851163e-01
8.671265044829154500e-02 -2.131684808422212030e-01 -3.883107623560893562e-01 1.612213948613533954e-01 -3.868702657558254487e-01 -9.079311974554991060e-01
8.419645761075088275e-02 -1.909322763004744905e-01 -3.725515222924863368e-01 1.224245814308408814e-01 -2.829045038438460224e-01 -9.513029294427464144e-01
1.537257113923979901e-01 -1.997647426760767314e-04 -2.239661981535662483e-01 6.489527202479804524e-01 -7.566335768454395261e-01 7.978719993095823027e-02
1.617613340991850834e-01 -7.711048808704309976e-03 -2.338713053463198077e-01 6.612000963333140025e-01 -7.475905746999585988e-01 6.263198247382671668e-02
1.553946969923251931e-01 -1.162349782438768832e-02 -2.323806516489954344e-01 6.370863173209271313e-01 -7.679658456239517594e-01 6.595061969039985039e-02
1.363495730391932337e-01 -7.347932102911868858e-03 -2.213806688994585381e-01 6.585371676408081631e-01 -7.510029186693989445e-01 4.820181516982734865e-02
