-1.018400102882692365e-01 5.470478534797823533e-01 5.046905941667501061e-01 7.697496171820907840e-01 6.353855605894517256e-01 -6.140615801735788137e-02
-1.603879211628682355e-01 5.470887280118973406e-01 4.536730690204330840e-01 5.641745097418030541e-01 8.147150067142286956e-01 1.339648475990267151e-01
2.291346491712104722e-02 5.536446321608134991e-01 4.323001431650519422e-01 -4.760456422002000698e-01 4.237627815474071524e-01 7.705878609979549543e-01
4.295450149474625001e-02 5.082991778763080726e-01 4.850985995952310503e-01 -6.481121205535340657e-01 2.287664886700257749e-01 7.263721999451716593e-01
-4.712276330100767519e-02 4.978374652580325188e-01 5.315127939176492733e-01 6.976988204836591656e-01 6.977319119334403075e-01 1.624393270283297497e-01
-1.287418032752670437e-02 4.922399860688240203e-01 4.865153440570546550e-01 4.602144068684316247e-01 7.837165643423892325e-01 4.171223399508822149e-01
5.240701180832173928e-02 4.833578343165340629e-01 4.967395667207976651e-01 -1.273133952788137735e-01 6.244175369910819340e-01 7.706452094709804745e-01
-3.164879691060173972e-02 5.268926964797557844e-01 4.344262827751669831e-01 5.861914149040357846e-02 7.857598426825690430e-01 6.157477290891071320e-01
-7.542380213072336081e-02 5.084740889425254373e-01 4.960555411284640615e-01 5.486301371226861567e-01 7.791758333596094932e-01 3.031336229274154137e-01
-2.513389023903563058e-02 4.406402167132179581e-01 5.390786176392724505e-01 6.820530128427060301e-01 6.755426788386538206e-01 2.800817322491470640e-01
-6.450582170071809777e-03 4.425878727417469904e-01 5.098190081451509093e-01 2.125964476722319862e-01 7.239120268051635332e-01 6.563186176576037978e-01
3.073413894445072708e-02 4.385506956684733226e-01 5.351714397726858863e-01 2.446852175948825148e-01 7.093774372994485766e-01 6.609937940260950384e-01
1.096763713070117441e-01 4.600779296871364554e-01 5.360600276057394531e-01 -7.058994965021202495e-01 9.762310288268419289e-02 7.015523007029553781e-01
4.827619680235503696e-02 5.628057986606931351e-01 4.999736444093652032e-01 -8.353775631708043603e-01 -6.178752223760976964e-02 5.461928496845647185e-01
5.084523403225151700e-02 5.552893726688500342e-01 4.796342472016960068e-01 -7.591364981287419544e-01 5.726526704889824820e-02 6.484076390656182687e-01
7.389405950200789164e-02 5.539894424610579682e-01 5.461355744067571960e-01 -8.331874211148997400e-01 -7.190176322357373639e-02 5.482963229324484544e-01
5.274083878230813316e-02 4.953216462820708155e-01 5.033046333393028648e-01 -6.356719025639060439e-01 2.074323449491712879e-01 7.435677874677411037e-01
8.199739106087323981e-02 5.335157631032562131e-01 5.157216744551604837e-01 -7.412392417361283181e-01 1.213995686510364880e-03 6.712398324927707494e-01
4.883005356011247966e-01 5.960439098744382269e-01 5.084602726470319745e-01 8.906817675465313888e-01 2.708689040031693196e-01 -3.651246715908259555e-01
4.490582893706137613e-01 6.400989827208732885e-01 4.487145925043421468e-01 8.906817675465313888e-01 2.708689040031693196e-01 -3.651246715908259555e-01
4.647157950985572050e-01 5.609549831171931622e-01 4.832626008117847372e-01 9.100072419824360992e-01 2.365442141105620066e-01 -3.404903145617162452e-01
4.826205774330328824e-01 5.578623291715224530e-01 5.069621895886706753e-01 9.001262330465319428e-01 2.410600768299479557e-01 -3.628536949518360033e-01
4.716405831492238576e-01 5.996038218026725763e-01 5.390946631159595492e-01 9.001262330465319428e-01 2.410600768299479557e-01 -3.628536949518360033e-01
4.919463977071082961e-01 5.305849748975450808e-01 5.342848894503710033e-01 8.859668070639253878e-01 2.811323380835551444e-01 -3.688189600123979450e-01
4.873489238229103404e-01 5.128018065244992485e-01 4.800156277568574104e-01 8.897166987996339982e-01 3.530731522595893512e-01 -2.893847698662772028e-01
4.645093789317172317e-01 5.274682832830153156e-01 4.939882577569546518e-01 9.061151370868648636e-01 2.925670694662522164e-01 -3.055484711236195472e-01
4.881528701028566286e-01 4.858446575447277760e-01 5.025740592520191452e-01 9.029024385085243631e-01 3.289764670077928721e-01 -2.766616538127953384e-01
5.025236806611524942e-01 5.371048827099228484e-01 5.177903576523582574e-01 9.034858888812695721e-01 2.529913687031499214e-01 -3.459893292489367722e-01
4.940178278624793307e-01 5.310360099423345748e-01 5.581439560087213536e-01 9.034858888812695721e-01 2.529913687031499214e-01 -3.459893292489367722e-01
4.856411928997874661e-01 4.906538541751009896e-01 5.398369671646838786e-01 9.014792727637302994e-01 3.108907059714902110e-01 -3.011346704016734654e-01
-4.916318985217981719e-01 6.267879011116117560e-01 5.862209369741837595e-01 -4.983166212021379882e-01 6.418370908916092299e-01 5.828599263883913473e-01
-4.597858725694083937e-01 6.732022413223992530e-01 5.254757969991370459e-01 -4.773717927894420288e-01 6.831724622448992479e-01 5.526224373650021615e-01
-5.533656519855438827e-01 6.763638967361088605e-01 5.569207060064863546e-01 -5.410008846869109878e-01 6.473387539366075583e-01 5.369083538368348840e-01
-5.046186418601200652e-01 6.636878256004222765e-01 5.394343910841460366e-01 -5.057032250253890027e-01 6.544211155350848630e-01 5.621363284299777385e-01
-4.956409842880168948e-01 5.674432520569432370e-01 5.525647766881142120e-01 -8.873311211283102518e-01 -4.169307125425963378e-01 1.970082800693891412e-01
-5.407292573043243067e-01 6.328869736814132230e-01 5.182735237426262520e-01 -8.948874378284831232e-01 -3.656730469395794159e-01 2.558509260461973023e-01
-5.130948923184263100e-01 5.566826227261151283e-01 4.994951727205349523e-01 -8.948874378284831232e-01 -3.656730469395794159e-01 2.558509260461973023e-01
-5.218963204908863007e-01 5.759911560414713305e-01 5.291849407122156679e-01 -8.948874378284831232e-01 -3.656730469395794159e-01 2.558509260461973023e-01
-5.526249540178117536e-01 6.336676391201816472e-01 4.940399055504336445e-01 -8.810971435045152900e-01 -3.658227954973096163e-01 2.997357269374421596e-01
-5.636655796102761906e-01 6.166025602982562193e-01 4.588154241020023227e-01 -8.810971435045152900e-01 -3.658227954973096163e-01 2.997357269374421596e-01
-5.643543382417239851e-01 5.583393851600788604e-01 4.552255103500767452e-01 -8.810971435045152900e-01 -3.658227954973096163e-01 2.997357269374421596e-01
-4.786308294117493922e-01 6.571824995593645857e-01 5.665751665466265408e-01 -4.675867821974463712e-01 6.401130540888069209e-01 6.096046908442701584e-01
-3.914468001649184514e-01 6.979443649101774172e-01 6.065024921746008379e-01 -4.032911330599412425e-01 6.854788183104556509e-01 6.061972052417677892e-01
-4.178963901907432610e-01 6.747106959210459332e-01 6.257544399344240338e-01 -4.032911330599412425e-01 6.854788183104556509e-01 6.061972052417677892e-01
-1.946044975005254696e-01 6.556067028629758431e-01 4.152617317134248420e-01 8.226600103212964310e-01 4.762861924873928454e-01 -3.104544576327201710e-01
-2.173746892846620260e-01 6.689767764011758100e-01 3.854512468365456357e-01 8.493885925740748410e-01 3.673089985598552709e-01 -3.789764087406873871e-01
-2.351973770070178715e-01 7.278422246907552129e-01 3.985053237761673195e-01 8.493885925740748410e-01 3.673089985598552709e-01 -3.789764087406873871e-01
-1.815168085827394973e-01 6.825001552093951096e-01 4.177382973042297887e-01 8.770451195293232916e-01 3.087374332524261411e-01 -3.680666456207337678e-01
-1.947604041695851496e-01 7.338527103495300352e-01 4.896173530813587305e-01 9.092262397714416799e-01 2.854779612564806723e-01 -3.030016147612552557e-01
-1.768021323738717676e-01 6.754113563729373659e-01 5.085958668686514361e-01 8.962679179021190157e-01 3.416298785773144164e-01 -2.828300645310711237e-01
-1.781080073702144828e-01 6.634490564213105790e-01 4.569893133761748216e-01 8.644743530905734108e-01 3.750569841769810231e-01 -3.346884394010383734e-01
-1.646583011869753588e-01 6.406727712805877495e-01 4.290746958902810215e-01 8.260086175352322480e-01 5.308732886090690162e-01 -1.894289185919787177e-01
-1.402327273778396499e-01 6.373818569631165554e-01 4.900939282533994801e-01 8.814969051174154080e-01 4.085301726814141721e-01 -2.367832432359020800e-01
-1.519985452005845061e-01 6.145416314285651049e-01 4.461314909218220826e-01 7.181537958369894614e-01 6.834625773063996990e-01 -1.308970242084105950e-01
-1.868441204590869376e-01 6.147997264782730786e-01 4.618592771571973232e-01 8.406335398342892340e-01 5.142594433687386335e-01 -1.699190295751107915e-01
-1.378233859715062570e-01 5.831880547289914896e-01 4.247565056226677571e-01 7.918876190748072030e-01 6.070711861303823564e-01 -6.617079209351942048e-02
-1.444299832745915002e-01 6.386904449084875868e-01 5.385587624197656353e-01 9.011582414570493693e-01 3.433618090293006353e-01 -2.646062961347754872e-01
-1.464613771963126643e-01 6.332730962174124567e-01 5.021470277783727232e-01 8.596158113270901957e-01 4.386934757385993477e-01 -2.619326082427601565e-01
-1.224633471384496408e-01 5.974423532235269008e-01 4.809239800017716671e-01 8.536188917165551393e-01 4.959860218741923288e-01 -1.591623504790421750e-01
2.324045886923009271e-02 6.232308945686834134e-01 5.207568595904566999e-01 -8.838777357218851050e-01 -1.505551450520382917e-01 4.428242276496547336e-01
4.307077285982927745e-02 6.395730319131197605e-01 4.627700861877695471e-01 -8.905725866345957087e-01 -1.455716598527020678e-01 4.309168826846941358e-01
1.521606629009843864e-02 7.732588646762481588e-01 5.660883074310157914e-01 -9.232189460894427713e-01 -2.744356107093618991e-01 2.689830350711321372e-01
-5.107047437241763604e-03 7.021336404439573187e-01 4.571008976512822564e-01 -9.066398833280470138e-01 -1.482299359283853757e-01 3.950088708542787708e-01
2.599319541794548744e-02 7.379624097773241909e-01 4.813518747292411804e-01 -9.096682830824366350e-01 -2.128149006104383956e-01 3.566699214007555407e-01
6.704435352576498808e-02 6.716110058675586192e-01 4.833610080228400441e-01 -9.097938087736093804e-01 -2.125560970444279885e-01 3.565040408276584638e-01
-6.453434248561160450e-03 5.276319562885692926e-01 4.261375257070096345e-01 -5.391031897919408289e-01 3.748449967113041126e-01 7.542274054929699600e-01
-1.540110380981628627e-02 5.853761574980469451e-01 4.619103192631069388e-01 -6.782005727367689252e-01 2.081731531982588812e-01 7.047750857025331106e-01
8.067553695094503707e-02 6.416981407938507909e-01 4.544531495049746184e-01 -8.476108329057172597e-01 -6.077544029220564858e-02 5.271263812390390990e-01
1.684607750028026957e-02 6.042467744002747443e-01 4.583629546103238916e-01 -8.509930209157511305e-01 -5.371266931175639608e-02 5.224230350090716124e-01
-1.133436123455692363e-02 6.426950856161287584e-01 4.552024560490735561e-01 -8.574070128143763680e-01 -7.343009733197831956e-02 5.093733750232181112e-01
7.382492121898200088e-02 6.676972288926706911e-01 6.428454231846739697e-01 -9.205875091784434527e-01 -3.217144288311971634e-01 2.214011387198489555e-01
5.641661089302964227e-02 6.758231113848990335e-01 6.014711628416161693e-01 -9.178249367118241908e-01 -2.705138096617373811e-01 2.905506226670820369e-01
7.482906837499868347e-02 6.038030060447987513e-01 5.387451134743060921e-01 -8.999119908542571045e-01 -2.284958898977329234e-01 3.714135660104120329e-01
8.666437319825072427e-02 5.952841912233285404e-01 5.887080560236328530e-01 -8.718290145649267853e-01 -1.669827412723278726e-01 4.604681677162139608e-01
1.240081870091505611e-01 6.047310450497589418e-01 5.955775723792342546e-01 -8.903159459380739493e-01 -2.363359964836548588e-01 3.892079305133316902e-01
8.456615125103339459e-02 7.401240842773690876e-01 5.687426840448357446e-01 -9.158276432565498615e-01 -2.869297884321793668e-01 2.809466574946541950e-01
9.530171754714678034e-02 6.596994919602346963e-01 5.255671908267977033e-01 -9.036309845673612395e-01 -2.207484710845671605e-01 3.670438069817380522e-01
8.365803261319613993e-02 7.098179069830753418e-01 6.377631381736897920e-01 -9.249966272672111023e-01 -3.124085454886153523e-01 2.162917942270851657e-01
7.309514867076194466e-02 7.377397779968155600e-01 5.475558255072581204e-01 -9.217370982015781200e-01 -2.695576625340041499e-01 2.788178408354433646e-01
8.394846121614363277e-02 7.028459759580526489e-01 5.825624032751507420e-01 -9.109483101825848195e-01 -2.866954057722222449e-01 2.966124078399183794e-01
4.214752365521459709e-01 6.924127104857812354e-01 4.845602382850591749e-01 9.097692886397946710e-01 1.842163165208290654e-01 -3.720002556119278436e-01
4.262895968618761189e-01 6.519942129828647515e-01 4.978843720420983998e-01 9.097692886397946710e-01 1.842163165208290654e-01 -3.720002556119278436e-01
4.152302930810327086e-01 6.760140420441101972e-01 5.372012501982534882e-01 8.950096758289370902e-01 1.516490668354966709e-01 -4.194761503357539723e-01
4.292591087531730243e-01 6.851665830115211131e-01 4.176860601214510971e-01 9.029910970471526355e-01 1.957451866928378859e-01 -3.824799348203321570e-01
4.349754189892445777e-01 7.257123614202650730e-01 5.359219149452463249e-01 9.039763225632007071e-01 1.172630112857454554e-01 -4.111887576640576580e-01
4.071078268288191304e-01 7.320127903564488392e-01 4.515311984118540733e-01 8.974623887464674432e-01 1.175384275025850578e-01 -4.251423042296590959e-01
4.507640430759409789e-01 6.426690792492694149e-01 5.733637272827734055e-01 8.921983389784641227e-01 1.765223519198097224e-01 -4.157186346518141895e-01
-4.546380481663932493e-01 7.161066760147167809e-01 4.684123276255004464e-01 -4.951558518945446408e-01 7.229075937849526179e-01 4.818975961577705580e-01
-4.869910412753315487e-01 7.556297551938050416e-01 4.483497480425568393e-01 -4.951558518945446408e-01 7.229075937849526179e-01 4.818975961577705580e-01
-5.136490933516257851e-01 7.017183277795062679e-01 4.941335796295332483e-01 -4.951558518945446408e-01 7.229075937849526179e-01 4.818975961577705580e-01
-5.443731489541419055e-01 7.075378379528262096e-01 5.181144204170384793e-01 -4.991354863822644594e-01 7.020228618603229220e-01 5.079642385634860480e-01
-4.286465380639195022e-01 6.931110095966616091e-01 5.544564194725474238e-01 -4.287471741466346575e-01 7.131507642313349438e-01 5.546096358138203897e-01
-3.565663828007063496e-01 7.397372368188755987e-01 5.421251857287077147e-01 -3.663910306063644651e-01 7.459394727328431118e-01 5.561761552873821790e-01
-3.596606152338301943e-01 7.049718402653213367e-01 5.872839918715097030e-01 -3.900676462704192327e-01 7.167133952967067456e-01 5.780736461172760743e-01
-3.684083859236595981e-01 7.519894683928428636e-01 5.255199910549053222e-01 -3.702930363198141950e-01 7.537141236361646346e-01 5.429531168382966122e-01
-4.523419572140948697e-01 7.835973715963371333e-01 4.789981368308126597e-01 -4.323729078703784645e-01 7.568145621139384938e-01 4.901891340207376047e-01
-4.763292982659700359e-01 7.373816683145013595e-01 5.197915252156016797e-01 -4.323729078703784645e-01 7.568145621139384938e-01 4.901891340207376047e-01
-4.427824933441442123e-01 7.192381379472010394e-01 4.975366047095353128e-01 -4.210974796560608691e-01 7.461850901676266856e-01 5.156401107738265432e-01
-4.039413733368374948e-01 7.405251168149146190e-01 5.125557687288893050e-01 -4.210974796560608691e-01 7.461850901676266856e-01 5.156401107738265432e-01
-4.137167665901303470e-01 7.402463082133747818e-01 4.781556720249783288e-01 -4.210974796560608691e-01 7.461850901676266856e-01 5.156401107738265432e-01
-3.982245889025706753e-01 7.793708961547500813e-01 4.462383391615615258e-01 -4.125263644441513056e-01 7.930979531380724090e-01 4.481268072395260260e-01
-3.880082420707123281e-01 7.921149746681592774e-01 4.458072649319492209e-01 -4.125263644441513056e-01 7.930979531380724090e-01 4.481268072395260260e-01
-2.981229227051901409e-01 8.056060681879825269e-01 4.937427089592761331e-01 -3.299750616711741857e-01 8.000956850803405684e-01 5.009624271249545346e-01
-3.551829682421902001e-01 7.507633328909446568e-01 5.093158734285713196e-01 -3.299750616711741857e-01 8.000956850803405684e-01 5.009624271249545346e-01
-3.028246160211965909e-01 8.672224362672937836e-01 4.177843702077381205e-01 -2.951236119095212995e-01 8.487012384196449544e-01 4.388715775696110377e-01
-2.943941653157358118e-01 8.157308530874540775e-01 4.471748783403985961e-01 -2.951236119095212995e-01 8.487012384196449544e-01 4.388715775696110377e-01
-3.345589902017117589e-01 8.449868193139575823e-01 4.139683697569414567e-01 -2.951236119095212995e-01 8.487012384196449544e-01 4.388715775696110377e-01
-3.145871630900408666e-01 8.155100267586425922e-01 4.995458115290256074e-01 -3.338301778352147364e-01 8.059135652953965945e-01 4.889383781616773450e-01
-3.962463026159941393e-01 7.730909448462659483e-01 5.056223223266140820e-01 -3.338301778352147364e-01 8.059135652953965945e-01 4.889383781616773450e-01
-2.265068985856132366e-01 7.389015987026894550e-01 4.479329983392218439e-01 9.159348454595689359e-01 1.798511907155167233e-01 -3.587713869181409776e-01
-2.402749639214185329e-01 8.219274403017803321e-01 3.943706877954329393e-01 9.054507388881608554e-01 1.994175651962512008e-01 -3.746886629430928317e-01
-2.083684895635476431e-01 7.403039188793050229e-01 3.917588450472113681e-01 9.054507388881608554e-01 1.994175651962512008e-01 -3.746886629430928317e-01
-2.366740998235331850e-01 8.123344699030194960e-01 4.242206870998389001e-01 9.154668849370082295e-01 8.562217491897601562e-02 -3.931783637814710852e-01
-1.879130198498178139e-01 7.821750839988529380e-01 4.230928722114283835e-01 9.019925276967668548e-01 1.963084437912705205e-01 -3.845419026262895668e-01
-2.296174326382855180e-01 8.245448987843064792e-01 4.560606492813236712e-01 9.193152221418863235e-01 9.178805540073423086e-02 -3.826675779628657681e-01
-2.220938442326673978e-01 8.065836185637947908e-01 5.150408015202572187e-01 9.206631062199625015e-01 1.068536662081202293e-01 -3.754487166888357819e-01
-1.855817037224833932e-01 7.646281094111007093e-01 4.630107402300325803e-01 9.146656836663694667e-01 1.025474957412389754e-01 -3.909868261723576377e-01
-1.651178554291810319e-01 8.074009177644678736e-01 5.574463365040486229e-01 -1.959947482812504083e-01 8.210007477098176798e-01 5.362311357111686494e-01
-2.199165101111947296e-01 8.440001863486878975e-01 4.434194568407977544e-01 -2.382420219478655343e-01 8.474247450396250603e-01 4.744597353545599860e-01
-2.946811456195891354e-01 8.268556570679398421e-01 4.851427706570630716e-01 -2.382420219478655343e-01 8.474247450396250603e-01 4.744597353545599860e-01
-3.092457297591197918e-01 7.596425365744691183e-01 5.448735507094275565e-01 -2.771544333124244530e-01 7.976935272691099144e-01 5.356028908139262024e-01
-2.993331857690631481e-01 8.329545835331594317e-01 4.765795260807716982e-01 -2.385344200637245782e-01 8.261757135094223159e-01 5.104263128523642834e-01
-2.326786388993784260e-01 7.950764088027642007e-01 4.871560532732016613e-01 -2.385344200637245782e-01 8.261757135094223159e-01 5.104263128523642834e-01
-1.360498274684696640e-01 6.883845148643638057e-01 5.352599892287066563e-01 9.050803572789548612e-01 2.279132284954647480e-01 -3.590057202114938506e-01
-1.599727475868005511e-01 7.333262022115414336e-01 5.701196704174320562e-01 9.050803572789548612e-01 2.279132284954647480e-01 -3.590057202114938506e-01
-2.144571964696800892e-01 7.674736634085931319e-01 5.027065808250332779e-01 8.986983241204524742e-01 2.070026777729033207e-01 -3.866409362935301908e-01
-1.809363847313166795e-01 7.314369288760731447e-01 5.170414990044627235e-01 9.179247985440804891e-01 2.015706450755045676e-01 -3.417357740442963920e-01
-1.643033050797826355e-01 7.758078137543932273e-01 5.078994758664315823e-01 9.179247985440804891e-01 2.015706450755045676e-01 -3.417357740442963920e-01
-2.661460039664335225e-03 8.782804916757559477e-01 5.193279027716026786e-01 -9.197418486654548309e-01 -3.036859031475586668e-01 2.486962083404233581e-01
6.173587373346294330e-03 7.164720301711804407e-01 4.702732500260558002e-01 -8.977983412647823069e-01 -1.677122332940748084e-01 4.072232130241587034e-01
2.534147451176345031e-03 7.739813492977970499e-01 4.941416637011490920e-01 -9.167790927310301985e-01 -2.095312871970252955e-01 3.400187271560590752e-01
4.083880286311018792e-02 7.893939140932317855e-01 5.775551500827474927e-01 -9.259927179339321190e-01 -2.690023933623747476e-01 2.649060186153640029e-01
3.822394138137363145e-02 8.032849328257992694e-01 4.944899088370046103e-01 -9.259927179339321190e-01 -2.690023933623747476e-01 2.649060186153640029e-01
2.814901561323983337e-02 7.950516354038120737e-01 4.978309817562040496e-01 -9.183444902741211280e-01 -2.743732868304056272e-01 2.852414707875495226e-01
1.075049539263638887e-01 7.635814123558538613e-01 6.154383184364770054e-01 1.012594884803924011e-01 7.674410841858514409e-01 6.330724273701504590e-01
3.377773420341449728e-02 7.434953135520010470e-01 6.453628544814541401e-01 -9.200527908222102536e-01 -3.288761181758879659e-01 2.129398060340561560e-01
6.095978207029119356e-02 7.313584572964354491e-01 6.134598101227142219e-01 -9.225803833449188751e-01 -3.232182412156163753e-01 2.106547051756177125e-01
3.184387896886052560e-02 7.733332801798105116e-01 6.180372014217839771e-01 -9.225803833449188751e-01 -3.232182412156163753e-01 2.106547051756177125e-01
9.344786952631481403e-02 7.672703272529092233e-01 6.251616579258296724e-01 1.015197942926899938e-01 7.918472592497995954e-01 6.022222591247773371e-01
1.369102167903935852e-01 7.843132902675434837e-01 5.669793927835516945e-01 1.015197942926899938e-01 7.918472592497995954e-01 6.022222591247773371e-01
1.016328085048717744e-01 7.932735881686822088e-01 5.872202223188121017e-01 1.040668171385316365e-01 8.320401824686403103e-01 5.448662517794685689e-01
2.407996386777395970e-02 7.731506643201133677e-01 5.982196580987730883e-01 3.138804087020678063e-02 8.126734879868654504e-01 5.818733477429535172e-01
7.743158549672976565e-02 7.818881145572015301e-01 6.025724400294412142e-01 9.083670481163629018e-02 8.015029639230335512e-01 5.910513445391658571e-01
5.309254653162549104e-02 8.282343581650378761e-01 5.507560362729135850e-01 4.971200758078622023e-02 8.395334961567513243e-01 5.410288579485476035e-01
1.194001177147017145e-01 7.901132798652490408e-01 5.319823212492631459e-01 1.823837348415266735e-01 8.479564179387097944e-01 4.977008002221894878e-01
2.155164015986078818e-01 8.855769924609756538e-01 4.634279464830731166e-01 1.823837348415266735e-01 8.479564179387097944e-01 4.977008002221894878e-01
1.623275517006271262e-01 8.317438651403009642e-01 5.046506524726351861e-01 1.823837348415266735e-01 8.479564179387097944e-01 4.977008002221894878e-01
2.956017742984283214e-01 8.021490720412637332e-01 4.742675449786196151e-01 2.631940013241952925e-01 8.249573086684580669e-01 5.001743261518468708e-01
2.582882678242732766e-01 8.048505892455775079e-01 5.149583818977616634e-01 2.631940013241952925e-01 8.249573086684580669e-01 5.001743261518468708e-01
2.490305898242014260e-01 8.421452262145033840e-01 5.000841558166130296e-01 2.519961662826921689e-01 8.350239417348440663e-01 4.891144537921870428e-01
1.670034359447331029e-01 8.208832558921601574e-01 5.399251808083592730e-01 1.785750903903567666e-01 8.170237086300634610e-01 5.482546822676966913e-01
2.068244706351157758e-01 7.765230693097910919e-01 5.746635297295235034e-01 1.729135101085388926e-01 7.865903324231749982e-01 5.927702480391060513e-01
2.266413803617169376e-01 8.161669166121324759e-01 5.591817215221439596e-01 2.632923251318333713e-01 8.026153009948613359e-01 5.352437109724885733e-01
1.970154882071402658e-01 8.188075471895085444e-01 5.346193112825209370e-01 1.782402090005795470e-01 8.173930818588895919e-01 5.478129038500794135e-01
1.799208542772006703e-01 8.073537847804717060e-01 5.718642136070828386e-01 1.782402090005795470e-01 8.173930818588895919e-01 5.478129038500794135e-01
2.271702303363777320e-01 7.883182346477703994e-01 6.327041676581812712e-01 1.809870877525218968e-01 7.770250125362345717e-01 6.028895454060597681e-01
2.273463087347595002e-01 7.473644737394999904e-01 6.030080549754835983e-01 2.674518610229043025e-01 7.572641358845886295e-01 5.958359929866207105e-01
2.911189896369917873e-01 7.851081013190909230e-01 5.368246089396461196e-01 2.694973622960919468e-01 7.951752640340991052e-01 5.432011332681014881e-01
2.665918324994646094e-01 7.511363314196244367e-01 5.695372271026941657e-01 2.613172458805054221e-01 7.671707866229651174e-01 5.858005472494272059e-01
4.285720830441126505e-01 7.159384522269051088e-01 4.624553346798179199e-01 9.029820623412246894e-01 7.731024586279919286e-02 -4.226659685551018564e-01
3.267365312948320999e-01 7.941558826874340893e-01 4.840542536989228539e-01 3.671742194436080076e-01 7.905621149628490052e-01 4.900965567737080586e-01
3.826192210250424774e-01 7.778879163466470015e-01 4.728153085900202446e-01 3.671742194436080076e-01 7.905621149628490052e-01 4.900965567737080586e-01
3.200538294481288237e-01 7.252508720181978230e-01 5.700286637385083566e-01 3.233758464311159986e-01 7.354208673004426489e-01 5.954697388482674825e-01
3.901436947131593502e-01 7.506341563851309795e-01 5.099912726220099390e-01 4.058673585930557270e-01 7.277567255632235721e-01 5.528488361443757437e-01
3.670718041794997499e-01 7.112908071308575719e-01 5.673799177573307650e-01 4.058673585930557270e-01 7.277567255632235721e-01 5.528488361443757437e-01
3.011526960232305261e-01 7.819492049773972830e-01 5.559372648336743383e-01 3.464367378384065610e-01 7.667195368514728715e-01 5.404838003919691936e-01
3.786291466247626580e-01 7.798809550932350732e-01 4.965137755552305188e-01 3.464367378384065610e-01 7.667195368514728715e-01 5.404838003919691936e-01
3.383972018470394194e-01 7.474164737740193187e-01 5.505730074504552318e-01 3.486337475735343805e-01 7.627743177574243250e-01 5.446373566167940217e-01
3.373306293821256019e-01 7.647352916672777168e-01 5.642716402672609544e-01 3.486337475735343805e-01 7.627743177574243250e-01 5.446373566167940217e-01
-2.385205515741141077e-02 8.477586847097028366e-01 5.058914474235659542e-01 -6.637987141702932949e-03 8.662713409094798811e-01 4.995296798445496567e-01
5.869920370976386415e-02 8.772874515854786059e-01 4.790366762068736795e-01 9.165024296894730416e-02 8.886383766971740483e-01 4.493573949817052382e-01
1.798123388320638227e-03 8.706447348504529060e-01 4.704448094232198119e-01 1.416707957778972661e-02 8.823714880472434130e-01 4.703401438719961303e-01
5.082003404083591802e-02 8.795375062510464304e-01 4.666317564643453486e-01 3.671446242368159307e-02 8.736944770107690772e-01 4.850876303203565665e-01
1.249563383843234343e-01 8.661317417625122861e-01 4.914238513569162414e-01 1.085608486744854134e-01 8.592802091189426505e-01 4.998520424601481382e-01
1.032223426814735112e-01 8.430813972982416082e-01 4.848630970884017510e-01 1.078949871641382702e-01 8.785835198872236074e-01 4.652415182756448608e-01
1.040185691471698926e-01 8.858233049770637413e-01 4.652997131593114011e-01 1.078949871641382702e-01 8.785835198872236074e-01 4.652415182756448608e-01
4.353929689256211266e-02 8.581815376542732965e-01 4.846668507176258855e-01 4.728724593658569647e-02 8.604911794029315164e-01 5.072660510437149162e-01
5.918340186542907222e-02 8.862685303904321854e-01 5.151702996454340377e-01 1.089511693568659678e-01 8.589125794663600155e-01 5.003986645967547497e-01
2.344305604386526798e-01 8.515438214934817340e-01 4.414871028842569101e-01 2.515781202744630241e-01 8.523902747244120892e-01 4.584094991973978739e-01
1.599302221663427837e-01 8.770211446736333460e-01 4.213360667165733098e-01 1.858061384617961387e-01 8.723057538787384324e-01 4.522817160354392629e-01
1.701055185220233246e-01 8.698937729411018172e-01 4.892525249270116561e-01 1.841446844975004049e-01 8.462029429856507967e-01 5.000313134732057296e-01
1.959122998186877129e-01 8.923940534750983700e-01 4.646623702311176718e-01 1.871668290754618658e-01 8.709367421415409316e-01 4.543542332604769141e-01
-3.320046369826902266e-01 -7.327152910242558104e-01 6.331968176844495755e-01 -3.106312311402577020e-01 -7.233787433810423551e-01 6.166290877543417759e-01
-2.180319968837837186e-01 -7.655105795399546054e-01 5.979999879249374706e-01 -2.559375324994917489e-01 -7.460709484953533810e-01 6.147146649213074410e-01
-1.717916688709250073e-01 -7.580242405265504857e-01 6.010536980432426013e-01 -1.790879929579193841e-01 -7.618751829513348284e-01 6.224738519658269409e-01
-2.119837731612035092e-01 -7.377325381272648031e-01 6.393717409665110596e-01 -1.980403399892929628e-01 -7.412687463103629915e-01 6.413272717422736635e-01
-1.623075323206313314e-01 -7.441235517308446568e-01 6.531484199369643751e-01 -1.979565601765952143e-01 -7.418188082158818641e-01 6.407168298556068509e-01
-2.330613880501173907e-01 -7.124134816453217001e-01 5.999795367727236428e-01 -2.647062108094981325e-01 -7.348126694575682905e-01 6.244845576661763875e-01
-1.215654810793815321e-01 -7.487945071479101822e-01 6.289563024864720520e-01 -1.176893647005864407e-01 -7.512787310891685388e-01 6.494070230983195469e-01
-1.960435724985016004e-01 -7.168514617179462256e-01 6.836104791951906900e-01 -1.545725422659153525e-01 -7.162063667123741428e-01 6.805554859510810628e-01
-1.128212050989911008e-01 -6.946971384273176175e-01 6.871677470083052963e-01 -1.545725422659153525e-01 -7.162063667123741428e-01 6.805554859510810628e-01
-1.179943751772370708e-01 -7.273253880495167412e-01 6.657170494950438444e-01 -1.182353605859631784e-01 -7.397084886702112172e-01 6.624588676260128040e-01
1.714509372137246468e-01 -7.703722525432213919e-01 5.494095974539089378e-01 -9.215926916904840782e-01 -1.266961700648686906e-01 -3.668991565997147819e-01
1.434813064752749057e-01 -7.335420230890374871e-01 6.488620399842380815e-01 -9.214000067430631047e-01 -1.486311506583586906e-01 -3.590693646467985611e-01
1.516408150840800606e-01 -7.558449067252153153e-01 5.981579352431640739e-01 -9.214000067430631047e-01 -1.486311506583586906e-01 -3.590693646467985611e-01
1.778688314719686359e-01 -7.121050737561488431e-01 5.596491688633099537e-01 -9.178067895019182965e-01 -2.220541267302818811e-01 -3.291240829022292202e-01
1.470034826443298026e-01 -7.200132006496753334e-01 6.000111916008663560e-01 -9.178067895019182965e-01 -2.220541267302818811e-01 -3.291240829022292202e-01
1.644725196854267824e-01 -7.038720038550423386e-01 5.941980978338432529e-01 -9.153766786845304315e-01 -1.445579971240150419e-01 -3.757506108950072199e-01
1.989659301639602473e-01 -7.506705136732831907e-01 5.889666206811878801e-01 2.024924979944841552e-01 -8.032802682115340875e-01 5.601228427389474129e-01
2.388408392955804760e-01 -7.269466330929752473e-01 5.866290291545918079e-01 2.475460009375954062e-01 -7.609837004454942377e-01 5.996872393807344270e-01
2.845945516467164871e-01 -7.398895010483341750e-01 5.836428850070907171e-01 2.475460009375954062e-01 -7.609837004454942377e-01 5.996872393807344270e-01
2.857868260503486080e-01 -7.416905815162084803e-01 5.940054193493191637e-01 2.475460009375954062e-01 -7.609837004454942377e-01 5.996872393807344270e-01
2.478430481074820335e-01 -7.776842858506609613e-01 5.497680773422773948e-01 2.484507203463219294e-01 -7.801857896833980233e-01 5.740926520479829875e-01
2.120592175329524265e-01 -7.911641025131521676e-01 5.376455962174118142e-01 2.484507203463219294e-01 -7.801857896833980233e-01 5.740926520479829875e-01
2.015566395919593523e-01 -7.505201863902537518e-01 6.520142821718705184e-01 2.308289708810712659e-01 -7.489493611469222323e-01 6.211222429116531885e-01
1.571907938602328803e-01 -7.635167202357262539e-01 6.202857761564217753e-01 1.761722550638231688e-01 -7.741960779282091032e-01 6.079340173623332122e-01
3.309952118573105118e-01 -7.022429403505893175e-01 5.684190287185059143e-01 3.352682758793214535e-01 -7.366694144582844883e-01 5.872932461646356295e-01
3.422537869974386915e-01 -7.565886255580548392e-01 6.221462972554898663e-01 3.352682758793214535e-01 -7.366694144582844883e-01 5.872932461646356295e-01
-5.055624371538798290e-01 -5.992969490850077463e-01 6.029642868622199225e-01 -4.808431537533242039e-01 -6.156322922670494080e-01 6.243290336085414172e-01
-4.745551992801801400e-01 -6.452217546791617631e-01 6.084556646826592141e-01 -4.712257186315680912e-01 -6.271512198370303715e-01 6.201835773035974109e-01
-4.476955742202278210e-01 -6.527507293539853706e-01 6.252697763507316653e-01 -4.740454463474131352e-01 -6.502538203881471635e-01 5.936757396659401165e-01
-4.398064404890575374e-01 -6.830490931673667276e-01 5.948804395501962050e-01 -4.070389434204189638e-01 -6.879883595022334708e-01 6.008255285260559742e-01
-4.213322335194508717e-01 -7.071285434555262261e-01 5.705579110630494277e-01 -4.070389434204189638e-01 -6.879883595022334708e-01 6.008255285260559742e-01
-3.846321034656812188e-01 -6.601009669915557376e-01 5.765602775927508583e-01 -4.070389434204189638e-01 -6.879883595022334708e-01 6.008255285260559742e-01
-3.100776972053316816e-01 -6.600971449117100098e-01 7.097403708360100483e-01 -3.308157523056606264e-01 -6.590972765688115631e-01 6.753900488206908692e-01
-3.510916565334707418e-01 -6.648810755292308139e-01 6.626434906651351708e-01 -3.308157523056606264e-01 -6.590972765688115631e-01 6.753900488206908692e-01
-4.177043474449411709e-01 -6.211007247583929525e-01 6.606188307078639799e-01 -4.177506247240821979e-01 -6.397848637813452477e-01 6.451044439615375437e-01
-4.224862863406850799e-01 -6.306692814662200330e-01 6.049980448176834891e-01 -4.072648846065856088e-01 -6.533717323748425843e-01 6.381541295799014746e-01
-3.592793814703328925e-01 -6.495092199681370415e-01 6.278227131484408474e-01 -4.072648846065856088e-01 -6.533717323748425843e-01 6.381541295799014746e-01
-3.711004147697352651e-01 -6.749757331688492901e-01 6.187151819075684678e-01 -3.877354341770243851e-01 -7.106767046028821255e-01 5.870262810286624999e-01
-3.929231362344969836e-01 -6.836350147878512695e-01 5.739228349431516607e-01 -3.877354341770243851e-01 -7.106767046028821255e-01 5.870262810286624999e-01
-3.268122804915709056e-01 -7.017363901828308492e-01 6.645867060272617755e-01 -3.166697800005370822e-01 -6.769663886141442655e-01 6.644070733527264183e-01
-3.470017593565272729e-01 -7.052517897614963838e-01 6.409221553673974947e-01 -3.160289714321072863e-01 -7.023968035330832027e-01 6.377808554684527564e-01
-2.580297831276280318e-01 -7.017952664376388983e-01 6.473798176110456826e-01 -2.281526362511105410e-01 -7.200383044459220949e-01 6.553557924534658685e-01
-2.762948525556226942e-01 -6.995059904868359268e-01 6.738721166205283719e-01 -2.622647021574470161e-01 -6.960958369927405798e-01 6.683321118453320331e-01
-3.150777289557042948e-01 -7.043746071007548348e-01 6.443056346406804691e-01 -2.807466176586290163e-01 -7.209275992904387032e-01 6.335966644913497703e-01
-1.693706154130174002e-01 -6.384597681106514155e-01 7.110711356959302787e-01 -1.430484149066857114e-01 -6.602314176506071108e-01 7.373137908243372340e-01
-2.417089706957603612e-01 -6.529223794727042618e-01 6.969671216987682882e-01 -2.190409838767420347e-01 -6.532850890664639865e-01 7.247341856058200360e-01
-2.073418695914716336e-01 -6.805505383937587860e-01 6.821576268846549773e-01 -2.190409838767420347e-01 -6.532850890664639865e-01 7.247341856058200360e-01
-2.033562878272042185e-01 -6.956932840012407526e-01 7.072893009951138898e-01 -1.836181705043708479e-01 -6.880900352997249003e-01 7.020088822670630391e-01
-1.992568272526720474e-01 -6.750462300414196148e-01 6.704676599180582341e-01 -1.887552359233389265e-01 -6.749386000607952019e-01 7.133227509756703277e-01
-1.761386542421225221e-01 -6.763941211543926801e-01 7.213746343280615925e-01 -1.564770511441671563e-01 -7.068451344729015373e-01 6.898441043722931543e-01
-1.415873353293026493e-01 -6.533441725300858094e-01 7.431756039699002336e-01 9.223416606595956635e-01 3.568440446830459245e-01 1.481492112228204316e-01
-1.130873378214590080e-01 -7.006338503956145436e-01 7.196828339043850331e-01 9.273593864380683671e-01 3.267930474029883126e-01 1.822385045874708454e-01
-9.377902275666323562e-02 -6.711570018400323523e-01 7.192157898059819976e-01 9.227247157516645926e-01 3.375974064011881826e-01 1.860298097945617402e-01
-1.000423291930651326e-01 -6.066371607517206943e-01 6.928878132055154015e-01 9.227247157516645926e-01 3.375974064011881826e-01 1.860298097945617402e-01
-1.421094579528282553e-01 -6.245812912568946551e-01 7.283837355334826791e-01 9.119621329932622311e-01 3.537902646663630968e-01 2.077438726260882607e-01
-1.318900235026499723e-01 -5.720314690254343359e-01 6.662757610858375257e-01 8.974360623835183626e-01 3.169451834671013213e-01 3.068456690432036504e-01
-1.318291511241441727e-01 -5.680727287945228632e-01 6.590037992057453664e-01 8.781689879978488156e-01 2.719794487880979328e-01 3.935052832628255781e-01
-1.126437234718714042e-01 -6.578052975496994081e-01 6.327678758460886232e-01 9.068721504287127200e-01 3.418539167720147653e-01 2.464118551621144459e-01
-1.205748047727658034e-01 -6.496458045282241800e-01 6.561959186776822328e-01 9.221940375756584318e-01 3.026052165453609333e-01 2.408074749243477031e-01
-1.011244969578365821e-01 -5.814514259657130868e-01 5.883467732540936801e-01 8.916820973679419060e-01 2.046752941045447693e-01 4.037462832234198773e-01
-1.162399342490432752e-01 -6.390548552795128900e-01 6.499912856600591482e-01 9.125454481662617079e-01 2.562082601339275567e-01 3.187759910504275318e-01
1.289782923101402412e-01 -7.217176435365660891e-01 6.888906617245370567e-01 1.265439067163861842e-01 -7.354621347039150825e-01 6.656441151919806343e-01
1.523421451644336178e-01 -7.120639949189642159e-01 6.931665349805429255e-01 1.631964071413804784e-01 -6.929093523391454124e-01 7.023130086628687208e-01
8.480671589978357183e-02 -6.929221438237219699e-01 7.028406618798785921e-01 8.686983458734662267e-02 -7.079674653710540388e-01 7.008820869553255006e-01
1.324205211858162090e-01 -6.775828884198633606e-01 6.656675264583346019e-01 -9.276353845761410311e-01 -1.824503165253264780e-01 -3.258902810488267243e-01
1.510393454179392303e-01 -6.628975404512226222e-01 5.732753867255634406e-01 -9.084919143692763432e-01 -2.435719371986572734e-01 -3.395808488930741054e-01
1.255933905439708953e-01 -6.781795771453391630e-01 6.432980080603364348e-01 -9.114546181754675791e-01 -2.087190716281444869e-01 -3.545233816623356571e-01
1.565384402127530106e-01 -6.448153343793473491e-01 5.424837366603799671e-01 -8.904798703931873227e-01 -3.415186878756573674e-01 -3.006835317343161118e-01
1.307598801052030357e-01 -6.817092599076186588e-01 6.792966014725621005e-01 -9.044255966971318506e-01 -2.527636913990663481e-01 -3.436929681406857839e-01
1.145996003670631536e-01 -6.724932600020446793e-01 6.365444456985720478e-01 -9.221607139010987719e-01 -2.441655438813786494e-01 -3.000046748277874764e-01
1.138325711042376537e-01 -5.682417588959287613e-01 5.527379474600383480e-01 -8.634518600882682415e-01 -4.497747951124028698e-01 -2.283714495984678905e-01
1.241225008017204923e-01 -6.507592611345961453e-01 5.996098956044245698e-01 -9.208423345562591900e-01 -2.685588727416621246e-01 -2.827110304899793647e-01
1.149954566648077048e-01 -6.079928922934090263e-01 5.857845636172130943e-01 -9.091583915594025900e-01 -3.293503742805524714e-01 -2.548712420387599931e-01
2.372879547421440638e-01 -7.071069257398978625e-01 6.567985156898715760e-01 2.294462734327084030e-01 -7.377625966913969879e-01 6.348706628369354954e-01
2.683847191892815287e-01 -7.189660610794077478e-01 6.255716475236284824e-01 2.294462734327084030e-01 -7.377625966913969879e-01 6.348706628369354954e-01
1.902690717530912956e-01 -6.704908381759548952e-01 7.013075612810204529e-01 1.949131462295574935e-01 -7.089100517614115304e-01 6.778313978700956088e-01
1.665815471092260414e-01 -7.264188989402600161e-01 6.702776477360398166e-01 1.949131462295574935e-01 -7.089100517614115304e-01 6.778313978700956088e-01
1.655033750661842051e-01 -7.239880125802709010e-01 6.482360771128758969e-01 1.972060945170608648e-01 -7.207372325240904987e-01 6.645657213089186666e-01
3.191892337618846831e-01 -6.851186087199047092e-01 6.843504912258211448e-01 3.313651863754003002e-01 -6.435040730201133652e-01 6.899997255542358321e-01
2.376809112673979596e-01 -6.694062195814379779e-01 6.779622893192528421e-01 2.504970234069173185e-01 -6.630500583425937844e-01 7.054189261681015344e-01
2.318449607464297402e-01 -6.725957979335633885e-01 6.850283189127548411e-01 2.504970234069173185e-01 -6.630500583425937844e-01 7.054189261681015344e-01
2.939229556638912610e-01 -7.137531950768379874e-01 6.770622271121670144e-01 2.919148550974571266e-01 -6.863669042505802231e-01 6.660977331615125507e-01
3.129399396560365587e-01 -6.524594759681520140e-01 6.892058450852581730e-01 2.914512255773145100e-01 -6.831517478920521302e-01 6.695967984253774485e-01
4.502005483839611744e-01 -4.909616744549562539e-01 7.002551429759614754e-01 4.471929506755299433e-01 -5.626117964574846031e-01 6.953318857588762780e-01
4.239917657188954081e-01 -5.804398387941783755e-01 6.946035235468114299e-01 4.159308790635901087e-01 -6.062149743033509175e-01 6.778679139565294554e-01
4.736254371099171689e-01 -6.431470484919689090e-01 6.345666472338223896e-01 4.489720551489422840e-01 -6.314587412272328892e-01 6.322056246373117805e-01
4.853809945877579080e-01 -6.098215490913275749e-01 6.592523009115444088e-01 4.489720551489422840e-01 -6.314587412272328892e-01 6.322056246373117805e-01
4.677487234270359395e-01 -6.114208508843598233e-01 6.587481804765030757e-01 4.737274680055587606e-01 -5.909449858338613470e-01 6.529673114137184431e-01
4.036768928247908006e-01 -6.217297823876446472e-01 6.618324072624134358e-01 4.168388809823811991e-01 -6.095953184288971372e-01 6.742691562357926438e-01
4.004691553659114334e-01 -6.304070729674394746e-01 6.683480657395088897e-01 4.168388809823811991e-01 -6.095953184288971372e-01 6.742691562357926438e-01
4.026881035395014075e-01 -6.739143923281593063e-01 6.260335736572055776e-01 4.084868971179194674e-01 -6.742383356856475052e-01 6.152569557305487269e-01
3.885138268430859965e-01 -6.782223762416462742e-01 6.446960336808678083e-01 3.710022459952714846e-01 -6.592110318666455360e-01 6.540628019783546465e-01
3.620977158063324319e-01 -6.988956077200642047e-01 6.121975983282880174e-01 3.401739174485263195e-01 -6.994886877845112316e-01 6.284880918117905502e-01
3.564042648793215862e-01 -6.799703477420334652e-01 6.430768891777166596e-01 3.716636376952495713e-01 -6.632004850153445652e-01 6.496393284666083234e-01
4.455737482976181996e-01 -6.598957582067931371e-01 6.061086976137614046e-01 4.081598525907859099e-01 -6.885008040020359488e-01 5.994765863831696961e-01
4.064028481428269002e-01 -7.238171537607048789e-01 5.870063736821481415e-01 4.081598525907859099e-01 -6.885008040020359488e-01 5.994765863831696961e-01
3.026449975982275498e-01 -7.053462078061898399e-01 5.972277111521991921e-01 3.462378919768969721e-01 -7.143831378228910900e-01 6.080921431442072311e-01
3.495309895311586867e-01 -6.785960819013799883e-01 6.041716619138070010e-01 3.462378919768969721e-01 -7.143831378228910900e-01 6.080921431442072311e-01
5.087424308770760462e-01 -6.016473763078710180e-01 5.987017508274100619e-01 8.951306780310746003e-01 4.040140015924028605e-01 1.884509372885225242e-01
-5.141765968439301338e-01 -5.576975791915654845e-01 6.314355754018843303e-01 -5.215953214676924965e-01 -5.418965625870303393e-01 6.590041244782731678e-01
-4.787363452634211813e-01 -5.471280196858091527e-01 6.812176676439591905e-01 -5.215953214676924965e-01 -5.418965625870303393e-01 6.590041244782731678e-01
-4.899187889162487930e-01 -5.301359055842684853e-01 6.784606239616142176e-01 -5.215953214676924965e-01 -5.418965625870303393e-01 6.590041244782731678e-01
-5.462445983053331178e-01 -5.087703511974260850e-01 6.423423424606617971e-01 -8.934090160687291338e-01 -2.081779184908059688e-01 -3.980983349122935722e-01
-5.204670516756472187e-01 -5.444627348867894234e-01 5.646670491663711156e-01 -8.934090160687291338e-01 -2.081779184908059688e-01 -3.980983349122935722e-01
-5.232231396611579655e-01 -5.440033337545177039e-01 6.067606831502065923e-01 -8.934090160687291338e-01 -2.081779184908059688e-01 -3.980983349122935722e-01
-5.300771713183255462e-01 -5.234496413923556135e-01 5.822913842562380538e-01 -8.920041125594097009e-01 -2.752154668460746190e-01 -3.585876601136702146e-01
-5.313323101620170963e-01 -4.317386909834923236e-01 5.458158876946002103e-01 -8.785767002890173538e-01 -3.110060355711000146e-01 -3.624613462806890452e-01
-5.623437916752608290e-01 -4.663578442285679082e-01 6.339188836613094402e-01 -8.785767002890173538e-01 -3.110060355711000146e-01 -3.624613462806890452e-01
-4.630542172781957344e-01 -5.769403275893940641e-01 6.524908454611914044e-01 -4.845284229897413586e-01 -5.773733939450522712e-01 6.571698192091948165e-01
-4.626602783699881316e-01 -5.494966550153154161e-01 6.667212182330023440e-01 -4.845284229897413586e-01 -5.773733939450522712e-01 6.571698192091948165e-01
-4.801862316569160405e-01 -5.833485084794893805e-01 6.618657277952905149e-01 -4.845284229897413586e-01 -5.773733939450522712e-01 6.571698192091948165e-01
-2.086454920668002477e-01 -3.700174288069549844e-01 6.626798399713828003e-01 8.412266960219940692e-01 2.912769819631044754e-01 4.555165920999860174e-01
-2.567503590633157251e-01 -3.868875197715809788e-01 7.323480998638185469e-01 8.737203026526777494e-01 3.583245863217421889e-01 3.289624956888937968e-01
-2.270110370029645164e-01 -4.334182834987445609e-01 6.690743577984522572e-01 8.806851018582749768e-01 3.577340991561101524e-01 3.105158058229020579e-01
-2.340365473678918118e-01 -4.147319242237264003e-01 7.436102848272968524e-01 8.806851018582749768e-01 3.577340991561101524e-01 3.105158058229020579e-01
-1.905556970808346684e-01 -3.975899923181906992e-01 6.155435196650037577e-01 8.536114227831740342e-01 2.559690979140387679e-01 4.536820029570917123e-01
-1.895675827869653107e-01 -4.701320414170766515e-01 7.166929184311721102e-01 9.090329758509931857e-01 3.039779892996573030e-01 2.850551364856017122e-01
-1.655248736036050161e-01 -4.755857505114874373e-01 7.174181510397557027e-01 8.960330127144465751e-01 2.793147922326431054e-01 3.451203948854771331e-01
-1.826352691349208690e-01 -4.543617890686341143e-01 6.796828312418793372e-01 8.634235842465686206e-01 3.315093889372711655e-01 3.802646962488703264e-01
-1.657625143193820483e-01 -4.171911272331803588e-01 6.129008874560522013e-01 7.819560343696314586e-01 2.349525075785346140e-01 5.773578435385444685e-01
-1.295997172931503405e-01 -4.963612768924986485e-01 6.495940413839789151e-01 8.805294529876478427e-01 2.328781514810442377e-01 4.128385265258628922e-01
-1.448698737369869816e-01 -4.694496143436550084e-01 6.008737825316009529e-01 7.649759953328196804e-01 1.594588924860849966e-01 6.240068815098700483e-01
-1.924221336331643217e-01 -4.733536235721733654e-01 6.243615590823872186e-01 8.546659941901338930e-01 2.114692788512295141e-01 4.741590265692839368e-01
-1.690418024976595435e-01 -4.189945495880091353e-01 5.652372213285641322e-01 7.936551035984212854e-01 1.209727588013835287e-01 5.962190605475149452e-01
-1.376785506184630137e-01 -4.568135721139970351e-01 5.521756859623295766e-01 7.127158993603498471e-01 -2.359488645055379114e-02 7.010558666271561323e-01
-1.191041823310464709e-01 -4.404990950714853248e-01 5.998311889595321356e-01 7.811324630638681876e-01 4.029124019276052876e-02 6.230639542707505640e-01
-1.685821043823861054e-01 -5.000691410764154243e-01 6.782605625523697723e-01 9.013497778566977869e-01 2.613878368904724581e-01 3.453186596223860594e-01
-1.515140802861814351e-01 -5.198741044885738516e-01 6.352798753615681582e-01 8.582930062291352913e-01 2.601503026454584644e-01 4.423289901098841348e-01
-1.330641421362110111e-01 -4.945563070092986457e-01 6.041863118612773587e-01 8.512109379448190571e-01 1.470496023532233687e-01 5.038018991338365504e-01
2.592649905501003341e-02 -5.199556915116713141e-01 6.701983279834119456e-01 -8.945659321484346060e-01 -4.128292770060261740e-01 -1.712418788908953438e-01
7.212393937256866838e-02 -4.549805743914446254e-01 6.290437822774460619e-01 -8.768103884673247306e-01 -4.747783187709877506e-01 -7.608607428940832029e-02
3.624653061434379014e-02 -5.058244369129959450e-01 7.351525010449161401e-01 -9.179406440289450408e-01 -3.291093750368385140e-01 -2.215219928191945742e-01
2.967156751869007986e-02 -4.734619556216083658e-01 6.915016386693597639e-01 -8.960489367161715846e-01 -4.105249358889966338e-01 -1.690135498211708664e-01
