5.638727496534078343e-01 -5.514601929482554343e-01 -2.976543749990343546e-01 1.000000000000000000e+00 0.000000000000000000e+00 0.000000000000000000e+00
5.645943015219823113e-01 -5.053238481838160379e-01 -2.589957673617241385e-01 1.000000000000000000e+00 0.000000000000000000e+00 0.000000000000000000e+00
5.641361855484374743e-01 -5.624403343196436866e-01 -3.334432115710260769e-01 1.000000000000000000e+00 0.000000000000000000e+00 0.000000000000000000e+00
5.577762962740803188e-01 -4.577995955111653359e-01 -2.301265983226184197e-01 1.000000000000000000e+00 0.000000000000000000e+00 0.000000000000000000e+00
5.467960050966653718e-01 -4.265584866732420877e-01 -2.143269952678293899e-01 1.000000000000000000e+00 0.000000000000000000e+00 0.000000000000000000e+00
5.469821327969590641e-01 -4.655581383382121907e-01 -2.745680314859091364e-01 1.000000000000000000e+00 0.000000000000000000e+00 0.000000000000000000e+00
5.670807810515844372e-01 -5.503831199176485445e-01 -4.255131674930376917e-01 1.000000000000000000e+00 0.000000000000000000e+00 0.000000000000000000e+00
5.520699286486103752e-01 -4.306620432027027934e-01 -3.465392861357369791e-01 1.000000000000000000e+00 0.000000000000000000e+00 0.000000000000000000e+00
5.701195900891090629e-01 -4.628041960620494777e-01 -3.674406518562634005e-01 1.000000000000000000e+00 0.000000000000000000e+00 0.000000000000000000e+00
5.829468273941796896e-01 -4.567645237910649136e-01 -3.656885153203055516e-01 1.000000000000000000e+00 0.000000000000000000e+00 0.000000000000000000e+00
5.567610909942265485e-01 -5.403552604578393259e-01 -3.631718051370283473e-01 1.000000000000000000e+00 0.000000000000000000e+00 0.000000000000000000e+00
5.709748107267004213e-01 -5.183846156651086279e-01 -3.491656626856963208e-01 1.000000000000000000e+00 0.000000000000000000e+00 0.000000000000000000e+00
5.478091554361471660e-01 -2.971944738600320601e-01 -1.501493844950574641e-01 1.000000000000000000e+00 0.000000000000000000e+00 0.000000000000000000e+00
5.659818433320640274e-01 -2.927063033243472168e-01 -1.750227236096443539e-01 1.000000000000000000e+00 0.000000000000000000e+00 0.000000000000000000e+00
5.513293274974825353e-01 -3.923712573088237177e-01 -2.416311287394843077e-01 1.000000000000000000e+00 0.000000000000000000e+00 0.000000000000000000e+00
5.607125130751992037e-01 -2.837022386868721102e-01 -1.885597045174063346e-01 1.000000000000000000e+00 0.000000000000000000e+00 0.000000000000000000e+00
5.606716433061694760e-01 -3.460873622475051925e-01 -2.146591110337119912e-01 1.000000000000000000e+00 0.000000000000000000e+00 0.000000000000000000e+00
5.582886189010882738e-01 -1.690396253172699037e-02 -5.605539719422758527e-01 1.000000000000000000e+00 0.000000000000000000e+00 0.000000000000000000e+00
5.534262059292031077e-01 3.992585328744535818e-03 -5.404489360753578220e-01 1.000000000000000000e+00 0.000000000000000000e+00 0.000000000000000000e+00
5.554639790706894509e-01 3.706961910911805297e-02 -4.136720428376716718e-01 1.000000000000000000e+00 0.000000000000000000e+00 0.000000000000000000e+00
5.433818382670748681e-01 3.600203704521547088e-02 -4.691405225640946641e-01 1.000000000000000000e+00 0.000000000000000000e+00 0.000000000000000000e+00
5.587769015987407162e-01 -4.217246257685384331e-02 -5.661883201649450248e-01 1.000000000000000000e+00 0.000000000000000000e+00 0.000000000000000000e+00
5.622381961987243937e-01 1.023496873817943131e-01 -3.173238807565877395e-01 1.000000000000000000e+00 0.000000000000000000e+00 0.000000000000000000e+00
5.668284056169490270e-01 7.013349664120421822e-02 -3.201869334382946297e-01 1.000000000000000000e+00 0.000000000000000000e+00 0.000000000000000000e+00
5.475863629651214204e-01 6.177582597713762724e-02 -2.858005442440444965e-01 1.000000000000000000e+00 0.000000000000000000e+00 0.000000000000000000e+00
5.663644937920243594e-01 7.273490996445323986e-02 -4.047687090860190851e-01 1.000000000000000000e+00 0.000000000000000000e+00 0.000000000000000000e+00
5.668376724030274039e-01 6.395778525428950922e-02 -4.068504703842930614e-01 1.000000000000000000e+00 0.000000000000000000e+00 0.000000000000000000e+00
5.669412421759851828e-01 4.301021058183920193e-02 -4.350211366506899213e-01 1.000000000000000000e+00 0.000000000000000000e+00 0.000000000000000000e+00
5.767018924678668501e-01 -1.043622211148505230e-01 -5.630615920038338773e-01 1.000000000000000000e+00 0.000000000000000000e+00 0.000000000000000000e+00
5.713548714064914380e-01 -9.242536106362035653e-02 -5.199557063083778408e-01 1.000000000000000000e+00 0.000000000000000000e+00 0.000000000000000000e+00
5.315664082115089117e-01 -3.653524900752110754e-02 -5.231659525681532363e-01 1.000000000000000000e+00 0.000000000000000000e+00 0.000000000000000000e+00
5.716287761031833003e-01 -7.029419026857135211e-02 -5.628767603403094233e-01 1.000000000000000000e+00 0.000000000000000000e+00 0.000000000000000000e+00
5.656138110972146471e-01 -9.060738768696530165e-02 -4.529296675744702849e-01 1.000000000000000000e+00 0.000000000000000000e+00 0.000000000000000000e+00
5.591093271415451538e-01 -7.336368463599320100e-02 -4.218744335840282078e-01 1.000000000000000000e+00 0.000000000000000000e+00 0.000000000000000000e+00
5.494634074388020650e-01 2.833100333314356178e-01 5.147423876515710636e-03 1.000000000000000000e+00 0.000000000000000000e+00 0.000000000000000000e+00
5.673967839468753160e-01 2.466078943857135386e-01 -6.543643808041191279e-02 1.000000000000000000e+00 0.000000000000000000e+00 0.000000000000000000e+00
5.576741449993449784e-01 2.453754651681002985e-01 -6.295094586396839109e-02 1.000000000000000000e+00 0.000000000000000000e+00 0.000000000000000000e+00
5.406619765935043453e-01 1.947673297757393784e-01 -1.547304548350279807e-02 1.000000000000000000e+00 0.000000000000000000e+00 0.000000000000000000e+00
5.635636126281848846e-01 2.080295395058177066e-01 -1.134923719610119036e-01 1.000000000000000000e+00 0.000000000000000000e+00 0.000000000000000000e+00
5.615108573335975128e-01 1.671910228678085697e-01 -1.201059662951797363e-01 1.000000000000000000e+00 0.000000000000000000e+00 0.000000000000000000e+00
5.555396474985568878e-01 3.995715413125512649e-02 -1.631168689814755102e-01 1.000000000000000000e+00 0.000000000000000000e+00 0.000000000000000000e+00
5.498515197853997005e-01 5.501148817730293350e-02 -1.056634327411829222e-01 1.000000000000000000e+00 0.000000000000000000e+00 0.000000000000000000e+00
5.653978599838807018e-01 6.598641873792078505e-02 -2.102017333358471851e-01 1.000000000000000000e+00 0.000000000000000000e+00 0.000000000000000000e+00
5.596582683278834569e-01 3.717772718797818232e-02 -1.832106066399733502e-01 1.000000000000000000e+00 0.000000000000000000e+00 0.000000000000000000e+00
5.640748902260093178e-01 1.161123490064176478e-01 -9.359755453732584995e-02 1.000000000000000000e+00 0.000000000000000000e+00 0.000000000000000000e+00
5.653713570935916533e-01 1.301475072821507151e-01 -2.564384819131214077e-01 1.000000000000000000e+00 0.000000000000000000e+00 0.000000000000000000e+00
5.508769488483709065e-01 1.321970848589338610e-01 -2.715023640541060490e-01 1.000000000000000000e+00 0.000000000000000000e+00 0.000000000000000000e+00
5.501624394833934950e-01 1.813028641845766398e-01 -1.774107951441742381e-01 1.000000000000000000e+00 0.000000000000000000e+00 0.000000000000000000e+00
5.571175139081895322e-01 7.635606102717470978e-02 -2.282395770775564325e-01 1.000000000000000000e+00 0.000000000000000000e+00 0.000000000000000000e+00
5.673856363845906081e-01 -2.206457091060090581e-01 -5.487148370051730950e-01 1.000000000000000000e+00 0.000000000000000000e+00 0.000000000000000000e+00
5.708596779647723274e-01 -2.097316302834418278e-01 -5.360463674679109003e-01 1.000000000000000000e+00 0.000000000000000000e+00 0.000000000000000000e+00
5.687563585638506503e-01 -2.231432066189202312e-01 -4.396157385518718042e-01 1.000000000000000000e+00 0.000000000000000000e+00 0.000000000000000000e+00
5.623517919834708501e-01 -2.035891660683822324e-01 -4.599638185817371827e-01 1.000000000000000000e+00 0.000000000000000000e+00 0.000000000000000000e+00
5.541465562748334461e-01 -1.243895868835923624e-01 -5.418391905728645597e-01 1.000000000000000000e+00 0.000000000000000000e+00 0.000000000000000000e+00
5.731104854879922605e-01 -8.841388528609268882e-02 -4.564678423622401948e-01 1.000000000000000000e+00 0.000000000000000000e+00 0.000000000000000000e+00
5.432873155460512526e-01 -1.747445310179086830e-01 -5.509707079925652007e-01 1.000000000000000000e+00 0.000000000000000000e+00 0.000000000000000000e+00
5.576674052656680480e-01 -1.861964393136972817e-01 -5.291974355413853193e-01 1.000000000000000000e+00 0.000000000000000000e+00 0.000000000000000000e+00
5.562810082786042720e-01 -1.549430157620294846e-01 -3.091579025865415220e-01 1.000000000000000000e+00 0.000000000000000000e+00 0.000000000000000000e+00
5.407801956242135333e-01 -1.640283388893457595e-01 -2.955009999530456843e-01 1.000000000000000000e+00 0.000000000000000000e+00 0.000000000000000000e+00
5.631683821211853624e-01 -1.618548475906531892e-01 -4.099597767391945924e-01 1.000000000000000000e+00 0.000000000000000000e+00 0.000000000000000000e+00
5.602097368175491532e-01 -9.830020348382853546e-02 -3.320247860088087477e-01 1.000000000000000000e+00 0.000000000000000000e+00 0.000000000000000000e+00
5.804896483574903954e-01 -5.446468905406417482e-01 -2.292469793072133416e-02 1.000000000000000000e+00 0.000000000000000000e+00 0.000000000000000000e+00
5.583689775633869923e-01 -5.554778140642772088e-01 -7.016433395487819968e-02 1.000000000000000000e+00 0.000000000000000000e+00 0.000000000000000000e+00
5.510411562000243624e-01 -4.380997297357612785e-01 5.505715778624895029e-03 1.000000000000000000e+00 0.000000000000000000e+00 0.000000000000000000e+00
5.519273516030638316e-01 -5.380538911833411264e-01 -1.259585876594800369e-01 1.000000000000000000e+00 0.000000000000000000e+00 0.000000000000000000e+00
5.477585430465264915e-01 -4.469260821329635314e-01 -8.366312044054299846e-02 1.000000000000000000e+00 0.000000000000000000e+00 0.000000000000000000e+00
5.653458192673593841e-01 -5.719490314334159109e-01 -8.956512561689317087e-02 1.000000000000000000e+00 0.000000000000000000e+00 0.000000000000000000e+00
5.639659460248676037e-01 -5.233920065962532897e-01 -6.626793512867272529e-02 1.000000000000000000e+00 0.000000000000000000e+00 0.000000000000000000e+00
5.658591374421608755e-01 -5.004041144184198098e-01 -2.913838296828284713e-02 1.000000000000000000e+00 0.000000000000000000e+00 0.000000000000000000e+00
5.589271175238623712e-01 -3.749097436626902535e-01 6.740171008927225982e-02 1.000000000000000000e+00 0.000000000000000000e+00 0.000000000000000000e+00
5.790704935928303598e-01 -3.316553333213829169e-01 1.193844561925624416e-02 1.000000000000000000e+00 0.000000000000000000e+00 0.000000000000000000e+00
5.613015664705514052e-01 -5.194230543576366932e-01 -2.770980531738886365e-01 1.000000000000000000e+00 0.000000000000000000e+00 0.000000000000000000e+00
5.371304410704896837e-01 -5.660378495929655474e-01 -2.716012103040936210e-01 1.000000000000000000e+00 0.000000000000000000e+00 0.000000000000000000e+00
5.423560521111614463e-01 -4.678638612477958314e-01 -2.496268566108797160e-01 1.000000000000000000e+00 0.000000000000000000e+00 0.000000000000000000e+00
5.624748133343012713e-01 -5.565867820139031030e-01 -2.471784823013703780e-01 1.000000000000000000e+00 0.000000000000000000e+00 0.000000000000000000e+00
5.564531435273402105e-01 -5.539882857993255749e-01 -2.341012255793829544e-01 1.000000000000000000e+00 0.000000000000000000e+00 0.000000000000000000e+00
5.528842697384028781e-01 -5.046897442706171910e-01 -1.948946853594039352e-01 1.000000000000000000e+00 0.000000000000000000e+00 0.000000000000000000e+00
5.496537510599037724e-01 -3.146682322153908640e-01 -1.271473038077459705e-01 1.000000000000000000e+00 0.000000000000000000e+00 0.000000000000000000e+00
5.428310437018475376e-01 -3.281587172506875705e-01 -1.839734242559786237e-01 1.000000000000000000e+00 0.000000000000000000e+00 0.000000000000000000e+00
5.710134799738412203e-01 -4.022155184159938446e-01 -1.907069598079184358e-01 1.000000000000000000e+00 0.000000000000000000e+00 0.000000000000000000e+00
5.697031935210804532e-01 -4.233193919706001451e-01 -1.840951668443123468e-01 1.000000000000000000e+00 0.000000000000000000e+00 0.000000000000000000e+00
5.540404098531551691e-01 -5.312755618587817752e-01 -1.559317212624337645e-01 1.000000000000000000e+00 0.000000000000000000e+00 0.000000000000000000e+00
5.637483922222413790e-01 -5.323425440102251827e-01 -1.967483302632904163e-01 1.000000000000000000e+00 0.000000000000000000e+00 0.000000000000000000e+00
5.443191692648270408e-01 -5.819899430928069384e-01 -1.860288873864007764e-01 1.000000000000000000e+00 0.000000000000000000e+00 0.000000000000000000e+00
5.564705318061752282e-01 -4.519959920182470281e-01 -1.254831410073159181e-01 1.000000000000000000e+00 0.000000000000000000e+00 0.000000000000000000e+00
5.475619208585439379e-01 -4.196666446784433346e-01 -9.618293479018058534e-02 1.000000000000000000e+00 0.000000000000000000e+00 0.000000000000000000e+00
5.612492605174635996e-01 -1.940305257625438151e-02 2.409353139309359515e-01 1.000000000000000000e+00 0.000000000000000000e+00 0.000000000000000000e+00
5.650562342438174568e-01 -1.338192121243381993e-01 1.856629139107214554e-01 1.000000000000000000e+00 0.000000000000000000e+00 0.000000000000000000e+00
5.493128406377706385e-01 -5.282278417008877403e-02 1.660673520295747330e-01 1.000000000000000000e+00 0.000000000000000000e+00 0.000000000000000000e+00
5.531552731119805388e-01 -2.900332434073568666e-01 1.235827407806365935e-01 1.000000000000000000e+00 0.000000000000000000e+00 0.000000000000000000e+00
5.792336121793627557e-01 -2.485715663470296766e-01 1.468969423953354891e-01 1.000000000000000000e+00 0.000000000000000000e+00 0.000000000000000000e+00
5.575485672586101282e-01 -2.147224374272985736e-01 1.574434128449677395e-01 1.000000000000000000e+00 0.000000000000000000e+00 0.000000000000000000e+00
5.546016714463143371e-01 -1.654504055776891414e-01 1.768989796418488358e-01 1.000000000000000000e+00 0.000000000000000000e+00 0.000000000000000000e+00
5.474917290769274469e-01 -6.881392002406655495e-02 1.304051622542376776e-01 1.000000000000000000e+00 0.000000000000000000e+00 0.000000000000000000e+00
5.762805273005444651e-01 -7.550226707873429303e-03 1.914847177857618155e-01 1.000000000000000000e+00 0.000000000000000000e+00 0.000000000000000000e+00
5.559123350209831393e-01 6.983814592121617010e-03 1.856832410843059222e-01 1.000000000000000000e+00 0.000000000000000000e+00 0.000000000000000000e+00
5.398204225544820378e-01 -1.019511452079143732e-01 5.666121805084410601e-02 1.000000000000000000e+00 0.000000000000000000e+00 0.000000000000000000e+00
5.499734912285015875e-01 -1.373161520917538514e-01 9.698302920503946989e-02 1.000000000000000000e+00 0.000000000000000000e+00 0.000000000000000000e+00
5.567567132844829514e-01 -5.534202722702847854e-01 4.907287893422330738e-01 1.000000000000000000e+00 0.000000000000000000e+00 0.000000000000000000e+00
5.510571681263184418e-01 -5.205341817065985976e-01 4.205813875803504631e-01 1.000000000000000000e+00 0.000000000000000000e+00 0.000000000000000000e+00
5.450636024525911116e-01 -4.239909758821823194e-01 4.763272070583842166e-01 1.000000000000000000e+00 0.000000000000000000e+00 0.000000000000000000e+00
5.703844261378130387e-01 -5.177478696306212491e-01 5.045752218871065731e-01 1.000000000000000000e+00 0.000000000000000000e+00 0.000000000000000000e+00
5.577479921532166873e-01 -5.481396507186538924e-01 2.706305636837435524e-01 1.000000000000000000e+00 0.000000000000000000e+00 0.000000000000000000e+00
5.711015366225312695e-01 -5.388729997068330002e-01 2.936065720366083376e-01 1.000000000000000000e+00 0.000000000000000000e+00 0.000000000000000000e+00
5.573231738372425026e-01 -4.704014812273684676e-01 3.354169198213681202e-01 1.000000000000000000e+00 0.000000000000000000e+00 0.000000000000000000e+00
5.459778028469788325e-01 -5.036258779129881846e-01 3.521306794158262088e-01 1.000000000000000000e+00 0.000000000000000000e+00 0.000000000000000000e+00
5.657237942849724366e-01 -2.857344038428137334e-01 4.312162183166478036e-01 1.000000000000000000e+00 0.000000000000000000e+00 0.000000000000000000e+00
5.620377619703376126e-01 -3.164664662265025408e-01 3.735076383776942399e-01 1.000000000000000000e+00 0.000000000000000000e+00 0.000000000000000000e+00
5.547314965519368757e-01 -3.616170932887454725e-01 4.590476859617344529e-01 1.000000000000000000e+00 0.000000000000000000e+00 0.000000000000000000e+00
5.658268028059502130e-01 -3.336490155149760550e-01 4.825858838620609159e-01 1.000000000000000000e+00 0.000000000000000000e+00 0.000000000000000000e+00
5.629212814316142399e-01 -3.484069841442060667e-01 4.621761567101485557e-01 1.000000000000000000e+00 0.000000000000000000e+00 0.000000000000000000e+00
5.661124187879464920e-01 -3.919460930594689252e-01 3.313630680610940571e-01 1.000000000000000000e+00 0.000000000000000000e+00 0.000000000000000000e+00
5.539906500967560765e-01 -4.214235014785391864e-01 3.650284498650049891e-01 1.000000000000000000e+00 0.000000000000000000e+00 0.000000000000000000e+00
5.610687129437248455e-01 -5.412653594885500352e-01 4.068298409676647243e-01 1.000000000000000000e+00 0.000000000000000000e+00 0.000000000000000000e+00
5.712967648874051063e-01 -5.285834620672432704e-01 4.306355676027031620e-01 1.000000000000000000e+00 0.000000000000000000e+00 0.000000000000000000e+00
5.465686603468866700e-01 -5.360412890142032261e-01 3.631027803047507385e-01 1.000000000000000000e+00 0.000000000000000000e+00 0.000000000000000000e+00
5.581114182362243437e-01 -5.504149700054613570e-01 3.617729252716326283e-01 1.000000000000000000e+00 0.000000000000000000e+00 0.000000000000000000e+00
5.724722027786647294e-01 -4.343691932725267657e-01 4.773767323877521340e-01 1.000000000000000000e+00 0.000000000000000000e+00 0.000000000000000000e+00
5.470850603476429264e-01 -4.428121074371705879e-01 4.539566625152501866e-01 1.000000000000000000e+00 0.000000000000000000e+00 0.000000000000000000e+00
5.781629273730907181e-01 -4.429157383242536827e-01 4.487071584104309063e-01 1.000000000000000000e+00 0.000000000000000000e+00 0.000000000000000000e+00
5.650702205062104744e-01 -5.418804243418087196e-01 -1.114265288949064896e-03 1.000000000000000000e+00 0.000000000000000000e+00 0.000000000000000000e+00
5.545879153064984246e-01 -5.210364756167952249e-01 8.908072773644640924e-03 1.000000000000000000e+00 0.000000000000000000e+00 0.000000000000000000e+00
5.733894018669223325e-01 -5.624085610968968529e-01 1.076558541460874603e-02 1.000000000000000000e+00 0.000000000000000000e+00 0.000000000000000000e+00
5.639815592242485298e-01 -4.797848564623366507e-01 4.467308818508269885e-02 1.000000000000000000e+00 0.000000000000000000e+00 0.000000000000000000e+00
5.490978771829831961e-01 -5.276696559632330086e-01 7.959575084487505170e-02 1.000000000000000000e+00 0.000000000000000000e+00 0.000000000000000000e+00
5.664760452338192254e-01 -4.959442026886908828e-01 9.284570892622484584e-02 1.000000000000000000e+00 0.000000000000000000e+00 0.000000000000000000e+00
5.530498333007822787e-01 -5.286218579543032758e-01 7.143052283849088413e-02 1.000000000000000000e+00 0.000000000000000000e+00 0.000000000000000000e+00
5.641536895583706412e-01 -2.717561068896411913e-01 1.373732192861797097e-01 1.000000000000000000e+00 0.000000000000000000e+00 0.000000000000000000e+00
5.524698674222634498e-01 -3.274413848023670082e-01 9.958528151199309841e-02 1.000000000000000000e+00 0.000000000000000000e+00 0.000000000000000000e+00
5.669332864400514760e-01 -3.952381486029940549e-01 8.458433804387034682e-02 1.000000000000000000e+00 0.000000000000000000e+00 0.000000000000000000e+00
5.498889961440053264e-01 -4.211625755528997095e-01 9.253483809815332695e-02 1.000000000000000000e+00 0.000000000000000000e+00 0.000000000000000000e+00
5.700141028387892828e-01 -5.305087119648695948e-01 1.344466075181313114e-01 1.000000000000000000e+00 0.000000000000000000e+00 0.000000000000000000e+00
5.591445716866799698e-01 -5.099270688359159864e-01 1.457915695358711905e-01 1.000000000000000000e+00 0.000000000000000000e+00 0.000000000000000000e+00
5.639610409563282634e-01 -5.528307920959945054e-01 7.555440239219775311e-02 1.000000000000000000e+00 0.000000000000000000e+00 0.000000000000000000e+00
5.599965866924194735e-01 -4.257201770473513780e-01 2.017735831053873163e-01 1.000000000000000000e+00 0.000000000000000000e+00 0.000000000000000000e+00
5.559583515768700135e-01 -4.259962313964023028e-01 1.733360043298496633e-01 1.000000000000000000e+00 0.000000000000000000e+00 0.000000000000000000e+00
5.461456747223836228e-01 -5.668511800601488959e-03 2.792117333106327592e-01 1.000000000000000000e+00 0.000000000000000000e+00 0.000000000000000000e+00
5.695395951590701555e-01 -6.145800218417558219e-03 3.328287552149395423e-01 1.000000000000000000e+00 0.000000000000000000e+00 0.000000000000000000e+00
5.672284658762443144e-01 -3.063462682482396421e-02 2.976880982032509282e-01 1.000000000000000000e+00 0.000000000000000000e+00 0.000000000000000000e+00
5.722621620610972570e-01 -1.378133717830239136e-01 2.658911758065520270e-01 1.000000000000000000e+00 0.000000000000000000e+00 0.000000000000000000e+00
5.679704967352311451e-01 -1.621421811954317505e-01 4.014133650244954832e-01 1.000000000000000000e+00 0.000000000000000000e+00 0.000000000000000000e+00
5.619558216028742725e-01 -1.838413428079309075e-01 2.808218849864365652e-01 1.000000000000000000e+00 0.000000000000000000e+00 0.000000000000000000e+00
5.598014570057825434e-01 -1.869947760479339638e-01 3.214196715156063533e-01 1.000000000000000000e+00 0.000000000000000000e+00 0.000000000000000000e+00
5.649614703243951430e-01 -7.174703796131823297e-02 3.521868693976402676e-01 1.000000000000000000e+00 0.000000000000000000e+00 0.000000000000000000e+00
5.575042524961484336e-01 -1.035010993892815367e-01 3.305021698088123627e-01 1.000000000000000000e+00 0.000000000000000000e+00 0.000000000000000000e+00
5.430928154792789009e-01 -2.440545972312832546e-01 1.275162675456257833e-01 1.000000000000000000e+00 0.000000000000000000e+00 0.000000000000000000e+00
5.812512102909146439e-01 -2.510566376308605019e-01 1.548209562832323638e-01 1.000000000000000000e+00 0.000000000000000000e+00 0.000000000000000000e+00
5.709582248977643770e-01 -1.383554378099039195e-01 2.188369112847288189e-01 1.000000000000000000e+00 0.000000000000000000e+00 0.000000000000000000e+00
5.613054458699333615e-01 -2.817149094379642338e-01 1.963577097441782104e-01 1.000000000000000000e+00 0.000000000000000000e+00 0.000000000000000000e+00
5.648951687605473504e-01 -2.284525128507669811e-01 2.187241941269388867e-01 1.000000000000000000e+00 0.000000000000000000e+00 0.000000000000000000e+00
5.372644013811257446e-01 -5.320616021138530050e-01 3.088193152919960216e-01 1.000000000000000000e+00 0.000000000000000000e+00 0.000000000000000000e+00
5.412120663998805092e-01 -4.745144391684467666e-01 3.023074564752504800e-01 1.000000000000000000e+00 0.000000000000000000e+00 0.000000000000000000e+00
5.588538400752908197e-01 -5.450153414952563224e-01 2.243043963582827260e-01 1.000000000000000000e+00 0.000000000000000000e+00 0.000000000000000000e+00
5.513416918745409623e-01 -5.445765451202565499e-01 2.423696885738605700e-01 1.000000000000000000e+00 0.000000000000000000e+00 0.000000000000000000e+00
5.508361376296269096e-01 -4.366105887444063915e-01 3.258387471899983345e-01 1.000000000000000000e+00 0.000000000000000000e+00 0.000000000000000000e+00
5.531774121724769566e-01 -4.278762391771543938e-01 3.059177708164212972e-01 1.000000000000000000e+00 0.000000000000000000e+00 0.000000000000000000e+00
5.611952531438333391e-01 -4.396585476740728637e-01 2.238179834784984612e-01 1.000000000000000000e+00 0.000000000000000000e+00 0.000000000000000000e+00
5.673475784778135855e-01 -4.660589463539211441e-01 1.903556071357823676e-01 1.000000000000000000e+00 0.000000000000000000e+00 0.000000000000000000e+00
5.654850863121571036e-01 -5.397630918130649214e-01 1.933387110170885215e-01 1.000000000000000000e+00 0.000000000000000000e+00 0.000000000000000000e+00
5.555025637022442675e-01 -3.012582685173323949e-01 3.982627639747538528e-01 1.000000000000000000e+00 0.000000000000000000e+00 0.000000000000000000e+00
5.592378475238489743e-01 -3.385064617010473120e-01 3.141134362821081938e-01 1.000000000000000000e+00 0.000000000000000000e+00 0.000000000000000000e+00
-5.525909816277883024e-01 5.008973862257589671e-01 -5.769930087271472052e-01 -1.000000000000000000e+00 0.000000000000000000e+00 0.000000000000000000e+00
-5.557168545014075089e-01 5.094504470003710095e-01 -4.537396951426733160e-01 -1.000000000000000000e+00 0.000000000000000000e+00 0.000000000000000000e+00
-5.636219597370299983e-01 4.081146850342187160e-01 -5.323202214025526402e-01 -1.000000000000000000e+00 0.000000000000000000e+00 0.000000000000000000e+00
-5.525738184518710350e-01 4.319179221115841405e-01 -5.444788897047717624e-01 -1.000000000000000000e+00 0.000000000000000000e+00 0.000000000000000000e+00
-5.645429376633873675e-01 3.656531061590355680e-01 -4.395443885773661630e-01 -1.000000000000000000e+00 0.000000000000000000e+00 0.000000000000000000e+00
-5.772672261073816813e-01 4.518210507709503609e-01 -5.636565390151374588e-01 -1.000000000000000000e+00 0.000000000000000000e+00 0.000000000000000000e+00
-5.530703411940077752e-01 4.888096621241284079e-01 -5.224179076287011059e-01 -1.000000000000000000e+00 0.000000000000000000e+00 0.000000000000000000e+00
-5.590158505653877175e-01 5.251972207264098413e-01 -4.007196325458516895e-01 -1.000000000000000000e+00 0.000000000000000000e+00 0.000000000000000000e+00
-5.447082346289008337e-01 5.267694781459307807e-01 -5.061378676127705756e-01 -1.000000000000000000e+00 0.000000000000000000e+00 0.000000000000000000e+00
-5.546419164185271145e-01 5.256557808158613954e-01 -4.756471518400718912e-01 -1.000000000000000000e+00 0.000000000000000000e+00 0.000000000000000000e+00
-5.411321166103680858e-01 4.463294287505077396e-01 -3.522535185101698940e-01 -1.000000000000000000e+00 0.000000000000000000e+00 0.000000000000000000e+00
-5.459103442327226663e-01 2.914402188422499096e-01 -5.813939687492429842e-01 -1.000000000000000000e+00 0.000000000000000000e+00 0.000000000000000000e+00
-5.723015130973025943e-01 2.176423637490854657e-01 -4.536981045592672901e-01 -1.000000000000000000e+00 0.000000000000000000e+00 0.000000000000000000e+00
-5.625933273378842525e-01 2.420442900529144459e-01 -4.954170883639772427e-01 -1.000000000000000000e+00 0.000000000000000000e+00 0.000000000000000000e+00
-5.621700413475314573e-01 3.280855025959155125e-01 -4.981585609391320224e-01 -1.000000000000000000e+00 0.000000000000000000e+00 0.000000000000000000e+00
-5.628073751636780697e-01 1.972655221406702242e-01 -2.960046639734708607e-01 -1.000000000000000000e+00 0.000000000000000000e+00 0.000000000000000000e+00
-5.533450421928768348e-01 1.531847092224947748e-01 -3.122821787499162061e-01 -1.000000000000000000e+00 0.000000000000000000e+00 0.000000000000000000e+00
-5.601915111386008839e-01 2.658588347379750583e-01 -3.719754019348540663e-01 -1.000000000000000000e+00 0.000000000000000000e+00 0.000000000000000000e+00
-5.655270524410206390e-01 1.716265746102637324e-01 -4.051937840243433064e-01 -1.000000000000000000e+00 0.000000000000000000e+00 0.000000000000000000e+00
-5.550091058861329474e-01 3.960635192605304611e-01 -5.578976663808690173e-01 -1.000000000000000000e+00 0.000000000000000000e+00 0.000000000000000000e+00
-5.633451812612090270e-01 4.006938588462201634e-01 -5.154332747248113744e-01 -1.000000000000000000e+00 0.000000000000000000e+00 0.000000000000000000e+00
-5.681584388130943575e-01 3.401730632475363780e-01 -5.435055811485992594e-01 -1.000000000000000000e+00 0.000000000000000000e+00 0.000000000000000000e+00
-5.611266381998361030e-01 3.695340562616926672e-01 -4.788071007800486778e-01 -1.000000000000000000e+00 0.000000000000000000e+00 0.000000000000000000e+00
-5.493062200712464094e-01 5.472632261793318742e-01 -2.840975833937884887e-01 -1.000000000000000000e+00 0.000000000000000000e+00 0.000000000000000000e+00
-5.774445309326358133e-01 5.322905387761794893e-01 -3.185688925770525648e-01 -1.000000000000000000e+00 0.000000000000000000e+00 0.000000000000000000e+00
-5.422270472437810129e-01 5.493276669654035826e-01 -3.426573808189822268e-01 -1.000000000000000000e+00 0.000000000000000000e+00 0.000000000000000000e+00
-5.534145288528862228e-01 4.383015558046184923e-01 -2.291199229351458255e-01 -1.000000000000000000e+00 0.000000000000000000e+00 0.000000000000000000e+00
-5.478735571341252220e-01 5.208792439409405395e-01 -4.395977938406183672e-01 -1.000000000000000000e+00 0.000000000000000000e+00 0.000000000000000000e+00
-5.717397168555493625e-01 4.241140156789747206e-01 -3.488043782152729366e-01 -1.000000000000000000e+00 0.000000000000000000e+00 0.000000000000000000e+00
-5.642075273542308533e-01 4.669651257283304879e-01 -4.019122990697542863e-01 -1.000000000000000000e+00 0.000000000000000000e+00 0.000000000000000000e+00
-5.516963997605305314e-01 5.415797931939613230e-01 -3.585743670747060241e-01 -1.000000000000000000e+00 0.000000000000000000e+00 0.000000000000000000e+00
-5.576603530990563717e-01 4.849082990064496612e-01 -3.157020679798651641e-01 -1.000000000000000000e+00 0.000000000000000000e+00 0.000000000000000000e+00
-5.716772574257459327e-01 2.937962971657262501e-01 -1.611559499112722726e-01 -1.000000000000000000e+00 0.000000000000000000e+00 0.000000000000000000e+00
-5.899182860139481344e-01 3.084911321769675530e-01 -1.606422958840913184e-01 -1.000000000000000000e+00 0.000000000000000000e+00 0.000000000000000000e+00
-5.570122821485519182e-01 4.051088127084600532e-01 -2.276365838507362072e-01 -1.000000000000000000e+00 0.000000000000000000e+00 0.000000000000000000e+00
-5.715371861589753077e-01 2.936968171011491990e-01 -2.038573689503171138e-01 -1.000000000000000000e+00 0.000000000000000000e+00 0.000000000000000000e+00
-5.709512288910505440e-01 3.085996372949317834e-01 -2.282039919785308901e-01 -1.000000000000000000e+00 0.000000000000000000e+00 0.000000000000000000e+00
-5.783811865793284657e-01 -5.119257258830499022e-03 -5.495754412221759422e-01 -1.000000000000000000e+00 0.000000000000000000e+00 0.000000000000000000e+00
-5.507360198667872186e-01 9.598810928434460543e-03 -5.772778250033023806e-01 -1.000000000000000000e+00 0.000000000000000000e+00 0.000000000000000000e+00
-5.720533655568634801e-01 -6.955574887502090353e-02 -4.189947195349872366e-01 -1.000000000000000000e+00 0.000000000000000000e+00 0.000000000000000000e+00
-5.553531759080075902e-01 -3.194309118547732779e-02 -4.497268118803021131e-01 -1.000000000000000000e+00 0.000000000000000000e+00 0.000000000000000000e+00
-5.643669385700132990e-01 -3.240900658459121286e-02 -4.879677558241900526e-01 -1.000000000000000000e+00 0.000000000000000000e+00 0.000000000000000000e+00
-5.680821664437923912e-01 7.737458713617559325e-02 -5.583898809756246973e-01 -1.000000000000000000e+00 0.000000000000000000e+00 0.000000000000000000e+00
-5.587287925119960308e-01 5.070690005457646754e-02 -5.158886367654847982e-01 -1.000000000000000000e+00 0.000000000000000000e+00 0.000000000000000000e+00
-5.461244936982307951e-01 -9.089733334286964617e-02 -3.529049057213844431e-01 -1.000000000000000000e+00 0.000000000000000000e+00 0.000000000000000000e+00
-5.653297110124299030e-01 -5.717256683541580009e-02 -2.842757052881890734e-01 -1.000000000000000000e+00 0.000000000000000000e+00 0.000000000000000000e+00
-5.556760182733212483e-01 -4.086980148149411962e-02 -3.128760695513327361e-01 -1.000000000000000000e+00 0.000000000000000000e+00 0.000000000000000000e+00
-5.725817675735617174e-01 -9.141906143569727972e-02 -4.212300452604796352e-01 -1.000000000000000000e+00 0.000000000000000000e+00 0.000000000000000000e+00
-5.620526166264325774e-01 8.407193729850767627e-02 -5.571969413163984086e-01 -1.000000000000000000e+00 0.000000000000000000e+00 0.000000000000000000e+00
-5.673785960509102333e-01 8.685775875724326134e-02 -5.534206731717490335e-01 -1.000000000000000000e+00 0.000000000000000000e+00 0.000000000000000000e+00
-5.534977556760289907e-01 7.951128107613361640e-02 -4.502650428750730738e-01 -1.000000000000000000e+00 0.000000000000000000e+00 0.000000000000000000e+00
-5.584814241619344699e-01 4.989987016598341346e-02 -4.260174895359740144e-01 -1.000000000000000000e+00 0.000000000000000000e+00 0.000000000000000000e+00
-5.476411931434623792e-01 -2.670925009534236283e-01 -1.890969344788916151e-02 -1.000000000000000000e+00 0.000000000000000000e+00 0.000000000000000000e+00
-5.759425059123655100e-01 -2.585897921381572484e-01 -5.058847987843671096e-02 -1.000000000000000000e+00 0.000000000000000000e+00 0.000000000000000000e+00
-5.551238532671805004e-01 -2.208125907132112986e-01 -2.864567796141768985e-03 -1.000000000000000000e+00 0.000000000000000000e+00 0.000000000000000000e+00
-5.443144110755820941e-01 -2.123458346438880373e-01 -1.188167396252568231e-01 -1.000000000000000000e+00 0.000000000000000000e+00 0.000000000000000000e+00
-5.673488746973166519e-01 -2.245064093020646689e-01 -1.016598989541712822e-01 -1.000000000000000000e+00 0.000000000000000000e+00 0.000000000000000000e+00
-5.608285453552991351e-01 -8.943929140239700870e-02 -1.607551840032713508e-01 -1.000000000000000000e+00 0.000000000000000000e+00 0.000000000000000000e+00
-5.632742488171067485e-01 -3.550514728322811536e-02 -2.090544174889841511e-01 -1.000000000000000000e+00 0.000000000000000000e+00 0.000000000000000000e+00
-5.488630560754413912e-01 -1.227603728584908266e-01 -7.627666934890670047e-02 -1.000000000000000000e+00 0.000000000000000000e+00 0.000000000000000000e+00
-5.738618063249365520e-01 -1.375397181670211522e-01 -1.135448544588757297e-01 -1.000000000000000000e+00 0.000000000000000000e+00 0.000000000000000000e+00
-5.472129789682498302e-01 -1.450406223568656006e-01 -2.668383760253290049e-01 -1.000000000000000000e+00 0.000000000000000000e+00 0.000000000000000000e+00
-5.629891895226284415e-01 -1.390906196424787633e-01 -2.662307463417692976e-01 -1.000000000000000000e+00 0.000000000000000000e+00 0.000000000000000000e+00
-5.535748769233664879e-01 -1.951320941750533666e-01 -1.858500602396938595e-01 -1.000000000000000000e+00 0.000000000000000000e+00 0.000000000000000000e+00
-5.561924049072765053e-01 -1.284532127166230775e-01 -2.619693539674265437e-01 -1.000000000000000000e+00 0.000000000000000000e+00 0.000000000000000000e+00
-5.387909675778481677e-01 -1.016568314446784221e-01 -2.668963364668215377e-01 -1.000000000000000000e+00 0.000000000000000000e+00 0.000000000000000000e+00
-5.581381167707364366e-01 2.505920822993573105e-01 -5.073294504471999034e-01 -1.000000000000000000e+00 0.000000000000000000e+00 0.000000000000000000e+00
-5.552549145561169741e-01 2.309425045438880109e-01 -5.570397833275231303e-01 -1.000000000000000000e+00 0.000000000000000000e+00 0.000000000000000000e+00
-5.472552008005197033e-01 2.083500508158937781e-01 -5.254211827380244060e-01 -1.000000000000000000e+00 0.000000000000000000e+00 0.000000000000000000e+00
-5.643873478928862486e-01 1.821001199947967497e-01 -4.357459288343636938e-01 -1.000000000000000000e+00 0.000000000000000000e+00 0.000000000000000000e+00
-5.434725202572967540e-01 2.011185951267430161e-01 -4.407532451057784018e-01 -1.000000000000000000e+00 0.000000000000000000e+00 0.000000000000000000e+00
-5.578841133428736887e-01 1.371733889482726065e-01 -5.396681829227135685e-01 -1.000000000000000000e+00 0.000000000000000000e+00 0.000000000000000000e+00
-5.356025052423578625e-01 1.040645015977414295e-01 -5.489355742832146001e-01 -1.000000000000000000e+00 0.000000000000000000e+00 0.000000000000000000e+00
-5.411143333681099898e-01 8.513879864534375230e-02 -4.232001965135970267e-01 -1.000000000000000000e+00 0.000000000000000000e+00 0.000000000000000000e+00
-5.864936650339147572e-01 1.107184714692750482e-01 -4.553319791375839976e-01 -1.000000000000000000e+00 0.000000000000000000e+00 0.000000000000000000e+00
-5.583318522410678497e-01 1.672102374871575758e-01 -5.454014665953205165e-01 -1.000000000000000000e+00 0.000000000000000000e+00 0.000000000000000000e+00
-5.654006906549513545e-01 1.827103783879055199e-01 -5.133983278441107689e-01 -1.000000000000000000e+00 0.000000000000000000e+00 0.000000000000000000e+00
-5.627436830986906058e-01 1.281937267739802211e-01 -2.944887058957227355e-01 -1.000000000000000000e+00 0.000000000000000000e+00 0.000000000000000000e+00
-5.571981903624240173e-01 8.749233010755114170e-02 -2.921487966387228963e-01 -1.000000000000000000e+00 0.000000000000000000e+00 0.000000000000000000e+00
-5.674459097330158963e-01 9.986628930910410040e-02 -3.605026205690297636e-01 -1.000000000000000000e+00 0.000000000000000000e+00 0.000000000000000000e+00
-5.617710692672891470e-01 5.309525021640235654e-01 1.560697389109842390e-02 -1.000000000000000000e+00 0.000000000000000000e+00 0.000000000000000000e+00
-5.587544932289969513e-01 5.329891150162487934e-01 -6.259374853879857981e-02 -1.000000000000000000e+00 0.000000000000000000e+00 0.000000000000000000e+00
-5.688552496039281925e-01 5.477222420291283367e-01 -8.175970347795274984e-02 -1.000000000000000000e+00 0.000000000000000000e+00 0.000000000000000000e+00
-5.731094992356009499e-01 4.302301547496949485e-01 4.009341839601841817e-02 -1.000000000000000000e+00 0.000000000000000000e+00 0.000000000000000000e+00
-5.569070803441933393e-01 5.219988921777625190e-01 -1.405721538696074469e-01 -1.000000000000000000e+00 0.000000000000000000e+00 0.000000000000000000e+00
-5.632304604616107380e-01 5.285053001142121509e-01 -1.158788637163249147e-01 -1.000000000000000000e+00 0.000000000000000000e+00 0.000000000000000000e+00
-5.708244527021240078e-01 4.234943524288126149e-01 -4.542754314272159227e-02 -1.000000000000000000e+00 0.000000000000000000e+00 0.000000000000000000e+00
-5.486888760860961778e-01 4.654630717763125758e-01 -8.707601141720684723e-02 -1.000000000000000000e+00 0.000000000000000000e+00 0.000000000000000000e+00
-5.598576080369694896e-01 5.576728689602368227e-01 -9.401377040890604442e-02 -1.000000000000000000e+00 0.000000000000000000e+00 0.000000000000000000e+00
-5.791932583111634170e-01 4.901527324799241914e-01 -3.933762790440156060e-02 -1.000000000000000000e+00 0.000000000000000000e+00 0.000000000000000000e+00
-5.469357776010049799e-01 2.997328544772626113e-01 1.251624772298386423e-01 -1.000000000000000000e+00 0.000000000000000000e+00 0.000000000000000000e+00
-5.384654904477900184e-01 2.837407676507398557e-01 1.121600713263455618e-01 -1.000000000000000000e+00 0.000000000000000000e+00 0.000000000000000000e+00
-5.763692924863353939e-01 4.090107245682253478e-01 5.391868606262338603e-02 -1.000000000000000000e+00 0.000000000000000000e+00 0.000000000000000000e+00
-5.743625864977240925e-01 3.338465126212255552e-01 3.445571008981923589e-02 -1.000000000000000000e+00 0.000000000000000000e+00 0.000000000000000000e+00
-5.638473234463061701e-01 3.813912249321287917e-01 3.263340071599760833e-02 -1.000000000000000000e+00 0.000000000000000000e+00 0.000000000000000000e+00
-5.670849325936168084e-01 5.309824196348117420e-01 -2.721908731463661413e-01 -1.000000000000000000e+00 0.000000000000000000e+00 0.000000000000000000e+00
-5.683976845731041339e-01 4.182674512178795601e-01 -1.961944734931546364e-01 -1.000000000000000000e+00 0.000000000000000000e+00 0.000000000000000000e+00
-5.556962264142256691e-01 4.717446992786683002e-01 -2.752895404718417316e-01 -1.000000000000000000e+00 0.000000000000000000e+00 0.000000000000000000e+00
-5.724841173412048567e-01 4.374750464203773226e-01 -2.153516423551954106e-01 -1.000000000000000000e+00 0.000000000000000000e+00 0.000000000000000000e+00
-5.642181348296210208e-01 4.888357337903501132e-01 -1.885983807537501278e-01 -1.000000000000000000e+00 0.000000000000000000e+00 0.000000000000000000e+00
-5.470029823382510648e-01 5.310120555534100228e-01 -1.973290161876914417e-01 -1.000000000000000000e+00 0.000000000000000000e+00 0.000000000000000000e+00
-5.608860326537686847e-01 2.582820863635316155e-01 -1.511917568303455528e-01 -1.000000000000000000e+00 0.000000000000000000e+00 0.000000000000000000e+00
-5.529504541635802406e-01 3.838276058796849521e-01 -2.047264625156573759e-01 -1.000000000000000000e+00 0.000000000000000000e+00 0.000000000000000000e+00
-5.596801372670748842e-01 5.317611687059995429e-01 -1.621987910773311503e-01 -1.000000000000000000e+00 0.000000000000000000e+00 0.000000000000000000e+00
-5.643897612519452878e-01 5.044396210111729006e-01 -1.493146356257132046e-01 -1.000000000000000000e+00 0.000000000000000000e+00 0.000000000000000000e+00
-5.595640379228874473e-01 5.240650104981914303e-01 -1.877225340256902242e-01 -1.000000000000000000e+00 0.000000000000000000e+00 0.000000000000000000e+00
-5.398076137846089528e-01 5.400575095878759058e-01 -2.213006472534476965e-01 -1.000000000000000000e+00 0.000000000000000000e+00 0.000000000000000000e+00
-5.766410329702871262e-01 5.567370889542707646e-01 -1.976699538040077309e-01 -1.000000000000000000e+00 0.000000000000000000e+00 0.000000000000000000e+00
-5.664549447889798417e-01 4.346537736344860403e-01 -9.866730813048679716e-02 -1.000000000000000000e+00 0.000000000000000000e+00 0.000000000000000000e+00
-5.434803847742686322e-01 4.081472884000830748e-01 -9.332676772824492761e-02 -1.000000000000000000e+00 0.000000000000000000e+00 0.000000000000000000e+00
-5.626056183786108944e-01 3.955944371798330271e-03 2.610068343521470546e-01 -1.000000000000000000e+00 0.000000000000000000e+00 0.000000000000000000e+00
-5.669713899070003560e-01 1.410294514084242945e-01 1.937999916778397891e-01 -1.000000000000000000e+00 0.000000000000000000e+00 0.000000000000000000e+00
-5.575779426895355328e-01 1.048075524182962570e-01 2.276303576835133624e-01 -1.000000000000000000e+00 0.000000000000000000e+00 0.000000000000000000e+00
-5.776554377290633591e-01 1.113287164363943420e-02 2.027043096149510615e-01 -1.000000000000000000e+00 0.000000000000000000e+00 0.000000000000000000e+00
-5.658698933064921777e-01 -1.616074836788104416e-02 2.251580449342838464e-01 -1.000000000000000000e+00 0.000000000000000000e+00 0.000000000000000000e+00
-5.679332535355929856e-01 4.276794841057312418e-02 1.754516710575584060e-01 -1.000000000000000000e+00 0.000000000000000000e+00 0.000000000000000000e+00
-5.381647647203088303e-01 6.747746609204717527e-02 1.514136093408421646e-01 -1.000000000000000000e+00 0.000000000000000000e+00 0.000000000000000000e+00
-5.616629576552357728e-01 2.582230836826611142e-01 1.186930189893006943e-01 -1.000000000000000000e+00 0.000000000000000000e+00 0.000000000000000000e+00
-5.465226934065251507e-01 2.765458281245136707e-01 9.945335717826495059e-02 -1.000000000000000000e+00 0.000000000000000000e+00 0.000000000000000000e+00
-5.503022187784690766e-01 2.259056014966146497e-01 1.619506524587353280e-01 -1.000000000000000000e+00 0.000000000000000000e+00 0.000000000000000000e+00
-5.615218214237196470e-01 1.973976808566061669e-01 8.399125615556871094e-02 -1.000000000000000000e+00 0.000000000000000000e+00 0.000000000000000000e+00
-5.777377464076856040e-01 2.391554590295287275e-01 1.039113750569022609e-01 -1.000000000000000000e+00 0.000000000000000000e+00 0.000000000000000000e+00
-5.419968855359399429e-01 1.412531647336132123e-01 1.447727615385621669e-01 -1.000000000000000000e+00 0.000000000000000000e+00 0.000000000000000000e+00
-5.686016979689795248e-01 2.626121669961219152e-02 1.426509970836132291e-01 -1.000000000000000000e+00 0.000000000000000000e+00 0.000000000000000000e+00
-5.549879440926822616e-01 -4.221050942692980597e-03 1.863446934500444518e-01 -1.000000000000000000e+00 0.000000000000000000e+00 0.000000000000000000e+00
-5.631288941050519581e-01 1.229674059456940249e-01 8.567259807287201656e-02 -1.000000000000000000e+00 0.000000000000000000e+00 0.000000000000000000e+00
-5.584015888846449727e-01 5.201904042006728623e-01 4.978819028569215210e-01 -1.000000000000000000e+00 0.000000000000000000e+00 0.000000000000000000e+00
-5.541229380960396300e-01 5.425241085174287159e-01 4.874527126071619421e-01 -1.000000000000000000e+00 0.000000000000000000e+00 0.000000000000000000e+00
-5.526531273023899127e-01 5.324363056307501729e-01 4.364757582639175459e-01 -1.000000000000000000e+00 0.000000000000000000e+00 0.000000000000000000e+00
-5.814096843008969007e-01 5.547555841662897835e-01 4.083043422680193157e-01 -1.000000000000000000e+00 0.000000000000000000e+00 0.000000000000000000e+00
-5.492190816150759325e-01 4.531800599601065738e-01 4.730207289721030106e-01 -1.000000000000000000e+00 0.000000000000000000e+00 0.000000000000000000e+00
-5.748817135575641224e-01 4.625426605782516076e-01 4.327655272165396028e-01 -1.000000000000000000e+00 0.000000000000000000e+00 0.000000000000000000e+00
-5.617295089211800097e-01 4.948371285911106754e-01 5.084789421919698738e-01 -1.000000000000000000e+00 0.000000000000000000e+00 0.000000000000000000e+00
-5.709418531062701030e-01 5.246891523938037594e-01 2.895931569871916245e-01 -1.000000000000000000e+00 0.000000000000000000e+00 0.000000000000000000e+00
-5.569180919901445259e-01 4.200041059792167242e-01 3.585493184369598629e-01 -1.000000000000000000e+00 0.000000000000000000e+00 0.000000000000000000e+00
-5.455952132398202981e-01 4.720833221801150059e-01 2.978404604521895371e-01 -1.000000000000000000e+00 0.000000000000000000e+00 0.000000000000000000e+00
-5.653744828038277381e-01 5.590506378041925073e-01 3.285252058947513154e-01 -1.000000000000000000e+00 0.000000000000000000e+00 0.000000000000000000e+00
-5.647329738521821296e-01 3.540628258743158674e-01 4.613680714884009770e-01 -1.000000000000000000e+00 0.000000000000000000e+00 0.000000000000000000e+00
-5.442970177508257290e-01 3.289142171142707682e-01 4.708018262909771656e-01 -1.000000000000000000e+00 0.000000000000000000e+00 0.000000000000000000e+00
-5.647826562928942584e-01 3.853514345137223907e-01 3.776026626541689191e-01 -1.000000000000000000e+00 0.000000000000000000e+00 0.000000000000000000e+00
-5.691685295177396631e-01 5.051605788819741871e-01 4.439522216742322058e-01 -1.000000000000000000e+00 0.000000000000000000e+00 0.000000000000000000e+00
-5.425335957034247425e-01 5.221390390127310654e-01 3.761983138025943307e-01 -1.000000000000000000e+00 0.000000000000000000e+00 0.000000000000000000e+00
-5.571777566977473839e-01 4.096682368768727600e-01 4.566589192432755628e-01 -1.000000000000000000e+00 0.000000000000000000e+00 0.000000000000000000e+00
-5.497862404921844970e-01 5.296466784944026118e-01 -9.915701732366544868e-03 -1.000000000000000000e+00 0.000000000000000000e+00 0.000000000000000000e+00
-5.608627509503395503e-01 5.444106950250152677e-01 1.198081734054839628e-03 -1.000000000000000000e+00 0.000000000000000000e+00 0.000000000000000000e+00
-5.503783570850029339e-01 4.145067451403386949e-01 5.611001121780968132e-02 -1.000000000000000000e+00 0.000000000000000000e+00 0.000000000000000000e+00
-5.646291524028250741e-01 4.327630189813913564e-01 1.955634902389511917e-02 -1.000000000000000000e+00 0.000000000000000000e+00 0.000000000000000000e+00
-5.493866123520715350e-01 5.357628488910588516e-01 6.567182113662778375e-02 -1.000000000000000000e+00 0.000000000000000000e+00 0.000000000000000000e+00
-5.549965412102817464e-01 2.895770572126031284e-01 1.500337415089457171e-01 -1.000000000000000000e+00 0.000000000000000000e+00 0.000000000000000000e+00
-5.598052402214291901e-01 3.245372985914912189e-01 8.968406733538325515e-02 -1.000000000000000000e+00 0.000000000000000000e+00 0.000000000000000000e+00
-5.355951531426023093e-01 3.097376707094151582e-01 2.043570940406311820e-01 -1.000000000000000000e+00 0.000000000000000000e+00 0.000000000000000000e+00
-5.966586900647296021e-01 2.943385719027848402e-01 1.800532596423178311e-01 -1.000000000000000000e+00 0.000000000000000000e+00 0.000000000000000000e+00
-5.751230248058776251e-01 3.920731926344822038e-01 6.185561795354375947e-02 -1.000000000000000000e+00 0.000000000000000000e+00 0.000000000000000000e+00
-5.427087198061021356e-01 4.172185308146658667e-01 7.440847622901948510e-02 -1.000000000000000000e+00 0.000000000000000000e+00 0.000000000000000000e+00
