-3.701034772934296280e-01 6.555215255970642252e-01 -6.622009276413290402e-02 -8.050743913429679877e-01 5.444689553688367711e-01 -2.353906987187839583e-01
-3.441458213138471334e-01 6.396728113694800655e-01 -7.659621185443600544e-02 -8.275644694333426088e-01 5.417737431711461271e-01 -1.470314937074206074e-01
-3.616528724554055607e-01 6.255191407714801866e-01 -3.324793109093432397e-02 -8.275644694333426088e-01 5.417737431711461271e-01 -1.470314937074206074e-01
2.223160768537161547e-01 2.187789591089747340e-02 8.647904464771174471e-01 7.653003700408707033e-01 5.616566180990383711e-02 6.412181859934743544e-01
-3.404485253478551354e-01 4.639547483398546723e-01 -3.229667569729428034e-01 -6.064170637393385688e-01 5.757295289162944751e-01 -5.484467652740605548e-01
-3.515012037861108274e-01 4.178611976089150470e-01 -3.364191852346089529e-01 -6.064170637393385688e-01 5.757295289162944751e-01 -5.484467652740605548e-01
-3.774826068725296024e-01 4.423758170659840561e-01 -3.132287115428460944e-01 -6.064170637393385688e-01 5.757295289162944751e-01 -5.484467652740605548e-01
-1.873039357101511926e-01 7.025794742374234791e-02 8.038861543288896572e-01 -7.183713570199358189e-01 3.169267791698058279e-01 6.192737763367580639e-01
-1.913789533841294965e-01 8.370080885139477567e-02 8.615576257945914973e-01 -7.170898314321414446e-01 3.141848978830884542e-01 6.221495186840670932e-01
-2.400246625812809120e-01 6.585063538310229059e-02 8.169037942117854945e-01 -7.732640049177110786e-01 2.006193178095474206e-01 6.015103224552793559e-01
-2.300216409296944042e-01 6.395313546238104441e-02 8.920401905756867311e-01 -7.732640049177110786e-01 2.006193178095474206e-01 6.015103224552793559e-01
-2.475942099645272731e-01 -4.279318992282382106e-01 -4.773888029390490062e-01 -4.159931366071202286e-01 -6.609061487130397650e-01 -6.246221040669848179e-01
7.706092136673491355e-01 5.185695297769134238e-02 2.833582054370710201e-01 5.263216902809478848e-01 1.304297688301188085e-01 8.402223239968859003e-01
7.136808726388854662e-01 5.648103803507319165e-02 3.071963541187628932e-01 5.263216902809478848e-01 1.304297688301188085e-01 8.402223239968859003e-01
-2.303633114790275549e-01 -4.221307141588335199e-01 -5.150195941330367733e-01 -4.040970789500721305e-01 -6.976114004688126480e-01 -5.916450665052157554e-01
-2.412850396927611052e-01 -4.215893615821700302e-01 -5.160126431755530652e-01 -4.040970789500721305e-01 -6.976114004688126480e-01 -5.916450665052157554e-01
-2.004175724116222523e-01 -3.959373560086441590e-01 -4.658909337295919495e-01 -4.040970789500721305e-01 -6.976114004688126480e-01 -5.916450665052157554e-01
-4.560945848497298116e-01 -1.404140312553529557e-01 5.651416017530762614e-01 -7.474473256021810785e-01 -2.585975915758912391e-01 6.119230189176541046e-01
-4.456929344072482202e-01 -1.109453583962955875e-01 5.029449352322347133e-01 -7.474473256021810785e-01 -2.585975915758912391e-01 6.119230189176541046e-01
-3.976653701257079621e-01 2.693211753718761231e-02 -5.749084483498166920e-01 -8.050732465328263032e-01 2.775978605938515462e-02 -5.925254948059467397e-01
-3.903625081769623861e-01 2.441215825223471900e-02 -5.539712110128973688e-01 -8.050732465328263032e-01 2.775978605938515462e-02 -5.925254948059467397e-01
-3.968377739269155491e-01 -1.481681595808218566e-01 5.355951027912591034e-01 -7.370986416588805046e-01 -2.731913944675949391e-01 6.181035952439397629e-01
-3.938455628649902285e-01 -1.245996193000105390e-01 5.631165061586774767e-01 -7.370986416588805046e-01 -2.731913944675949391e-01 6.181035952439397629e-01
-5.712404923335370754e-03 -5.458917709757339365e-01 4.015422531932986150e-01 -9.400467584101623864e-02 -6.243665138692163774e-01 7.754544327546443183e-01
-3.073483401873073895e-01 -2.102384098569783921e-01 5.997392395135517917e-01 -6.772266393484657199e-01 -5.091183604239095661e-01 5.311897721493262781e-01
-2.814093035704366419e-01 -2.364487543597184604e-01 6.244109817040398580e-01 -6.772266393484657199e-01 -5.091183604239095661e-01 5.311897721493262781e-01
-7.620391578250942377e-01 2.835683046198418378e-01 2.468807231467268909e-02 -5.459329145881487433e-01 8.361053241142307746e-01 5.371349697353920011e-02
-7.810924622042320076e-01 2.637642999452421422e-01 -1.668341493341102960e-02 -5.459329145881487433e-01 8.361053241142307746e-01 5.371349697353920011e-02
-7.706892881851359345e-01 2.777554464189786465e-01 1.864404061961738579e-02 -5.259632455173605114e-01 8.499205378433489777e-01 3.158708148780106639e-02
-7.460440913127028839e-01 2.917881568958667904e-01 1.518246219411323664e-02 -5.259632455173605114e-01 8.499205378433489777e-01 3.158708148780106639e-02
-2.506440753207442862e-01 -1.036570440234991508e-01 8.069327470093653476e-01 -7.464905870090944306e-01 -3.058245533616011924e-01 5.909510521760618085e-01
-3.863438577805786145e-01 5.111191383208087968e-01 -2.337002427641239055e-01 -7.338034460370784773e-01 5.623082367543575932e-01 -3.812373925290041266e-01
-3.534525799773328147e-01 5.524969935797585663e-01 -1.878080323464374757e-01 -7.338034460370784773e-01 5.623082367543575932e-01 -3.812373925290041266e-01
-2.450880097403707880e-01 6.053045736831194623e-02 7.959347358925719096e-01 -8.309343585482917849e-01 1.577691028611990787e-01 5.335325687962370056e-01
-2.286312904906352972e-01 8.997313374767791638e-02 8.028819102136010022e-01 -8.309343585482917849e-01 1.577691028611990787e-01 5.335325687962370056e-01
-2.819719829474273132e-01 3.795638434788704829e-02 7.560552944714105106e-01 -8.161676259738208650e-01 1.770832240714817207e-01 5.500108526790239427e-01
-4.537139345120526635e-01 2.850671670054939766e-02 -4.806975288188213846e-01 -7.465647750242508929e-01 7.531486404535617241e-02 -6.610360867205503643e-01
-2.162714722620563690e-01 1.708932747620865722e-01 7.623295636843417933e-01 -5.640884728990114283e-01 5.908499954498547257e-01 5.768019396806566279e-01
-1.875385615387124005e-01 2.419851480530279542e-01 7.472520182730443272e-01 -5.640884728990114283e-01 5.908499954498547257e-01 5.768019396806566279e-01
-2.002868851457226818e-01 2.177783739189080303e-01 7.321921029307300044e-01 -5.640884728990114283e-01 5.908499954498547257e-01 5.768019396806566279e-01
-2.001114833930530412e-01 7.900349529417770578e-01 1.833819176303754517e-01 -6.354891848787576070e-01 5.666683371714192896e-01 5.244430298416702385e-01
-4.170548326623622626e-01 1.277813395126748963e-01 5.212314116820562226e-01 -7.358530343987130795e-01 3.318288126772183655e-01 5.902626117614380163e-01
-4.046028405249304516e-01 1.281754170748012622e-01 5.368364591634793292e-01 -7.358530343987130795e-01 3.318288126772183655e-01 5.902626117614380163e-01
-1.466372419515644676e-01 8.686047501842902863e-01 9.330168117170953290e-02 -5.209721330439934794e-01 7.415757791111986519e-01 4.226741066438898242e-01
-1.256673077717747680e-02 -5.753187250832076938e-01 4.121358959269009192e-01 -5.916654962247107352e-02 -6.449606766477941067e-01 7.619219415293086994e-01
-3.162505153333379504e-02 -5.249230094852838091e-01 4.178417048142064605e-01 -5.916654962247107352e-02 -6.449606766477941067e-01 7.619219415293086994e-01
-2.667978460435656285e-03 -5.344298654849329727e-02 9.808604404676911637e-01 -2.494609725749730722e-01 -3.461073963377517271e-01 9.044218558627665772e-01
-1.171433087642704540e-01 -1.611497099934916521e-01 8.497334057023333553e-01 -3.270720854590100091e-01 -7.099142266468899676e-01 6.237352336671724284e-01
-1.009766965379798598e-01 -2.044358989090976353e-01 8.661768156579494615e-01 -3.270720854590100091e-01 -7.099142266468899676e-01 6.237352336671724284e-01
-3.568203529000417706e-01 5.643227404731926411e-01 2.198327945203450984e-01 -7.126818889166184334e-01 5.669759678059457242e-01 4.130651003664579379e-01
-3.478956639890364855e-01 5.834610579842502975e-01 1.917886461749587768e-01 -7.126818889166184334e-01 5.669759678059457242e-01 4.130651003664579379e-01
-7.282777818783117696e-02 -1.917619279932018250e-01 9.321929131332915563e-01 -1.975140479062388321e-01 -7.481972836152175343e-01 6.333948418407759906e-01
-1.285408704970095739e-01 9.361788426327208867e-01 -8.465955462432965539e-02 -5.870193555721240353e-01 7.070243232132686906e-01 -3.943664318479802033e-01
7.396045812227020066e-02 -2.830949331894763166e-01 7.891386444314052451e-01 1.602883711828471669e-01 -8.031110428586060168e-01 5.738643488683643490e-01
7.006919151760345743e-01 1.093597792030843729e-01 2.916093574041083158e-01 5.361900131202770314e-01 1.897935639812426412e-01 8.224832356354597751e-01
7.113429650008058491e-01 1.036985269171657870e-01 3.150335736354617500e-01 5.361900131202770314e-01 1.897935639812426412e-01 8.224832356354597751e-01
-1.423133305817239347e-01 9.073502990742594587e-01 -9.336397528061748941e-02 -5.927158115455076759e-01 6.967773577175405686e-01 -4.039669299783246736e-01
6.079104880339702976e-02 -4.296996269031058691e-01 5.092596438002927606e-01 1.939067963023998198e-01 -7.239206240001229142e-01 6.620718121888383711e-01
1.685116594293261938e-01 -8.534938945658488985e-01 1.727998339809842798e-01 5.029892314633708228e-01 -5.993389952402641274e-01 6.227315648144697846e-01
1.121178057549451768e-01 -7.877505046367958563e-01 2.304210370265683538e-01 3.040441395218252962e-01 -5.571055157952820025e-01 7.727810851029581762e-01
9.901441705332207632e-02 -7.889248079096164989e-01 2.308667252526603042e-01 3.040441395218252962e-01 -5.571055157952820025e-01 7.727810851029581762e-01
1.301976350096809565e-01 -4.311721981942208126e-01 4.966920641298753769e-01 2.701416541501385771e-01 -7.508030621614700806e-01 6.027588643412775671e-01
1.114527988445030843e-01 -4.320058548414574262e-01 5.152785441678398026e-01 2.701416541501385771e-01 -7.508030621614700806e-01 6.027588643412775671e-01
7.531103396121802129e-01 -2.133607024548768716e-01 2.343019064122923434e-01 5.859647729528518756e-01 -5.738792136704573554e-01 5.721083227635219703e-01
1.517971437695254389e-01 -1.078675378574268061e-02 8.780914882561282608e-01 7.566978715841574665e-01 2.690255378983990361e-03 6.537592015918411992e-01
1.404451979226163938e-01 -2.335442002793171878e-01 7.856252165400010590e-01 3.152163726174349589e-01 -7.673279902816321218e-01 5.584320851851708456e-01
1.172259776501573258e-01 -6.607315846586991892e-01 3.204464914736546155e-01 2.932075277312816697e-01 -5.251549933762249545e-01 7.989002307007595505e-01
6.901922830212098292e-01 -2.510739623904318374e-01 2.369912864537356834e-01 5.407497099368259175e-01 -5.642622133850129229e-01 6.238572799519813694e-01
-1.715735186799272061e-01 -1.378655690205387793e-02 8.864811173383804199e-01 -7.150015179378961250e-01 -6.530338429651938448e-02 6.960663024065490978e-01
-1.432506247474117367e-01 -2.189209450466878329e-02 9.145259355219689246e-01 -7.150015179378961250e-01 -6.530338429651938448e-02 6.960663024065490978e-01
-6.626080167979234159e-03 -5.206657815690866054e-01 4.658966286501100562e-01 9.776026046337212005e-02 -6.231087661446378378e-01 7.760015444751643399e-01
-1.572066188713152068e-01 -6.462476980587145148e-01 -3.377188172079347850e-01 -2.960137866000420725e-01 -5.598595181443805080e-01 -7.739077193605493621e-01
1.230840171617904183e-01 -6.025059807642210163e-01 3.427143242709075888e-01 2.390924875794390725e-01 -5.407353493302027303e-01 8.064986449882102226e-01
1.039994047715621789e-01 -6.223514200305895194e-01 3.233571928836868059e-01 2.390924875794390725e-01 -5.407353493302027303e-01 8.064986449882102226e-01
7.482162773665079758e-01 -1.601468888277637337e-01 2.145666567582686923e-01 5.515584706942615600e-01 -4.124187106216561371e-01 7.250476263905553109e-01
6.728728959154537392e-01 -1.231469983621968634e-01 3.142855240194264432e-01 5.247872259062967837e-01 -2.477561395136594902e-01 8.143802937564621480e-01
6.526491109457480677e-01 -1.021421247829207013e-01 2.902377336298292421e-01 5.247872259062967837e-01 -2.477561395136594902e-01 8.143802937564621480e-01
-2.365145597003720790e-01 -5.639267324194765507e-01 -3.392890069803624065e-01 -4.123912098534021076e-01 -5.465776369809360880e-01 -7.288253403854613177e-01
-1.993445513963027216e-01 -6.607695018153194599e-01 -3.205605306397691923e-01 -4.123912098534021076e-01 -5.465776369809360880e-01 -7.288253403854613177e-01
-1.992140902375849620e-01 -6.517073982820036360e-01 -3.082467633899406145e-01 -3.675274951470721141e-01 -5.260719529429912500e-01 -7.669236211238157352e-01
7.342410666245792195e-01 -1.229130873705586713e-01 2.830300092732203066e-01 5.331289094898032932e-01 -2.241195358784191238e-01 8.158088008252027956e-01
7.303501393467002334e-01 -6.317918237385622415e-02 2.863110637828745753e-01 5.331289094898032932e-01 -2.241195358784191238e-01 8.158088008252027956e-01
3.727742449294132454e-01 -5.765074477507029505e-01 1.085403698974386627e-01 7.782531892833430831e-01 -5.734981744479086263e-01 2.557768896425572369e-01
3.817294365599177008e-01 -5.731662786099108731e-01 1.372142410602277263e-01 7.782531892833430831e-01 -5.734981744479086263e-01 2.557768896425572369e-01
7.309196022010091554e-01 -1.202463349031760581e-01 2.170851490003490869e-01 5.383662494620715666e-01 -3.948394106976086393e-01 7.444888321527112218e-01
7.250787950259449666e-01 -1.522388057130497074e-01 2.670300757729061614e-01 5.383662494620715666e-01 -3.948394106976086393e-01 7.444888321527112218e-01
1.207529829002879085e-01 6.794179476799080963e-02 9.731286139349109021e-01 5.476941635220896609e-01 2.156563944200544092e-01 8.084079556694011570e-01
1.060071043052591144e-01 4.762149572805096653e-02 9.501881370246763048e-01 5.476941635220896609e-01 2.156563944200544092e-01 8.084079556694011570e-01
4.284446454150493411e-01 -3.497314591221851732e-01 3.491957735133041640e-01 5.788319987157032331e-01 -5.486638480761858450e-01 6.032590646455436856e-01
4.541019123010962000e-01 -3.016826625005292750e-01 3.708042391939115889e-01 5.788319987157032331e-01 -5.486638480761858450e-01 6.032590646455436856e-01
4.596573036448844407e-01 -3.124177043907431228e-01 3.715582416331511539e-01 5.788319987157032331e-01 -5.486638480761858450e-01 6.032590646455436856e-01
4.490183139193717476e-01 -3.267491102938794856e-01 4.011361465970731954e-01 5.821000587439701945e-01 -5.214215295349001744e-01 6.239223590702225319e-01
4.176694237058314330e-01 -3.154475385803923171e-01 4.024154093201441351e-01 5.821000587439701945e-01 -5.214215295349001744e-01 6.239223590702225319e-01
4.687483327596677074e-01 -2.706095996543219639e-01 4.030831036223834762e-01 6.031719907941761605e-01 -4.875662949931532930e-01 6.312389860488972770e-01
2.055231740589420764e-01 -1.323091449915156925e-01 8.365893194000875166e-01 6.754619621701711818e-01 -3.989997028512441979e-01 6.201212581308923610e-01
1.837832436792738999e-01 -1.209352412009719324e-01 8.185185878573404406e-01 6.754619621701711818e-01 -3.989997028512441979e-01 6.201212581308923610e-01
-1.964545632088625093e-01 -6.706468509360140606e-01 2.355695545206551444e-01 -5.020551006638558356e-01 -5.408993277793503474e-01 6.748100422380007846e-01
-1.441611139741763858e-01 -6.689016424571513353e-01 3.124851472864065838e-01 -2.767680845398737821e-01 -5.281451957669496267e-01 8.027839557243404700e-01
3.375591314535055232e-01 2.543419729439344024e-01 5.100344431637023890e-01 6.759929941845933543e-01 4.813318904643446028e-01 5.579902176878805964e-01
3.033746049755208785e-01 2.544929579901855643e-01 5.963928888071267087e-01 6.759929941845933543e-01 4.813318904643446028e-01 5.579902176878805964e-01
4.594494571252447090e-01 -3.011185157525753109e-01 3.889502506448033747e-01 5.875362822045956390e-01 -5.107923592097560750e-01 6.276083833618965047e-01
2.996074357296975577e-01 2.093113912757214867e-01 6.371121660668201958e-01 7.029710234788251189e-01 4.648199366275375666e-01 5.383067588863297281e-01
3.097001211915848540e-01 2.011000202755595656e-01 6.020068142492798202e-01 7.029710234788251189e-01 4.648199366275375666e-01 5.383067588863297281e-01
6.073002109855751840e-02 -8.117880585514882785e-01 -2.342690453641920190e-01 1.215189472676864724e-01 -5.582452555664322302e-01 -8.207285666360846221e-01
-3.785628861624519281e-01 -3.958293808806025438e-01 4.130757909497235758e-01 -5.498123042642607539e-01 -5.824304040631059776e-01 5.987330410980430395e-01
-3.469446552723608468e-01 -4.062745313518877355e-01 3.875154224674469683e-01 -5.498123042642607539e-01 -5.824304040631059776e-01 5.987330410980430395e-01
-2.420324536753903355e-01 -5.344162285716179683e-01 3.799159296692231624e-01 -4.397523628259548123e-01 -5.878054499472961103e-01 6.790453684410536761e-01
-2.326257920796360734e-01 -5.685703668250929876e-01 3.472669456360112927e-01 -4.397523628259548123e-01 -5.878054499472961103e-01 6.790453684410536761e-01
3.036115795620261126e-01 6.995222547917269440e-02 7.248789276828867534e-01 8.308415808260359858e-01 1.571491600408255473e-01 5.338599152108691737e-01
-2.284373635872101183e-01 -4.848262640891372599e-01 3.829321210009190568e-01 -4.824515671343334033e-01 -5.699310108570391220e-01 6.651459450625096803e-01
-2.626384427282750234e-01 -4.840251840299712449e-01 3.443121671656867999e-01 -4.824515671343334033e-01 -5.699310108570391220e-01 6.651459450625096803e-01
-1.324358474212167236e-01 -5.230526177646126484e-01 3.781264287925686918e-01 -3.294680800518256514e-01 -6.055549098719200662e-01 7.243990856958438807e-01
7.552704125790007939e-02 -9.412170192490474374e-01 1.370533410521084516e-01 3.823204215150007301e-01 -7.161046926705203486e-01 5.839735990846263158e-01
5.769125312679506123e-01 -1.611702347457091011e-01 3.365933940186170426e-01 5.574646061213455184e-01 -3.354173580867366722e-01 7.594263682649470271e-01
6.418050711471331438e-01 -1.821551989541001504e-01 3.295602048024092179e-01 5.574646061213455184e-01 -3.354173580867366722e-01 7.594263682649470271e-01
2.833503164842454680e-01 -1.556051077698408780e-01 6.916180500255796337e-01 7.309047485343367345e-01 -4.104633721346929165e-01 5.452504641958361153e-01
9.660760356139114213e-01 6.074803199646413437e-02 -2.770670639928345461e-02 8.483433773973620973e-01 4.423652061697938009e-01 -2.909064083109762500e-01
2.675821464224019675e-01 -7.686978772414158056e-01 -1.370610649703684070e-01 7.723897937025222538e-01 -5.462430551678744139e-01 -3.240872278647242144e-01
4.945185484445348001e-01 1.982763001531145236e-03 4.290805267959508784e-01 6.547735267338492537e-01 -1.028597969651405715e-02 7.557551371378166127e-01
2.783016846219257823e-01 -7.271541165072098467e-01 -1.807260669082972060e-01 7.493230473775377432e-01 -5.384590872146761686e-01 -3.854565890794686145e-01
-7.234278355726181386e-02 -4.256397353008728457e-02 -9.958197972590957514e-01 -3.875926988916149618e-01 -1.747804257290494490e-01 -9.051097737555848788e-01
7.500946168433767491e-01 2.782437532978845329e-01 2.795631045337075571e-02 5.474712383027712237e-01 8.303739074486422567e-01 1.037035055323777405e-01
7.918426094186121755e-01 2.761067294158768837e-01 2.967673994847706831e-02 5.638894020203325530e-01 8.101575180902900186e-01 1.602296419859109422e-01
5.039314188500777503e-01 -7.668901847194641019e-02 4.126495941774800391e-01 6.727405036978979513e-01 -7.587054946435295433e-02 7.359781752255128984e-01
5.065068920786034434e-01 -2.290688947954498678e-02 4.390459133099966493e-01 6.727405036978979513e-01 -7.587054946435295433e-02 7.359781752255128984e-01
-1.363751201361962651e-01 9.290289974023043795e-01 5.940131775094839583e-02 -6.042680076148149171e-01 7.068295675784685983e-01 3.677664168600189298e-01
5.556040433822029279e-01 -4.111114841283376037e-02 3.872829226236997324e-01 6.207043303528606559e-01 -5.938129859035013586e-02 7.817928086513270536e-01
5.507120609867175443e-01 -1.706029839804976134e-02 3.973173413613365623e-01 6.349119940138806539e-01 -3.912669537017919585e-02 7.715930673397262129e-01
5.362019746210439086e-01 1.651347328268834569e-02 4.327210820018522752e-01 6.349119940138806539e-01 -3.912669537017919585e-02 7.715930673397262129e-01
5.330591931839341324e-01 -5.841311844598916225e-02 4.463465599674202311e-01 6.151455911482122119e-01 -1.332333898030457764e-01 7.770744916238766509e-01
4.225285750023998199e-01 -5.207220075100609247e-01 -6.572999246496340209e-02 7.635242359772127507e-01 -6.201793156861424849e-01 -1.800232136989044218e-01
3.994989333575191814e-01 -5.578023475899780426e-01 -6.334553823646676962e-02 7.635242359772127507e-01 -6.201793156861424849e-01 -1.800232136989044218e-01
5.906018301924008673e-01 3.051225233837399631e-01 2.454051951961707112e-01 5.332753617781806899e-01 6.602311513479924843e-01 5.288782613324682913e-01
8.454287085390753687e-01 2.059951308986818774e-01 1.158694718352277914e-01 6.120300631369142152e-01 7.055799543242787797e-01 3.571780086628703610e-01
8.049413993014418178e-01 1.840818000652088837e-01 9.469019291141557437e-02 6.120300631369142152e-01 7.055799543242787797e-01 3.571780086628703610e-01
1.904457943488348515e-01 -8.547975891979542329e-01 1.454763323584799539e-01 6.146119848325252155e-01 -6.010572714812844053e-01 5.108642329422733441e-01
1.759349484588141610e-01 -8.247297955640662259e-01 1.625732725044521931e-01 6.146119848325252155e-01 -6.010572714812844053e-01 5.108642329422733441e-01
6.748201382801696235e-01 -1.944456835275750958e-02 3.274857815806893613e-01 5.576809776996111134e-01 -6.458192432193589697e-03 8.300302517755089315e-01
1.784526081070388348e-01 -8.374850684797713329e-01 1.340795099635272991e-01 6.098378980624857837e-01 -6.054868246042598434e-01 5.113545182330743177e-01
1.891552708521178627e-01 -7.692793068532597367e-01 1.643605020061516264e-01 6.540357159620889815e-01 -5.479668889406639209e-01 5.215070190042007114e-01
2.601858880808881058e-01 -7.021476482242064998e-01 1.639432088837145252e-01 7.226153479873818064e-01 -5.273940007490351967e-01 4.468586206251388138e-01
2.575354144976545467e-01 -7.460083461542719174e-01 1.556987779579816766e-01 7.235164982464084016e-01 -5.486575051892723653e-01 4.189257914771284397e-01
4.179479380806859212e-01 -5.259742917265565199e-01 2.147758473265844181e-01 7.043118968303014871e-01 -5.842958156231241595e-01 4.031664071182158859e-01
6.647820053131205942e-01 -3.037576369975170110e-02 3.331455879223029770e-01 5.637959743634110010e-01 -9.435608456836062918e-02 8.205065682836062413e-01
6.470194949517841243e-01 -4.875104879486855114e-02 3.260104195967403751e-01 5.637959743634110010e-01 -9.435608456836062918e-02 8.205065682836062413e-01
6.432576317590186221e-01 -2.601405156881680600e-02 3.348152072424347425e-01 5.637959743634110010e-01 -9.435608456836062918e-02 8.205065682836062413e-01
1.514289404065947697e-01 -9.069557159523976564e-01 -1.197985154489945164e-01 5.436561517022918677e-01 -7.156949260459249951e-01 -4.384276012620245133e-01
6.123772805622993420e-01 -8.435530289732857956e-02 3.463423162569950198e-01 5.458918329866619956e-01 -2.298521993637714644e-01 8.057109116340048782e-01
6.848081886585551947e-01 -8.058475772117310032e-02 2.975941181894870002e-01 5.458918329866619956e-01 -2.298521993637714644e-01 8.057109116340048782e-01
-8.293230929024127951e-01 2.090135515175595704e-01 -2.728127318676390814e-02 -5.813530450050202747e-01 8.131879189722268642e-01 -2.745988894751145645e-02
6.293775919339578140e-01 -1.459808634913732084e-01 3.296531541641485874e-01 5.629051615504435668e-01 -2.798887020674327708e-01 7.776889439582362895e-01
-1.348341190673046086e-01 -8.171161406258811155e-01 -1.601298251059784516e-01 -5.275022801544971829e-01 -6.065053407190972301e-01 -5.948887426326189276e-01
7.074382409144608364e-01 2.587589568037421683e-01 -1.072598764901893792e-01 5.322878630666865174e-01 8.171637988388283924e-01 -2.211627380441721913e-01
7.609692267712113711e-01 2.863412642818701781e-01 -6.522441829777538003e-02 5.322878630666865174e-01 8.171637988388283924e-01 -2.211627380441721913e-01
-1.363767863860052276e-01 -8.120999867696789831e-01 -1.970442714256351036e-01 -4.316382749411719066e-01 -5.611541610485476506e-01 -7.062537838084196329e-01
-1.394747694901203316e-01 -6.472056305576943114e-01 -3.208456891873966432e-01 -2.944621099923023788e-01 -5.362602764174890790e-01 -7.910227441202430931e-01
-1.276433109007110989e-01 -6.793279858352719858e-01 -2.663654955161127158e-01 -2.944621099923023788e-01 -5.362602764174890790e-01 -7.910227441202430931e-01
-8.201017040150235249e-02 -5.227611708065718066e-01 -4.350926612733250765e-01 -1.765451018460613142e-01 -6.206771918216745787e-01 -7.639317054334923141e-01
7.638693172966276590e-01 -1.376498675164111729e-02 3.046610650574719803e-01 5.172124133385548328e-01 4.345822099308990771e-02 8.547530067315489699e-01
7.989808028243412519e-01 2.067912942880574534e-02 2.254179272596046890e-01 5.576785503795784749e-01 1.483523845887987219e-02 8.299244243582665215e-01
7.534380391875754590e-01 -5.861539234788173958e-02 2.793260110532175822e-01 5.534489077087970665e-01 -1.099750820321201000e-01 8.255905691612327457e-01
7.980357056728700771e-01 -2.618754956096314146e-05 2.488284508161474062e-01 5.650749632591209881e-01 9.599393508091899618e-03 8.249837195617740759e-01
7.841104415446731313e-01 -1.145914275711257778e-02 2.439320022254037046e-01 5.650749632591209881e-01 9.599393508091899618e-03 8.249837195617740759e-01
-1.473371795832565390e-01 -3.053442852574341643e-02 9.233538320605630956e-01 -6.695815744085349408e-01 -1.546973840124295230e-01 7.264497467769525096e-01
4.511695174940658082e-01 -7.559370311265391218e-02 4.335013182669105736e-01 6.651594762961268170e-01 -2.026088152137807130e-01 7.186880680038665314e-01
5.225825864960101930e-01 -1.562244709831973610e-01 4.255864780790478141e-01 6.434964183582524422e-01 -2.623235170518989912e-01 7.190957738449190728e-01
4.733995264772121181e-01 -1.133044835586036331e-01 4.451513876547965598e-01 6.501430239040825176e-01 -2.898311741434285160e-01 7.023616867138307018e-01
5.316960989017900374e-01 -1.536512034083535039e-01 4.172220070697948424e-01 6.149440576801974423e-01 -2.146455078049772647e-01 7.587958301829007546e-01
-1.472987534043899704e-01 6.176703796309355177e-01 3.496799085146419239e-01 -2.853618998625068182e-01 5.415016545447962626e-01 7.907872939242946986e-01
-1.133855694517011264e-01 6.448218327675037109e-01 3.457981283969073782e-01 -2.853618998625068182e-01 5.415016545447962626e-01 7.907872939242946986e-01
-1.772426342778070374e-01 5.909068860478733365e-01 3.300794347688270625e-01 -3.362755798096297433e-01 5.506935047627502522e-01 7.639734277027022680e-01
-1.713437356522881927e-01 6.132407543548574758e-01 3.434261764732783329e-01 -3.362755798096297433e-01 5.506935047627502522e-01 7.639734277027022680e-01
5.832041387422091105e-01 -2.727083968051020602e-01 2.827739337083314264e-01 5.317207075144643191e-01 -5.407084827995943810e-01 6.518492355053264742e-01
6.145530452940027866e-01 -2.155305014017478982e-01 3.003873221866513732e-01 5.317207075144643191e-01 -5.407084827995943810e-01 6.518492355053264742e-01
6.206820085053632585e-01 -2.084151592015715260e-01 3.259472951926645767e-01 5.517019436101104901e-01 -4.301311911638302510e-01 7.145712867200941787e-01
2.087813736090526895e-01 -7.890846637204299574e-01 -1.893192723906269859e-01 5.383751063297279593e-01 -5.523208995532826737e-01 -6.364698490903609729e-01
7.919938352647557522e-01 -1.121074209021688806e-01 2.418884195160094785e-01 5.697109184304063323e-01 -2.725838659632474070e-01 7.753241292760810754e-01
7.839349957907512101e-01 4.783644472348151655e-02 2.368858216110786286e-01 5.785934589168945097e-01 1.552814871868846980e-01 8.006979886546570224e-01
1.780570143209110057e-01 -6.570727214450724496e-01 -2.968435342858143366e-01 4.403618011446246427e-01 -5.400288746049544120e-01 -7.172519074115929483e-01
8.162453099146926849e-01 3.516537847427430447e-02 2.204041275424557800e-01 5.901285349861616902e-01 1.469396483834689848e-01 7.938243205697522731e-01
8.050701429501490036e-01 4.168053290225390978e-02 2.210354924227745377e-01 5.901285349861616902e-01 1.469396483834689848e-01 7.938243205697522731e-01
7.978258506284093832e-01 1.036248969266957143e-01 2.165860925620031185e-01 5.781445427717545327e-01 2.433774473054026999e-01 7.787915676266305987e-01
2.328792299499371221e-01 -5.354697853069675384e-01 -3.443214306045445650e-01 4.430032204381361693e-01 -5.872330003802012088e-01 -6.774256785403892644e-01
2.391209353466560439e-01 -4.858209217025151738e-01 -3.883530704076089135e-01 4.430032204381361693e-01 -5.872330003802012088e-01 -6.774256785403892644e-01
2.608228611900689775e-01 -4.617591219042048722e-01 -3.949321831663834548e-01 4.726325910265104513e-01 -5.740504319450328019e-01 -6.686438031443113772e-01
6.761774226177499347e-01 2.258163388638222135e-01 2.448697728479497238e-01 5.438321901422393800e-01 5.848850552072750730e-01 6.017940022634636899e-01
8.578785736386457250e-01 8.900648044322712754e-03 2.223865814344705982e-01 5.987536321260160666e-01 7.222571168064165215e-02 7.976700662480248338e-01
8.424960230469878963e-01 -1.377376023438904584e-02 2.192424768793344581e-01 5.987536321260160666e-01 7.222571168064165215e-02 7.976700662480248338e-01
4.657585227865208566e-01 1.681524605391935823e-01 4.424397414108597326e-01 6.399221011357859590e-01 3.407321722353205407e-01 6.887679516947348146e-01
4.381129375828262118e-01 1.757313371861512208e-01 4.701232353570938272e-01 6.399221011357859590e-01 3.407321722353205407e-01 6.887679516947348146e-01
1.736438346725560633e-01 -5.175088418748682306e-01 -3.655944054319111847e-01 3.398643277053892131e-01 -5.891206451390835763e-01 -7.330955628185684692e-01
-7.175060472745062867e-01 -2.960962538971484981e-01 8.279940066340552018e-02 -5.251158655598051617e-01 -8.215327936608255444e-01 2.221197800224373742e-01
-6.933131365025662074e-01 -3.037628957638984772e-01 6.008759844004110673e-02 -5.251158655598051617e-01 -8.215327936608255444e-01 2.221197800224373742e-01
1.325185265293550574e-03 -6.881785448048840514e-01 3.450983456935228788e-01 -7.022382103539953624e-02 -5.495612375050891174e-01 8.324968835924031474e-01
-4.725442015691359854e-02 -6.057876113774240956e-01 3.801284348240445143e-01 -7.022382103539953624e-02 -5.495612375050891174e-01 8.324968835924031474e-01
9.325341922023536734e-01 -8.168268500136389998e-02 4.176090042306643962e-02 8.508442656563992568e-01 -4.530911027509850197e-01 2.660309910659265920e-01
6.598992932359286356e-02 4.441402455981056097e-01 -5.237176372970717697e-01 1.480231109218825003e-01 7.517973663229008396e-01 -6.425650773446670572e-01
-4.758789116064682245e-02 -5.983256742580888021e-01 3.898926058033619912e-01 -1.035628913919007937e-01 -5.778586122111684098e-01 8.095394689698162116e-01
3.595660186930184632e-01 1.200165697093578676e-01 5.647513985152846638e-01 7.684532882795082065e-01 2.609844520835738479e-01 5.842659150618387809e-01
4.002284378302052303e-01 1.190243173915735697e-01 5.695833986865399545e-01 7.684532882795082065e-01 2.609844520835738479e-01 5.842659150618387809e-01
-4.504451516440570180e-01 -5.186530804330423683e-01 2.028301887803261871e-02 -7.180879672911655298e-01 -6.956334279789941899e-01 2.106668245917333454e-02
-4.498364773366794189e-01 -4.948173793944310450e-01 1.574955424405659055e-01 -7.323573305885936469e-01 -6.121200395098187474e-01 2.982646435024560727e-01
-4.068647627879288797e-01 -5.148127326838706219e-01 1.303924415077925281e-01 -7.323573305885936469e-01 -6.121200395098187474e-01 2.982646435024560727e-01
-3.404719110308507268e-01 -6.562215833493768580e-01 1.012820006470387252e-01 -8.017312654771644453e-01 -5.514780688830410726e-01 2.304320235935456151e-01
7.957775248707984472e-01 -2.391512124238892589e-01 -5.235284493095564845e-02 5.442433669884760850e-01 -8.312830123320684717e-01 -1.129942958612027704e-01
5.621593790148459169e-01 -3.378461564747330392e-01 -2.483432904635255456e-01 5.471913561048158403e-01 -6.733092166029291947e-01 -4.972286381954707513e-01
5.432428532699541401e-01 -3.165903252101545107e-01 -2.174321255210530657e-01 5.471913561048158403e-01 -6.733092166029291947e-01 -4.972286381954707513e-01
6.425286687851086143e-01 -2.656719112398081006e-01 -2.176155671740086506e-01 5.503850244811339110e-01 -6.496154626337036220e-01 -5.244769542449895239e-01
6.152402289594310902e-01 -2.824831013088677234e-01 -2.492517989496741138e-01 5.503850244811339110e-01 -6.496154626337036220e-01 -5.244769542449895239e-01
-3.724040899415874684e-01 -5.787269029809278820e-01 1.667590221790322125e-01 -7.494707529554835990e-01 -5.754618841443757127e-01 3.273182096390993556e-01
7.683958022361934148e-01 -2.647699055514096678e-01 -1.093524782017760710e-01 5.477985777152453162e-01 -7.781819286711870731e-01 -3.071638066939950118e-01
7.713435019928862602e-01 -2.861177712761353020e-01 -1.456253933574072901e-01 5.477985777152453162e-01 -7.781819286711870731e-01 -3.071638066939950118e-01
7.902706901392482219e-01 -2.396425612954674322e-01 -8.283349154169847295e-02 5.477985777152453162e-01 -7.781819286711870731e-01 -3.071638066939950118e-01
-3.526190458343980705e-01 -6.133489881836957647e-01 -8.344882744166336186e-02 -8.107980155226748309e-01 -5.688317929921120619e-01 -1.379745241190252214e-01
-3.292015731509428389e-01 -6.546786308055490000e-01 -9.491683916977373958e-02 -8.107980155226748309e-01 -5.688317929921120619e-01 -1.379745241190252214e-01
-3.146118540067712188e-01 -1.710000873134547572e-01 6.363390113409325144e-01 -7.633462115931767267e-01 -3.531685170316777311e-01 5.409016175091275747e-01
-3.552225447841363959e-01 -1.442426069903642583e-01 5.943363827637964114e-01 -7.633462115931767267e-01 -3.531685170316777311e-01 5.409016175091275747e-01
-6.604731389406593989e-01 3.268560176295637887e-01 1.408934556651275094e-01 -5.280133998315705846e-01 7.725866225300365153e-01 3.525787292023395136e-01
-7.001077956537878899e-01 3.013441005954783369e-01 1.660625462867747759e-01 -5.280133998315705846e-01 7.725866225300365153e-01 3.525787292023395136e-01
6.793644810790037125e-01 -2.528654347493479726e-01 1.834410463692776327e-01 5.194706140092002489e-01 -6.606785054805660584e-01 5.418986930938937130e-01
6.883431786541732711e-01 -2.805307297185993254e-01 1.840003473582833282e-01 5.420518486431712413e-01 -6.891694835969462973e-01 4.808588319467979599e-01
6.669448777017336072e-01 -3.158042038319471834e-01 2.175025874674775539e-01 5.329697077534120142e-01 -6.959200048840813446e-01 4.812885178553326093e-01
8.756503604523920847e-01 -1.029057785500645666e-02 2.121536417982449185e-01 6.159438550364295661e-01 -4.889892033424576845e-02 7.862709857504643907e-01
4.244193329100808265e-01 -4.512763171350142599e-01 2.008686654769136215e-01 6.170117042702302212e-01 -6.882868313494852064e-01 3.815203724369529703e-01
4.638269899078895642e-01 -4.076889427129870014e-01 2.173073552091826510e-01 6.170117042702302212e-01 -6.882868313494852064e-01 3.815203724369529703e-01
8.832628521296018720e-01 1.037095538708776576e-01 1.557671837409654592e-01 6.767653875312081846e-01 4.636816299742330116e-01 5.718286074202411084e-01
-3.521314110327113389e-01 -5.408394735000219278e-01 -1.375022770284142215e-01 -7.279393882995695009e-01 -5.961450398423506769e-01 -3.386965285228220601e-01
-3.913854746300322596e-01 -5.137196911122813292e-01 -1.732313981574476747e-01 -7.279393882995695009e-01 -5.961450398423506769e-01 -3.386965285228220601e-01
-4.345981884597227562e-01 -5.079485428040618755e-01 -2.013587135525637950e-01 -7.279393882995695009e-01 -5.961450398423506769e-01 -3.386965285228220601e-01
-4.381629482473630710e-01 -5.067524279961285183e-01 -1.585177698387751910e-01 -7.279393882995695009e-01 -5.961450398423506769e-01 -3.386965285228220601e-01
-4.737049097804064690e-01 3.304185574203186149e-02 -4.927402958070390415e-01 -7.373292217262450432e-01 -3.073332689225805048e-02 -6.748341139915078335e-01
-4.807048765698488935e-01 -1.279938980567408950e-02 -4.756339328337593209e-01 -7.373292217262450432e-01 -3.073332689225805048e-02 -6.748341139915078335e-01
-4.977665686051475635e-01 -5.136141062720375218e-03 -4.797111349758164112e-01 -7.373292217262450432e-01 -3.073332689225805048e-02 -6.748341139915078335e-01
-6.657318498251479921e-02 -8.228770785994088399e-01 2.424467928831597896e-01 -1.851818735639856051e-01 -5.688159428818426733e-01 8.013464274748920424e-01
9.096903969737474283e-02 2.653151099320400497e-01 7.272556133411645085e-01 2.656027654253824699e-01 8.040839793771153987e-01 5.318873236950210082e-01
1.369329084048364065e-01 2.883103342155036719e-01 6.993584097162983682e-01 3.273620467437634018e-01 7.750640840438549617e-01 5.404717901768735233e-01
9.408654108873893973e-01 7.337035928702578813e-02 1.250253766855437820e-01 7.829109119706397779e-01 3.657706335722656910e-01 5.032517735025325845e-01
6.464163599629351165e-01 2.150482465395806564e-01 -2.914800779958291455e-01 5.469800984320667414e-01 4.676241409710752417e-01 -6.943633304692222730e-01
6.612316301341648606e-01 1.792299716645130436e-01 -2.695478073749115189e-01 5.469800984320667414e-01 4.676241409710752417e-01 -6.943633304692222730e-01
3.555366867683698029e-01 1.015981700109234720e-01 6.479348058016293210e-01 8.130105887736240877e-01 1.771674364081455011e-01 5.546399571059867917e-01
3.602194560493244824e-01 1.210214289539971594e-01 6.261938532034854177e-01 8.130105887736240877e-01 1.771674364081455011e-01 5.546399571059867917e-01
9.134281845714233850e-01 6.525907817363922614e-02 1.427697584645255258e-01 7.423235473903924131e-01 2.673757736289595344e-01 6.143825735370911367e-01
-4.871322941957404590e-02 1.728717518007184539e-01 8.812678794584390962e-01 -3.344331052030342644e-01 6.691205049367002777e-01 6.636506972930197312e-01
-4.010954454298041455e-02 1.510299726058438596e-01 9.228359039339057990e-01 -3.344331052030342644e-01 6.691205049367002777e-01 6.636506972930197312e-01
-1.781577117549625056e-01 2.617742058153975648e-01 -7.325558993771581484e-01 -4.855145755798754847e-01 6.822639899463528446e-01 -5.466181893442408901e-01
-2.147015258806093119e-01 2.503814051460550583e-01 -6.806521514628863789e-01 -4.855145755798754847e-01 6.822639899463528446e-01 -5.466181893442408901e-01
-1.476746482533181359e-01 1.878880943986448726e-01 -7.939753609065142159e-01 -4.748510820524916021e-01 6.786467906110974502e-01 -5.603168598809383782e-01
-2.056193257235877647e-01 1.985433214034132421e-01 -7.664620131661687985e-01 -4.748510820524916021e-01 6.786467906110974502e-01 -5.603168598809383782e-01
5.550544430139956464e-01 -3.455458197731717251e-02 -4.120188960339928874e-01 5.990700614507046273e-01 -7.150499180268109212e-02 -7.974973966231785338e-01
-1.414355334480872362e-01 2.268369339844786281e-01 -7.997121021195228163e-01 -3.742031765436509283e-01 7.428233118754357100e-01 -5.551445847696350189e-01
8.875998015806885189e-01 -4.264696315122252189e-03 1.743898539483555998e-01 6.925403500127913503e-01 5.196870738183693300e-02 7.195047720878726683e-01
2.233825512714823491e-01 1.487531095723331198e-01 -7.378219033225374979e-01 6.639017846808693557e-01 5.215262512205098844e-01 -5.359522269619169110e-01
1.344795956629474543e-01 1.956457546111412815e-01 -8.223301368245579113e-01 4.581109657804018909e-01 6.535937879667516048e-01 -6.024529055146304879e-01
8.371508716146753848e-01 3.063606859838292895e-02 2.033048816509312184e-01 6.538625150999488600e-01 8.941465615776367226e-02 7.513114072149829070e-01
9.094281572104253586e-01 -1.040415822184847031e-02 1.686059711594431743e-01 6.538625150999488600e-01 8.941465615776367226e-02 7.513114072149829070e-01
9.176192289054273532e-01 1.431437798900132841e-02 1.890631740945716566e-01 6.538625150999488600e-01 8.941465615776367226e-02 7.513114072149829070e-01
1.288830130778697569e-01 1.489353777267479195e-01 -8.656401494927131735e-01 4.892160642892922628e-01 6.066233506762798156e-01 -6.266384546575307635e-01
1.489523442794000729e-01 1.590985278499971456e-01 -8.347565339325503375e-01 5.923525090088092027e-01 5.466319370033396741e-01 -5.918716334805593782e-01
2.555194260642397741e-01 1.447804383977520370e-01 -7.668616432961599116e-01 7.518281648272425732e-01 3.623201311900225430e-01 -5.508888573087546980e-01
2.341655078255199252e-01 1.366630958947264995e-01 -7.713474383623584174e-01 7.518281648272425732e-01 3.623201311900225430e-01 -5.508888573087546980e-01
-9.970692240009956797e-02 -3.614613625358309434e-01 6.629396008032844012e-01 -1.641581213789665983e-01 -8.195646840688737278e-01 5.489679770372909440e-01
6.587676655130292325e-01 -2.482287312597205586e-01 -2.418358361893813424e-01 5.349844998950225028e-01 -5.720579026724892380e-01 -6.217244895144677930e-01
6.975431137319615393e-01 -2.136104039951504940e-01 -2.236813521545156502e-01 5.349844998950225028e-01 -5.720579026724892380e-01 -6.217244895144677930e-01
6.900486850851380582e-01 -2.378868912565960114e-01 -2.606205673784607324e-01 5.349844998950225028e-01 -5.720579026724892380e-01 -6.217244895144677930e-01
-1.564097068576603411e-01 5.493636585568262981e-02 -9.340912853593230647e-01 -6.093300000163016650e-01 2.748484545928605582e-01 -7.437575398529078230e-01
1.064505060144485815e-01 -2.072016222285396614e-01 -8.223174694498386339e-01 4.157368251212350541e-01 -6.946361668026959091e-01 -5.870634446188699451e-01
9.761049518887676690e-02 -1.729043967150488414e-01 -8.570014501169596066e-01 3.137534539243218568e-01 -7.339876882458191698e-01 -6.023461161608967274e-01
8.094650767843961092e-02 -1.421072524906755175e-01 -8.778093143133747223e-01 4.263188951087958367e-01 -6.387431420247751124e-01 -6.405149476706484268e-01
3.471946421300471375e-01 6.805340250544456016e-02 6.215877131378149123e-01 8.258052723770822334e-01 9.390446307299059325e-02 5.560823715324794136e-01
-2.158042990107603837e-02 -2.832173500793880860e-01 -7.216185899247146152e-01 -6.700228718844881970e-02 -8.407727843037636761e-01 -5.372260405877710143e-01
-3.022665713400576187e-02 -2.822980925134251362e-01 -7.148474629423052784e-01 -6.700228718844881970e-02 -8.407727843037636761e-01 -5.372260405877710143e-01
4.707888943104315826e-01 -2.162526031607824306e-01 -4.179411407020571789e-01 6.161162359545094835e-01 -4.194863183280228003e-01 -6.666573426647665057e-01
4.792990279277323240e-01 -2.311095835520318442e-01 -4.227448548052589183e-01 6.161162359545094835e-01 -4.194863183280228003e-01 -6.666573426647665057e-01
5.139023614122915085e-01 -2.161666282154605656e-01 -4.038838719772676056e-01 5.709704981243598487e-01 -4.231574178259451813e-01 -7.035129636406843856e-01
5.106026632750888528e-01 -2.540820737610241520e-01 -4.330236602814767632e-01 5.709704981243598487e-01 -4.231574178259451813e-01 -7.035129636406843856e-01
4.042505051599700749e-01 -3.726250589524415791e-01 -3.989383709020251634e-01 5.770138814183495279e-01 -5.953021309030385178e-01 -5.591693425008494867e-01
4.443313659618444711e-01 -4.187608002847131861e-01 -3.413760171460033521e-01 5.770138814183495279e-01 -5.953021309030385178e-01 -5.591693425008494867e-01
4.167378939557841999e-01 -4.015785989676254331e-01 -3.528785757178098947e-01 5.770138814183495279e-01 -5.953021309030385178e-01 -5.591693425008494867e-01
4.296451588328211724e-01 -3.339606516301634742e-01 -3.318481974425162573e-01 5.770138814183495279e-01 -5.953021309030385178e-01 -5.591693425008494867e-01
1.027904118245794418e+00 -1.214397402565974698e-02 -1.593691971948333480e-02 9.967795339947735922e-01 -6.986360292797824667e-02 3.936543655396190083e-02
9.846879716535914540e-01 2.009305299548848345e-02 2.976013082940759738e-02 9.423403355440610474e-01 4.453847992181840520e-03 3.346264413413393979e-01
4.668313349209305962e-01 6.659077363695173335e-02 -4.607179698790571098e-01 6.638344329091531160e-01 2.096000676789023243e-01 -7.179078334390723848e-01
-2.163357388502342993e-01 -3.111575434444047716e-01 -5.844966859720833741e-01 -4.811179177157864917e-01 -6.900762427272365551e-01 -5.406665594211333969e-01
-2.195056455489504676e-01 -2.983615623781525894e-01 -6.170810483481387054e-01 -4.811179177157864917e-01 -6.900762427272365551e-01 -5.406665594211333969e-01
4.988185546895997358e-01 -1.546601769770139870e-02 -4.154605467433327703e-01 6.728679022108148278e-01 9.033340634406540268e-03 -7.397074995776372619e-01
-9.786990155602201535e-02 -2.280272585335716695e-01 -7.664583838019243256e-01 -3.552599001615441843e-01 -7.505216769456698467e-01 -5.572321022445397842e-01
-1.371450528582842943e-01 -2.605136247661011817e-01 -7.732420063824183565e-01 -3.552599001615441843e-01 -7.505216769456698467e-01 -5.572321022445397842e-01
5.417720279741337075e-01 1.883004653874481571e-02 -4.096852376486928571e-01 6.338856747625036814e-01 5.502027613430346409e-02 -7.714672517644483030e-01
5.596981864598953305e-01 6.609200149047272932e-02 -4.174062839091539634e-01 6.338856747625036814e-01 5.502027613430346409e-02 -7.714672517644483030e-01
5.771113374031320298e-01 1.918162826328120504e-02 -3.887970537852978858e-01 6.338856747625036814e-01 5.502027613430346409e-02 -7.714672517644483030e-01
5.257658426511760963e-01 4.739990846666893021e-02 -3.999451949473054047e-01 6.247459688757229790e-01 1.142672619381856908e-01 -7.724218194889914679e-01
-4.970726243011060197e-02 8.947070170703404213e-02 -9.313958518520659702e-01 -4.403263293019337166e-01 3.757000101121994451e-01 -8.154521605374398519e-01
9.758052606147157304e-01 -2.588319791274791906e-02 6.707716279889608391e-02 8.915143303861124968e-01 -2.929241308028303070e-01 3.455396537441223770e-01
6.062636725068791810e-01 8.230625238132358024e-02 3.443643874287404816e-01 5.548619857553417356e-01 2.111869947242564216e-01 8.046913880631356708e-01
6.301034074026486964e-01 5.248481335387409491e-02 3.259577923410309497e-01 5.548619857553417356e-01 2.111869947242564216e-01 8.046913880631356708e-01
5.036768605289798639e-01 -4.571234235473164431e-01 1.429227656804206992e-01 6.155723224029403529e-01 -7.406169093362291456e-01 2.693646403979229054e-01
2.355008937394523910e-02 -3.997055487689365472e-01 -5.894737173583131096e-01 5.650812824235206672e-02 -8.143868568680908693e-01 -5.775646100680490447e-01
3.235257809704804310e-02 -3.607078815330430621e-01 -5.931251546141702580e-01 5.650812824235206672e-02 -8.143868568680908693e-01 -5.775646100680490447e-01
6.496124726847093619e-03 -3.252452856017952754e-01 -6.549345015201863962e-01 1.311551958093552100e-02 -8.363954983429864320e-01 -5.479694822685926558e-01
7.564223923136469407e-01 -2.630417533394939777e-01 -3.815958855122977833e-02 5.361286546130629160e-01 -8.166634262591743187e-01 -2.136045737183857596e-01
7.606958116211525178e-01 -2.767350157238029351e-01 -9.530798429956016671e-02 5.361286546130629160e-01 -8.166634262591743187e-01 -2.136045737183857596e-01
7.293606472414578823e-01 -2.912211442152937702e-01 -6.433373781809063885e-02 5.201134323517453417e-01 -8.356912642307771089e-01 -1.763579552377831094e-01
9.771609483472214475e-01 -1.663209702567074871e-02 1.028340272957314894e-01 9.184294512961432844e-01 -1.056729998736701814e-01 3.812093389327767534e-01
-1.272239248152217672e-01 1.788600131171554641e-01 8.893145735277072639e-01 -3.668706573182359265e-01 6.584067532178669024e-01 6.571959130396294313e-01
4.576777707227792646e-01 -3.821529595146598568e-02 4.721242198566985571e-01 6.951840440036516355e-01 -1.980068739067505218e-02 7.185590287106451424e-01
9.713739068750649741e-01 -2.428322708606036814e-02 7.225582760740238697e-02 8.747916841703543556e-01 -1.146980908870407628e-01 4.707269455355866938e-01
1.089250080558570866e-01 -4.906268131814371658e-02 -8.964518912253192084e-01 6.188743566040623145e-01 -2.189898116510804738e-01 -7.543460698717349144e-01
5.197387861331235204e-01 2.125547122951072093e-02 4.476631216399563074e-01 6.749247347285084464e-01 3.009520596561759617e-02 7.372725961471372491e-01
6.208844433638664728e-02 3.971067331109467274e-02 -9.898890496248279325e-01 3.638615947683673801e-01 2.664162840023084899e-01 -8.925396929386510969e-01
6.187744738384821641e-01 -3.440898823822558517e-01 8.282949497693914420e-02 5.481209868588940992e-01 -8.222715391291707254e-01 1.530780836794632116e-01
5.067175728583117600e-01 3.755906871095696098e-02 4.408967641236076762e-01 6.423837879225692271e-01 5.127870081224874393e-02 7.646656549481344323e-01
3.315436714808105423e-01 8.178866555896287249e-02 6.265164759875516687e-01 8.125796746697652173e-01 1.644467550549281731e-01 5.591704007415656541e-01
9.382462120658803251e-01 -1.067331711498119805e-02 1.373303730059192429e-01 7.411995222246935411e-01 -8.369241995734177930e-02 6.660471808329871957e-01
4.232371882737112068e-01 -1.647053659136605008e-01 -5.351589332809232324e-01 7.387498247631952841e-01 -2.884518518482404592e-01 -6.091339964061018852e-01
