3.149201234735061750e-01 4.012023362317127528e-01 -1.700551664719175404e-01 -2.277875880308649972e-02 9.996980348925981197e-01 9.217764331359358174e-03
3.640607618713320170e-01 4.152493264461952771e-01 -1.473649052515969837e-01 -1.574655161535324088e-01 9.874920900121776368e-01 -7.998961550287141120e-03
3.294326431242031727e-01 3.865159205184965918e-01 -1.470043031236154540e-01 -1.518429855113905824e-01 9.884025793944034577e-01 2.012162388438991541e-03
5.498981654269760044e-01 3.943604302302491926e-01 -1.892872005039195060e-01 3.375558049081515133e-01 2.327124917183041042e-01 -9.120860566695822014e-01
5.640304858965310419e-01 3.698608944785704011e-01 -1.965414624318267134e-01 3.473086976101941725e-01 2.316834185473087837e-01 -9.086800658837758116e-01
5.962818734301440493e-01 4.214934401190846835e-01 -1.594625104774014812e-01 3.560510662027076001e-01 2.387643814653470364e-01 -9.034485089917329015e-01
6.173674743625532368e-01 3.914319061694137569e-01 -1.780113641157138604e-01 3.560510662027076001e-01 2.387643814653470364e-01 -9.034485089917329015e-01
6.618350606237604072e-01 3.992457458913895585e-01 -1.577267536727904318e-01 3.854350219552413193e-01 2.390901958899923352e-01 -8.912214775686501111e-01
6.142161010741180593e-01 3.933284863068702841e-01 -1.539376526586942739e-01 3.783973417287436747e-01 2.392515139130307056e-01 -8.941891102350459919e-01
6.061923573097340867e-01 4.152167855151901454e-01 -1.511395159813756772e-01 3.783973417287436747e-01 2.392515139130307056e-01 -8.941891102350459919e-01
5.942096536447667443e-01 4.100225678786587058e-01 -1.814213341402476920e-01 3.783973417287436747e-01 2.392515139130307056e-01 -8.941891102350459919e-01
6.876338833126584005e-01 3.470805618226751044e-01 -1.399683593192930509e-01 4.009809299680580086e-01 2.191376839155011469e-01 -8.894902862258258214e-01
-5.873680863354572290e-01 4.372744573886858110e-01 -1.524709733185010130e-01 -3.636318166733413237e-01 2.469855254752428009e-01 -8.982037920809307074e-01
-6.092962742007990151e-01 4.057411994143285128e-01 -1.403265427350179062e-01 -3.636318166733413237e-01 2.469855254752428009e-01 -8.982037920809307074e-01
-5.747963757742102775e-01 4.691702111293901689e-01 -1.533122173064224436e-01 -3.259918622957330148e-01 2.730668305691582587e-01 -9.050766883308145605e-01
-6.279474445057483534e-01 4.453223502485878504e-01 -1.823363122077037990e-01 -3.259918622957330148e-01 2.730668305691582587e-01 -9.050766883308145605e-01
-5.660959384730948063e-01 4.295348724331009560e-01 -1.980550137091793284e-01 -3.422151872273375695e-01 2.856691385751643497e-01 -8.951435130171484511e-01
-5.306602936783360036e-01 4.212477507288163170e-01 -1.608060540861450949e-01 1.759903934810121973e-01 9.843870180812412940e-01 -3.095163246158555512e-03
-4.794341182741452823e-01 4.391118295012523820e-01 -2.141909886067399627e-01 1.755273088001362281e-01 9.844517391987104293e-01 6.703510574025963245e-03
-4.449418085149017821e-01 4.435078225942599706e-01 -1.682867099440935321e-01 2.216293342366148222e-01 9.751294663026751630e-01 1.721090960609338591e-03
-4.616715287172248328e-01 4.365203116947590223e-01 -2.016352345419820669e-01 2.216293342366148222e-01 9.751294663026751630e-01 1.721090960609338591e-03
-4.144908976556316293e-01 4.233109904794686296e-01 -1.732987113777641197e-01 2.115122196952958222e-01 9.773734897782017095e-01 1.908506837443435262e-03
-4.013792703934924155e-01 4.049002233397411832e-01 -1.586396032675500001e-01 2.158266535069798542e-01 9.764316521029879903e-01 -2.905295296495162853e-04
-3.971602015921923412e-01 3.956338694553876434e-01 -1.799997662355111439e-01 1.965592383728822501e-01 9.804917976284576175e-01 -5.482641592194333405e-04
-3.909044541855637434e-01 3.737626578646509601e-01 -1.827832533880419663e-01 1.973135285448285869e-01 9.803398286926836569e-01 -1.091664778481017716e-03
-2.948463119021560996e-01 4.327142837755977300e-01 -1.619065414893423038e-01 -7.559013630003555972e-01 6.544991336357962597e-01 1.562093096446173779e-02
-2.571234607120368998e-01 4.459001107805101727e-01 -1.762614568064532483e-01 -9.526576409570057802e-01 3.034347976674516278e-01 -1.925467971028049785e-02
-2.747300569347235211e-01 4.611794630515010929e-01 -1.449639362343637938e-01 -9.434682479383718068e-01 3.312492694998053766e-01 1.189901625951507967e-02
2.748310753660737071e-01 4.529901455403457233e-01 -1.525120072448490072e-01 9.351157075204424851e-01 3.543163170918962046e-01 -4.308246856572505584e-03
3.012207865500300952e-01 4.158964601279852014e-01 -1.606986548902352152e-01 7.380761248928369156e-01 6.747075900797041559e-01 -3.647156702301350244e-03
3.839772493346590432e-01 4.004246127980184977e-01 -1.633581616755461208e-01 -2.009756879694838960e-01 9.795951433763289140e-01 -1.458738736819553293e-03
3.822094837216952201e-01 4.144057497810431645e-01 -1.327101237017878632e-01 -2.009756879694838960e-01 9.795951433763289140e-01 -1.458738736819553293e-03
3.916738326753353983e-01 4.260001205912928857e-01 -1.683261750477582086e-01 -2.037031122165824104e-01 9.790321506731692880e-01 1.044040969994350886e-03
4.025651831616358645e-01 4.081787150786672647e-01 -1.694483469551517352e-01 -2.162482145407596534e-01 9.763384165644934942e-01 7.777063198520571367e-05
4.150902891764789437e-01 4.331758566961087520e-01 -1.562926069139415619e-01 -2.163099134300201509e-01 9.763247427392828248e-01 1.344134309821475417e-04
4.523669096567217718e-01 4.514386935615014584e-01 -1.688309964549510878e-01 -2.077650243852354472e-01 9.781765199378594788e-01 2.095348291056775385e-03
4.588058268749622415e-01 4.279068987004965852e-01 -1.870005007861675617e-01 -2.068295815493040868e-01 9.783761984330260342e-01 1.240377313536470847e-03
4.329488051664132087e-01 4.268720602438861866e-01 -1.457938366288260568e-01 -2.068295815493040868e-01 9.783761984330260342e-01 1.240377313536470847e-03
4.593910080995917689e-01 4.434421891123366821e-01 -1.526423516079478959e-01 -2.068295815493040868e-01 9.783761984330260342e-01 1.240377313536470847e-03
5.316610684352683913e-01 4.495817897788609852e-01 -1.868688472396878297e-01 -1.072046251905941078e-01 9.932467764976156133e-01 -4.436225101186520164e-02
5.081319581310003164e-01 4.295435964083241798e-01 -1.641751564529314034e-01 -1.799499382937708725e-01 9.836087487807785301e-01 1.148255328659195454e-02
5.001430291869631839e-01 4.345539850162522533e-01 -1.563747364875984480e-01 -1.799499382937708725e-01 9.836087487807785301e-01 1.148255328659195454e-02
5.273849860446906401e-01 4.122085361079970145e-01 -2.038835735565327212e-01 3.494751328740524632e-01 2.571191171174265766e-01 -9.009755219291023520e-01
5.744244472772579435e-01 4.333404728123093630e-01 -1.739389806296864904e-01 3.494751328740524632e-01 2.571191171174265766e-01 -9.009755219291023520e-01
5.643425113252042991e-01 4.370887121029536915e-01 -1.758008112793034150e-01 -1.518960471965369319e-01 9.869688762411055194e-01 -5.310393749466194024e-02
6.271982278897590968e-01 4.450960243034748354e-01 -1.504176424927388678e-01 3.528043549165779114e-01 2.596697864150915303e-01 -8.989442080435460225e-01
-2.643342594216339658e-01 4.789848304814420255e-01 -1.701596645340233971e-01 -9.861532173975798843e-01 1.655678086816559924e-01 -9.441003376546047710e-03
-2.379943340563149823e-01 4.870862484146389892e-01 -1.676009974861017437e-01 -9.847932266744883201e-01 1.737181631181786423e-01 -2.073764426310451860e-03
2.620888358541934027e-01 4.467073516695924118e-01 -1.821376125588777262e-01 9.834234667635487481e-01 1.812924800890894361e-01 -3.364770706988044497e-03
-2.843196895562998261e-01 5.212907752920356019e-01 -1.789719612721480668e-01 -9.943175333586139475e-01 1.062139390126445870e-01 7.158352817510611928e-03
-2.828454517297160908e-01 5.166333630220850681e-01 -2.020452124041830499e-01 -9.945391330384615314e-01 1.042175618462983927e-01 5.532870676080609527e-03
-2.435243865839148425e-01 5.206094733606142499e-01 -1.550846830231402129e-01 -9.945391330384615314e-01 1.042175618462983927e-01 5.532870676080609527e-03
-2.689910098528918714e-01 5.202836599419903285e-01 -1.731167325266645407e-01 -9.945391330384615314e-01 1.042175618462983927e-01 5.532870676080609527e-03
-2.719538646380966207e-01 4.998899989865778770e-01 -1.581229094495933407e-01 -9.945391330384615314e-01 1.042175618462983927e-01 5.532870676080609527e-03
-2.542972729339061377e-01 5.413719709213287157e-01 -1.983810249978857077e-01 -9.945391330384615314e-01 1.042175618462983927e-01 5.532870676080609527e-03
2.561754874097615375e-01 4.929039085585770752e-01 -1.900395088313291403e-01 9.939983203931914701e-01 1.089711687744794322e-01 9.624106786509529707e-03
2.663959963560788013e-01 5.097893883971506002e-01 -1.663950124688041987e-01 9.942829770923884425e-01 1.064790992563390409e-01 7.972633558342035603e-03
2.819099878060478126e-01 5.033472357269016539e-01 -2.122490811897077279e-01 9.942829770923884425e-01 1.064790992563390409e-01 7.972633558342035603e-03
-2.485512007986669381e-01 5.603301680131698159e-01 -2.022618337977426517e-01 -9.951424680046362381e-01 9.831578987756492416e-02 5.047161023008505353e-03
-2.609863341398305780e-01 5.667147817856672543e-01 -1.596673944469305662e-01 -9.953835155049054473e-01 9.593814250544542566e-02 2.744061533670673521e-03
2.574436929847019884e-01 5.473791137173940058e-01 -2.261558119304761250e-01 9.944705481222381183e-01 1.047102969070749373e-01 8.005163276740881115e-03
2.513715727724085691e-01 5.351613217095404496e-01 -1.901409896139285016e-01 9.944705481222381183e-01 1.047102969070749373e-01 8.005163276740881115e-03
2.635076996606948163e-01 5.568441964968200431e-01 -1.786884795891091893e-01 9.953926316218421055e-01 9.588056537662421885e-02 6.527602949816902833e-04
2.405735074797574757e-01 5.119098732881391944e-01 -1.399028340706673090e-01 9.953926316218421055e-01 9.588056537662421885e-02 6.527602949816902833e-04
2.652880893711319632e-01 5.692135690759922984e-01 -1.964631748252802512e-01 9.953926316218421055e-01 9.588056537662421885e-02 6.527602949816902833e-04
-2.631368808419979333e-01 5.892110932986299732e-01 -1.852014628915450989e-01 -9.931885597847753822e-01 1.163525990672405058e-01 6.209460760949078902e-03
-2.221534037750804991e-01 5.866822467775054673e-01 -1.646664042275806650e-01 -9.931885597847753822e-01 1.163525990672405058e-01 6.209460760949078902e-03
2.472952275735780525e-01 6.050414002220140253e-01 -1.769115998390865807e-01 9.938777021468281347e-01 1.101941027327533879e-01 8.023272291535888875e-03
2.491118767279270618e-01 5.838841770198376357e-01 -1.636334829805053126e-01 9.938777021468281347e-01 1.101941027327533879e-01 8.023272291535888875e-03
-2.668982675747920141e-01 6.525383755805739261e-01 -1.791639909571741407e-01 -9.798121476640444527e-01 1.975724396019139795e-01 -3.054973649183877898e-02
-2.554613597076759168e-01 6.242301186877837749e-01 -1.263041253607321557e-01 -9.902306615301638137e-01 1.389764899077685634e-01 1.134778473756424023e-02
-2.452875567579733684e-01 6.124292019493082773e-01 -1.713300642922470085e-01 -9.902306615301638137e-01 1.389764899077685634e-01 1.134778473756424023e-02
-2.687456244761973756e-01 6.294677823558165741e-01 -1.507459924350932345e-01 -9.902306615301638137e-01 1.389764899077685634e-01 1.134778473756424023e-02
-1.890459540723092580e-01 6.554858443225710651e-01 -2.041633918276067050e-01 -1.245419180246432611e-01 3.852878704121701081e-01 -9.143536337588415996e-01
-2.175887850146410174e-01 6.235793094084817190e-01 -1.739199429343389336e-01 -1.233180599839566599e-01 3.844013152179973636e-01 -9.148924991169548049e-01
2.301335666164210647e-01 6.202235114638061653e-01 -2.138280246421414843e-01 1.180497912664941473e-01 3.919360632363931840e-01 -9.123871815828492604e-01
2.120238586387238888e-01 6.877888803834294462e-01 -1.814759751190164472e-01 1.121143174948694143e-01 3.893001300741522064e-01 -9.142624287024528895e-01
2.551230698268857622e-01 6.645903031029528618e-01 -1.756279266138058848e-01 9.835458743714824426e-01 1.785093228197393023e-01 -2.778371237387553677e-02
-2.275529618741091165e-01 6.589600563474652395e-01 -1.603757249592006606e-01 -9.836625897117078354e-01 1.747044178917498136e-01 -4.343127871431969045e-02
-2.138360334857594414e-01 6.399917459646713436e-01 -1.700387583674701220e-01 -1.221586474515184290e-01 4.053060534711666607e-01 -9.059824876190728515e-01
-2.282719477993110369e-01 6.850888196036472033e-01 -1.806624812234044475e-01 -1.304757018178382688e-01 4.134951261049064630e-01 -9.011092452764148941e-01
-1.203454329570725484e-01 6.733746173724463047e-01 -1.873672529342251536e-01 -9.146778986354822671e-02 3.996865327304897075e-01 -9.120769260163075209e-01
-1.281630429774218705e-01 6.883795744815598416e-01 -1.765161468253508004e-01 -1.059163677863903530e-01 4.039684372146486457e-01 -9.086205064653190000e-01
-1.980543948378433172e-01 6.959489751511496181e-01 -1.675209699394059060e-01 -1.096439334921572445e-01 4.090154321794283732e-01 -9.059164332803787412e-01
-1.312552703341524074e-01 6.991361055879342645e-01 -1.836666830950442197e-01 -6.822078644848467155e-02 4.069937902541380104e-01 -9.108797829521307898e-01
-9.168838663075304374e-02 6.835227927328574316e-01 -1.940357069622752895e-01 -4.253340596210500313e-02 4.089683093237491129e-01 -9.115568173987494971e-01
-7.823590376723357775e-02 7.279392061877258957e-01 -1.886830685972176180e-01 -5.018989798184635837e-02 4.149772851744318314e-01 -9.084463808777215599e-01
-1.509517587294438058e-02 6.942684594499772821e-01 -1.707146309057456235e-01 -1.717920681348038617e-02 4.098747610393056462e-01 -9.119800190334390599e-01
-7.997729153709769168e-03 6.595677329388069943e-01 -1.700262490625561729e-01 -1.717920681348038617e-02 4.098747610393056462e-01 -9.119800190334390599e-01
-3.369327360857922449e-02 6.902410518773617332e-01 -1.780006076826610162e-01 -2.499331703826480552e-02 4.162359233781738888e-01 -9.089130817591655198e-01
2.229273098610501380e-02 6.986652953220634510e-01 -1.709807007936019752e-01 1.363330986793438141e-04 4.168441460361765882e-01 -9.089779641601092308e-01
9.313188594291260669e-02 6.941869343753434007e-01 -1.907220736790770366e-01 3.405898793515089312e-02 4.097141001711189223e-01 -9.115779404207867698e-01
2.394871871079949643e-02 7.037896170810649110e-01 -1.616053092922863921e-01 2.542186362326592786e-02 4.169783754447414226e-01 -9.085608197921504203e-01
5.767324989571172289e-02 7.019405157819276209e-01 -1.531139306768739272e-01 2.542186362326592786e-02 4.169783754447414226e-01 -9.085608197921504203e-01
8.841648180093758524e-02 6.936476926195269677e-01 -1.982141675113978652e-01 5.979068240715795096e-02 4.078745552283584708e-01 -9.110781643166271371e-01
6.459930345268030671e-02 6.768736305676111842e-01 -1.954826130896291925e-01 5.053720766696798150e-02 4.161153772352721991e-01 -9.079063737355151931e-01
1.305237994215291686e-01 6.845628041359094196e-01 -1.997507367520452437e-01 8.510954942652108890e-02 4.060002548249181942e-01 -9.099011801720645609e-01
1.492052588444366945e-01 6.841916326359137601e-01 -1.634291687284310512e-01 7.790929730434374700e-02 4.145036846816889109e-01 -9.067065880310157810e-01
1.794646598566805029e-01 6.520852525026405999e-01 -1.688774948244288199e-01 1.065634818294331071e-01 3.999295453815097101e-01 -9.103299308884262864e-01
1.505684366059462653e-01 7.205200331268627467e-01 -1.688920369531210497e-01 1.093643754046003252e-01 4.144317648227620055e-01 -9.034853323094141908e-01
2.276385178049240843e-01 6.820367940071774271e-01 -1.955028891442684158e-01 1.129911257525525042e-01 4.150289481227492638e-01 -9.027646303003319384e-01
2.174353808426897627e-01 6.826792422948335659e-01 -1.519663542985834614e-01 9.844523748650603201e-01 1.739538957407611997e-01 -2.436316439124959835e-02
2.537073150470441907e-01 6.874423162651813746e-01 -1.792543252209636284e-01 9.620006844610112795e-01 2.603981613190544109e-01 -8.214305009068956220e-02
-2.258237742729804765e-01 7.117720864490199029e-01 -1.608073627961905394e-01 -9.769530826124386280e-01 2.134315321717910052e-01 -3.107321813954077010e-03
-2.232415917272585759e-01 7.011322397548666041e-01 -1.451553837494935773e-01 -9.769530826124386280e-01 2.134315321717910052e-01 -3.107321813954077010e-03
-2.154172423631270927e-01 7.317823366098684668e-01 -1.696388362046631904e-01 -1.505042970829431337e-01 4.253083544062559729e-01 -8.924467828570014083e-01
-2.050240868354065438e-01 6.947325771155650198e-01 -1.372806100101958415e-01 -1.270355384459663228e-01 4.253977409955634337e-01 -8.960461672969840530e-01
-1.763291690591435035e-01 6.891785832706598391e-01 -1.635706724123938971e-01 -1.087713581030275434e-01 4.213734663066434072e-01 -9.003405986342872813e-01
-1.541323681211454188e-01 7.141030431897391617e-01 -1.713814389250845338e-01 -1.087713581030275434e-01 4.213734663066434072e-01 -9.003405986342872813e-01
-1.933015169535113043e-01 7.037983143395960539e-01 -1.406971215751254556e-01 -1.146094302430403500e-01 4.272114356114089517e-01 -8.968584435585166270e-01
-1.162104985546144748e-01 6.877750784603143819e-01 -1.724610173663779222e-01 -7.779105129440141986e-02 4.242723651450457933e-01 -9.021870717942818141e-01
-1.320131963552284293e-01 7.168112848003451720e-01 -1.674736271480251615e-01 -7.779105129440141986e-02 4.242723651450457933e-01 -9.021870717942818141e-01
-1.528898387900695099e-01 7.225217341677533378e-01 -1.697356543811143481e-01 -8.451129972885794428e-02 4.290144793404250256e-01 -8.993355417942755503e-01
-1.057027387449600703e-01 7.250239256050272640e-01 -1.879678345622685098e-01 -5.075558069064151079e-02 4.269800649824700978e-01 -9.028354751206452145e-01
-8.417648073224227867e-02 7.298261375905548132e-01 -1.725024651254228880e-01 -5.868425879681096746e-02 4.326549854722352983e-01 -8.996476095202435852e-01
-3.119578378855474357e-02 7.303907097219798361e-01 -2.135393224032965387e-01 -3.367895150221936196e-02 4.340535223768982043e-01 -9.002573342872128848e-01
-8.218653133546034717e-02 7.391589964868507945e-01 -1.760352058703676115e-01 -3.367895150221936196e-02 4.340535223768982043e-01 -9.002573342872128848e-01
2.971172379667950947e-02 7.335065364642052721e-01 -1.912342131812069801e-01 3.644011736485829359e-05 4.279712110613731468e-01 -9.037923661852756974e-01
-6.323647007639866119e-04 7.319855868377844743e-01 -1.751749668586559394e-01 -8.341967246115460088e-03 4.344452154222895879e-01 -9.006596284830052923e-01
5.217945610392962785e-02 7.243946049019055478e-01 -1.713765466617391819e-01 1.719457994946605936e-02 4.346135813559305339e-01 -9.004528756805285639e-01
8.028361614184639783e-02 7.248423804617289967e-01 -1.566671791983053064e-01 5.094061499299807477e-02 4.273151908620713701e-01 -9.026664840364055920e-01
6.699040620944846092e-02 7.155592863298446682e-01 -1.628281397747090575e-01 4.228944726306204521e-02 4.343727296951885308e-01 -8.997399259493463752e-01
1.302693053929269984e-01 7.131380562743716567e-01 -1.753795308440751488e-01 7.876973642336856929e-02 4.241865875564873045e-01 -9.021424873937463618e-01
1.544245310421875350e-01 7.355316601754068317e-01 -1.640621093945043019e-01 7.876973642336856929e-02 4.241865875564873045e-01 -9.021424873937463618e-01
1.210737035472696371e-01 7.242969174379316755e-01 -1.723668053088303065e-01 6.767460301583119731e-02 4.334330396031151333e-01 -8.986411677010206489e-01
1.210592402341463952e-01 7.245489069718932251e-01 -1.777889452710563756e-01 6.767460301583119731e-02 4.334330396031151333e-01 -8.986411677010206489e-01
1.775158834825040777e-01 7.362963410032640210e-01 -1.665045520007315538e-01 1.078496349769480361e-01 4.226445104259459185e-01 -8.998555851036051934e-01
1.498675567520302288e-01 7.017294579769335350e-01 -1.604165675256056522e-01 9.518043191011053838e-02 4.324348710226192383e-01 -8.966274408610609425e-01
2.001639469713322184e-01 7.238468263660504665e-01 -1.612222363112875423e-01 1.164190804975570176e-01 4.330962994221478346e-01 -8.937976242544755090e-01
2.112578021621404623e-01 7.544269622145434173e-01 -1.342529865785211385e-01 1.164190804975570176e-01 4.330962994221478346e-01 -8.937976242544755090e-01
2.120138904115924927e-01 7.361020002793501327e-01 -1.763298283060529825e-01 1.114149478287404654e-01 4.233776850503650491e-01 -8.990762176821900376e-01
-1.974770199701538498e-01 7.583743347965498094e-01 -1.451763521119024958e-01 -1.128099580039875344e-01 4.387287988546385575e-01 -8.915104903649224699e-01
-2.054299762364904525e-01 7.688301627125058157e-01 -1.571989002487718390e-01 -1.144517826034581187e-01 4.401933063428768445e-01 -8.905788244225308903e-01
-1.606735665096162280e-01 7.520198101466618601e-01 -1.347206520885334824e-01 -9.336161041464435817e-02 4.490442015286039146e-01 -8.886185428935875485e-01
-1.238234961518924482e-01 7.699272888459088859e-01 -1.218424559240494365e-01 -8.504701299123312852e-02 4.421691997389772255e-01 -8.928904772610477547e-01
-1.044735872625057599e-01 7.347426458879482425e-01 -1.267802388908156330e-01 -6.751220762708931566e-02 4.497165358793790979e-01 -8.906161570384673043e-01
-8.292021679307787219e-02 7.262036016419559648e-01 -1.261941539594350625e-01 -5.907808362568061494e-02 4.433160851922745560e-01 -8.944163620176639462e-01
-6.074147881973607221e-02 7.694028131824593997e-01 -1.507808944833982367e-01 -3.388269331335744261e-02 4.443344488888009147e-01 -8.952200068276616740e-01
-3.461080478708727232e-02 7.524867875902492287e-01 -1.562847521418872787e-01 -1.689782959247564109e-02 4.515964449922511004e-01 -8.920622815843209930e-01
-8.818522881183829543e-03 7.568246933105782226e-01 -1.384465198220922733e-01 -8.443526942878257918e-03 4.450272082379352900e-01 -8.954772419111020065e-01
1.442673342371103562e-02 7.523263582477401901e-01 -1.296926635514578097e-01 8.290145298324086420e-03 4.519597759083321953e-01 -8.919997950962897937e-01
3.189000002567411729e-02 7.598798341847197158e-01 -1.589192618974415716e-01 1.717953988917934535e-02 4.449199459663821243e-01 -8.954055534172588038e-01
2.258603225840764145e-03 7.483484831212268151e-01 -1.463879978490739975e-01 1.717953988917934535e-02 4.449199459663821243e-01 -8.954055534172588038e-01
9.010347938698741455e-02 7.516540051055154992e-01 -1.316164707382393717e-01 4.240282965605267351e-02 4.443521129648264623e-01 -8.948481433968861198e-01
9.628877999488992534e-02 7.615662891159551418e-01 -1.508883026886844725e-01 5.896641675407904987e-02 4.508831193991586495e-01 -8.906331311690960373e-01
1.295370397762592996e-01 7.392058314509842853e-01 -1.338829454393241358e-01 6.792517659119259865e-02 4.435505454525421887e-01 -8.936716869263608976e-01
1.731150162267399706e-01 7.285365374227290580e-01 -1.650660364170510874e-01 9.554551694810281548e-02 4.411060965342131213e-01 -8.923544507601612885e-01
1.990548790915026012e-01 7.396148153163567551e-01 -1.783995368061073450e-01 1.081448217548738738e-01 4.487796000183305045e-01 -8.870747252261186322e-01
-3.417203365750737243e-01 -7.417186990804548463e-01 -9.273685359097369463e-02 -2.148781195447279080e-01 -4.413597888323313456e-01 -8.712226641581366504e-01
-3.545164628782136451e-01 -7.279011178857300868e-01 -1.289954632773890053e-01 -2.148781195447279080e-01 -4.413597888323313456e-01 -8.712226641581366504e-01
-3.678725641868533236e-01 -7.505929237813342425e-01 -1.240623660214030116e-01 -2.250069627342373424e-01 -4.485813350961641577e-01 -8.649547112562926410e-01
-3.940520512542390885e-01 -8.129284487779945279e-01 -9.324323378013645025e-02 -2.250069627342373424e-01 -4.485813350961641577e-01 -8.649547112562926410e-01
-3.064417174694182289e-01 -7.298293848011631058e-01 -1.149067457677372395e-01 -1.924435340982414422e-01 -4.612243927570024438e-01 -8.661625400060389834e-01
-3.294715189920862652e-01 -7.757134746660909741e-01 -9.922216925365766327e-02 -1.787218431581690525e-01 -4.510494141566414039e-01 -8.744214823339471199e-01
3.137145817536415304e-01 -7.562418239365203965e-01 -1.215109875686232466e-01 1.937029336647227151e-01 -4.653775676704507425e-01 -8.636566985780952388e-01
2.932015791197261079e-01 -7.625198384350639902e-01 -1.325267914204606157e-01 1.937029336647227151e-01 -4.653775676704507425e-01 -8.636566985780952388e-01
3.442951220489231523e-01 -7.295016948399793977e-01 -1.022257586558326659e-01 2.069055823340730516e-01 -4.446756397268358252e-01 -8.714663822733079712e-01
3.284004282380391104e-01 -7.657769309780428912e-01 -1.051792052823715684e-01 1.725644810170808563e-01 -4.523820404128486850e-01 -8.749697077060516470e-01
3.585443870248991582e-01 -7.734027709768692693e-01 -1.260867753623934884e-01 2.202850430627413258e-01 -4.527229092794202159e-01 -8.640118443727632380e-01
3.730248190674383957e-01 -7.681464983976321603e-01 -8.978869165368985605e-02 2.202850430627413258e-01 -4.527229092794202159e-01 -8.640118443727632380e-01
4.204640296389372534e-01 -7.344762870775705110e-01 -1.063686876151189453e-01 2.360806765767672899e-01 -4.450429173009138872e-01 -8.638302587356776474e-01
-4.584271051587776591e-01 -6.944001348173023391e-01 -1.018016943836051735e-01 -2.726973955679305450e-01 -4.194258741063260354e-01 -8.658626141488104944e-01
-4.452063245865542918e-01 -6.879400548797979242e-01 -1.133359854887930895e-01 -2.603432894301240808e-01 -4.298591261418339138e-01 -8.645475714622542496e-01
-4.146452755885724484e-01 -7.101751953527467576e-01 -1.038185379747011972e-01 -2.507914113717777393e-01 -4.287409341143385011e-01 -8.679198577039911600e-01
-3.509404321733286536e-01 -6.868985926880906145e-01 -1.408439371794987516e-01 -2.139952011911962493e-01 -4.387219285882281161e-01 -8.727709454621899177e-01
-3.867991635102688841e-01 -6.851032907404890349e-01 -1.254483781319287172e-01 -2.338030150963221754e-01 -4.204737635293006037e-01 -8.766629707677716654e-01
-3.044566893964994470e-01 -7.148965001098825933e-01 -1.217287287724757305e-01 -1.881310557694407526e-01 -4.423666161129715668e-01 -8.768799705796880284e-01
-3.285522490492580605e-01 -7.003438493283229427e-01 -1.446183099496308466e-01 -2.005809878253673462e-01 -4.309829894013016416e-01 -8.797845930508884082e-01
-3.039291316708216395e-01 -7.127542072079663393e-01 -1.384022445754422015e-01 -1.728128497147637666e-01 -4.267560660720041144e-01 -8.877020778640826171e-01
-2.982618068730144567e-01 -7.575436882606738642e-01 -1.174238720512945089e-01 -1.588270727355586553e-01 -4.373965541174638649e-01 -8.851317503131509445e-01
-2.540733410973111117e-01 -7.278412555779100179e-01 -1.474219268615185596e-01 6.095356301606218441e-01 -7.927583802656615886e-01 -6.827029063228345820e-04
-2.129116745805469668e-01 -7.184907749403428578e-01 -1.289744913985459707e-01 6.613879725051550196e-01 -7.500424550377862154e-01 1.505146640923568516e-03
-2.411024666757836388e-01 -6.967393714606813226e-01 -1.340582568484298964e-01 6.613879725051550196e-01 -7.500424550377862154e-01 1.505146640923568516e-03
2.198173818845867711e-01 -7.101690309846857563e-01 -1.561627469800007106e-01 -6.701759586949520564e-01 -7.420706462628079425e-01 1.397642094388336538e-02
2.405661273759417129e-01 -7.165342229877077473e-01 -1.210288249421123952e-01 -6.547988233753261333e-01 -7.538007044237123866e-01 -5.498180532324810355e-02
2.722269454565166003e-01 -7.027748294792064421e-01 -1.382630482245707504e-01 1.708432511584677960e-01 -4.284598977730120217e-01 -8.872624749948264666e-01
2.904962690904034361e-01 -6.836040731276974425e-01 -1.304964302027973033e-01 1.787873531550733530e-01 -4.291532308516830541e-01 -8.853601452524080262e-01
3.066669400787597755e-01 -7.130973676558131080e-01 -1.329296376582820849e-01 1.909206542028895059e-01 -4.370531056367416567e-01 -8.789390687937473912e-01
3.769065687701700917e-01 -7.210743604983459454e-01 -1.038297751882182735e-01 2.052784274279792487e-01 -4.331862629197785197e-01 -8.776163335138494892e-01
3.805109227910071779e-01 -7.156491621687426363e-01 -1.509202741894560273e-01 2.052784274279792487e-01 -4.331862629197785197e-01 -8.776163335138494892e-01
3.357755862177378425e-01 -6.999763566898329348e-01 -1.258952770714635849e-01 2.051812652885707799e-01 -4.331224351237679682e-01 -8.776705558277767549e-01
3.760309550532601186e-01 -7.079348578032571560e-01 -1.360704139674181468e-01 2.342313561078652739e-01 -4.292887386032094854e-01 -8.722653556827393295e-01
4.323399143073227147e-01 -6.819315737003925904e-01 -8.934066191423822856e-02 2.574032029625966667e-01 -4.260131786665670717e-01 -8.673271370751659548e-01
4.155503245527811251e-01 -6.874938587523575784e-01 -1.078295542981705102e-01 2.556806095894548769e-01 -4.241615159406160185e-01 -8.687430196985315156e-01
-5.163081241552932577e-01 -6.328590299133797226e-01 -7.761288489639608934e-02 -3.230256684061831862e-01 -3.897884727466230381e-01 -8.623916535221067825e-01
-4.777747980343406420e-01 -6.437920340151972454e-01 -9.127076367424923065e-02 -3.000450627892719546e-01 -3.945484850745328287e-01 -8.685070254299459558e-01
-4.906607517494148696e-01 -6.843772619114018019e-01 -1.068061941709844836e-01 -2.898662109274924292e-01 -4.104420635698377007e-01 -8.645894356369802081e-01
-4.439659746478217262e-01 -6.725000748780831650e-01 -1.049955015765920985e-01 -2.735717075863356440e-01 -4.089919072002163869e-01 -8.705654143446235338e-01
-4.841017751697184734e-01 -6.450277958840519021e-01 -1.070596538506159712e-01 -2.705102883516820600e-01 -4.043260081714932230e-01 -8.736959785943824164e-01
-4.165961678437130056e-01 -6.582149970311219622e-01 -1.198761402976856044e-01 -2.450914984622872272e-01 -4.138176616597251667e-01 -8.767468849559647559e-01
-4.417765423514767309e-01 -6.474423385506741235e-01 -1.238140344432541451e-01 -2.553962449314923222e-01 -4.020673678945361762e-01 -8.792693499430380699e-01
-4.035392406704786383e-01 -6.706224593920563359e-01 -1.109284563915532845e-01 -2.553962449314923222e-01 -4.020673678945361762e-01 -8.792693499430380699e-01
-3.505289185004176744e-01 -6.735472108955171677e-01 -1.478464048149622234e-01 -2.277726729205276079e-01 -4.059658137793533683e-01 -8.850487938600366533e-01
-3.901034962004171769e-01 -6.763906172269835704e-01 -1.419369721735380951e-01 -2.342746310614254590e-01 -4.139497567144831969e-01 -8.796368547059935095e-01
-3.520461626302702207e-01 -6.951856371353529740e-01 -1.552457971790453528e-01 -2.122759470494291478e-01 -4.060316158123574715e-01 -8.888628967760292543e-01
-3.653226755832180705e-01 -6.902327149738295420e-01 -1.302730822982844927e-01 -1.984796460303142607e-01 -4.254516967423321305e-01 -8.829477243023801103e-01
-3.140838048378654102e-01 -7.274854192436051026e-01 -1.383017588098919559e-01 -1.984796460303142607e-01 -4.254516967423321305e-01 -8.829477243023801103e-01
-2.959455938230171612e-01 -6.993129917396738726e-01 -1.485348326688091247e-01 -1.894077627311013257e-01 -4.202239269757556128e-01 -8.874325611640996314e-01
-1.870785492128489991e-01 -6.668586578419894995e-01 -1.238509958671433764e-01 6.872035511130247798e-01 -7.264601364297500474e-01 -2.636193490122986250e-03
-2.105595336069906731e-01 -6.633719361000607329e-01 -1.542548600460209862e-01 6.842344751999248631e-01 -7.292574918781621340e-01 2.587177507589865939e-03
-2.042385375335718511e-01 -6.609696009162089325e-01 -1.115373282811015082e-01 7.034034410858907016e-01 -7.107808170108158574e-01 -3.772166216489684226e-03
-1.724796805077321582e-01 -6.259437672356649163e-01 -1.060990346765024600e-01 7.078700993622817350e-01 -7.063381472278946749e-01 2.518769441271434019e-03
1.803580546017332920e-01 -6.671247882141984054e-01 -1.352250933755267392e-01 -7.077493899561240198e-01 -7.064611943519025772e-01 -1.838992011388719625e-03
2.028290985427103066e-01 -6.696435369186076736e-01 -1.232132511703739608e-01 -6.921065092938458729e-01 -7.216890161323158415e-01 1.239127866918908819e-02
2.170460697347785239e-01 -6.793459266084007631e-01 -1.255814975116429366e-01 -6.874228192701237194e-01 -7.262562046115809133e-01 1.338958511802797093e-03
3.133342223821448669e-01 -6.648829381329954824e-01 -1.592992824623659653e-01 1.984457003676724507e-01 -4.147726298008773682e-01 -8.880219420564158250e-01
3.461737590463152547e-01 -6.835390404367246431e-01 -1.247446026754686910e-01 2.010681557954053511e-01 -4.165793662505810624e-01 -8.865851500782645500e-01
3.744754538480554173e-01 -6.689535152470773571e-01 -1.122387316961945269e-01 2.187032336040645175e-01 -4.023296668519162345e-01 -8.889880397294172010e-01
3.623375416702324103e-01 -6.931395922492458173e-01 -1.455999091376079246e-01 2.324198670561748170e-01 -4.078478666110361139e-01 -8.829728892205107593e-01
4.257488031073157764e-01 -6.839649922589792208e-01 -1.295656802183575984e-01 2.324198670561748170e-01 -4.078478666110361139e-01 -8.829728892205107593e-01
4.445693787213130799e-01 -6.657026763840304673e-01 -1.190819085280780537e-01 2.573510985117242189e-01 -4.057006352730662679e-01 -8.770275974185984813e-01
4.404127841450009573e-01 -6.506977067012381655e-01 -1.393693892052124683e-01 2.536123307708041952e-01 -4.027782278117082448e-01 -8.794603372988800682e-01
4.450649183302087253e-01 -6.812145539129710325e-01 -9.891895992343381627e-02 2.820740753790113575e-01 -4.176161462943388525e-01 -8.637308436968897940e-01
4.763791767639828367e-01 -6.651261765368101653e-01 -1.043014530557374586e-01 2.807527985610667187e-01 -4.031371685305450980e-01 -8.710099250004582627e-01
4.562560124105923820e-01 -6.445489959844612482e-01 -1.102849121234344976e-01 2.797303792302915926e-01 -4.020569556376578091e-01 -8.718377827090633136e-01
4.843706794944813709e-01 -6.571487990663757994e-01 -8.615152214707454126e-02 2.959360083602582403e-01 -4.066223925307615450e-01 -8.643379598561875543e-01
5.324912824440724002e-01 -6.457317477988524512e-01 -1.088804503862272344e-01 3.148776506895025751e-01 -3.936502969482125747e-01 -8.636501078613049165e-01
-5.872784849079387692e-01 -5.994364165414410861e-01 -8.690703059870895364e-02 -3.471333827245736692e-01 -3.666139113859028797e-01 -8.631874967679525890e-01
-5.332199704238405058e-01 -6.231979446525167665e-01 -1.119123696997664369e-01 -3.246253503686388764e-01 -3.767019273017915837e-01 -8.675909404005750503e-01
-5.065720714975909811e-01 -6.249521819998518080e-01 -1.058221383723432496e-01 -3.220788292857291180e-01 -3.740607692589653088e-01 -8.696802680452887513e-01
-5.094075992290503230e-01 -6.598303032575677518e-01 -1.211431746666664089e-01 -2.967464846246678500e-01 -3.874747024837041920e-01 -8.728143438315313363e-01
-4.683890300549213848e-01 -6.616888602896225935e-01 -1.240818523453516287e-01 -2.967464846246678500e-01 -3.874747024837041920e-01 -8.728143438315313363e-01
-4.837675580985201229e-01 -6.196598237696737677e-01 -1.354799699983962047e-01 -3.075506038970417522e-01 -3.737768858271672823e-01 -8.750448363734911750e-01
-4.508236013254804941e-01 -6.109082084729599016e-01 -1.590320736324822015e-01 -2.780497251086926913e-01 -3.697147962637742924e-01 -8.865660267518805648e-01
-4.318320960446440648e-01 -6.289938320700465546e-01 -1.419867054321676259e-01 -2.777388948631898113e-01 -3.801071994798406184e-01 -8.822582519782780075e-01
-4.577997833991078735e-01 -6.255892484579896884e-01 -1.206063079269954208e-01 -2.814644690746999633e-01 -3.855165430764661005e-01 -8.787233624200897486e-01
-4.308175250351860552e-01 -6.247493822052974100e-01 -1.661136739023113540e-01 -2.517925482465212528e-01 -3.941267811068099869e-01 -8.838917315270621300e-01
-3.827621888590553856e-01 -6.570121489848849139e-01 -1.479601855228719343e-01 -2.418619521804291628e-01 -3.904167291053336486e-01 -8.883003848485964138e-01
-1.249901661190275237e-01 -6.183932579149231668e-01 -1.013980890853390798e-01 7.242441591089814334e-01 -6.895393054121212728e-01 -2.438091116740668651e-03
-1.780946517821955233e-01 -6.714009419724912275e-01 -1.393019124884498083e-01 7.242441591089814334e-01 -6.895393054121212728e-01 -2.438091116740668651e-03
-1.571080166316880244e-01 -6.292781071996058628e-01 -1.533374692022526908e-01 7.218479376544568726e-01 -6.920434898757920061e-01 3.370908563267755072e-03
-1.236958319093744152e-01 -5.674092688110586868e-01 -1.448117449736926743e-01 7.371850613346987435e-01 -6.756887174213850322e-01 -1.715370047596714463e-03
-1.503138895673521436e-01 -6.110097294489866826e-01 -1.106344629870947838e-01 7.384550476602317337e-01 -6.743020322610796535e-01 9.549207834097491257e-04
1.447063623144630717e-01 -6.180983609559896896e-01 -1.130875098705796250e-01 -7.389022895388992485e-01 -6.738122526204944895e-01 -6.743386889625198680e-04
1.402791209334362521e-01 -6.235152741691130096e-01 -1.564350989736624786e-01 -7.384568225030503363e-01 -6.743007641632607907e-01 2.734119171505390494e-05
1.082316452765310633e-01 -6.029060782110780004e-01 -1.396339709332911350e-01 -7.384568225030503363e-01 -6.743007641632607907e-01 2.734119171505390494e-05
1.693700429801510976e-01 -6.624782988075965662e-01 -1.589479685711106260e-01 -7.227488767148007032e-01 -6.911064783637073106e-01 -2.428326833113509785e-03
1.562602369838260175e-01 -6.314403133450359196e-01 -1.327103113212152463e-01 -7.254638952344302227e-01 -6.882592572456065483e-01 1.153918113936012188e-03
3.959732592776336046e-01 -6.710835971031698932e-01 -1.339366791401345180e-01 2.322101985930213330e-01 -3.912305178648084469e-01 -8.905150787946397584e-01
4.459362933523438599e-01 -6.573284361492014449e-01 -1.336687482330647936e-01 2.509906924612931300e-01 -3.891952850183714174e-01 -8.863016994326871067e-01
4.639042113173216242e-01 -6.245333136751365366e-01 -1.384522392719693684e-01 2.674918269135078686e-01 -3.748834395282910070e-01 -8.876432443847652731e-01
4.713312418360280920e-01 -6.523430467318492854e-01 -1.523188424606789493e-01 2.823362433340081967e-01 -3.787348379628925898e-01 -8.813887724570020898e-01
4.793964481487085760e-01 -6.122884519027790295e-01 -1.394738424971684043e-01 2.836945676510566616e-01 -3.801391772689818316e-01 -8.803474303878791041e-01
4.598757896704007142e-01 -6.312372691684593473e-01 -1.423310429471925376e-01 2.836945676510566616e-01 -3.801391772689818316e-01 -8.803474303878791041e-01
4.530769476069563817e-01 -6.130114026593870280e-01 -1.363990050003682508e-01 2.836945676510566616e-01 -3.801391772689818316e-01 -8.803474303878791041e-01
5.219680418526296828e-01 -6.303921138170619498e-01 -1.132904973749499500e-01 3.089197789326969534e-01 -3.792256510194684238e-01 -8.722135494206875173e-01
5.004177729208908465e-01 -6.260682663468450926e-01 -1.242165504570649365e-01 3.089197789326969534e-01 -3.792256510194684238e-01 -8.722135494206875173e-01
5.001144693353150039e-01 -6.148081196248624813e-01 -1.018709116443721058e-01 3.055710959563145424e-01 -3.765143712352534977e-01 -8.745645965675596933e-01
5.526390587889365991e-01 -6.120633427138222338e-01 -1.130742034771132637e-01 3.316950644070689180e-01 -3.727719769316571452e-01 -8.666137764093381213e-01
5.865471464421767589e-01 -5.969990331180691223e-01 -1.046336470114443973e-01 3.433409004151741217e-01 -3.756401869869675503e-01 -8.608202344406720163e-01
-6.202310824412270440e-01 -6.161162605174347329e-01 -1.116586619113071471e-01 -3.626442054088820366e-01 -3.560456905791176130e-01 -8.612320514840351438e-01
-6.044608367180597241e-01 -5.943964513137707240e-01 -1.013765869954346283e-01 -3.477738694989024326e-01 -3.571516581747186114e-01 -8.668887060960071000e-01
-5.687449287551703536e-01 -5.436099558473712623e-01 -1.028235786960555453e-01 -3.439564297273973725e-01 -3.524422538223982437e-01 -8.703323687935375919e-01
-5.250367982757671026e-01 -6.113733440682347364e-01 -1.306436493824322531e-01 -3.214870797005798808e-01 -3.621674375289343217e-01 -8.749175988510681234e-01
-5.274990636542548073e-01 -5.816666247837892767e-01 -1.413651033178719152e-01 -3.214870797005798808e-01 -3.621674375289343217e-01 -8.749175988510681234e-01
-5.225862915053050006e-01 -5.703604013843656118e-01 -1.390161739156806353e-01 -3.050955973329231297e-01 -3.589181382395501552e-01 -8.820966197252555485e-01
-5.465793813202090012e-01 -6.118971228730331058e-01 -1.108464585719680096e-01 -3.066208161926569087e-01 -3.606267896197561384e-01 -8.808700208804344234e-01
-4.842245764780944706e-01 -6.156874836104960780e-01 -1.195680221453398751e-01 -2.893715708014912846e-01 -3.583201998794726673e-01 -8.876208246600640894e-01
-1.419220182879978032e-01 -6.118839706379815002e-01 -1.158492150590385156e-01 7.474228052907108122e-01 -6.643486568606662424e-01 1.107194332408260759e-04
-9.713121566398241757e-02 -5.525058023134293839e-01 -1.344449584213290028e-01 7.473589912358135079e-01 -6.644204043348053146e-01 2.540129148174518465e-04
-6.726709290832771915e-02 -5.580253227230477231e-01 -1.260842963425619911e-01 7.479939175814929175e-01 -6.637055562513195506e-01 1.840168946704034980e-04
1.012480758680844445e-01 -5.680322944865091594e-01 -1.389813089063742235e-01 -7.476897623420765138e-01 -6.640482005924803754e-01 -8.110942211061372752e-05
8.764393837009694377e-02 -5.694556526818246311e-01 -1.136103924413892352e-01 -7.476897623420765138e-01 -6.640482005924803754e-01 -8.110942211061372752e-05
7.569103299514304273e-02 -5.418046810549337344e-01 -1.334975386210589254e-01 -7.478419870395249802e-01 -6.638766322315940993e-01 -4.237895840952217246e-04
8.554379354569591198e-02 -5.565396758013070322e-01 -1.762849994870488435e-01 -7.478419870395249802e-01 -6.638766322315940993e-01 -4.237895840952217246e-04
1.445740887084327464e-01 -6.101038194399969194e-01 -1.762019675017222342e-01 -7.475343315645911479e-01 -6.642231611722161366e-01 -1.236716130492020085e-04
1.157316802271143585e-01 -6.207423275573247246e-01 -1.077003398252498190e-01 -7.475529365132905779e-01 -6.642022289390067114e-01 -7.863085406731560613e-05
5.020443411687094404e-01 -5.924595540959037843e-01 -1.384663966740643792e-01 3.091724620109334576e-01 -3.546584055701699767e-01 -8.824000249844301536e-01
4.991537205826404033e-01 -5.627703019922029037e-01 -1.339605148138332258e-01 3.091724620109334576e-01 -3.546584055701699767e-01 -8.824000249844301536e-01
5.485517596507075710e-01 -5.821202393535924724e-01 -1.020620044891359102e-01 3.329564679626356161e-01 -3.536507356300208071e-01 -8.741116333914059622e-01
5.524047217283439837e-01 -5.827905793254881672e-01 -1.390075905107812648e-01 3.329564679626356161e-01 -3.536507356300208071e-01 -8.741116333914059622e-01
5.192985711141138161e-01 -5.826268148178505024e-01 -1.830351424914373193e-01 3.309043356269410485e-01 -3.516138655381592648e-01 -8.757111454267360040e-01
6.112198836231500509e-01 -5.857569705995536724e-01 -9.923844656874526715e-02 3.537401716500631621e-01 -3.509484225068240648e-01 -8.670081289705163785e-01
5.963722623477580864e-01 -5.694279464713520866e-01 -1.335795773377160545e-01 3.551914372737151604e-01 -3.524622878533422154e-01 -8.657998490001139746e-01
6.243251841385547563e-01 -5.999252322068459042e-01 -8.857271236894430355e-02 3.629987079230002633e-01 -3.514461253919271000e-01 -8.629701958893100100e-01
-6.035505847839592874e-01 -5.321491924707225651e-01 -1.257408601277941462e-01 -3.696233179621228881e-01 -3.346491320462136598e-01 -8.668267192694208978e-01
-6.357121791207815953e-01 -5.150891185017288931e-01 -1.041247155500784616e-01 -3.927713175446088667e-01 -3.216583207196249128e-01 -8.615489636846549448e-01
-5.814113128421860566e-01 -5.731910981493256729e-01 -1.004902312837303580e-01 -3.459281005166933154e-01 -3.394830108731127227e-01 -8.746913939221298007e-01
-5.885318918549119482e-01 -5.490633591242136680e-01 -1.249868118621311058e-01 -3.609860556806707144e-01 -3.298746272152677239e-01 -8.722796558006495893e-01
-5.436650448215540887e-01 -5.606135674992804852e-01 -1.380680342308523711e-01 -3.307409561670112685e-01 -3.350501472937874592e-01 -8.822424942792896907e-01
-5.577404704377952882e-01 -5.482392566686900004e-01 -1.421684188617605427e-01 -3.307409561670112685e-01 -3.350501472937874592e-01 -8.822424942792896907e-01
-5.643554328948819920e-01 -5.483742963925437586e-01 -1.238228294999744183e-01 -3.320932169182262972e-01 -3.365766123382124553e-01 -8.811528126856524867e-01
-8.185480768003035312e-02 -5.668586914196965809e-01 -1.335525419007512482e-01 7.336668692414559656e-01 -6.795092500349185771e-01 3.226366730262230829e-04
-8.189604285682283713e-02 -5.137499859094686316e-01 -1.085222455025069421e-01 7.336668692414559656e-01 -6.795092500349185771e-01 3.226366730262230829e-04
-6.393672243853448789e-02 -5.079405465963867661e-01 -1.348069646589143411e-01 6.818802879226095737e-01 -7.314599838795703413e-01 2.359009427196352964e-03
-4.803863139427580475e-02 -5.096192495447501303e-01 -1.088988571535153133e-01 6.807506505280427334e-01 -7.325147729466459090e-01 -8.119239930320479607e-04
3.870873605943503382e-02 -5.236702398312901297e-01 -1.057224387818489347e-01 -6.804756137010699035e-01 -7.327705557073241893e-01 5.018431345869008410e-04
3.955013350530901806e-02 -5.183766514867358399e-01 -1.615878856377229722e-01 -6.806889596504832607e-01 -7.325725440716308601e-01 -8.878266347474662379e-05
5.596678876550074261e-02 -5.204134763985254208e-01 -1.167495993678341198e-01 -7.336204994399181389e-01 -6.795591908840289408e-01 -5.185427356756454938e-04
5.485558962294565521e-01 -5.437066084062760485e-01 -1.559099633332030888e-01 3.186995281579022010e-01 -3.256176800068731891e-01 -8.901706225319234722e-01
5.543184634765306873e-01 -5.302030590882975680e-01 -1.522343902758922785e-01 3.356680685434005329e-01 -3.292726182513227573e-01 -8.825567917308561050e-01
5.738408303968645097e-01 -5.134781501755943944e-01 -1.314804721604463378e-01 3.336208960653944677e-01 -3.270714675488910483e-01 -8.841500737001257715e-01
6.233707933129165601e-01 -5.116145902712969651e-01 -1.082344259242835893e-01 3.579403513218757937e-01 -3.381661351652515135e-01 -8.703576103665486841e-01
6.189413529899104871e-01 -5.198458896505253612e-01 -1.296947162127148057e-01 3.494369250640738667e-01 -3.270872992952114644e-01 -8.780135158649492455e-01
5.932075870311251942e-01 -5.351502828642282772e-01 -1.127888004392938737e-01 3.494369250640738667e-01 -3.270872992952114644e-01 -8.780135158649492455e-01
6.070608365383451943e-01 -5.333747488510183210e-01 -1.217087333432745333e-01 4.010799132248519250e-01 -3.535494193854182843e-01 -8.450666904214003683e-01
-6.106640597841803686e-01 -5.048328431879401945e-01 -1.080130246143618383e-01 -3.929538003608361030e-01 -3.255702415174350772e-01 -8.599949584853711082e-01
-6.033704389006580016e-01 -4.893439322761156673e-01 -1.525243306121037146e-01 -3.540236383288160593e-01 -2.978675878035789149e-01 -8.865337915953935832e-01
-5.938109283288267592e-01 -4.513000206792626146e-01 -1.525533267563846385e-01 -3.540236383288160593e-01 -2.978675878035789149e-01 -8.865337915953935832e-01
-5.572069163879559417e-01 -4.965433007214046790e-01 -1.459806195127348605e-01 -3.526897033746183574e-01 -3.095732766669780367e-01 -8.830483336189443033e-01
-6.298021485310456580e-01 -5.073510229232449653e-01 -1.518291649059793080e-01 -3.615167323739065242e-01 -3.221120088783561153e-01 -8.749568594793933896e-01
-6.038604012308729230e-01 -5.084756932299780985e-01 -1.357709357094759872e-01 -3.615167323739065242e-01 -3.221120088783561153e-01 -8.749568594793933896e-01
-3.238874368605825643e-03 -4.680687977023747504e-01 -7.395639958524399815e-02 4.953100036251911198e-01 -8.687161194875328007e-01 5.514085015896265807e-04
-5.164347470700232645e-02 -5.120882351690467793e-01 -1.185950532491121534e-01 4.972894964760004588e-01 -8.675829279525471005e-01 -1.737762909944346552e-03
-1.051537401823552861e-02 -4.791392352443158975e-01 -1.454321052791857360e-01 4.082275715459061580e-03 -9.999898771453260560e-01 -1.892255759309044915e-03
-1.073292787180108940e-02 -4.864382356213005076e-01 -9.958286870988702910e-02 6.792301228196499178e-04 -9.999994260369029497e-01 8.285965876708238078e-04
-4.146170540252579889e-03 -4.820348937469905448e-01 -1.205480409787262203e-01 6.792301228196499178e-04 -9.999994260369029497e-01 8.285965876708238078e-04
3.703105100830055701e-02 -5.160678540468353059e-01 -1.718444737390867338e-01 -4.924136156843937351e-01 -8.703598854431762177e-01 -1.581423397819273170e-03
6.863501602048548318e-03 -4.963982793480357092e-01 -1.164063525140847377e-01 -4.943901538912484073e-01 -8.692398380237380540e-01 6.926238902292874890e-04
5.918718672109221091e-01 -4.744294659512203194e-01 -1.447649141714458798e-01 3.496260620834102384e-01 -2.987918519740449530e-01 -8.879668045067719007e-01
6.063730037038698173e-01 -4.543387045418164627e-01 -1.462654977938082912e-01 3.819255181835481405e-01 -3.144477803756620671e-01 -8.690543665255054950e-01
