-1.066414084388203065e-01 7.013364464525803088e-01 1.453095252838718932e-01 -4.686559594729806932e-03 6.187047106907656024e-01 7.856096467891806601e-01
-1.596000673997341190e-01 7.131988505955451085e-01 1.442288232774301127e-01 -6.740944930143202840e-02 6.123150659708881394e-01 7.877348704544852032e-01
-7.972671567091259293e-02 6.795162673998029756e-01 1.847889419456340832e-01 8.999988658995038138e-02 5.725797093851099362e-01 8.148941629526247343e-01
-7.742413894661204221e-02 6.531001663093973786e-01 1.823373737388513938e-01 1.623514205233091423e-01 5.268453645263124763e-01 8.343116792489486677e-01
-3.919363540182620870e-02 7.206030445566244946e-01 1.865731916803760326e-01 1.923960468581244199e-01 5.183911405194665534e-01 8.332192908138247311e-01
-5.064178845388485339e-02 6.719651025793889065e-01 1.748600283690888157e-01 2.104103442954626535e-01 5.130558490806408356e-01 8.321665594925138354e-01
-2.317650642611654432e-01 6.872462839927845346e-01 1.912656034475296862e-01 -2.933238823897693082e-01 4.906885978252882863e-01 8.204790064249329884e-01
-2.316329882188733758e-01 6.599841272547338766e-01 1.411575451869137299e-01 -3.573628125547859691e-01 4.458246177996444404e-01 8.206900939859903543e-01
-6.627565566713462808e-02 6.872312683956026680e-01 1.397931956197112080e-01 2.413139600017955855e-01 4.758649979902005445e-01 8.457659702281939973e-01
-7.406757222622470729e-03 6.589083916813135433e-01 1.918127735337618045e-01 2.641699521277413587e-01 4.346467764494286734e-01 8.609857235256268559e-01
-2.557456421458614293e-01 6.327677080976652491e-01 1.275186764676677631e-01 -4.188194767298747956e-01 3.740754448956885025e-01 8.274405159513320562e-01
-2.135039820713419134e-02 6.354557554621206306e-01 1.515095946448321018e-01 2.862040079868074516e-01 3.925741204488217839e-01 8.740553905595007667e-01
-1.419915787649369404e-02 6.674044799078211465e-01 1.118266843912284203e-01 2.971396111458101119e-01 3.601061840958327265e-01 8.843254987073793094e-01
-2.482904460666427934e-04 6.090962180169581242e-01 1.636144406951976216e-01 2.909297176845239141e-01 3.354462997966177751e-01 8.960109816965196039e-01
5.224208205620575057e-02 6.280663963170275421e-01 1.608636050362061143e-01 3.213318658488864554e-01 3.012243565582851668e-01 8.977804403116167453e-01
3.283924290175960908e-02 6.230400512127903800e-01 1.463040196681573701e-01 3.456787518483137589e-01 2.570094295407516216e-01 9.024701400310868316e-01
-2.267589957327743322e-01 5.777284374455871063e-01 1.452364492606688928e-01 -5.059426811299736482e-01 2.429268051295126463e-01 8.276524456319703793e-01
2.811236932567269531e-02 5.905662101462074709e-01 1.667649176451526383e-01 3.424621365134953299e-01 2.241144539167746474e-01 9.124102128977940040e-01
1.182446103230994777e-02 6.364912269218419016e-01 1.986003380131813878e-01 3.522644526288253863e-01 2.225488665080332662e-01 9.090554204393171966e-01
-2.639610155749420040e-01 5.944903894716334625e-01 1.769753503197353528e-01 -5.443903870890429708e-01 2.037805494225396197e-01 8.137030134650417024e-01
-2.421702753978866585e-01 5.810968196053472035e-01 1.400886036258407463e-01 -5.597725225561110962e-01 1.910220968747477766e-01 8.063282715474775486e-01
5.117513111257713382e-02 6.056123259912838952e-01 1.460394790657521258e-01 3.649713104285925991e-01 1.650528285345085333e-01 9.162715243620712657e-01
3.864147963383578882e-02 5.567518846020020895e-01 1.311126114762201644e-01 3.698867182842964230e-01 1.479634732425254562e-01 9.172189630741843791e-01
3.242085122626788690e-02 5.841520854711527155e-01 1.731867496362895775e-01 3.682904730252902770e-01 1.236999406839776605e-01 9.214447634848158541e-01
-2.892489224565915618e-01 5.837587362085181475e-01 1.126059842948716749e-01 -5.817397869250702236e-01 2.074742123580335385e-01 7.864688623936660905e-01
7.923125250105321482e-03 5.425000429744922803e-01 1.852932623406193247e-01 3.760982360462278851e-01 8.500646207760798045e-02 9.226722160377237580e-01
9.205182060455791015e-02 5.422239991854401753e-01 1.327636454918380005e-01 3.764743665664857519e-01 8.777971539096582343e-02 9.222590595295035998e-01
-3.159061371624666825e-01 5.499965138062874459e-01 9.484849508829154563e-02 -6.154253300653204084e-01 1.963722469785656732e-01 7.633410795513240199e-01
4.076092076625758426e-02 5.051019406811354528e-01 1.012280459512488184e-01 3.836501456160904544e-01 3.923867885511183456e-02 9.226445100093847440e-01
9.232128259538774362e-02 4.975582448677278169e-01 1.417822296571352447e-01 3.748477172770714461e-01 -5.049896138183774391e-02 9.257100214168173524e-01
-3.047096126971416408e-01 5.224257078288039313e-01 1.528171546519511426e-01 -6.439246652738584986e-01 1.784411084677903492e-01 7.439891103105847892e-01
1.370139509284093796e-02 5.247078747515238062e-01 1.647650340371703548e-01 4.258969821393122079e-01 -1.283410990600391266e-01 8.956228686767033764e-01
3.159766416747718243e-02 4.930122509994034341e-01 1.357001673984563894e-01 4.530264543345441375e-01 -1.369909068892008197e-01 8.809089187326607506e-01
-3.061934410867889755e-01 4.930993753640629529e-01 1.787045173022215327e-01 -6.795983801091121101e-01 1.032087646419675292e-01 7.262878166774862088e-01
1.255102840608702738e-02 4.702376706348515012e-01 1.718638653129972160e-01 4.954690674499996339e-01 -1.069482057590338264e-01 8.620165221648313780e-01
-3.061241281995902841e-01 4.513546354551083439e-01 1.643280183473057598e-01 -6.794028651280950015e-01 6.120860403860736709e-02 7.312080782153466130e-01
3.287364407340607336e-02 5.064588484809718905e-01 2.169589716577952354e-01 5.816679422772500496e-01 -5.167897647875092232e-02 8.117830303209463416e-01
-3.075904108281677374e-01 4.453744298656865941e-01 1.734264709924490944e-01 -6.846101914372171304e-01 2.513812107416164149e-02 7.284757790408392664e-01
-3.083813515266298766e-01 5.067070684881571641e-01 2.072813619118292205e-01 -6.611738197225867086e-01 -2.566181936957622010e-03 7.502283617830711737e-01
-3.221546040785809861e-01 3.999029155811373304e-01 1.716574403625815426e-01 -6.418898428975121639e-01 -3.405821176786622689e-02 7.660401215316220425e-01
1.838497505742823362e-02 4.021134951587460593e-01 1.902992187671578850e-01 8.402716501349938305e-01 2.061009071998015085e-01 5.014638272406427566e-01
-2.588763298932345580e-01 4.073579218209348318e-01 1.808941836519201152e-01 -5.730834322062462460e-01 -1.013093788851521793e-01 8.132107903124585757e-01
-2.487538192826043160e-01 3.936371167512598412e-01 1.449567631020408642e-01 -5.309763434590764053e-01 -5.401289827306766239e-02 8.456634847898850671e-01
3.489656195920215476e-02 3.584246057763093019e-01 1.618728499191253167e-01 8.165338632213208214e-01 5.297142611955761859e-01 2.295108966887856039e-01
-3.119141211407828740e-01 3.505129472688794934e-01 1.771811959782639279e-01 -5.278457864140762013e-01 2.786204404203271867e-01 8.023400002149265742e-01
7.975448158082409922e-02 3.749045712296730781e-01 1.855094633216819444e-01 7.295856752518244948e-01 6.287846367391740632e-01 2.689509677768874285e-01
-2.919274788621338823e-01 3.373716259073594181e-01 1.307272291343531678e-01 -5.481112112255789315e-01 3.008022051759990378e-01 7.804435492014044629e-01
-2.903722571381665007e-01 3.191896798972080895e-01 1.578304081585260032e-01 -5.854552536044994593e-01 3.062444890112138718e-01 7.506373684923710599e-01
1.319075877585466905e-01 3.633456951716316219e-01 1.418437318330388885e-01 4.159154666558372293e-01 6.999393015448349686e-01 5.806025307810722680e-01
1.569612163145563677e-01 3.044367433416584889e-01 1.577906959384514085e-01 3.803171977758207367e-01 7.159511043142056108e-01 5.854680566070333825e-01
1.457220674548893868e-01 2.870951510893786640e-01 1.707080432340405129e-01 4.508709305205668150e-01 6.196260200786993799e-01 6.424787928429617212e-01
-2.907990147152701432e-01 3.253565043033559423e-01 1.412238908479425958e-01 -6.784291811114006032e-01 9.057368966751473682e-02 7.290612134495475516e-01
1.818575426454817623e-01 2.887521455191967013e-01 1.455606038360209298e-01 5.224494310827196841e-01 5.385077668700283260e-01 6.611020927073200104e-01
-3.445591119363387023e-01 2.907383933498282613e-01 1.636967157264020145e-01 -7.014345957987750957e-01 4.135785721119759895e-02 7.115328772892418607e-01
1.404418599470677320e-01 2.343743914048300736e-01 1.677589245884411606e-01 6.012361215960081440e-01 4.379635383334797849e-01 6.683584855289927962e-01
-3.352555979824167198e-01 2.770422569230310272e-01 1.662319047740990763e-01 -7.168043553131377976e-01 -1.152750747439929349e-02 6.971790535978147352e-01
1.762498248772261522e-01 2.408313379030190826e-01 1.790197652168070697e-01 6.306416043159650542e-01 3.691522280032269454e-01 6.826549637013116234e-01
1.537404007621636370e-01 2.468400331867295350e-01 1.779873719397799814e-01 6.480245657602052844e-01 2.956806288018353213e-01 7.018811351807716647e-01
-3.444218345779496704e-01 2.368695744938608405e-01 1.525508859256604899e-01 -7.435606599533549632e-01 -7.703924048226044874e-02 6.642157032136831729e-01
1.765767534261631355e-01 2.314284364165642149e-01 1.249195415211247634e-01 7.129669928612868413e-01 1.689612898342063851e-01 6.805366629564455483e-01
-3.594967751644591591e-01 2.002319091906319959e-01 1.283022827715312453e-01 -7.642581191117887585e-01 -9.973727550132018005e-02 6.371514759045016074e-01
2.049769093954292853e-01 2.139576364729253444e-01 1.813083217587820317e-01 7.650549483447691701e-01 3.722404139677231577e-02 6.428882459302501795e-01
-3.462175444736910745e-01 1.730633295636850866e-01 1.734494448398141986e-01 -7.728091000510871611e-01 -1.153472567283204686e-01 6.240681895782541622e-01
2.096839231434510786e-01 1.782501231344357506e-01 1.711466230568007840e-01 7.617608213905344705e-01 -1.398643668590208167e-01 6.325807536414171928e-01
-3.444134626866706128e-01 1.097541329590383807e-01 1.491684954915841743e-01 -8.034869212145900885e-01 -1.408241308427520544e-01 5.784266000189500767e-01
1.921545737677667343e-01 1.445538108490988793e-01 1.919468618113923941e-01 7.499873277274237138e-01 -1.519818488231731712e-01 6.437550200787316435e-01
-3.139900470654772846e-01 1.556478988539277131e-01 1.741649885228490624e-01 -8.047739761879619813e-01 -1.363335322451188214e-01 5.777127445679094420e-01
2.129742381447012889e-01 1.584142658003319659e-01 1.057540334620906131e-01 7.368126498557411308e-01 -1.621494114112981277e-01 6.563647517893772543e-01
1.656159733453413663e-01 1.049560962241043310e-01 1.995352537680113447e-01 7.082790410228260169e-01 -1.935479684215118956e-01 6.788814211389875286e-01
-3.174287658249444477e-01 8.719194645388897436e-02 1.918621345339285300e-01 -8.149894196816351855e-01 -1.894185387556405475e-01 5.476430068782669469e-01
1.687967233176135839e-01 1.036417429532064671e-01 1.350958606847146026e-01 6.777494331034581432e-01 -2.501744427201903487e-01 6.914249446885635253e-01
1.708794766336537985e-01 9.563021092015666635e-02 1.611706517745019329e-01 5.941936112584599305e-01 -2.991159732177095520e-01 7.466348417437085327e-01
-2.833695758882016080e-01 6.377233774603012495e-02 1.381213648560004614e-01 -7.964791014821884785e-01 -2.445018448701901381e-01 5.530279276466959493e-01
-2.971853447627162415e-01 7.338924854017349342e-02 1.424031191693591880e-01 -7.767587943034681697e-01 -2.933227666454841231e-01 5.573217473234483021e-01
1.487121722964085124e-01 3.692378457145108900e-02 1.750768793249316280e-01 5.773533696037080887e-01 -3.176850849973659741e-01 7.521564154997683049e-01
1.309799414867809375e-01 3.119399886760215734e-02 1.162611834408990574e-01 6.228957881846666211e-01 -3.212505901823392018e-01 7.133014056969898542e-01
-2.641629752059480030e-01 3.738167421477978092e-02 1.171105722162411322e-01 -6.978539773366037036e-01 -4.600928065606956219e-01 5.489211561477524981e-01
-3.518668373838962915e-01 5.139109612895233908e-02 1.946282216083510541e-01 -6.665881997264159198e-01 -5.230392645526715789e-01 5.311215489148376490e-01
1.480421212882429838e-01 -1.315123329445637944e-02 1.828776124991656760e-01 7.330299764490556536e-01 -3.853362170485801763e-01 5.605203416984848586e-01
-1.986325452034652939e-01 -5.597053829034896559e-03 1.727182126776054816e-01 -5.727407828566174475e-01 -6.015601738822384803e-01 5.568602633080944608e-01
-2.544135997214103662e-01 -1.106059838253123928e-01 1.703872394113943034e-01 -5.425266559319804616e-01 -6.161056640576163534e-01 5.710329572970249679e-01
9.374884711042091867e-02 -5.086178535624100161e-02 1.365550650635554142e-01 7.328225455431967017e-01 -5.498497846540143508e-01 4.007946245392064455e-01
-2.014103168262526555e-01 -7.027473010921125862e-02 1.578104787109644302e-01 -5.143091294104958910e-01 -6.297296616019688598e-01 5.821740914053868954e-01
9.122875650246710377e-02 -5.312730161496290876e-02 1.630670116534638503e-01 6.328572896662775227e-01 -6.923316798208259959e-01 3.466532792758879045e-01
-2.106655527940642647e-01 -1.884666338274901265e-02 1.209561744452437304e-01 -4.827386550149314615e-01 -6.450860235016888655e-01 5.923068573274782311e-01
-1.777435623688655153e-01 -4.219919566161000474e-02 1.720143157842047021e-01 -4.530538941427367794e-01 -6.782578935510221729e-01 5.785398852610181830e-01
6.598552491595213731e-02 -8.933760303826139559e-02 1.846706296026577876e-01 5.178505285814732906e-01 -7.617882655401911896e-01 3.892421720897621951e-01
5.290879012775188961e-02 -6.648356435670911557e-02 1.453600019716587421e-01 3.535215274467829460e-01 -8.025654286907074608e-01 4.805322697823679601e-01
-7.071233785638475489e-02 -1.248587681385846387e-01 1.766383453782491841e-01 -2.481147138653176931e-01 -8.067240157776903731e-01 5.363165586955600528e-01
-1.858336703989518779e-02 -1.127638944675785765e-01 1.218935833000345942e-01 1.611946357599044755e-01 -8.396041470106355709e-01 5.187303400850723500e-01
8.645443643016649526e-03 -1.142152760640013365e-01 1.856204976058440370e-01 2.221249035165498986e-01 -8.346661106266763941e-01 5.039771929453752408e-01
-1.079938516285526978e-01 -9.225429305336912966e-02 1.249855610500231612e-01 -1.557895050702698403e-01 -8.460914460856252539e-01 5.097635677161482803e-01
-8.115392486433692376e-02 -1.421326424726828408e-01 1.491814811064828550e-01 -4.200977248146228749e-02 -8.610430593021685119e-01 5.067938723422156233e-01
-5.775830797723165155e-02 -6.921502675024597540e-02 1.262538928783299708e-01 3.514173929118320078e-02 -8.637663819723927494e-01 5.026655901629957235e-01
-3.446373792992400986e-01 -4.074474117466895806e-01 1.596042584482939841e-01 -2.715526566098016084e-02 7.532213963278507896e-01 6.572062991639721075e-01
-1.973450907152043132e-01 -3.795568687160587595e-01 1.558781172965945649e-01 -6.526218150730631051e-02 7.515192350915179675e-01 6.564751990382935443e-01
-1.019688691064317976e-01 -3.562245339398085742e-01 1.403424081158463066e-01 9.520512797009852285e-03 7.512000432712467868e-01 6.600059505984462449e-01
-1.277644612996521878e-01 -3.871649688378752119e-01 1.758273139495398207e-01 7.491000616048555660e-02 7.460442254661193706e-01 6.616694829185444382e-01
-4.078961320366015775e-01 -4.113822871394685610e-01 1.588581192145416543e-01 -8.706962778316833240e-02 8.076535970893364835e-01 5.831934044777564718e-01
-3.147999203274557400e-01 -4.149120833236571992e-01 1.430936366875475430e-01 -3.789514951946195559e-02 7.624051541665708420e-01 6.459894260304458458e-01
-2.660921628621638058e-01 -4.107003726103432006e-01 1.274979306558250980e-01 -1.631706661984802867e-02 7.368257373484607964e-01 6.758857788989353077e-01
-3.240109007979229960e-01 -3.927109431161925346e-01 1.755772606896174592e-01 -4.962569712208104999e-03 7.323484342293304916e-01 6.809119941546774024e-01
-2.141961989415538392e-01 -4.436437033200596458e-01 1.382769879221117937e-01 -1.589475394950733839e-02 7.350537125044305231e-01 6.778225405888614885e-01
-4.890913071477177576e-01 -3.749752026541160466e-01 1.815348237546399734e-01 -1.261742592619308767e-01 8.310412525201330558e-01 5.417107096130474586e-01
-4.463252568907215001e-01 -3.673006848500656174e-01 1.605650546756633157e-01 -1.004914258504354257e-01 8.190445892390857408e-01 5.648605440006619904e-01
-3.544801037574107361e-01 -3.898529364602256742e-01 1.697508403932809218e-01 -5.674752610784356693e-02 7.832272933397450565e-01 6.191403114386402340e-01
-9.737509163536672840e-02 -3.648247898682118184e-01 1.452855224245565569e-01 2.038353671312582716e-01 7.483572193116524440e-01 6.311993468078023195e-01
-3.877399838794852449e-02 -3.893547389294747529e-01 1.602209041878438767e-01 2.228804844707448496e-01 7.552665698748323164e-01 6.163576056735172726e-01
-5.200345017323457775e-01 -3.787780865353169157e-01 1.599693038570499382e-01 -1.409975723344732146e-01 8.047616424667033419e-01 5.766093854682549091e-01
-3.004821752864581669e-02 -3.708851291069248379e-01 1.735538522135055550e-01 2.488417792386943828e-01 7.554968649653159840e-01 6.060546641458176564e-01
-5.137347039436231944e-01 -4.569565915717633264e-01 1.333224263587058922e-01 -2.027754052749839719e-01 7.749089124526006289e-01 5.986637724274735950e-01
-3.510487156996261460e-02 -3.847475358050315153e-01 1.393433561063563975e-01 2.434748428334769510e-01 7.461627173576110827e-01 6.196460280940396803e-01
3.452245038709152863e-02 -4.126853683720087540e-01 1.597477135603620757e-01 2.780536606933017851e-01 7.302176775082274141e-01 6.240739581408156766e-01
-5.545432676779679104e-01 -4.918971014817755116e-01 1.633942077745200727e-01 -8.157751844885859915e-01 -2.067952237269012616e-01 5.401357087032429005e-01
7.045083446511868353e-02 -4.396523384041107207e-01 1.591947429917130730e-01 3.541985712719921131e-01 7.195887042410096246e-01 5.972733619019221507e-01
1.208820097368970004e-01 -4.877220194173463308e-01 1.629248373963069763e-01 4.094560089709918249e-01 7.075868361712736032e-01 5.759050668249710014e-01
1.391478868876138697e-01 -4.905626499857942413e-01 1.295787416883617815e-01 4.201769026815858066e-01 7.026735941157440379e-01 5.741961255401951680e-01
2.498326781556058918e-01 -5.420554397336049268e-01 1.807143543392822904e-01 3.557811087377400483e-01 7.425531991526473918e-01 5.674808799365076428e-01
2.288986595100671595e-01 -5.546310865591461692e-01 1.919835130792368061e-01 3.257121847415508920e-01 7.575484197570147016e-01 5.657136770792586811e-01
-5.465942424370421326e-01 -5.411320323509523078e-01 1.809104581800485279e-01 -8.202044918833683029e-01 -3.682792066333598902e-01 4.377613704472432810e-01
-5.335568353266869623e-01 -5.718075027020106393e-01 1.492739929744388017e-01 -8.180446846521707283e-01 -3.679872610324798066e-01 4.420274534801476030e-01
-5.485441391757497342e-01 -5.508676147688991165e-01 1.779827460912728754e-01 -8.177859324659219054e-01 -3.717925681112371761e-01 4.393136179975455913e-01
3.111949707159996081e-01 -5.698755364076747432e-01 1.897522533511961373e-01 5.221301024303144356e-01 6.590054660902493477e-01 5.413796743499726949e-01
3.164014738082485123e-01 -5.885905223641720863e-01 1.707743763151961247e-01 5.854282169864801766e-01 5.584929746377681470e-01 5.876728682152069227e-01
-4.776077662119938561e-01 -5.822827416820027802e-01 1.104195566987514476e-01 -8.197987424877544171e-01 -3.533013176240480391e-01 4.506752719870571466e-01
-3.178769483019823205e-01 -1.544272050777760752e-01 -5.179104507406585844e-02 -5.512774907850932493e-01 2.015411474673705905e-01 8.096136696173223957e-01
-4.642530718978227222e-01 -6.333952992880284016e-01 1.492085070890256659e-01 -8.244958169792464542e-01 -3.250601784369755998e-01 4.631873575328306347e-01
2.956237419023852731e-01 -6.433929256849578726e-01 1.693320412227900251e-01 6.962997721352187641e-01 -4.543308278194798100e-01 5.556528828480139515e-01
-4.661968824070690798e-01 -6.924542080265929656e-01 1.666058363617955729e-01 -8.246438383134685468e-01 -3.241928384121985918e-01 4.635315991967235982e-01
-3.148798301008803313e-01 -1.227327254177284638e-01 -1.041974236261285908e-02 -4.999830598258017678e-01 2.014503216737286995e-01 8.422794713067508487e-01
2.586448608314543818e-01 -6.629331622898858578e-01 1.487563568444874862e-01 6.134938747869103093e-01 -5.875766322397802943e-01 5.276163064620927878e-01
2.286129263248798393e-01 -6.622595994347810766e-01 1.953788259415497885e-01 2.807393501686968329e-01 -9.038161498329640997e-01 3.229578681004300345e-01
2.070703313611244323e-01 -7.693543170398217113e-01 1.895659397309795713e-01 8.201970443296614510e-01 -2.955145368656322269e-01 4.898448396931198712e-01
2.027559293338420665e-01 -6.804519290557493605e-01 1.594221297280551397e-01 6.585511182713104095e-01 -5.305251915128489371e-01 5.337166343612138597e-01
2.439916322281643624e-01 -7.401765458029637701e-01 1.382804667345803873e-01 8.965013598727560318e-01 4.254400534325270683e-02 4.409935593131180664e-01
1.145856851414718547e-01 -1.387606369478845691e-01 -4.482573352199249045e-03 6.044019940368513533e-01 -7.841085027124787832e-01 1.409683850310865516e-01
2.226794382051391907e-01 -7.417247893484654186e-01 1.560453267127773214e-01 8.870572961611112861e-01 1.405699972924294994e-01 4.397379096559050904e-01
2.356338540694908612e-01 -8.267324185728048835e-01 1.568496510159551605e-01 2.854639514262451994e-01 9.574686345211701477e-01 4.200174215767847608e-02
1.564131334560028286e-01 -1.304309939467910295e-01 -2.472035034919541768e-02 6.934958527737552503e-01 -7.160972212632862322e-01 7.917241871132951747e-02
2.477245229974147089e-01 -8.036370238560736068e-01 1.583403488851392316e-01 3.954831942026184599e-01 9.155400471376617944e-01 7.334483751745594915e-02
-3.109831378305214500e-01 -1.114545933402516925e-01 -2.270423033633195073e-02 -5.821728837333119966e-01 -3.480472397403639451e-01 7.348046355016777387e-01
2.414588266598729493e-01 -8.139704335415394176e-01 1.596900255970358229e-01 8.607251522158221313e-01 4.326867116359207621e-01 2.682059319193803582e-01
-3.387868414110771775e-01 -8.841993159670027969e-02 2.502525485830048302e-03 -6.281156995006312860e-01 -4.310121264308593991e-01 6.478419675433058078e-01
2.488017344394612973e-01 -8.640493620446129119e-01 1.408017484561047139e-01 9.287493669120615580e-01 -2.145464532388288159e-01 3.023151217903000121e-01
1.323456391052157677e-01 -5.112504100458735434e-02 -1.198489022667979624e-02 7.466235866537234145e-01 -6.643033526859928317e-01 3.541575161533881688e-02
-2.920779515109062641e-01 -1.947351154491504255e-02 -4.339332925770073013e-02 -7.137284125083539488e-01 -5.869348151694681048e-01 3.822293498938654777e-01
-3.305357147654814920e-01 -1.118906232627749631e-01 -1.209479199501988789e-01 -8.985194600316058766e-01 -1.242436594079970036e-01 4.209825329410008532e-01
1.858315094721854077e-01 6.808138367684432590e-02 -1.998855948202615529e-01 7.983477919662881339e-01 -5.842291406554095401e-01 -1.460038159487412057e-01
2.056856849294999290e-01 1.221100780426805782e-01 -1.746075305130300459e-01 9.014753331920830615e-01 -4.159063485647672698e-01 1.198504604486144154e-01
2.269188380244633596e-01 1.015691196408030350e-01 -1.801587172750779009e-01 8.999714247269035017e-01 -3.186852048079968913e-01 -2.974746626378662606e-01
2.008077911435909857e-01 1.583722827741291250e-01 -1.858471564832266665e-01 9.162314366887231998e-01 -2.334297251885451285e-01 -3.256232759212992489e-01
2.084950934161723946e-01 2.861691547643669398e-01 -1.923912741967265527e-01 9.331015675973565182e-01 -2.330115513706340624e-01 -2.739107180728900248e-01
4.600381675838113166e-02 -3.798290770070308908e-01 1.457664831611315825e-01 2.643565313738721612e-01 7.297343923955316169e-01 6.305579599649022704e-01
2.528345509625877230e-01 2.368841128449539479e-01 -1.969645572309333958e-01 9.608465013155659262e-01 -2.100154156337761813e-01 -1.807416003741483812e-01
5.525129106354194353e-02 -4.485209688730006916e-01 1.742165711517395799e-01 2.510007716527689059e-01 7.312508475922340212e-01 6.342482246923154543e-01
1.645695050914932830e-02 -4.597624401854473186e-01 1.834213813164637386e-01 2.447433304087238137e-01 7.363768711164474512e-01 6.307533637684361594e-01
1.078605253067094205e-02 -4.399763487092374081e-01 1.769182101975376731e-01 2.412515509838145944e-01 7.446186435246788804e-01 6.223670660176123803e-01
3.155986620534163151e-02 -4.191051105248017605e-01 1.807567952295176805e-01 2.467592746091328837e-01 7.420404238717475121e-01 6.232863465010377579e-01
-5.354640885779684556e-01 -4.647871937262559316e-01 1.711103004769763403e-01 -3.795795149141196756e-01 6.514219545572224046e-01 6.569389842126965862e-01
-5.053431545277714543e-01 -3.826285997218599189e-01 1.648366732642080612e-01 -1.355457332811017268e-01 8.086815822912710727e-01 5.724172015690780491e-01
-3.932909556067439721e-02 -4.369387040502536457e-01 1.829342513402474057e-01 2.282899207616609638e-01 7.470006427549841233e-01 6.243987122042093940e-01
-3.958012512945224826e-01 -4.131981309569326410e-01 1.839423585152206164e-01 -7.171624903559283004e-02 8.033376800467485479e-01 5.911897761644502314e-01
-4.833133706643733540e-01 -3.986183366498290415e-01 2.018127305865425880e-01 -1.257417217876053983e-01 8.221327867450151095e-01 5.552357160348783127e-01
-1.125179488500323011e-01 -3.962398061807757554e-01 1.457372046524331166e-01 1.782638114444247135e-01 7.370165448664550700e-01 6.519421953842373663e-01
-1.923105183862526546e-01 -3.730439690537137309e-01 1.458520070197059926e-01 -6.759275436005950100e-02 7.538389557633324856e-01 6.535732922417110125e-01
-2.231181726373243912e-01 -4.375314775812864099e-01 1.873617997461165252e-01 -6.562453849095485625e-02 7.482310822149953466e-01 6.601845708248762490e-01
-1.968012742177861207e-01 -3.919310435652719748e-01 1.430272434935695447e-01 -5.202761537622974108e-02 7.461301902975890910e-01 6.637641647187249028e-01
-2.296641766296729781e-01 -3.700641565236907349e-01 1.843381061709331581e-01 -3.599451806565817646e-02 7.393245006302966438e-01 6.723865535813334793e-01
-2.438943968535064177e-01 -3.741781427624722989e-01 1.983605271128803804e-01 -9.658149129739737604e-03 7.315849384674800726e-01 6.816818891263880520e-01
-2.834467328901651983e-01 -4.009667718529510982e-01 1.999805071803792689e-01 -8.173860452697178161e-03 7.334939308375901801e-01 6.796468505258598247e-01
-3.421794098815987284e-01 -4.075972128044191289e-01 1.491115933772970414e-01 -4.586265774584377675e-02 7.713461855270303813e-01 6.347611193964132204e-01
-3.563851934419400291e-01 -4.052208970700423296e-01 1.321444219925159702e-01 -6.962782626190236468e-02 7.917117049028408182e-01 6.069139495265201134e-01
-4.002717429849363406e-01 -4.219850368395994256e-01 1.198334224020641270e-01 -7.751953911929915231e-02 8.102282355668747327e-01 5.809655130426594205e-01
-4.253738959959485477e-01 -4.137133120502897721e-01 1.713728030768462141e-01 -1.196058710460362606e-01 8.226154321383107870e-01 5.558761430563639028e-01
-7.630867715271225094e-02 -3.754770670750083306e-01 1.810501064877851063e-01 1.080375557870659475e-01 7.437514156971202217e-01 6.596678847632997389e-01
-1.538802911082320368e-01 -3.757259240878122464e-01 1.855118940385179771e-01 1.841561407293482167e-02 7.480003158316304024e-01 6.634428330113287808e-01
-1.842416649635467141e-01 -3.937493313431340014e-01 1.631904383573477280e-01 -2.850898438625732584e-02 7.523457162592941394e-01 6.581513207732350157e-01
-1.543692987501663616e-01 -4.023783959890823159e-01 1.784839400374837182e-01 -5.996518832386447256e-02 7.552164559246348219e-01 6.527268041760792006e-01
-3.106485049350610206e-01 -4.184799052003587705e-01 1.458112178527899705e-01 -1.318156691028257547e-02 7.420376525199070539e-01 6.702285942397081531e-01
-8.838057500165588665e-02 -1.299396111334475412e-01 1.920284901505440178e-01 -7.819473896148361469e-02 -8.416851557460259814e-01 5.342767835078868766e-01
-7.079141547445758076e-02 -9.704148289888804568e-02 1.585162427551477793e-01 -1.275788554781640272e-01 -8.366255216886239188e-01 5.327113403092893495e-01
6.243598600445800229e-03 -1.189449235035357905e-01 1.588111406011653848e-01 1.738955905127017865e-01 -8.309984281692118779e-01 5.283956244903414978e-01
-1.572481462219514278e-02 -1.116550997750706681e-01 2.006898851128694483e-01 9.225543855739576360e-02 -8.354395113146524388e-01 5.417838655690269123e-01
-1.166933078124481049e-01 -1.058897886405531646e-01 1.675863098143071384e-01 -1.962425354813237266e-01 -7.951791373966785592e-01 5.737412367234340227e-01
-1.344807856412941760e-01 -1.205620126082442428e-01 1.366718705168099290e-01 -3.038020462327210569e-01 -7.523881050167654516e-01 5.844796456114549343e-01
-1.630622563025061200e-01 -4.064963896378896019e-02 1.423089363530672946e-01 -3.527262272993699210e-01 -7.212192564964011732e-01 5.961769809661654485e-01
8.585240226217494275e-02 -6.886697376840177076e-02 1.503053178660252731e-01 4.125585756059951814e-01 -8.199661142637861833e-01 3.968009490325091759e-01
-1.419088061809119783e-01 8.255503930898934195e-01 7.913462643148316822e-02 3.218686183740616102e-01 5.885182123293204448e-01 7.416514722311779995e-01
-9.659536813890126639e-02 8.326822922330252563e-01 9.996243085287542796e-02 4.789604597890472770e-01 5.996395758629275985e-01 6.411156346694351083e-01
-1.298054984477540752e-01 8.287373074269113182e-01 7.876920479434076916e-02 -1.419325215306464494e-01 3.665623528121021435e-01 9.195037796729323976e-01
-1.379792585548190176e-01 7.885978314491832730e-01 7.011724067550556549e-02 4.519119688771707222e-01 6.288515808690682274e-01 6.327094606721419545e-01
-1.628075848471357556e-01 8.571997211355742996e-01 9.464499159779200810e-02 -3.240152396633984022e-01 3.351636473846119624e-01 8.846917281955980483e-01
-1.691067443595789810e-01 7.939673631909091034e-01 1.048446917811624995e-01 -3.337753554231514541e-01 3.097923251674903344e-01 8.902936186334645674e-01
-5.993680522948798689e-02 7.673883963984858836e-01 9.337405086172698154e-02 3.840890397357951680e-01 6.758944506551188836e-01 6.290010342824960965e-01
-7.305879223493180752e-02 7.765193685026928749e-01 1.174077778205499245e-01 2.684767254945097381e-01 7.272780456301461971e-01 6.316540922151464565e-01
-6.153032369559550269e-02 7.675732845346352473e-01 6.214139426297948104e-02 1.725730898885022291e-01 7.684193640658055768e-01 6.162387602017889154e-01
-4.350520399067250160e-02 7.849249984467141505e-01 1.259616321030261610e-01 1.252475815337337171e-02 7.807232131557427790e-01 6.247514664832505282e-01
-2.614697540444632304e-02 7.836789926279188467e-01 6.620688625591998611e-02 -9.180680719069511664e-02 7.868720101156904123e-01 6.102490883646967124e-01
-2.164186690800827539e-01 8.077374586806909118e-01 6.000458728809877212e-02 -4.537959076718555695e-01 2.497448476367334080e-01 8.553927666628831084e-01
-2.066619993095711316e-01 7.634434193729574547e-01 9.280938653744116862e-02 -3.831253452501945933e-01 2.795072904257199786e-01 8.803923241520177356e-01
-1.398449203006462901e-02 7.562113313904784695e-01 7.809647425402832521e-02 5.875656853764317511e-02 5.841545929192838438e-01 8.095128641504018008e-01
-5.356867246343685607e-02 7.467005640707582437e-01 1.223617400071477512e-01 5.577187144341201330e-01 -3.547800400824955430e-02 8.292714554363626034e-01
-1.980026069592399351e-01 7.002596224751121978e-01 7.440358242356678864e-02 -4.434437563825046058e-01 3.707183812922941191e-01 8.160425949038413451e-01
-2.206960786492708285e-02 7.351935258222288549e-01 1.444210142927681018e-01 4.654853503971962958e-01 1.006178369202876365e-02 8.849983893061806883e-01
-1.711546569691732855e-01 7.150664888609526981e-01 8.491919225542690630e-02 -4.493870721439597871e-01 5.198834828165840305e-01 7.264794723076338778e-01
-2.289005463925226913e-01 7.452004431439941401e-01 5.986045357254001636e-02 -4.375180199191221475e-01 6.279946177764422766e-01 6.435842930726873856e-01
-1.000278162046762398e-02 7.165045965962272279e-01 1.011962526892763448e-01 5.697730165051818618e-01 1.530914186617542659e-02 8.216595035888692999e-01
-2.774568371439343761e-01 7.390705239324416587e-01 8.289410009997368045e-02 -4.315338758974373023e-01 6.556875403087117915e-01 6.195582002014392575e-01
2.863660270701099547e-02 6.784507320850655665e-01 8.368953334162708424e-02 2.757815823735370597e-01 6.879238214473624158e-01 6.713459128562602185e-01
-2.555330280840394930e-01 6.496217480615964490e-01 1.322642034136573552e-01 -4.645805789917784590e-01 6.229845815880910020e-01 6.293290846029405694e-01
-2.768370231130504733e-01 6.860613261943876440e-01 7.527006773169070408e-02 -5.049672823339146355e-01 5.585532229067903254e-01 6.580473698395412629e-01
8.016489304097841606e-02 7.132059589309970304e-01 8.192991026053050851e-02 3.207923536528753394e-01 6.140395028891997287e-01 7.211433662798494293e-01
8.003925787615780163e-02 7.148953443610222003e-01 8.025597983967314164e-02 3.877872495370140449e-01 5.303298591778226045e-01 7.539040320630658876e-01
7.740831148194918243e-02 6.685225285663431993e-01 8.336045669050810847e-02 4.291277294326755198e-01 4.899037729115615636e-01 7.588436499826386461e-01
-3.026366168056392469e-01 6.704589812654355718e-01 8.865825563402210396e-02 -5.614254923159018862e-01 4.065419486760072920e-01 7.207808686033237988e-01
1.119157486994426798e-01 6.798837038940819255e-01 9.134289858497364467e-02 4.778486363746426435e-01 4.078785230004484119e-01 7.780075778486140736e-01
-3.034456743413729840e-01 6.330441012594225647e-01 9.391382173084408813e-02 -5.758626339298742458e-01 3.522837154127564929e-01 7.377522691922617781e-01
9.878476098913413495e-02 6.210612470565236576e-01 7.631518950137881896e-02 5.158831130216695593e-01 3.356635605251978016e-01 7.881589863946347752e-01
-3.563754097776614671e-01 6.481745931375314518e-01 1.604713713985389534e-01 -5.890093485972238696e-01 3.037705453257752430e-01 7.488600957839554040e-01
-3.470137914349060715e-01 6.222338389533823566e-01 8.424545274977021658e-02 -6.026896178556602202e-01 2.516962380796591847e-01 7.572411955681926932e-01
1.247533537371846024e-01 6.372926316543037206e-01 7.135318546455680921e-02 5.525155531854014646e-01 2.613233003997857962e-01 7.914775398938325157e-01
-3.544105061626537934e-01 6.016536823639430098e-01 9.223524075653627419e-02 -6.154678814810180532e-01 2.320210518386735810e-01 7.532366947838792237e-01
1.428892293460221063e-01 6.156259128810149805e-01 1.319030879109294729e-01 5.795117971214075459e-01 2.059248183438778523e-01 7.885182598945680299e-01
-3.712702805408532036e-01 5.771666191886121178e-01 7.617378266633016703e-02 -6.429789339205098653e-01 1.701504551514735064e-01 7.467442086458997430e-01
1.371260057372437335e-01 5.813497456215728221e-01 6.668547116529605079e-02 5.813013678272999085e-01 1.828257440717434013e-01 7.928830096973472630e-01
-3.636101218875069097e-01 5.539970665793192417e-01 1.131729966220950540e-01 -6.548047078703007617e-01 1.271347712683880693e-01 7.450285527987667855e-01
1.766786065307893172e-01 5.961574103946413183e-01 8.930051650871986824e-02 6.062557700696878937e-01 1.610959609180868113e-01 7.787824039056661096e-01
-3.621169395766304366e-01 5.375603163374772508e-01 6.157631785104445560e-02 -6.707079892558394096e-01 6.958905938123892410e-02 7.384498330711594116e-01
1.572176029942062569e-01 6.116077061596112419e-01 9.636826973290354981e-02 6.048448721006468576e-01 1.537383851397697843e-01 7.813623932773882119e-01
2.006910990695900676e-01 5.700055293759831443e-01 8.067978068313441664e-02 6.192593900008168672e-01 1.041673142359324372e-01 7.782460912466497849e-01
1.414873173175994203e-01 5.337183083303173037e-01 8.057986860351581959e-02 5.539265095156370444e-01 -5.235463057461573616e-02 8.309178146563102052e-01
-4.006672986448712726e-01 4.732334963408113548e-01 1.122451922801541851e-01 -7.285298449729610271e-01 3.078842082100904584e-02 6.843218088933172849e-01
1.716488850003081712e-01 4.785381765001241461e-01 8.506328518225014790e-02 4.704063887961694168e-01 -1.995785128180282697e-01 8.595849269275789295e-01
-3.463799651799878698e-01 4.884951117312822944e-01 1.137372076170929669e-01 -7.315534458821694175e-01 3.836856606260373448e-02 6.807036131505571630e-01
1.543575468156376806e-01 4.603171701857545206e-01 6.530900990641805293e-02 4.128955003903544974e-01 -2.013954091523583734e-01 8.882326243331488680e-01
1.806656706994412276e-01 4.776789785492636109e-01 1.107851732849048781e-01 3.761104106211801135e-01 -1.849395604321031061e-01 9.079307892177397310e-01
1.192040898053192133e-01 5.000627353971659472e-01 1.106482621548753875e-01 2.836381088416171647e-01 -2.495689438390398251e-01 9.258859354606361336e-01
1.421178211641753175e-01 4.412239206192853924e-01 1.144307741218757585e-01 3.917937031317362817e-01 -1.607447438924679839e-01 9.059022140922639021e-01
1.182762046589137805e-01 4.435292396857581920e-01 1.064831732660470043e-01 2.021838076596699785e-01 -3.874275970961988391e-01 8.994562607089368056e-01
1.307764255588284574e-01 4.212739212188513771e-01 6.308644370853255801e-02 3.148928201789941705e-01 -2.267251069211103087e-01 9.216497369886950120e-01
1.304426190430156562e-01 4.387499158772493191e-01 1.236444881208718649e-01 1.278122649374907049e-01 -3.535959768403381664e-01 9.266250105052612485e-01
1.456476998349937046e-01 4.550229820024040972e-01 9.728964204767197310e-02 1.826967078161564617e-01 -2.389148901540588954e-01 9.536988980888108092e-01
7.138458518552778798e-02 3.695455594660457810e-01 1.093096136075819569e-01 2.481020881845157622e-01 -4.238236656947674819e-01 8.711020917409927344e-01
9.562817510911392205e-02 3.657235367077874000e-01 7.151683196675244492e-02 3.252523848837459708e-01 -2.695862043052350554e-01 9.063852186436689440e-01
9.394914660815720242e-02 4.336292024572958037e-01 7.818915172954127302e-02 2.858370791015043544e-01 1.296989882608030192e-02 9.581904538948201600e-01
1.292281811533275981e-01 4.189345346599122055e-01 1.236909884520531189e-01 2.143122919084425315e-01 4.004571929263388563e-01 8.909008239812710173e-01
1.516475029865180235e-01 3.804498377976655576e-01 8.381100607373909162e-02 -2.811463919819403526e-03 3.519831833156217282e-01 9.360021016715875941e-01
-3.654348440840085588e-01 3.673404976252706011e-01 7.994176945975298154e-02 -7.190648321473307458e-01 1.457392671664533845e-01 6.794893915100632675e-01
8.009328941665497248e-02 3.851169674271991972e-01 1.090088603230523895e-01 1.937226190252673563e-01 6.504564684841405153e-01 7.344235354923828174e-01
1.007457551192570688e-01 3.786575482368467194e-01 1.096150700339806883e-01 1.417675520435775494e-01 6.088702649828537927e-01 7.804991746358742599e-01
1.381173192583574350e-01 3.788005554271071662e-01 1.397497235774832758e-01 1.849133746117514188e-01 4.668728299850447572e-01 8.647755804319694484e-01
-3.861839531018534388e-01 3.903743796263841603e-01 8.004355014043065819e-02 -7.254386477662452259e-01 1.331156586452368895e-01 6.752917811957482863e-01
1.594783565004514458e-01 3.450301301668174392e-01 1.156575275883942044e-01 4.601128779723571705e-01 3.878676571372459136e-01 7.986581371718806110e-01
1.794326079544528718e-01 3.347569235401235410e-01 9.412872648274463183e-02 5.437659600088877720e-01 4.203118616862180357e-01 7.263996969034872686e-01
1.780920281975332808e-01 3.214751500326635814e-01 1.018040152700369350e-01 6.136316436678779240e-01 4.702841214941556602e-01 6.342626041001697690e-01
-4.329889266634621703e-01 3.572341620411911833e-01 1.095297641253521748e-01 -7.868422473884524315e-01 1.993572313922459954e-02 6.168321041155410134e-01
1.956412314101849681e-01 3.073287222403243701e-01 1.258527523111591384e-01 7.863947661754535634e-01 3.810741500648973101e-01 4.861746228302848971e-01
-3.785320162851050219e-01 3.218766137171182873e-01 1.259794786346193907e-01 -8.116530335698580734e-01 -5.171028461555051553e-02 5.818465429662925681e-01
2.292831209278392290e-01 2.932968060784715836e-01 1.055106810687406887e-01 8.338601854904447164e-01 3.233760126431996507e-01 4.473311362970683325e-01
-3.952028434788119604e-01 2.389293998042051337e-01 1.444674386784458586e-01 -8.106498062651953385e-01 -1.482050736336880947e-01 5.664646041470148274e-01
2.188208463132451931e-01 2.601844602783865978e-01 5.480317033437584473e-02 9.134768456609331233e-01 1.512899112184204753e-01 3.777186985110403405e-01
-4.070977916945806019e-01 2.501432077586404068e-01 1.065683189535709674e-01 -8.197166806100807390e-01 -1.677303410659373439e-01 5.476596536312450247e-01
2.548525954474938904e-01 2.671988934349624478e-01 1.123451540210712030e-01 9.322439530205778313e-01 6.324483189768273506e-02 3.562601623740721535e-01
-3.843463182081752194e-01 2.146765351454772430e-01 8.410653386303844348e-02 -8.247049594537873007e-01 -2.099277449678525476e-01 5.251590918426902732e-01
-3.920285578644544522e-01 1.369948465329736131e-01 1.194693612413769562e-01 -8.324357955420563782e-01 -2.327145817936958627e-01 5.028862393433022326e-01
2.229750623457557313e-01 1.718138258001826735e-01 1.050916333842735334e-01 9.440548426387537218e-01 -3.110282492788009334e-02 3.283185471029982927e-01
2.270714354510928179e-01 1.338346584936744577e-01 8.505743956944947226e-02 9.218850929030353303e-01 -1.453601105295906637e-01 3.591633524595558291e-01
2.097050643891321675e-01 7.838609442144330031e-02 8.740911814435010918e-02 9.026907803172372624e-01 -1.905718970393253942e-01 3.857871267798989035e-01
-3.354331703414015764e-01 1.324125387593324821e-01 1.222065219243414214e-01 -8.735552100225325578e-01 -2.389046811332772580e-01 4.240587793868866306e-01
2.281986995912783367e-01 3.505578286749282818e-02 6.700847988409737443e-02 8.924436373616301266e-01 -2.330375222999993001e-01 3.863131726113161468e-01
-3.822856279524805556e-01 6.920712996147704299e-02 1.254910693621247575e-01 -8.678760463072754394e-01 -3.061520813650332462e-01 3.912314804842649818e-01
-3.775568529158845887e-01 6.250450594302253693e-02 1.072546265897406370e-01 -8.532871762059639487e-01 -3.467998405421275354e-01 3.893980810461284969e-01
9.974434274462200267e-02 2.288578663786715317e-02 1.143930683612315452e-01 7.034201388951495382e-01 -5.702796945672665707e-01 4.242418863820422992e-01
-2.747940402198946752e-01 7.955937859101067794e-03 1.119423217141869153e-01 -7.041765799399583026e-01 -5.462663338076924058e-01 4.535729674620900820e-01
-2.932396439077291639e-01 -1.872033621598862344e-02 1.448452740004928518e-01 -6.347284247758055997e-01 -5.941115001378215466e-01 4.941167394306852367e-01
1.676079261464955006e-01 -7.334785154684794750e-02 1.074631793006690789e-01 6.208840322355893004e-01 -6.644616880175530094e-01 4.159250938230826811e-01
-2.089802626217773518e-01 -7.420735493045883813e-02 8.250578108744151262e-02 -4.946496894307976233e-01 -7.255854170072846276e-01 4.783800658183620658e-01
-1.963723948583369627e-01 -4.640530400250860582e-02 1.048906573750100352e-01 -4.134342312557087173e-01 -7.986511429212881374e-01 4.372967966227528369e-01
-1.725150772444909997e-01 -9.393013414562116636e-02 7.114313878131309221e-02 -3.403218840898131203e-01 -8.551589839326858566e-01 3.910039992235068151e-01
7.220018188110075008e-02 -1.431135037311193625e-01 1.060438561181344524e-01 4.288559293321363985e-01 -8.128150845167289029e-01 3.942261156477744888e-01
6.182279927235698191e-02 -1.107554173577463275e-01 6.787204675490435268e-02 4.650143507758801031e-01 -7.926699533241831075e-01 3.942537237230915315e-01
-1.820131586614256725e-01 -1.083185552847729383e-01 8.381430670930142823e-02 -2.771296510212526987e-01 -8.956096248697633655e-01 3.479691888163094493e-01
2.061428906647549963e-02 -1.046229239173914055e-01 7.690542387283974546e-02 3.600409278030821669e-01 -8.499457573699928936e-01 3.846592515921656852e-01
-9.763387262860821758e-02 -9.650646396540410454e-02 8.696782904368532963e-02 -2.297543582162699105e-01 -9.262246929695214792e-01 2.988657775894483226e-01
-7.684698169666563661e-02 -1.398881776610844674e-01 1.610750353421556980e-01 -1.104654842620733518e-01 -9.502326137623284819e-01 2.912994276155704831e-01
-6.372608182363213858e-02 -1.283965463512941885e-01 1.226095999333866732e-01 -8.216956259728804002e-02 -9.537015641135705435e-01 2.893120972062863672e-01
1.618307633436490839e-02 -1.135846386152457727e-01 1.112667855594066946e-01 3.009345112927192534e-01 -8.776423523462058007e-01 3.730714694012806643e-01
-4.874162605704453199e-02 -1.354219617452956104e-01 6.394563037768760672e-02 -4.272352239597333040e-02 -9.491412704957213897e-01 3.119383741636292950e-01
-2.577316132326561982e-01 -3.371797892501506300e-01 9.804685003913238273e-02 -5.505027070825798535e-02 7.145181640023328118e-01 6.974476761777065326e-01
-2.460009750595458233e-01 -2.922093045550916979e-01 6.879873293428451220e-02 -2.467958332168742122e-02 6.896182185136432441e-01 7.237524651848427082e-01
-3.048831098011100527e-01 -3.247013641385634863e-01 9.252428258450881571e-02 -9.745667398912516433e-02 7.411145867930610809e-01 6.642675409332655656e-01
-2.556966585711385465e-01 -3.632711348100551851e-01 1.054335812645513931e-01 -2.718394235269583348e-02 6.982611593283306606e-01 7.153267691423416119e-01
-1.843628913785640977e-01 -3.193415454093743167e-01 1.164895612258985969e-01 -2.085417145662858338e-02 6.879297744117720548e-01 7.254775868423681828e-01
-2.356282974491279436e-01 -3.367141537208744317e-01 9.644012630423691446e-02 -3.315671079525298048e-02 6.874375884559471572e-01 7.254861780262336080e-01
-1.976531108673646175e-01 -2.797597642449022315e-01 5.254212838585840123e-02 -4.628408819657086476e-02 6.843779599058295027e-01 7.276569185920979121e-01
-1.740449563234815478e-01 -3.083867258860022997e-01 9.693870314071376115e-02 -5.871493225421259982e-02 6.701602158158067590e-01 7.398904255821225906e-01
-1.639131018638678161e-01 -3.231970586657975097e-01 9.854911371118431351e-02 3.814769149560207767e-02 6.399659640821083739e-01 7.674557436425986090e-01
-3.222829853962739244e-01 -3.117070034057030647e-01 1.176060093791646000e-01 -1.139199001944820600e-01 7.557412551769577824e-01 6.448855802103466983e-01
-3.966134060863617528e-01 -3.636138754537932560e-01 5.184659059682811960e-02 -1.669558957636882446e-01 8.010377102251541315e-01 5.748602575121944946e-01
-5.009073679009191926e-02 -3.249846528041626104e-01 1.074327517857802117e-01 3.296995348496648548e-01 6.411460100992520950e-01 6.929862988932207202e-01
-5.534510641036977791e-02 -3.625898136029832575e-01 1.076822296387799360e-01 3.037350627759304866e-01 6.969750541604656791e-01 6.495927843799662593e-01
-4.623775139269851175e-01 -3.576001409439788503e-01 7.859155444939602830e-02 -1.757984521844397907e-01 8.573501903672644531e-01 4.837825495889356842e-01
5.163092201195700059e-03 -3.655888468598147978e-01 4.703067333189837884e-02 2.837210895089418705e-01 7.550778148368881837e-01 5.910666941293589716e-01
-4.663375500913595761e-01 -4.100619302781856046e-01 9.861145582567060197e-02 -1.564686160392499692e-01 8.665620238086695348e-01 4.739069856916909296e-01
-2.305488520336563402e-02 -3.872849808730912669e-01 9.235023372169451350e-02 2.506069319355453406e-01 7.761522181578778268e-01 5.786051329831589651e-01
-1.785893682424511894e-02 -3.979819902118985619e-01 8.252973549804561160e-02 2.322518294855581700e-01 7.833942858392067832e-01 5.765002000130532434e-01
-5.309478970621602789e-01 -4.145787299452948216e-01 5.713133626522651914e-02 -9.115576387334366204e-02 8.797164014773384277e-01 4.666794185352826640e-01
-5.218651166312440193e-01 -4.085916753215070307e-01 9.517073807697709609e-02 -1.049720084010868082e-01 8.796183392817087388e-01 4.639530737601926247e-01
-8.712308267942229373e-03 -3.820374092519590037e-01 1.018747080472778566e-01 2.536246630139367686e-01 7.997460878983634336e-01 5.441330032283744345e-01
9.788331062466637533e-02 -4.512582939017244499e-01 7.658059299108316287e-02 3.788545299415980172e-01 7.789805150152053770e-01 4.996584857373844724e-01
-3.160706369458296527e-01 -4.865601897634601325e-02 -4.504147606398060250e-03 -7.689954967208496583e-01 -5.359484272610681721e-01 3.484325032763753160e-01
7.718373752440421676e-02 -3.913127812402403261e-01 1.028345280260845179e-01 3.873627391990953628e-01 7.796775705807285073e-01 4.919888151304931401e-01
1.127229992212225307e-01 -4.058933145318553426e-01 8.596822030950364291e-02 4.251649990936340329e-01 7.693499823061303866e-01 4.767969465834139275e-01
-3.111857314895781768e-01 -5.726276930444167135e-02 -3.303337611466599516e-02 -7.993412998900990551e-01 -4.900507755333011750e-01 3.477121276130829552e-01
1.603013678075326798e-01 -4.355486529930556738e-01 1.226946477320301349e-01 4.561983206892059606e-01 7.679249817670689149e-01 4.496379816901540649e-01
