8.018407168415747632e-01 -4.224717511196776631e-01 -2.863789957892247662e-01 9.507675178486858503e-01 -3.091994684097241763e-01 -2.090013729602659825e-02
8.404816206531471323e-01 -4.085231949038346522e-01 -2.191824807154143240e-01 9.390367296658806984e-01 -1.204472183182258987e-01 -3.220287066983462676e-01
-8.466376973098469483e-01 -4.255945685582731564e-01 -2.800385901851369375e-01 -9.878756893735096689e-01 7.826782246426935985e-02 -1.340737495243374267e-01
-8.410218884796444305e-01 -3.548272525252820775e-01 -2.197884807504797144e-01 -9.542001168937541689e-01 2.798566676684524634e-01 -1.057467847334148253e-01
-8.553746994013453619e-01 -3.492655047754979480e-01 -2.591381053476459195e-01 -9.218063322718614838e-01 2.370008204917589123e-01 -3.067632586698278985e-01
7.819147249379571063e-01 -3.416401402863804559e-01 -2.797118596641916533e-01 9.412543962906954054e-01 1.250429896218862302e-01 -3.136947755539758464e-01
8.387341371130478951e-01 -3.877271735399065444e-01 -3.261277801324958814e-01 8.848060111575291042e-01 3.231577436628658706e-01 -3.356894328545774187e-01
8.313176032050948461e-01 -3.533608812886555595e-01 -2.046648925088860316e-01 9.441030675207363609e-01 2.916412990941090744e-01 -1.536709164436660391e-01
-8.035014877000755673e-01 -3.047889777414073409e-01 -2.758765570695301816e-01 -8.001548846291346440e-01 4.861421301628858216e-01 -3.513089664167823312e-01
-8.264200743697580620e-01 -3.000621497715864616e-01 -2.647850914317138038e-01 -8.799098204727778816e-01 4.644659918535614107e-01 -1.001501385273686068e-01
-7.993992856857424778e-01 -3.405714496276904257e-01 -2.357923504101529788e-01 -8.900491971073054565e-01 4.408181404163794004e-01 -1.161541811924396428e-01
-7.865183779613994508e-01 -2.545053480829616022e-01 -3.062802106366678268e-01 -7.551609984834570799e-01 5.337905065985529829e-01 -3.805253755463996468e-01
-4.743022460315181321e-02 -3.180023144631987653e-01 -1.654082495434912869e-01 3.441249319735312784e-01 9.387982988619415492e-01 1.535530032715351142e-02
-1.502117174458781068e-01 -2.871600897025293198e-01 -2.843935900189908939e-01 3.797757454275359490e-01 9.249526949988265967e-01 1.526090427749879699e-02
-3.855576699958656456e-02 -2.595402456425561777e-01 -2.524399180321529323e-01 3.536077312033993336e-01 9.353918177981040971e-01 -1.928634113331971663e-03
-5.549412386276503933e-02 -2.655770206694671454e-01 -2.359854278528139282e-01 2.671718443458137582e-01 9.317026379308512851e-01 -2.460678769395744092e-01
7.743442666478181358e-04 -3.142178136073038308e-01 -2.178313170495330964e-01 3.040819605862169484e-01 9.487379079481548239e-01 -8.620059900140399078e-02
-1.119477278828349964e-02 -2.680770227541200978e-01 -1.804289816108214373e-01 -7.312618332496378937e-02 9.312548013317302198e-01 -3.569552581331779662e-01
2.932345265718636074e-02 -2.773132457975573395e-01 -2.570638381437657105e-01 -4.322417263604895754e-01 8.471331619177198125e-01 -3.090833155836623103e-01
6.692752768574276867e-02 -2.611546476902893432e-01 -2.548695420323744965e-01 -3.623114805494890289e-01 9.317657328636753666e-01 -2.330257760539136344e-02
9.368108317552742426e-02 -3.080196866763233454e-01 -2.551295173101829628e-01 -3.622314657940924332e-01 9.319611676192881555e-01 1.538659281180062427e-02
7.603060375356364142e-01 -2.840743485291635784e-01 -2.763072924154289511e-01 8.170745463108726181e-01 5.458915629590602725e-01 -1.854496892987315126e-01
7.896951126258792142e-01 -3.457113227139256839e-01 -2.211393109060446616e-01 8.057059871757245029e-01 5.044911929416546759e-01 -3.103651051157290119e-01
8.195482390554845731e-01 -3.643847607579924208e-01 -2.896636565519133955e-01 8.918088376773498638e-01 4.196535112626140207e-01 -1.690204943950087690e-01
-8.096418769267706983e-01 -2.894553011501425632e-01 -2.036462134245097255e-01 -8.214330250386290277e-01 5.449389683442320553e-01 -1.681942512567271286e-01
-8.093778141589605957e-01 -3.124349150795469598e-01 -2.297107141582518386e-01 -7.562916634380909553e-01 5.987665588581138065e-01 -2.636314241649851953e-01
-7.227793376045512641e-01 -2.166953930902290604e-01 -3.025059570864673808e-01 -7.105916328171639762e-01 6.437253460625853574e-01 -2.840373394588143197e-01
-7.579467914439508291e-01 -2.730353079542395256e-01 -2.929765674241625595e-01 -7.051118088450307742e-01 6.483177834376645521e-01 -2.872305497431675292e-01
-1.870919947731693456e-01 -2.897362552474417319e-01 -2.709954139753611435e-01 6.395119799015239748e-01 7.687133524092192305e-01 1.020830006476846491e-02
-2.192304250788076614e-01 -1.969825880975405730e-01 -2.917472002425200994e-01 6.845070372729558095e-01 7.286427946798763600e-01 -2.301724755264768912e-02
-1.991033102069088012e-01 -2.937759458202762186e-01 -2.164368935549814132e-01 6.069055651987181887e-01 7.947730350358316320e-01 1.207356930276199530e-03
-2.141149737592285829e-01 -2.401050948904776550e-01 -2.975956468223578399e-01 6.069055651987181887e-01 7.947730350358316320e-01 1.207356930276199530e-03
-1.374978874012049712e-01 -2.465122863100712991e-01 -2.501418344251067349e-01 5.900414535845264208e-01 8.072472929624581184e-01 1.424398317334167954e-02
-1.689135680706145559e-01 -2.767498252127321701e-01 -1.773208896907844945e-01 5.900414535845264208e-01 8.072472929624581184e-01 1.424398317334167954e-02
-1.426043151885609539e-01 -2.647269164931840280e-01 -2.420316733749610094e-01 4.895082760542710520e-01 8.719912914176926044e-01 -3.582647914616082958e-03
-1.438471219173638738e-01 -3.061816754817494601e-01 -2.359580396364980015e-01 4.701224620210089356e-01 8.824578251968617781e-01 1.590777961030156659e-02
-1.478115623749546026e-01 -2.579884647989126312e-01 -2.641236906269008311e-01 4.701224620210089356e-01 8.824578251968617781e-01 1.590777961030156659e-02
1.332183628951281729e-01 -2.397601956015490421e-01 -1.664195728986175848e-01 -4.783005954093667023e-01 8.779688761721401447e-01 1.997981241339756575e-02
1.618435643973549498e-01 -2.591356760419186722e-01 -2.665201536697110463e-01 -4.783005954093667023e-01 8.779688761721401447e-01 1.997981241339756575e-02
1.960603366056101748e-01 -3.086231294623354438e-01 -2.234253056126700721e-01 -4.738751106085749010e-01 8.804656353904675159e-01 1.492127481722026888e-02
2.176383943297770518e-01 -2.427898996069965121e-01 -3.860758539621467200e-01 -6.070380630290505009e-01 7.945274502435607511e-01 -1.519607986965267575e-02
1.915675468174037333e-01 -1.994756005259236131e-01 -2.812184460757866100e-01 -6.063308851979617442e-01 7.949811259034830213e-01 1.917986215504697070e-02
1.875776294343839412e-01 -2.358641551602711495e-01 -2.139809423459828330e-01 -5.644642450317870486e-01 8.254035811401966294e-01 -9.436329881543277856e-03
1.970888377848384332e-01 -2.149806108284444961e-01 -3.375698881859461875e-01 -5.960993728271229974e-01 8.010526494651474261e-01 -5.459112107273735720e-02
2.030763017444099650e-01 -2.035938543835660863e-01 -1.989720696130268807e-01 -6.459469648403103337e-01 7.632053362565280885e-01 -1.643573311874630891e-02
2.244942194943108649e-01 -1.924486670246572662e-01 -2.665617908160532457e-01 -6.713540204940148248e-01 7.403954978013400634e-01 -3.314039833840242560e-02
7.944543599916360499e-01 -2.706193241642652625e-01 -2.399420517948662734e-01 7.817033007177259796e-01 6.080862069093891931e-01 -1.384597942132077542e-01
7.595182112617200332e-01 -3.099966670211480868e-01 -2.118613997332783883e-01 7.477795972506006139e-01 5.600062084856334277e-01 -3.566773337251400444e-01
7.429625686008419772e-01 -2.606612926264066377e-01 -2.767694389795330445e-01 6.964226551632469731e-01 6.085749905354455036e-01 -3.803050962979007688e-01
8.370189038913009583e-01 -3.008618558142142074e-01 -2.937094880091057902e-01 8.057209047388030898e-01 5.737465934279531998e-01 -1.470668902122542476e-01
-8.049024806087416994e-01 -2.149708162303787251e-01 -2.240125774092568411e-01 -6.984858140962888484e-01 6.888433863262741763e-01 -1.939390538823881349e-01
-7.050014221892794142e-01 -2.049567007894683712e-01 -3.630376057475285245e-01 -7.056204015399858420e-01 6.711081013284256880e-01 -2.274066077797752550e-01
-6.947953279844802932e-01 -1.340422518576698252e-01 -3.206341664926465884e-01 -7.047020548201305967e-01 6.722679950985869235e-01 -2.268275924538545041e-01
-6.547015302068023290e-01 -1.788775334945226225e-01 -2.025465721213902115e-01 -6.669330082832900519e-01 7.380286516452703172e-01 -1.025381480857993910e-01
-2.897357972456233721e-01 -1.559394541978644244e-01 -2.942113927823709618e-01 7.431735060821141881e-01 5.528166066332359518e-01 -3.769442124348535983e-01
-2.371167172953749513e-01 -2.114084577580236934e-01 -2.612379693741213038e-01 5.512924617428235363e-01 8.183426186740242469e-01 -1.624560866427535999e-01
3.039816552521898418e-01 -1.867745633691456630e-01 -2.389140098631014064e-01 -3.986069375497364176e-01 7.062428414323547177e-01 -5.850927774830027017e-01
2.754544471793795024e-01 -2.128840827823982595e-01 -1.891246111515886841e-01 -7.289378734077160971e-01 6.415627215161907593e-01 -2.388448263466787513e-01
6.914400164032497020e-01 -2.218992463216723499e-01 -2.652863668463792957e-01 6.919918981048104323e-01 6.977258534855407257e-01 -1.852723571803831515e-01
6.978953593048059512e-01 -1.860086998953848214e-01 -3.025208510229916437e-01 7.415222676802276647e-01 6.540753828900243150e-01 -1.494326605252044582e-01
7.496097538456674148e-01 -1.993946126533431840e-01 -2.332183540174128100e-01 7.094796624049204414e-01 6.535857828947077008e-01 -2.635606818774604010e-01
7.439594415010226669e-01 -2.281305838934127861e-01 -2.957509714164276438e-01 6.841289543329703848e-01 7.066848349003617136e-01 -1.804553073897394166e-01
-6.923150532499074972e-01 -1.761284424385187453e-01 -2.301404244111384390e-01 -6.852325613479166577e-01 7.209070256002874100e-01 -1.036793002904635719e-01
-6.743517544976125322e-01 -1.122611724226053043e-01 -2.582333762806695021e-01 -7.473658053963980752e-01 6.643690087071596473e-01 -7.627135350787800014e-03
-6.455684600399355100e-01 -1.277522597027186402e-01 -3.585550571841080725e-01 -8.882864123921010435e-01 4.394650051491998388e-01 1.334831779992673995e-01
-6.299269143878060140e-01 -1.013523183218972556e-01 -2.654113382083376216e-01 -7.069933079114455454e-01 6.890512914392658006e-01 1.592757995877340516e-01
-6.328107097880596443e-01 -9.044262643503295229e-02 -3.173792270952689454e-01 -7.928347637924179070e-01 6.004752961220470864e-01 1.041271149574436172e-01
-2.920405142031349821e-01 -7.118159810599819504e-02 -2.066473514978854620e-01 9.122230865833718116e-01 3.314454371061258398e-01 -2.408172803721427002e-01
-2.747246946397527978e-01 -1.334004776357368138e-01 -2.727372167478883669e-01 9.193299436861234186e-01 7.812302260288196687e-02 -3.856543115037853742e-01
2.502922660259643828e-01 -1.163772255116573978e-01 -2.277874651838564524e-01 -8.895988099429101847e-01 3.390289056811232604e-01 -3.060610371491571668e-01
6.879028559438041812e-01 -7.424710599390660359e-02 -2.504153611825468140e-01 7.600907004486633367e-01 6.497082004592000803e-01 1.189038887203740236e-02
6.353206788490737278e-01 -1.271343011318892546e-01 -2.622986778610222336e-01 7.551592818454199163e-01 6.474018519755178058e-01 1.029820426160762414e-01
6.547251764743785563e-01 -1.809796360290451822e-01 -2.108943874727455536e-01 6.652161470983528613e-01 7.462174955168705548e-01 -2.543476015518657263e-02
6.223894014967888966e-01 -1.477085383007729624e-01 -3.345657203080389386e-01 8.437703021356476318e-01 5.166372855273870801e-01 1.453877313833968898e-01
-5.667128067743266717e-01 -1.273322858626194792e-02 -1.650131476514876128e-01 -7.876574436109484711e-01 4.389166941716157733e-01 4.323747068246775460e-01
-5.367416692375146514e-01 -7.910778985775898664e-03 -2.809253159644453657e-01 -8.052201499094658876e-01 2.093290219106292427e-01 5.547989462550524387e-01
-5.586301202995352932e-01 -9.710076381068186158e-02 -2.128477420846380253e-01 -8.215932609473669546e-01 2.874569201026906939e-01 4.922936447395467319e-01
-5.706425363315998922e-01 -1.312451670305502804e-01 -1.957927736740488478e-01 -7.023673263680215717e-01 6.654529966191847778e-01 2.526904195674703479e-01
-5.959814154271877440e-01 -7.652814818558781318e-02 -3.051130920624736120e-01 -7.956636154083771562e-01 5.014295768319547708e-01 3.398349461038353558e-01
-6.215816719303463023e-01 -2.478697023193021653e-02 -3.348452241785312977e-01 -8.549767776051173662e-01 3.223116513542784167e-01 4.063617958879099934e-01
-6.086283079977824473e-01 -1.121886753738216835e-01 -2.284796709681015670e-01 -7.908726478131460347e-01 5.124172112036546878e-01 3.345878907003247416e-01
-2.698237949160328664e-01 -8.910968640074264091e-02 -2.577273255128948448e-01 9.910186046175101238e-01 1.280585012346890650e-01 -3.851162893839230050e-02
-2.630176078228836922e-01 -9.800170260276819256e-02 -2.415145936261010595e-01 9.867515939247826218e-01 1.608715397663842139e-01 2.101522258016121775e-02
-3.043617263160796060e-01 -7.249702312937406079e-02 -2.906219814623217657e-01 9.867515939247826218e-01 1.608715397663842139e-01 2.101522258016121775e-02
-2.759513230505710180e-01 -7.372261954989310639e-02 -2.535879398504781723e-01 9.867515939247826218e-01 1.608715397663842139e-01 2.101522258016121775e-02
2.146716062495738209e-01 -8.787721557859948240e-02 -2.154596007679499547e-01 -9.860401954976799610e-01 1.373671040876498495e-01 -9.410107107503956625e-02
2.837285286714683608e-01 -8.816521023120463263e-02 -2.891858210299417253e-01 -9.924702059379473251e-01 1.224690542261140380e-01 2.054527305633744444e-03
3.348821256296573567e-01 -8.994776717729463522e-02 -2.245483019241262812e-01 -9.893957329699397674e-01 1.452063239093258074e-01 3.347697360192444186e-03
3.005894045068037146e-01 -9.668246808255870350e-02 -2.445094275373533022e-01 -9.839901506748515159e-01 1.780231318422532683e-01 8.434921692515579342e-03
2.997426186413681415e-01 -9.000063173809427775e-02 -1.906576589875802474e-01 -9.908443769197551321e-01 1.342965025126233169e-01 1.385171972642235301e-02
5.362963936269571352e-01 -6.901757685337030213e-02 -2.054666528927055758e-01 7.810545409935741867e-01 3.976592775820843584e-01 4.814778322479777439e-01
5.515417135403227755e-01 -6.761202532874789617e-02 -2.320738550854604676e-01 7.732650797092206485e-01 5.092912592977995034e-01 3.777347345759378139e-01
5.612724761956966457e-01 -5.781927920997666226e-02 -2.405516653395774196e-01 7.833293810707456784e-01 2.441345317200099008e-01 5.716584742424223320e-01
6.326933105578987915e-01 -1.110052864864580768e-01 -3.211215809809625510e-01 8.366622391016146354e-01 4.610762836280464239e-01 2.956432957758755031e-01
6.389425687285028577e-01 -9.664074186938823030e-02 -3.257967395419648637e-01 8.904498497916693012e-01 3.414348183059726094e-01 3.008676284586978555e-01
-5.900422398295837034e-01 2.432805308143135697e-02 -2.301360312531087193e-01 -8.003350981440350287e-01 -5.959016400090989818e-02 5.965842296215367879e-01
-6.090258727473205624e-01 7.507867661736468412e-02 -2.434416396342573008e-01 -8.057361122293673628e-01 -2.593542271000072730e-01 5.324703769552462385e-01
-5.984461092156703188e-01 2.351055568796657155e-02 -3.234534212522628960e-01 -8.300935060285543621e-01 -1.988944631300014754e-01 5.209469875001204731e-01
-6.212328663759455472e-01 2.023211276284085300e-02 -2.683089483811620379e-01 -7.776307662980369573e-01 -6.653083882016282147e-02 6.251912017875916883e-01
-5.524660723530299133e-01 6.342606206324244780e-03 -1.826986716792071697e-01 -8.005313443934946038e-01 -1.691405178985502800e-01 5.749269969731412022e-01
-3.262745783226930207e-01 -1.731515082940606604e-02 -2.931509387744702932e-01 9.993327244926820674e-01 3.576880789398571847e-02 -7.395819080813527402e-03
-3.326979862296408630e-01 -4.837197711720657434e-02 -2.354822777530162503e-01 9.982419299573274118e-01 5.630157992361072006e-02 1.852515514578688058e-02
-3.296525093493970493e-01 6.301479440873961058e-04 -2.193705526879059231e-01 9.995614306607949473e-01 -2.944911309726759574e-02 -3.113851815563751461e-03
-2.943751426155014617e-01 1.271880465444684589e-02 -2.707869044103612399e-01 9.993138168164065194e-01 -3.306687238558872477e-02 1.668764424538994595e-02
2.953205400599868691e-01 -4.831995331084840140e-02 -2.944757095499583865e-01 -9.990575165573956085e-01 4.273471031573193579e-02 7.604153102075818932e-03
3.316261753292659709e-01 -3.093790696873761903e-02 -2.848834181147287259e-01 -9.994674266071857938e-01 -3.225103691745190987e-02 4.973305636978140286e-03
2.830267484482024698e-01 8.919157247666687979e-03 -2.384587603618084362e-01 -9.992618627933520514e-01 -3.390849471692339995e-02 1.805390685676079229e-02
5.331691607635438146e-01 3.032122537898921527e-03 -2.263536454514147311e-01 7.822811472055983817e-01 1.493507101687325256e-01 6.047566222033357031e-01
5.524424751158116820e-01 3.011211449989950259e-02 -2.939394166984563017e-01 7.721434051207488602e-01 2.954399134760072113e-02 6.347611476010389664e-01
6.339902177879332967e-01 -3.468334726790653355e-02 -3.106143183591734136e-01 8.127035081479753176e-01 -1.149991676115096340e-01 5.712164207134049487e-01
5.758769583629849143e-01 -3.066414725070286743e-03 -2.533753751447662128e-01 8.085855318830112992e-01 3.433539530659270034e-02 5.873759598916249436e-01
5.308303091554644748e-01 -4.251312980944235709e-02 -2.682560168051035809e-01 7.696679912471042773e-01 1.345827544148414656e-01 6.240982818945762789e-01
-5.532716755463120695e-01 2.549679486964995245e-02 -2.584602210949151768e-01 -8.333930580824333578e-01 -3.368997690236456566e-01 4.381261877265771876e-01
-6.661787659960197727e-01 1.099863016691578765e-01 -2.728001079668856410e-01 -8.939944557978585227e-01 -3.608163519020269883e-01 2.656792675441637108e-01
-5.308645142215043800e-01 3.276650327132747675e-02 -1.791055018795350007e-01 -7.992295286453765524e-01 -3.289100326359316040e-01 5.030411026672867436e-01
-5.549228653128475131e-01 1.407083964756498939e-02 -2.108651350708028727e-01 -7.705403826498274933e-01 -3.923572391167681195e-01 5.023179427598865043e-01
-2.455470099437705167e-01 2.068702443863692370e-02 -2.444216428349304249e-01 9.920753305031735358e-01 -1.252765547962950698e-01 9.608507968986948478e-03
-3.137616809434525256e-01 1.114016482591287799e-01 -2.817355555189989813e-01 9.884998550780309534e-01 -1.511967656132968962e-01 -2.752195267382528693e-03
-3.296623446251977785e-01 -3.784801145773893788e-02 -2.264941336558517759e-01 9.915894222294897586e-01 -1.281137003324277213e-01 1.836566115661840415e-02
-2.668323934477607740e-01 4.833879636992274853e-02 -2.790106193880442786e-01 9.844151612992222411e-01 -1.757203040831299135e-01 7.011771328172225481e-03
2.898770356163956063e-01 3.952970460154579813e-02 -2.104362592827507261e-01 -9.913640050344348920e-01 -1.298353381926261874e-01 1.844436169920833299e-02
3.186782597855521981e-01 7.778403504710307281e-02 -2.790841216877980591e-01 -9.886221069281659890e-01 -1.503766058205718570e-01 -3.634021848898824798e-03
2.650830361246931943e-01 1.582848672954102753e-02 -2.628848551836301395e-01 -9.912218723086503314e-01 -1.321691607135342117e-01 3.242346868201932339e-03
3.461321063179960689e-01 1.324107570383996624e-01 -2.400823389719651257e-01 -9.666440539588803116e-01 -2.354130831499522125e-01 -1.008957542603997476e-01
4.997662638019593762e-01 5.049422818219054254e-02 -2.286328610931104566e-01 7.962950218281281689e-01 -3.405335873880301345e-01 4.999511116823120993e-01
5.532893923286171800e-01 -7.703026179001731810e-03 -2.131684914134791275e-01 8.024321282958294388e-01 -2.374390557330757767e-01 5.474718022795429517e-01
5.916778116177093816e-01 -1.865456892191232063e-03 -2.335393883230827972e-01 8.356199039189761146e-01 -3.208284138558614718e-01 4.458794736665651071e-01
6.514083619794951430e-01 7.182621194556228217e-02 -2.598062901822928428e-01 7.292743000061198133e-01 -5.944031161696021748e-01 3.388863096061131563e-01
6.222326701939980831e-01 8.212455987998912299e-02 -2.988871332806413150e-01 7.918734091789362273e-01 -4.639145549008302782e-01 3.971395089719653160e-01
6.188563393819102032e-01 1.185833802720832192e-01 -1.942751560961567814e-01 6.943196422684488889e-01 -6.894422992704257735e-01 2.063723584614024775e-01
-6.686166197413759837e-01 1.333672164381399516e-01 -2.519323826059976512e-01 -6.806029969356374165e-01 -7.316689060636221154e-01 -3.794960423892852069e-02
-6.832483409415124331e-01 1.032759309973872025e-01 -2.518191746143029208e-01 -7.637983932769837336e-01 -6.174025616842123698e-01 1.882182011742498107e-01
-6.439526248454255919e-01 9.849863623426471926e-02 -3.056302533273753674e-01 -7.510380295957136410e-01 -6.539782741173039149e-01 9.085315120313931792e-02
-3.037225627130807348e-01 2.125735184516155951e-01 -3.081892334890680707e-01 7.505279990964472958e-01 -4.954632657646352856e-01 -4.372915215850013970e-01
-2.864674309720913192e-01 6.427416569450308814e-02 -2.215632309546487488e-01 9.940904754115941211e-01 -8.539962811010617938e-02 -6.701514914261055833e-02
2.872353896295682385e-01 5.565896822436050551e-02 -2.887800724526483065e-01 -9.632459355342652962e-01 -2.071775097733383475e-01 -1.709817157500662099e-01
3.008065036466320286e-01 1.541758797433674943e-01 -1.587179910903056546e-01 -9.260839863050785992e-01 -3.329384937051964588e-01 -1.775398820507931852e-01
6.428633015248079730e-01 1.788829935805132387e-01 -2.838655779873830443e-01 7.728921410066381670e-01 -6.200428574533671799e-01 1.348502624811620809e-01
5.792280732082508710e-01 1.183184203683079194e-01 -2.290590757440617575e-01 6.949995218035561750e-01 -7.073168127367368552e-01 1.291456197970813624e-01
6.549272425924397290e-01 1.513082309296596151e-01 -2.619307316529928542e-01 7.904218821901473069e-01 -6.124414511712847897e-01 -1.219495970455709323e-02
6.443901416328290388e-01 1.881162581377698040e-01 -3.339057604833927106e-01 7.228337331573104763e-01 -6.778161442744953247e-01 -1.344495026793431081e-01
-7.290543070327052400e-01 2.578424349215919231e-01 -2.071913223949796434e-01 -6.836568757087347903e-01 -7.105536773127424377e-01 -1.665135068200500612e-01
-7.419237959119466819e-01 2.463563243920448564e-01 -2.458577099860476123e-01 -6.883008364361540288e-01 -6.444937522122556883e-01 -3.329711127420192374e-01
-6.935647496617287633e-01 2.508181495566979002e-01 -2.801747012987405583e-01 -7.046057069264266559e-01 -6.600403710263170742e-01 -2.605331195494196006e-01
-7.027313101329050182e-01 1.584317699867396068e-01 -2.713634627125540155e-01 -6.989580605555957282e-01 -7.035405439407105277e-01 -1.284069025246278306e-01
-6.522468208829081959e-01 1.869631200500566082e-01 -2.647803776407680609e-01 -6.774869209547835780e-01 -7.170907378312502134e-01 -1.636836755814088384e-01
-7.084877400983684570e-01 1.780547066003619339e-01 -2.270899430654635676e-01 -6.774869209547835780e-01 -7.170907378312502134e-01 -1.636836755814088384e-01
-2.908411433537518298e-01 2.227750439739140942e-01 -3.316679606873761399e-01 5.607153988857539462e-01 -7.458514586853857153e-01 -3.595884356167087792e-01
2.719250378267936141e-01 2.100828232106632942e-01 -3.051775852260700805e-01 -4.290255875930286122e-01 -7.810794502530282735e-01 -4.537090891561282313e-01
6.750439386691579058e-01 2.143629725364404048e-01 -2.472296909017844546e-01 6.748022174614133339e-01 -7.289341606125953055e-01 -1.153124312516680960e-01
6.937916602303082492e-01 2.036623520743110205e-01 -3.011647544231097484e-01 7.429342097034681291e-01 -6.230909358235555695e-01 -2.445535641670531779e-01
7.494585950286799525e-01 2.183387543085607563e-01 -2.072415385425473433e-01 6.978636539192326627e-01 -6.885895418006937607e-01 -1.970552294693241335e-01
7.106421110227082449e-01 2.028021792536099377e-01 -2.699576786440666121e-01 6.893829859898876755e-01 -6.762149123075886781e-01 -2.597777723372541869e-01
7.244976460601717516e-01 2.449587481550724033e-01 -2.732992604506466749e-01 6.893829859898876755e-01 -6.762149123075886781e-01 -2.597777723372541869e-01
-8.075634704975439560e-01 2.781593774345481607e-01 -2.490176744928243591e-01 -7.928138949943185354e-01 -5.877292387968053866e-01 -1.613086165313722675e-01
-7.995562530547781765e-01 2.096311008534764153e-01 -2.242605812159647882e-01 -7.481940739455072986e-01 -6.395106632712080907e-01 -1.767250386200115431e-01
-8.281949055339525856e-01 2.980190085810844325e-01 -2.228501396181185035e-01 -7.788256686575435461e-01 -6.093462056207160638e-01 -1.487540908202735213e-01
-7.638170754692242825e-01 3.034894865458467317e-01 -3.219029513918448826e-01 -7.471576720322034015e-01 -5.634032762421862239e-01 -3.526076593651779056e-01
-7.292942564146630557e-01 2.178194144713886671e-01 -2.381593288873227743e-01 -7.184469908375548108e-01 -6.421562733498235032e-01 -2.673373186704940396e-01
-7.434428987244217080e-01 2.776193764622157945e-01 -3.154609880429863344e-01 -7.129801507015337547e-01 -5.999327422393060383e-01 -3.629600659781248018e-01
-2.703815696983637440e-01 1.591421684591284580e-01 -2.345148132803329122e-01 6.887082864871982846e-01 -7.214543856478241590e-01 -7.200323293705414296e-02
-2.233697191073112376e-01 2.245286040232517821e-01 -2.208640582085203141e-01 6.505281394694771846e-01 -7.594412554005224303e-01 -7.881583220333103490e-03
-3.161732983347418369e-01 1.890824384238266043e-01 -3.317374263172359061e-01 5.806695587083157140e-01 -8.119879799000699894e-01 -5.914713929932156194e-02
-2.627045502649980602e-01 2.613242936879854317e-01 -3.140793780712292094e-01 6.075837585732517532e-01 -7.942538197580057968e-01 1.687044106613478202e-03
-1.198884218587545208e-01 2.223780287696462410e-01 -1.966370057024923457e-01 6.075837585732517532e-01 -7.942538197580057968e-01 1.687044106613478202e-03
-1.271361693083434274e-01 2.221017599964925926e-01 -2.529927510102628063e-01 6.249497029301963602e-01 -7.803699988099571661e-01 -2.146005043812368104e-02
-2.101960099576558605e-01 2.627396569720898412e-01 -1.942224771946229056e-01 6.035661529889533305e-01 -7.969318223263448520e-01 2.464892552884400539e-02
-1.450417844924348221e-01 2.919169111692243024e-01 -2.381082169048854003e-01 4.806711367065564788e-01 -8.768889562310620001e-01 4.584405874883563763e-03
-1.174554317887612082e-01 2.647730113148607511e-01 -3.053922988901875968e-01 4.806711367065564788e-01 -8.768889562310620001e-01 4.584405874883563763e-03
-2.037155252459264820e-01 2.408849966874626602e-01 -2.522356760306534995e-01 4.806711367065564788e-01 -8.768889562310620001e-01 4.584405874883563763e-03
-1.148805800649756736e-01 2.862826777801855682e-01 -2.470910491689556066e-01 4.863897820458386589e-01 -8.732808950946630011e-01 2.838059520280967682e-02
1.181905300953808163e-01 2.661539606423213300e-01 -1.941215108901821751e-01 -4.639580811785647962e-01 -8.856263276095673875e-01 2.022144292317603481e-02
1.002778030336305692e-01 3.042593595490235003e-01 -2.938681579987293402e-01 -4.721622507599210206e-01 -8.814964566608435304e-01 -5.177436788897133921e-03
1.399757681801603315e-01 2.893033779011991991e-01 -3.016634450094488051e-01 -4.721622507599210206e-01 -8.814964566608435304e-01 -5.177436788897133921e-03
1.677331622367790875e-01 2.418978572141479710e-01 -2.803028299386629008e-01 -5.782310348444795745e-01 -8.157294510689510059e-01 1.530793916339315622e-02
2.072463042046310266e-01 2.589163351727152840e-01 -2.197948012883456925e-01 -5.686710452035098617e-01 -8.225192384204813578e-01 8.680136827198663488e-03
1.106066997483071690e-01 2.340715633773176041e-01 -2.687894705142813701e-01 -5.686710452035098617e-01 -8.225192384204813578e-01 8.680136827198663488e-03
2.814461058860395770e-01 2.351292570515641223e-01 -2.353104119279861850e-01 -4.495063971587340834e-01 -8.819454137615557743e-01 -1.418318936570076017e-01
1.998024203283427502e-01 2.068165484225938378e-01 -2.507425148201976595e-01 -6.354172647913405303e-01 -7.721101105190403269e-01 9.532934457279387819e-03
2.854528858446543915e-01 1.800334372614680600e-01 -2.634973230720617510e-01 -6.745308813506610823e-01 -7.379328941911933448e-01 -2.152054309048040404e-02
7.505653630592198367e-01 3.298482496494416494e-01 -2.856810044855798147e-01 7.431724022694942144e-01 -6.147167933896587888e-01 -2.642310436525664996e-01
7.982163294660729047e-01 2.693172348929726567e-01 -2.498504438541154782e-01 7.272861272154863554e-01 -6.574502632950016690e-01 -1.970127926131514384e-01
7.458116482658904145e-01 2.985821176372494001e-01 -1.780751803989545912e-01 7.549953684590428038e-01 -5.987169061077037835e-01 -2.674323464845141385e-01
7.594023635522834104e-01 2.014458976014714131e-01 -2.894431174079589719e-01 7.053590637164732779e-01 -6.471284725211494671e-01 -2.892979973754810641e-01
8.245026176497617376e-01 2.697611044459948815e-01 -2.326438960005908496e-01 8.067317686718493697e-01 -5.589501346904308665e-01 -1.917253252576161249e-01
-8.158207403238543209e-01 3.154401283618435414e-01 -2.858589129978266752e-01 -8.004340652597895511e-01 -5.378114179414504870e-01 -2.646964032689027024e-01
-7.883248871374298750e-01 2.924666891022209003e-01 -2.922688325161590939e-01 -8.248154883189923181e-01 -4.536016473465000476e-01 -3.375277110899838617e-01
-8.311011125676565081e-01 4.030451012215827689e-01 -2.199972446439390217e-01 -9.072986965789047176e-01 -3.980812583153801043e-01 -1.354266848308123550e-01
-7.904694609857544352e-01 3.837531910399510360e-01 -2.702699769935721918e-01 -8.749950750106640918e-01 -4.445226124195677531e-01 -1.917896393311303571e-01
-1.386625265344401114e-01 2.742368081742536656e-01 -1.918665439790523120e-01 3.422406226767490955e-01 -9.393310153815562780e-01 2.299129687698250185e-02
-1.246009107656184528e-01 2.622647819053922080e-01 -1.452948847067543903e-01 3.859998098890412010e-01 -9.224856308838681462e-01 4.940402657259552327e-03
-1.072185018976167387e-01 3.506716369024723279e-01 -2.627352790709500674e-01 3.525787850631117437e-01 -9.357599647710787005e-01 6.441168764250717986e-03
-4.136682416620791891e-02 3.047403908760405455e-01 -2.467972234883638039e-01 4.610910023805341873e-01 -8.708224766714576237e-01 -1.704796223819809442e-01
-5.490746289079405373e-02 3.420858352388137513e-01 -2.103094710868906037e-01 2.319400939064604206e-01 -9.647869791484253721e-01 -1.240559458644286267e-01
2.098155442433057016e-02 3.284759498403271860e-01 -2.448161359154489569e-01 -6.408821078266978277e-02 -8.519294406366108019e-01 -5.197200490795669259e-01
1.414639441974312531e-02 3.130124979992894296e-01 -2.120397051166520719e-01 2.166769651948476372e-01 -8.894707790085605303e-01 -4.023590760053204485e-01
1.218439933503864814e-02 3.153141999201341528e-01 -2.469795540851122684e-01 -4.918282975132486912e-01 -8.529641881903059497e-01 -1.748056618936346396e-01
1.128945611780244607e-01 2.745763610105628749e-01 -3.427708414316171792e-01 -3.836776692732262184e-01 -9.233705402695743247e-01 1.335258264677776675e-02
1.228707049919958855e-01 3.442159543708809277e-01 -2.165808109924660385e-01 -3.836776692732262184e-01 -9.233705402695743247e-01 1.335258264677776675e-02
4.972634550590974284e-02 3.091413014761247857e-01 -2.547335906762361324e-01 -3.486591216720285047e-01 -9.368754447687933640e-01 -2.648051857810586329e-02
7.581237616709599614e-01 3.690492572495217005e-01 -2.336493037402285200e-01 7.642243593017584713e-01 -5.132707548729767977e-01 -3.905307425055565829e-01
7.754680045196292726e-01 3.003512428332686390e-01 -2.858334112140752392e-01 7.958261373885597845e-01 -4.905979171575165498e-01 -3.549287854343624038e-01
8.131927322171417227e-01 3.056003013672223267e-01 -2.158626644497924907e-01 8.744378435464176258e-01 -4.663878389530561330e-01 -1.335696127515132725e-01
-8.606454402939566206e-01 4.407030947249595543e-01 -2.191632560220793946e-01 -9.910189385631066328e-01 -1.326344088998772930e-01 -1.701696168632250289e-02
-8.645500925179822049e-01 3.972491658169906015e-01 -2.353491970521361110e-01 -9.415916571111284661e-01 -3.080940231474121882e-01 -1.359530218846229099e-01
-8.302324075161817696e-01 4.291459017353514982e-01 -3.026927875001851342e-01 -9.320055600183684286e-01 -1.457078675517892441e-01 -3.318657159580629679e-01
-7.939775315820339907e-01 3.890054355158669153e-01 -2.464653839530553392e-01 -8.801979605677556773e-01 -3.326376230840661918e-01 -3.385317738726250081e-01
7.856341328888996056e-01 3.964222509774609216e-01 -2.587026102063231248e-01 9.683831849675336167e-01 -2.187389284847316706e-01 -1.199470226286868252e-01
8.031671724469293672e-01 2.916598958009299913e-01 -2.477055730789921861e-01 8.763394727611870660e-01 -3.927976046839647406e-01 -2.788174496604980956e-01
-8.374290475434327252e-01 5.118951113105184580e-01 -2.652228894065541964e-01 -9.941633654081052374e-01 7.367867302401065466e-02 -7.880771549696816147e-02
-8.479148910896462388e-01 4.578260628432981871e-01 -3.080023215406212378e-01 -9.045987372631664192e-01 3.304320381926582617e-01 -2.692875650261823961e-01
-3.638458617888964963e-01 4.374627146776832731e-01 -2.575029156075420156e-01 1.365493473390039791e-01 9.298087663276016768e-01 3.417746827979443180e-01
-2.858001617177035047e-01 3.779321874552502569e-01 -2.483051336565154088e-01 -1.541462732712673422e-01 8.106540087415209372e-01 5.648707857093353546e-01
-3.371132182182645098e-01 4.571984049423250540e-01 -2.329471466806130597e-01 -6.717964932295514974e-03 8.900256957522195700e-01 4.558608667652290225e-01
-2.587352985606130584e-01 4.751200880239481728e-01 -1.775521034173391799e-01 -4.059875083473880042e-01 7.113490626184774124e-01 5.737217567581807121e-01
3.347372186758335033e-01 4.664311377529598013e-01 -2.235098543533892701e-01 2.435521763241920434e-01 7.837357143759308142e-01 5.713498642857972598e-01
2.555851178673900215e-01 4.481545270205781750e-01 -2.627404330896260798e-01 9.357775478243690603e-02 8.491472547659979497e-01 5.198000995894934695e-01
8.986021506318138119e-01 4.326955767123782937e-01 -1.940129740733007868e-01 9.978156831126691051e-01 3.717326633792422674e-02 -5.460779069113805978e-02
7.851453326847177561e-01 4.366067900494592924e-01 -2.543440914818600462e-01 9.435385032397057836e-01 -2.595369960747889032e-02 -3.302446038633492509e-01
8.730172465921083313e-01 4.045433060441682160e-01 -2.729423024659419772e-01 9.463705099988530822e-01 2.680844062589216037e-01 -1.803153041904994591e-01
-8.267295268250157703e-01 4.704951918084329665e-01 -1.941909768031923611e-01 -8.608183782273167717e-01 5.088267738000600282e-01 9.329199875365191616e-03
-7.802602860007143981e-01 4.594991070105383102e-01 -2.416105913084544976e-01 -7.794688625612822275e-01 6.154401070752371083e-01 -1.168835612934582407e-01
-8.260765801872124170e-01 4.697924656412120759e-01 -2.408319396442573090e-01 -6.733509314598794537e-01 6.331893508747400423e-01 -3.816670919020109798e-01
-7.385264690845789737e-01 5.415689721551486535e-01 -2.507518464874806674e-01 -4.913883893668949399e-01 8.515095017807436939e-01 -1.829453994297714214e-01
-7.746884434283849430e-01 5.916478441092970497e-01 -2.434182522900144030e-01 -3.047758012922435200e-01 9.151246485103032846e-01 -2.639291356322084892e-01
-8.167699686739255949e-01 5.396246663237652674e-01 -2.449550109894618188e-01 -3.952194771212151903e-01 8.164439635007055829e-01 -4.209760318204491258e-01
-7.547552562953657729e-01 5.286702375940443011e-01 -2.407911689189602689e-01 -4.582335776355795365e-01 8.859007265631327899e-01 -7.212413605867902533e-02
-6.110221377669423637e-01 5.192331578944550108e-01 -2.690758890617133137e-01 1.515182728844610416e-01 9.243071995970535415e-01 -3.502833335389548552e-01
-5.998043050136349086e-01 5.190175649042406691e-01 -2.479071053780182721e-01 2.235981265976435262e-01 9.382266101735065034e-01 -2.640732961591448769e-01
-6.018999338105112118e-01 5.185160607211841688e-01 -2.066603325605234076e-01 2.704913879012660893e-01 9.421253772769176971e-01 -1.980762039268531560e-01
-4.847416970105745682e-01 5.341037513290028960e-01 -2.783980600744364042e-01 2.546728261830804585e-01 9.477192500912087203e-01 -1.922757774928482433e-01
-5.747327981458423274e-01 5.202842888016320222e-01 -2.802189634420478859e-01 2.206869227535050160e-01 9.327650267649877369e-01 -2.850380447759563451e-01
-5.186034541266322240e-01 5.287485033848722260e-01 -3.414449079921538788e-01 2.427272343759613593e-01 9.304430059992875313e-01 -2.745164881736741336e-01
-5.096290617060302841e-01 5.330077671905796288e-01 -3.077670379716821447e-01 2.576677473578439792e-01 9.544713814426422083e-01 -1.503054023596903654e-01
-4.134364744206278086e-01 5.026725895175165881e-01 -3.620610769409143281e-01 1.286369493285535182e-01 9.916083969837194978e-01 1.285777192289913259e-02
-4.426381914822618557e-01 5.156167131866474795e-01 -2.832262226428379770e-01 2.127231234032282425e-01 9.731068372112372522e-01 -8.838527107113305914e-02
-4.744359890601616558e-01 4.774598831921383346e-01 -1.984073624870397734e-01 2.994533818354821464e-01 9.498603170607495816e-01 -8.996138160647314252e-02
-3.975897705508423252e-01 4.533917086199455992e-01 -2.689165326024909319e-01 -1.240035842584559858e-02 9.042147660129502551e-01 4.268979831705185246e-01
-3.579569446894476648e-01 5.018586133340222633e-01 -2.494931046610489866e-01 1.530946196863415543e-01 9.460978875515774211e-01 2.854134274934121973e-01
-4.060901006083640352e-01 4.771014561122552955e-01 -2.513111490548634031e-01 1.937304547931865961e-01 9.635456162538562630e-01 1.845219669405281371e-01
-4.279327581264570357e-01 4.780431380824872178e-01 -3.154093688725007061e-01 -1.002346593747713566e-01 9.511645234701933127e-01 2.919572954247652841e-01
-3.139712575622882751e-01 5.655222299091888782e-01 -2.965102781775038054e-01 -2.763308691445090504e-01 7.649075070744223437e-01 5.818571614915748480e-01
-2.699576830447748543e-01 4.861799825987060952e-01 -2.355157606971240158e-01 -2.670698172520857838e-01 7.639185039375104846e-01 5.874540254818355622e-01
-2.689922215381252424e-01 4.816975351804282934e-01 -2.235988613657552138e-01 -4.100415655142091165e-01 6.692122419035025915e-01 6.196941905788244664e-01
-2.692398730133434559e-01 5.438036154280131429e-01 -2.564740458592615902e-01 -5.435670430929279151e-01 5.981020923110176302e-01 5.889047094703812046e-01
-2.408188708468812778e-01 4.825628154979875184e-01 -2.438376546083783070e-01 -7.044007367820079857e-01 4.947062027958394337e-01 5.090042975617062870e-01
2.670335471711635100e-01 4.721064065416581412e-01 -2.015382153366401530e-01 5.256576932136538538e-01 5.924978901455669744e-01 6.104344680130305845e-01
2.347144817214904533e-01 5.518110238920118649e-01 -2.558216219170645345e-01 8.464672774990222859e-01 3.835198093404295627e-01 3.693314283497599604e-01
2.730295484831403718e-01 4.337833850517948120e-01 -2.267189817905886640e-01 3.306787763653979972e-01 7.175965979250091831e-01 6.129491573596751453e-01
3.598437379538265701e-01 5.096882362967309898e-01 -2.796803337876138662e-01 2.017307114151216940e-01 8.065293842722841555e-01 5.557113210807560488e-01
3.885630978654656675e-01 4.384617527960707473e-01 -2.203238648817811285e-01 -2.298125382327592947e-01 9.595434139681718877e-01 1.626733966612927407e-01
4.148912908905704744e-01 5.227910109798061811e-01 -2.478812660130886025e-01 -1.956926793089321538e-04 9.112155783853668201e-01 4.119297651447350606e-01
3.864704558812543378e-01 4.483881761884782047e-01 -2.332621440577419270e-01 -1.333922143393800608e-01 9.762926786758555631e-01 1.704673655500062723e-01
3.963890763304506737e-01 5.032242281706971188e-01 -2.490113043057604059e-01 -1.122818122395716212e-01 9.908171421780740395e-01 -7.532718902409427097e-02
4.188248103368423791e-01 5.157769994460505991e-01 -2.658257543708348325e-01 -2.293660838771131028e-01 9.712975501403926515e-01 -6.302593639247601465e-02
4.782497882478970452e-01 4.523592096044879440e-01 -2.803057649513519545e-01 -1.292427097517181434e-01 9.732431557208826023e-01 -1.899844251997811484e-01
4.990560797682185301e-01 5.013595257738127087e-01 -2.798807803900863478e-01 -2.873089014470059932e-01 9.559411051240731538e-01 -6.025113014276427259e-02
5.096673327648075791e-01 4.839341659462413348e-01 -2.915204764179097352e-01 -2.973828307917232294e-01 9.434892669613115235e-01 -1.462581795289014386e-01
5.722254835160657249e-01 5.093681133106222614e-01 -2.081142098328784551e-01 -2.563855952384900827e-01 9.512802274156977322e-01 -1.712669129812982582e-01
6.279772327218148265e-01 4.917878774593810176e-01 -2.988603847405084113e-01 -1.867885901801117632e-01 9.284800490104487825e-01 -3.209903755069317133e-01
5.152727936466118264e-01 5.095144427296769418e-01 -2.431033660564791699e-01 -2.482831255688832117e-01 9.356013243525093115e-01 -2.510092656209668149e-01
5.291755697649737078e-01 5.232111516349280400e-01 -2.957582097444320657e-01 -1.950200439818257359e-01 9.184238588543561788e-01 -3.441871553855553878e-01
4.916212383035402089e-01 4.964537441516402305e-01 -2.874491670335106996e-01 -2.038067071317275214e-01 9.180725502007285321e-01 -3.400082626879133429e-01
7.695831632812636380e-01 5.527251501626712082e-01 -2.583950623026446958e-01 4.300809423399472586e-01 8.119251173477568528e-01 -3.947252042317722087e-01
7.731249420741111988e-01 4.615949008603412729e-01 -2.858173609106484103e-01 7.907575355376941229e-01 3.951854141910683405e-01 -4.674730028579042740e-01
8.522947116390796607e-01 5.103076005577346086e-01 -2.730038797317112520e-01 6.353359983735772376e-01 7.162680697198674507e-01 -2.886316362951659720e-01
-6.618008917711141192e-01 5.415512361518101114e-01 -2.376782085701768243e-01 -1.305745101155622867e-01 9.672126270132769266e-01 -2.178302813067004295e-01
-6.580457567880398928e-01 5.576976699882467692e-01 -2.210440636091187683e-01 5.263522736209226560e-02 9.777831090311224216e-01 -2.029032393382939892e-01
-7.065689139552949749e-01 5.640651389510898950e-01 -1.950762781562200010e-01 -1.303609546170391223e-02 9.887380946569664930e-01 -1.490873582475209513e-01
-6.843407892686078631e-01 5.355248288911885757e-01 -1.929925738460320783e-01 -1.303609546170391223e-02 9.887380946569664930e-01 -1.490873582475209513e-01
-6.419610634461314636e-01 5.290891192621904882e-01 -2.443016122287478553e-01 1.527530943685623255e-01 9.648227197246608267e-01 -2.139710533318413543e-01
-6.599593635661525903e-01 5.930226593540207647e-01 -2.475832773060931691e-01 1.527530943685623255e-01 9.648227197246608267e-01 -2.139710533318413543e-01
-2.421033614168089931e-01 5.016582131744615758e-01 -1.898267187003622736e-01 -8.502800922013225016e-01 3.738987490326761698e-01 3.704368910866064901e-01
-2.569262289999713622e-01 5.776667171419710423e-01 -2.494110943254943535e-01 -8.556407943733911337e-01 3.857616324255021545e-01 3.450605656294035151e-01
-2.412698032979671836e-01 5.167605161278544523e-01 -3.675554382998706959e-01 -7.475871936457080258e-01 5.062418699605892858e-01 4.299215707495268601e-01
-2.017063676056388422e-01 6.327185401395445385e-01 -2.932885232569293343e-01 -8.661368151768438217e-01 4.510149402858906753e-01 2.153892778998718616e-01
-2.512840875704031585e-01 5.562145797123686508e-01 -2.909637176993329355e-01 -9.284066691364728507e-01 3.606896023260622308e-01 8.924162412678746104e-02
-2.520202766962287844e-01 5.511953868564085646e-01 -2.366934142220701864e-01 -9.337497802052127094e-01 3.263488511114854829e-01 1.469958344475467138e-01
1.999583788570306331e-01 5.992370235387627364e-01 -1.962608084157268229e-01 9.618682803307706530e-01 2.446877495933851288e-01 1.222183148814077469e-01
2.564357013510516481e-01 6.057155145535719765e-01 -2.763217068606425020e-01 7.113815245864245629e-01 5.203318795287318332e-01 4.724310125544167183e-01
1.492489076266916292e-01 5.395652085065867354e-01 -2.429603962751359925e-01 9.186858642760593607e-01 3.320013184416795160e-01 2.139892691990329943e-01
6.339324622306534707e-01 6.012696560513689503e-01 -2.501669115352289641e-01 -2.126012164121969528e-01 9.642324097260748239e-01 -1.582927124472285063e-01
6.642299105147759786e-01 5.191936063270042867e-01 -2.713078724937635910e-01 -1.634731554777384965e-01 9.625551784599100102e-01 -2.162499846431482631e-01
6.430118224097504109e-01 5.576504073026572472e-01 -2.323524546076589925e-01 -1.308744909564041881e-01 9.674544963915462370e-01 -2.165725398767857357e-01
6.374935874338448771e-01 5.609213744190872930e-01 -1.948846882594025554e-01 -4.518474991806001317e-02 9.916091906591582017e-01 -1.211179234264349314e-01
7.322487265668007339e-01 5.858529090882721446e-01 -2.507091869038296506e-01 4.195634683982556179e-02 9.888020412938617332e-01 -1.432137845772825380e-01
6.663591834275468528e-01 5.208324686237446599e-01 -2.303637302710973001e-01 -6.101721628840778115e-03 9.930340972169433567e-01 -1.176692430403741413e-01
7.350966181888904938e-01 5.091403354799425296e-01 -2.732129033860530298e-01 1.540671548908554012e-01 9.347025474098190623e-01 -3.203036990879628010e-01
7.587850204608178606e-01 5.819434304532803415e-01 -2.176618210533375064e-01 2.174439613058363197e-01 9.637712652726969642e-01 -1.544767682413463739e-01
-1.533164085010698674e-01 6.527688329945957602e-01 -2.840125566950904012e-01 -9.483116972757078544e-01 3.173351744255396567e-01 -1.819857790796028081e-03
-1.765119048583831673e-01 6.494598976496662734e-01 -2.948828995648855589e-01 -9.797612014700671779e-01 1.961260802006860038e-01 -4.003184681031562997e-02
1.722858974549887623e-01 5.952140442990858649e-01 -3.296830866426253004e-01 9.690337727474566121e-01 2.460104854632112481e-01 -2.126942211216593590e-02
-1.752104188768054405e-01 6.827659173010132143e-01 -2.477060733352012822e-01 -9.577349876995083777e-01 2.666961532993813999e-01 -1.077815158157264669e-01
-1.701859128989538505e-01 7.041300813408865045e-01 -2.315913852036286247e-01 -9.684569958333288930e-01 2.023932050090680723e-01 -1.453548684690026960e-01
1.856917825069765438e-01 6.339555000771446291e-01 -2.436272536028475100e-01 9.383172037594906811e-01 3.087586241687572675e-01 -1.556564715339078531e-01
2.556441214363679437e-01 6.667200169964851986e-01 -2.137742649168348497e-01 9.610583867487327847e-01 2.588803310845374517e-01 -9.668377028996774647e-02
-1.903933353595199107e-01 7.765156892458755511e-01 -3.330860879828893562e-01 -9.059805868453113531e-01 2.794976507741055993e-01 -3.179311866916821328e-01
-1.730146080168525058e-01 7.037430103917308166e-01 -2.405144049187037114e-01 -9.446414284892957758e-01 2.604409247655592452e-01 -1.995572506549512515e-01
-1.804278705896335822e-01 7.186909695840605350e-01 -3.236445546628891057e-01 -9.626725740196833137e-01 2.231901838278940176e-01 -1.531262781928312278e-01
-1.827754999412531667e-01 8.284980562542777482e-01 -1.979491126899559916e-01 -9.626725740196833137e-01 2.231901838278940176e-01 -1.531262781928312278e-01
-2.312459615933806223e-01 7.131708690356085567e-01 -2.313530019694366169e-01 -9.626725740196833137e-01 2.231901838278940176e-01 -1.531262781928312278e-01
-1.888162556322053043e-01 7.476919690400369856e-01 -3.002481641418346392e-01 -8.986439970753560269e-01 2.909769915361502535e-01 -3.282854808196647434e-01
1.431444486298875107e-01 7.869714529729371355e-01 -2.469868908458192625e-01 8.903501909617199672e-01 3.256458592254521389e-01 -3.181686845428784438e-01
1.679775687466259493e-01 7.947390962047328200e-01 -2.738760200817926815e-01 9.326416281484422033e-01 2.754632161383004374e-01 -2.330227671266623390e-01
1.534872650327724353e-01 7.507260611415281781e-01 -2.168751455939182116e-01 9.332846396420589885e-01 2.734784498949308085e-01 -2.327859936750018011e-01
2.287365099223844234e-01 6.637440000111390903e-01 -1.947498995255175225e-01 9.585885774968195827e-01 2.246556145287373352e-01 -1.750365503354635588e-01
1.996256556166700613e-01 7.347398895292437393e-01 -2.176503678322098956e-01 9.585885774968195827e-01 2.246556145287373352e-01 -1.750365503354635588e-01
1.891914086294461395e-01 6.967014370444067906e-01 -2.534964774047247515e-01 9.585885774968195827e-01 2.246556145287373352e-01 -1.750365503354635588e-01
-1.613107144399216764e-01 7.592264544649458546e-01 -2.926248763891022842e-01 -9.362427694422120750e-01 2.940019991942746658e-01 -1.923858132424184908e-01
-1.573909213448232702e-01 8.250705352092460032e-01 -2.086821955790754135e-01 -8.928654807840816776e-01 4.042351297756247575e-01 -1.984570308139636252e-01
-1.769290640042160412e-01 8.098400434091908018e-01 -3.089813188536094102e-01 -9.082404270180928219e-01 3.295198625263426329e-01 -2.579069346307163446e-01
-1.021884815558475740e-01 8.476314167204830330e-01 -2.968618531958532314e-01 -8.573416874084216488e-01 4.087066293962591246e-01 -3.129283018827624940e-01
2.226610044197579463e-01 8.222079662153742863e-01 -2.281722280471739916e-01 9.133423043781582207e-01 3.707331591599838938e-01 -1.684124690527816492e-01
