2.714184220559878735e-01 2.099020369809502795e-01 -2.047832893323592585e-01 3.818581290656569704e-01 6.285883060892978325e-01 -6.775404864022985807e-01
6.394371357339360129e-01 2.134507072776121173e-01 -1.901421434437784996e-01 5.895195105335111485e-01 6.837340778149383347e-01 -4.300865698145955873e-01
-3.933600459154193985e-01 2.521308815898122835e-01 -1.744077168939796862e-01 3.595779724253950760e-01 4.876940045978870319e-01 -7.955238774705116755e-01
1.230352053869613466e-01 2.177295898270540930e-01 -1.679673151778681706e-01 -2.599100141996308899e-01 7.847411938258682662e-01 -5.626971150019332013e-01
1.937819845904450999e-01 2.369579225274207057e-01 -2.076570427206686220e-01 -1.031677783651731711e-01 7.754914344476468990e-01 -6.228719327482380441e-01
1.931535088668327460e-01 2.739789228852473890e-01 -2.002315209256348150e-01 2.628280435291472511e-02 7.935407298042111979e-01 -6.079492777667774295e-01
2.430389311845909117e-01 2.608453479341639181e-01 -1.819359445237524464e-01 2.922436554682830145e-01 7.322975349509456278e-01 -6.150885839806361499e-01
6.204257764553003929e-01 2.450901650096080631e-01 -1.933441126197527893e-01 9.143518067594486043e-01 3.616191757188449429e-01 -1.821876648627875628e-01
-4.630373909800006849e-01 2.534527557209196869e-01 -2.040885379673716138e-01 3.376362828612290978e-01 5.837393593364796907e-01 -7.384105232572787392e-01
-4.820721999879517550e-01 2.624776116622120070e-01 -2.154263476257775034e-01 2.283387903958860876e-01 6.711356923361344595e-01 -7.052930449629012388e-01
4.397974626196854975e-01 2.470830413915329482e-01 -2.199498310479843788e-01 -5.845815840378467548e-02 8.911323951872173188e-01 -4.499618850124209035e-01
-4.912428207281935300e-01 2.552772013255529826e-01 -2.086050715816398227e-01 -1.186843494234757906e-01 8.443173545878344122e-01 -5.225344294338196693e-01
6.001238213844235503e-01 2.504013730767559731e-01 -2.030143540429237003e-01 2.947525064611440926e-01 7.286899940821733868e-01 -6.181681425465042068e-01
4.225900527358100178e-01 -2.550981518859320452e-01 -1.867079358451378124e-01 -2.817344878852627854e-01 -7.340716707045890077e-01 -6.178709093370574612e-01
-4.868463180100949250e-01 -2.548522059790994665e-01 -2.057323669637733110e-01 3.552236826525014685e-02 -7.387504859296462056e-01 -6.730422578795032251e-01
-4.244229314732795300e-01 -2.471424409856890214e-01 -1.556382474954503270e-01 2.194973537706960687e-01 -7.281100808453463413e-01 -6.493663233176211191e-01
3.798818655432059654e-01 -2.412263352322420451e-01 -1.794879490392084775e-01 -5.250259753111449212e-01 -5.738682107090765649e-01 -6.285085536300549780e-01
3.773659922122116206e-01 -2.565059873128438528e-01 -1.787703662823532935e-01 4.372103906119740313e-01 -2.965119838340012359e-01 -8.490746243904301327e-01
4.193236337557916804e-01 -2.643546702619595234e-01 -1.570233308141952000e-01 -6.097470634892757646e-01 -5.297820347684881748e-01 -5.895248206842231831e-01
4.890497278926339564e-01 -2.488400722641531670e-01 -1.727385824446087959e-01 6.754437956804038024e-01 -5.523807737838742904e-01 -4.885193544075580596e-01
3.888429996115529974e-01 -2.374718291881686705e-01 -1.991030226230662836e-01 -6.537138519800060610e-02 -5.438822594090960694e-01 -8.366114210894752823e-01
3.741624665075006240e-01 -2.383961868932069350e-01 -1.973214380479151875e-01 -7.045148483571523901e-01 -4.667652310517375613e-01 -5.345924125214615019e-01
5.015307795993905193e-01 -1.666102383781928875e-01 -1.574647519660766215e-01 9.024029794988915887e-01 -3.156245048977911472e-01 -2.933428616815945134e-01
-3.444388715745307916e-01 -2.349525570895514837e-01 -1.945458015553946374e-01 2.398180225946126565e-01 -5.936500830836686227e-01 -7.681581184193546630e-01
3.476415601979352399e-01 -2.314658335558801849e-01 -1.714013967702814611e-01 -3.530806617810435255e-01 -1.443479363815601269e-01 -9.243904583771110905e-01
5.221189381181782219e-01 -1.856248387919246789e-01 -1.888411542760724537e-01 -2.306690019125873237e-01 -9.514963881252096467e-01 -2.035839751584858637e-01
-3.438776576213421476e-01 -1.873847933266376831e-01 -2.088352023581853956e-01 3.946593071532119024e-01 -4.449710657936066793e-01 -8.038935140202640994e-01
-9.423279146179867061e-01 -1.782814796105111066e-01 -2.002431780347379009e-01 2.339140052931164282e-01 -7.541433502214581752e-01 -6.136383669919009964e-01
-5.557652506350215793e-01 -1.375356034341850275e-01 -2.079593393773908616e-01 -8.724582123241925169e-01 -4.780033033833123723e-01 1.016341955382890211e-01
6.298231645689335023e-01 -1.294380000171355682e-01 -1.852427481145584032e-01 5.537926058939799390e-01 -8.287471641048101967e-01 -8.057225108801273350e-02
-8.822286020856143773e-01 -1.491414752032392266e-01 -2.106209792065289743e-01 8.745964172115376911e-01 -3.403454060183631058e-01 -3.453203029115686773e-01
2.021416965969081991e-01 -1.630072708288552719e-01 -1.826663033985081730e-01 -2.026706986150714762e-01 -5.459858581061456384e-01 -8.129108380818740320e-01
2.504556173406986552e-01 -1.954039866937868908e-01 -2.023735457579888264e-01 -2.292729031618530866e-01 -8.939574769705902479e-01 -3.850635859752414847e-01
-2.491506621163788182e-01 -1.575685909811957719e-01 -1.547899620300193235e-01 5.211773286857677157e-01 -3.140624441297518166e-01 -7.935609448877973815e-01
6.132194364933665209e-01 -1.370091768062900173e-01 -1.848662874916309207e-01 7.390376987090000460e-01 -4.611843482297908192e-01 -4.910522139597461866e-01
-9.610384656855132102e-01 -1.198410715900594392e-01 -1.833018050633881402e-01 -9.985613504142992758e-01 2.130773168073493706e-02 -4.920579264063364849e-02
-8.893719234824328801e-01 -1.298833831355342694e-01 -1.818924058447000114e-01 5.400294550822057893e-01 -5.735079163626806142e-01 -6.160006960328474612e-01
-8.897453401136692364e-01 -1.496750279504942271e-01 -1.741260876484012621e-01 5.677832760203501694e-01 -5.466846656751880307e-01 -6.154332033512708300e-01
-5.542056483619040019e-01 -1.058376739343235701e-01 -1.740140465909092438e-01 -9.226166486930184041e-01 -3.513854995080241128e-01 -1.590809551453600534e-01
-2.846347740535324355e-01 -1.251197392865963376e-01 -2.158618446201241159e-01 5.251374053602251291e-01 -2.395493632460670153e-01 -8.166068871004790175e-01
1.463803743345386266e-01 -1.162396227109589453e-01 -1.840961372208853308e-01 -5.462339401481001167e-01 -7.841584516773142388e-01 -2.944893975906758277e-01
-5.850130258437078457e-01 -9.797376345338476566e-02 -1.846340133748766987e-01 3.209536161627672413e-01 -5.289894500622980278e-01 -7.855946397442071794e-01
-5.927826676803992223e-01 -1.054696460672143177e-01 -1.652476620799168683e-01 7.069168990659394636e-01 -2.876825083107538150e-01 -6.461480265597265848e-01
-9.337037330408761715e-01 -1.067198980194385693e-01 -2.071160087602830491e-01 -9.971542900659383646e-01 -7.536581823250346202e-02 1.820781491491534586e-03
-6.461987992642371781e-01 -7.952097885990018489e-02 -1.602060671074203857e-01 -7.490931128536706396e-01 -2.925845947430927851e-01 -5.943515484914783098e-01
-2.396725935812802910e-01 -8.534900703492673268e-02 -1.778875026733458820e-01 5.345952768195157967e-01 -1.282301722404578237e-01 -8.353232385905756674e-01
-2.573083435686593923e-01 -1.102744119178572652e-01 -1.712368945755462502e-01 5.349525312675768030e-01 -1.325660596421886495e-01 -8.344171793062244991e-01
-5.978968456536495335e-01 -1.098354865780878098e-01 -1.568331025428739423e-01 -6.246379080733854838e-01 -3.244378395674100135e-01 -7.103291997760872167e-01
-6.254202176323828688e-01 -6.418679031545616864e-02 -1.635699958212910310e-01 -6.092579842859180417e-01 -2.891611951677289238e-01 -7.383701726051985492e-01
-9.680465224603566066e-01 -1.915874462297022934e-02 -1.823298459392006798e-01 -9.984566198185330643e-01 -5.549543063976953433e-02 2.153025465659821718e-03
1.001857186362636598e-01 -2.411676163543692922e-02 -2.151900125489980553e-01 -8.255342257552792384e-01 -4.878109828033668771e-01 -2.837845787970958433e-01
6.967029360811932692e-01 -5.169200277132499077e-02 -1.586003950176450294e-01 9.155317635504223173e-01 -2.042812433212513046e-01 -3.465122848578061077e-01
-6.625428391322363275e-01 -2.646990596303179163e-02 -1.896814105400884132e-01 -7.669929946662188414e-01 -2.037790725253895430e-01 -6.084372077163242576e-01
-8.039146906129273074e-01 -4.221166590511707395e-02 -1.795126164545552128e-01 4.393409067981046690e-01 -1.932770189177947795e-01 -8.772819168158372261e-01
-8.309927390181354179e-01 -4.351435813282033410e-02 -1.461798205737669110e-01 4.258655901353379236e-01 -1.498684397779025124e-01 -8.922880420005737667e-01
-2.708511684192759783e-01 -3.087547278929558131e-02 -1.992049585574255655e-01 4.876915180169715258e-01 6.120622701887273170e-02 -8.708678321240349574e-01
-6.718494746288834474e-01 -8.911587326377898993e-03 -1.837503401611533527e-01 -9.113758458242835481e-01 -4.213548160510244972e-02 -4.094125899846969285e-01
4.802969309488956673e-02 4.073161886881488530e-02 -2.143906312838042283e-01 -8.943908688221963166e-01 -3.816398057773560115e-01 -2.332724424652408424e-01
8.875374071092238110e-03 1.813625738747036073e-02 -1.540175329290584538e-01 -9.200216207806837243e-01 -3.191924789875405510e-01 -2.273243908028177440e-01
7.138632678637194529e-01 4.403450332008491258e-02 -1.835852834936752831e-01 9.370016514893596549e-01 -1.026531370782087227e-01 -3.339015402094082652e-01
-6.911537065311814665e-01 4.103970892672323401e-02 -1.898385549267863903e-01 -8.994152661140207838e-01 1.150625573182366690e-01 -4.216785351241306157e-01
7.142405098471094060e-01 8.896956504547372246e-02 -1.880147148715015371e-01 9.609166596796622217e-01 -1.165241467694026235e-02 -2.765924698582314378e-01
-2.869967507712691268e-01 7.376588576234700823e-02 -1.454187526634600491e-01 4.203070766450500706e-01 2.286858248634656421e-01 -8.780915412578624846e-01
-9.749518833969553766e-01 1.055756929162976199e-01 -1.847963317462096300e-01 -9.994855300411655818e-01 4.681667972352299839e-03 3.172943780351329679e-02
-6.322895603734096648e-01 8.289155117191307487e-02 -1.757785873824134204e-01 2.403263701109438141e-02 4.291517417608288754e-01 -9.029126286091804232e-01
-6.675819341855981914e-01 1.050630370792373786e-01 -1.579718527644931592e-01 -3.892940231043319210e-01 3.843030305596971674e-01 -8.371148931167551321e-01
-6.428571402506594312e-01 1.111354987014358253e-01 -1.315520094887888125e-01 -7.235790247022861887e-01 3.345501829115771764e-01 -6.037462795949293248e-01
-2.873964107195352002e-01 1.146846569531325688e-01 -2.059997774589565900e-01 4.056737938101692698e-01 2.633401166790049763e-01 -8.752603932334379611e-01
-8.600634414576017184e-01 1.369310418616095926e-01 -1.481305805282653321e-01 7.029448112442621133e-01 3.802076607114978080e-01 -6.010912801572312336e-01
-5.781452604814165674e-01 1.074813341830792857e-01 -1.751873393593487427e-01 -7.730321383475853292e-01 3.801846583487850650e-01 -5.078197895296887587e-01
-5.988461017988032653e-01 1.401539627923409914e-01 -2.167396869624846900e-01 1.682762183234797204e-01 4.894385456079455299e-01 -8.556477221496751051e-01
-3.141894924372889419e-01 1.476768198647711583e-01 -1.940446549246973573e-01 4.227845958959519090e-01 2.865589379474203779e-01 -8.597308651872067609e-01
-9.856729123197370823e-01 1.880980021121402279e-01 -2.128099691052621201e-01 -9.995039594132972827e-01 1.787027969389456787e-03 3.144267240834495297e-02
6.643536022753976367e-02 1.918667851643258981e-01 -1.919520086253061475e-01 -5.424352207011945426e-01 8.055210001367537620e-01 -2.385371033645083128e-01
-5.517348503729591069e-01 1.676813856379759105e-01 -1.718791051533911096e-01 -9.735876170320515444e-01 2.242504546318753456e-01 -4.288222894450082617e-02
-8.886906452001349654e-01 1.574085387517302204e-01 -1.716128714299023084e-01 9.001328662829515270e-01 3.093783341111863150e-01 -3.066689899872907521e-01
1.136279248833407668e-01 1.782015401073234473e-01 -1.411323670751945536e-01 -4.747509380447810234e-01 7.350849736777962384e-01 -4.840058143232517929e-01
-3.484196851934494576e-01 2.040773967756885354e-01 -1.718154462305342134e-01 4.509904029213293031e-01 3.549632379413673045e-01 -8.189070497822309447e-01
5.613937108561858902e-02 2.111758003419517415e-01 -1.669057057876882633e-01 -5.039506470501078361e-01 6.405531702319067211e-01 -5.794181404164279181e-01
-3.538457024009894480e-01 2.127031859091131627e-01 -1.852559028064605928e-01 4.424756975944199588e-01 4.074930885506503064e-01 -7.988520763081131681e-01
-8.751489871711938262e-01 2.060217740137945119e-01 -1.771771909311807280e-01 6.623041999706248406e-01 5.409383359873839447e-01 -5.184002925929638295e-01
-9.181339657389245845e-01 2.294038999642274979e-01 -1.943435790585094913e-01 -6.580491317264743067e-02 7.678410784949982748e-01 -6.372517489799288670e-01
-4.225523761438312320e-01 2.116501986997884888e-01 -2.011382463782508123e-01 3.640606168553685018e-01 4.806729039710070372e-01 -7.977552423161928807e-01
3.321584061140497313e-01 2.561728833567722963e-01 -1.976479547525142877e-01 -5.400705533350016463e-01 4.618275795289206176e-01 -7.035901393616056376e-01
6.112060659459126466e-01 1.885228281973815867e-01 -1.808167507549053032e-01 7.247731347136334712e-01 5.480368608310045575e-01 -4.175637704206047185e-01
-4.284215151271609234e-01 2.634957271157699621e-01 -1.610741949463432576e-01 3.196652892553081826e-01 6.059622845689807136e-01 -7.284392991356669622e-01
-4.320748593056619735e-01 2.771458401936823246e-01 -1.611818153517391716e-01 2.804291753130510600e-01 6.666983109720920897e-01 -6.905598017407338363e-01
3.856020875280964377e-01 2.380503366927371189e-01 -2.212444006679688546e-01 -1.092822475102694368e-01 8.869429453038102373e-01 -4.487645286282176960e-01
5.295450243672553681e-01 2.310191803263403065e-01 -2.065451723690089891e-01 1.027629201425114269e-01 9.069527968494111025e-01 -4.085050875213366295e-01
5.206374644516497119e-01 2.704312929248064989e-01 -1.882774985261212175e-01 -5.328174415824371568e-01 8.291301231098073821e-01 -1.692596020834905290e-01
5.752858653195850325e-01 3.096768296457046432e-01 -1.845277117490830565e-01 4.575197974770964793e-01 6.457382093240812138e-01 -6.113082691534981183e-01
3.975360775188568341e-01 -2.933213413431127736e-01 -1.608171557866150125e-01 -1.300408550619778780e-01 -3.413991281766668995e-01 -9.308791604150140619e-01
4.689965982093635133e-01 -2.369002871062493298e-01 -1.585612142622427889e-01 7.093657772144801310e-01 -4.487791049615816874e-01 -5.435048381263761774e-01
-3.697296978022046599e-01 -2.704406030188443721e-01 -1.402706832230430634e-01 2.564828138197435270e-01 -6.760464045744483119e-01 -6.907805911264939258e-01
4.834518010263686993e-01 -2.288390609644952445e-01 -1.499320527906497502e-01 -3.387195328284664519e-01 -7.997549994817091390e-01 -4.956420269554196456e-01
5.105670525502967738e-01 -2.629781039552955280e-01 -1.523340350568829771e-01 6.755160800297846935e-01 -5.836401890887783495e-01 -4.506019921189972077e-01
-3.737478637587179908e-01 -2.142925419312738389e-01 -1.793631017356786261e-01 2.635653601938116042e-01 -6.647057786695822479e-01 -6.990704747800259300e-01
-3.286508423086644815e-01 -1.787537253694708450e-01 -1.819396535067778209e-01 4.397069018288425335e-01 -4.134265726068250268e-01 -7.973307403748172151e-01
-9.314828873101118623e-01 -1.636987348472796477e-01 -1.743788667715013008e-01 -1.001233100489685862e-01 -8.038502234150269876e-01 -5.863447288928667067e-01
-9.324234886455333715e-01 -1.831611013779781416e-01 -1.821609315676177288e-01 -5.891903839614790472e-01 -6.820075042182648373e-01 -4.332671873535988150e-01
3.348891409727088320e-01 -1.412096137749213887e-01 -1.556337344929141497e-01 -2.905286566825466821e-01 -7.579099168980528711e-01 -5.840938773123901528e-01
2.135301986639247251e-01 -1.478341175657413298e-01 -1.289189252113032147e-01 -4.877153180250175940e-02 -5.537401593569966085e-01 -8.312599915796052841e-01
3.147866889600104967e-01 -1.788875653484824635e-01 -1.867425617782525749e-01 -2.086827843839174634e-01 -8.099347861795219705e-01 -5.481397063140996950e-01
1.967424785230602047e-01 -1.799947356097014173e-01 -1.636389922895619409e-01 1.507342650778045468e-01 -6.785191475919755133e-01 -7.189512832470035253e-01
2.287584721116962538e-01 -1.559357824521392932e-01 -1.955243822553084376e-01 1.013602347963997174e-01 -9.341602701135792719e-01 -3.421559476954089685e-01
2.158618498234460836e-01 -1.282970337958035945e-01 -1.958773665975790390e-01 -4.658320978029537596e-01 -7.676485077615157193e-01 -4.401320542610110964e-01
1.731943453927163590e-01 -1.084881573248221709e-01 -1.470370023938435688e-01 -4.523002017496649541e-01 -8.432562937366246958e-01 -2.904192668725406601e-01
-9.487490051017115622e-01 -1.239193691061860336e-01 -1.823517340392355746e-01 -9.977323757717818653e-01 -2.296678710407979232e-02 6.326636568439658603e-02
-2.689866268976920938e-01 -1.187755541210485793e-01 -1.847693597383617270e-01 5.211521859484803398e-01 -2.235360496874524427e-01 -8.236698571462047758e-01
1.361234931942235660e-01 -1.268240600503739435e-01 -1.821917605651637018e-01 -6.202141634024380679e-01 -7.386750271057536121e-01 -2.639954466374902498e-01
6.439186518372193024e-01 -1.024019743222913947e-01 -1.724651584965518902e-01 6.854151798519633187e-01 -3.768532676538534631e-01 -6.230470655473098196e-01
-6.366896851509273869e-01 -9.718898760085312172e-02 -1.822676373368843361e-01 -6.860149696223735716e-02 -4.741101156686928775e-01 -8.777889454961020910e-01
-8.886687009265470394e-01 -8.266567976498120918e-02 -1.934044160324244199e-01 5.885699793232602728e-01 -3.152567940709685157e-01 -7.444451176759183664e-01
-6.960754858246480659e-01 -6.280582764803552265e-02 -1.488208635633302690e-01 -5.607354960739344696e-01 -2.390656765289383978e-01 -7.927315470879657822e-01
-2.369810021495384056e-01 -6.501667028978237728e-02 -2.028457077029525990e-01 4.671072630282058769e-01 -5.882295848415339951e-02 -8.822418400764442392e-01
-8.319863877590513157e-01 -3.450757196486280154e-02 -2.021769388514316201e-01 4.592282289164629772e-01 -2.273719641178682249e-01 -8.587266292013026048e-01
-6.828217690163798093e-01 -3.290148128825986368e-02 -1.762683690502754863e-01 -9.177787433795751015e-01 -1.334420718002332640e-01 -3.739991867294222283e-01
-8.116852858762535483e-01 3.275871561883666322e-02 -1.256604411737650695e-01 4.262867341600299342e-01 -2.311418460489086113e-01 -8.745587843503023207e-01
-2.106414202257803625e-01 -8.339231417207534913e-03 -1.935705743554070324e-01 4.998803870429049945e-01 1.178574520930369962e-02 -8.660142578847631611e-01
-9.704687745667841536e-01 -1.263354643386497764e-02 -1.903411147521463509e-01 -9.986530604285998036e-01 -1.012691428031167046e-02 5.088723320981838188e-02
7.160413284809835632e-01 -4.749054967568346573e-03 -1.617158427357635875e-01 9.146059828489920829e-01 -1.365719759477838358e-01 -3.805837509964756227e-01
-2.214363409548707473e-01 1.375443168158337406e-02 -1.980807943134076654e-01 4.861988476391270741e-01 4.949478006772592420e-02 -8.724453835630241461e-01
7.051739762867923478e-01 -4.147829565477396258e-03 -1.573220402689096409e-01 9.188038725191132183e-01 -1.657469983209066966e-01 -3.582281066464363395e-01
-8.065397552899238320e-01 -5.411105269254990954e-03 -1.787752750066189666e-01 3.888808098843438144e-01 -1.096101052442338825e-01 -9.147444126815121868e-01
-2.076419841012844825e-01 1.729306174294011761e-02 -1.617632335045867398e-01 5.164747750740166232e-01 1.129371067856087957e-01 -8.488221348569674474e-01
6.893448261511390118e-01 2.507589417896177383e-02 -1.568607411481000025e-01 9.312979169979038740e-01 -8.940844645264499346e-02 -3.531151646393706489e-01
-6.828994827779314436e-01 -6.257067857444453818e-06 -1.881337252863950760e-01 -8.588420445457299879e-01 1.134312701578124999e-01 -4.995234623827952136e-01
-7.967628754668927282e-01 4.140132036011823224e-02 -1.972354993456333638e-01 3.794392279207491336e-01 9.876831058999654966e-02 -9.199297218473287963e-01
-9.755328534927250050e-01 1.045746613298793731e-01 -1.801014244049268520e-01 -9.992854917606035503e-01 -1.823642513776007473e-02 3.310496571457933329e-02
-2.531279627215162753e-01 5.802639631523976577e-02 -1.699024236027000812e-01 4.518566673547161905e-01 1.904280615636375629e-01 -8.715289470443335906e-01
-8.072114036566117035e-01 3.186217809112180943e-02 -1.520175082031968716e-01 4.932668354027697766e-01 2.151743005024691346e-01 -8.428450922292956005e-01
-2.596022188471742154e-01 8.239862573947413782e-02 -1.818369126340749486e-01 4.493374474030701893e-01 1.908440594971945459e-01 -8.727395965097058950e-01
-9.522822241231201357e-01 5.799121628571104331e-02 -1.804502579716575350e-01 -9.996231980865265543e-01 1.034732873994698155e-02 2.542429222637575259e-02
5.964121832275919022e-02 4.542212478512532015e-02 -1.428464873901974241e-01 -9.700360306749118422e-01 -1.672944132455611854e-01 -1.761893256962095977e-01
-8.325426402904958501e-01 6.414084213952689351e-02 -2.094873036189445203e-01 5.442848374029928271e-01 3.024813211277905256e-01 -7.824698499891123982e-01
-6.610771248188531679e-01 1.009545092743330541e-01 -1.724717318576869662e-01 -5.787485358273168901e-01 3.239688195871064935e-01 -7.483945057341574447e-01
7.227855123883643040e-01 7.203316177314873781e-02 -1.554489881616526181e-01 9.679052316073248896e-01 1.463648981901802537e-01 -2.042958129892751828e-01
-2.551848850511876932e-01 9.453172373090618086e-02 -1.765103560516064762e-01 4.479042552434887581e-01 2.467556009910328585e-01 -8.593564170437838490e-01
3.844795592740602938e-03 1.233644444132303425e-01 -1.901011948548189112e-01 -9.968418243506131926e-01 -3.080333098559757607e-02 -7.319516394908243129e-02
-8.172752159551085471e-01 8.079869503174136325e-02 -1.757639650578989299e-01 6.605406725445378546e-01 3.435267404392384760e-01 -6.675892438600261602e-01
6.969498138485684668e-01 1.282489009290671278e-01 -1.923620619436678947e-01 8.372586571080666840e-01 3.497218105069615501e-01 -4.203481846675797273e-01
6.615331723284864074e-01 1.067554635531632878e-01 -1.805750826429965705e-01 7.474190427062045172e-01 4.081820401536894183e-01 -5.241680996551705274e-01
4.762098594190526668e-02 1.252791908212592120e-01 -1.681709481578738952e-01 -9.620751527148796445e-01 2.723465870923676424e-01 -1.545111736349494280e-02
-8.546135310607886337e-01 1.417877780247425168e-01 -1.711021309605731122e-01 7.382634883248300195e-01 3.797232793670987649e-01 -5.574739930374776886e-01
-9.925700334121301260e-01 1.490861387658133086e-01 -1.671970732847152807e-01 -9.993705355353238451e-01 3.015526501065933854e-02 1.868669837015193153e-02
-8.366541048552803561e-01 1.318209430161157159e-01 -2.002826346105432143e-01 7.607225238204675666e-01 4.297866375082970980e-01 -4.863997203653901980e-01
-2.941885756997472678e-01 1.791291226523673841e-01 -1.726234221984986050e-01 4.685184187176302251e-01 2.931762580339216662e-01 -8.333895685977589229e-01
6.981211987279607456e-01 1.234157829863084949e-01 -1.644451513494032957e-01 7.849503467947654967e-01 4.826442140566729599e-01 -3.884681656254396209e-01
-8.816522381027325217e-01 1.346592568165049519e-01 -1.910818847530513509e-01 7.317689184292865967e-01 4.838706241166776389e-01 -4.799827800429602442e-01
-2.964877028345345722e-01 1.621510323404838361e-01 -1.681223400895593134e-01 4.527531941744463162e-01 3.131090469471004556e-01 -8.348516454345134008e-01
-2.995145994970739856e-01 2.004479547548370655e-01 -1.739305783995129251e-01 4.644162831179067252e-01 3.440325237789530477e-01 -8.160631951982838528e-01
1.082145908305998105e-01 2.147354259544324850e-01 -1.438621897990337017e-01 -5.541731064205643875e-01 7.203016908112049865e-01 -4.172021600312027512e-01
6.466023295517377978e-01 1.948786719905563625e-01 -1.751463368438818113e-01 7.949457428892874322e-01 4.927361411005203862e-01 -3.539383577906852207e-01
3.114054907094890856e-01 1.827343377912784839e-01 -1.742938852277702289e-01 -5.992612746414947011e-01 7.116843844831075572e-01 -3.665941374298712363e-01
6.412308112726988751e-01 1.978743999445276847e-01 -1.745885087956516868e-01 8.111261736143299261e-01 3.680673408177060901e-01 -4.545335665285442084e-01
-5.508831860689394899e-01 2.414272838010055044e-01 -1.439915088295607160e-01 -9.554295353968424998e-01 2.750911030812237534e-01 -1.071414387477091640e-01
1.252482023236600184e-01 2.216913178647808291e-01 -2.061864208949967803e-01 -4.199235455744220191e-01 7.524169385498712392e-01 -5.074770600287720201e-01
9.144621338426647816e-02 2.400143737328765681e-01 -1.776470916398876776e-01 -3.218351926884358560e-01 8.031829959667001750e-01 -5.013174480677418110e-01
2.304273034752032379e-01 2.466251321080214221e-01 -1.705745853620317387e-01 4.068588800128346006e-01 6.606060252349168493e-01 -6.309243466359706343e-01
1.655570640099381652e-01 2.629282973960130887e-01 -1.833013146011548133e-01 -3.255869714930215708e-01 8.132369733689073232e-01 -4.823263927464279122e-01
3.032801200498398408e-01 2.390555606667120192e-01 -2.308938382084251006e-01 -6.612725589989262298e-01 4.997946932644015128e-01 -5.593959843436083768e-01
5.901792317291089107e-01 2.731105115936345307e-01 -1.750684542471898086e-01 8.543176232081766130e-01 2.456288211013784306e-01 -4.580479024297335888e-01
3.430374558950725628e-01 2.465482671571910811e-01 -1.777054230841899896e-01 -1.735451972570101198e-01 8.292798778996339770e-01 -5.312033025309551570e-01
3.459657049540811324e-01 2.663346738503832856e-01 -1.577506515903097650e-01 2.267190467295877518e-02 8.505582076104091227e-01 -5.253919681581251666e-01
4.314909477418522044e-01 2.743760902522440204e-01 -1.880762022648102549e-01 5.884750716954037161e-03 9.340908086996908555e-01 -3.569870177075866735e-01
6.667989229629950332e-01 2.999651043454594213e-01 -2.028422945790568643e-01 5.824592818891650703e-01 6.743161728561762880e-01 -4.539150625015188623e-01
5.905807718525490912e-01 2.662427457419084265e-01 -1.759087472460247881e-01 -2.609009020200800388e-01 9.524923962629725516e-01 -1.571271917470974944e-01
-4.574449439409764007e-01 -2.589473715904779261e-01 -1.631543529111697810e-01 -3.172718349971621193e-02 -7.431520364938922762e-01 -6.683699847256427962e-01
-4.538109298501014632e-01 -2.881977985570307599e-01 -1.999595605930285236e-01 8.354979004100136775e-02 -7.368458806059421384e-01 -6.708782160855711885e-01
-5.028075148960293728e-01 -2.503706959293281464e-01 -1.658345874452582802e-01 -8.624255747999460819e-01 -5.017255182464115393e-01 6.703456027566927211e-02
-4.216020799613776626e-01 -2.316650824701257383e-01 -1.508154717061540029e-01 2.075255147601324790e-01 -7.117379671045657163e-01 -6.710903269347591182e-01
4.040252906929748811e-01 -2.617623239600018747e-01 -1.329515264975249522e-01 1.931512548436006838e-01 -5.203800966339112710e-01 -8.318035511944052995e-01
4.974374866740134404e-01 -2.715269898011018479e-01 -1.480721421245977942e-01 9.384887988807442960e-02 -8.865504972015552099e-01 -4.530128073856510840e-01
-3.761535145929540414e-01 -2.310001950064665688e-01 -1.604221249861481347e-01 2.593463179138753016e-01 -6.805552394597831345e-01 -6.852620326768090742e-01
3.323818205105160684e-01 -2.806194933517173751e-01 -1.776202821420066746e-01 -7.232908737676407851e-01 -4.894206136459573475e-01 -4.871527223190458833e-01
4.794023976552415078e-01 -2.356702331021025831e-01 -1.538473828563530765e-01 -3.332728728434448257e-02 -8.419831512935861406e-01 -5.384734578974053054e-01
3.476635187248938719e-01 -2.509880155903236876e-01 -1.717819409558017929e-01 -6.691088721191990052e-01 -3.687600986321176721e-01 -6.452203553114270740e-01
-2.977085086287756255e-01 -2.368500201652405657e-01 -1.845505916542259928e-01 3.927847712610357811e-01 -5.273124904061761153e-01 -7.534332491515437491e-01
5.220852101024934244e-01 -1.879639643492681811e-01 -1.493075067933186673e-01 5.428501274010083533e-01 -8.085042136240493393e-01 -2.272326467144772655e-01
5.724999761574905977e-01 -2.516467942265009361e-01 -1.475488391869562987e-01 1.860226797665857357e-01 -9.569828998503583373e-01 -2.226640788417778849e-01
-5.516633658951498598e-01 -2.162051135021926251e-01 -1.788026512868281237e-01 -8.444872344533775887e-01 -5.179417939956697525e-01 1.362997024128561885e-01
3.391389690159191672e-01 -1.830266076786879192e-01 -1.540052875013598888e-01 -8.773485772630482682e-01 6.253005594126409550e-02 -4.757619846924376339e-01
5.626074957102333851e-01 -1.849861170684541090e-01 -1.784909323556712613e-01 -3.443232190639856638e-01 -8.688345684119808121e-01 3.557639857346179824e-01
5.805863899109181547e-01 -1.864349710833076157e-01 -1.642076615055184929e-01 3.229829764417829208e-01 -6.969230189276535148e-01 -6.402970424869789401e-01
-2.648766554725355826e-01 -2.027017590671363056e-01 -1.874102319421246665e-01 4.864208808959302743e-01 -3.663551844721695816e-01 -7.932077946155029480e-01
6.169836960192263131e-01 -1.794049946917686822e-01 -1.945529747849473190e-01 -6.085960285135780939e-02 -9.981339565939623126e-01 -4.971260892090465650e-03
-8.894097992671865516e-01 -1.522234415483857684e-01 -1.935873323996735451e-01 6.638054831068287420e-01 -5.783967480292563357e-01 -4.741513286562535345e-01
-5.778576109603945632e-01 -1.450062192961674434e-01 -1.603317590060721609e-01 -8.381546538744110153e-01 -5.393634800099613713e-01 8.114069644888492749e-02
-5.512607159324743877e-01 -1.576388341169878970e-01 -1.760720117970596132e-01 -8.249888605637073491e-01 -5.577070516664044408e-01 9.141238683768446172e-02
-5.636405208368316933e-01 -1.621708035602770492e-01 -2.018133055944988374e-01 -8.410596447567405543e-01 -5.304348750325912354e-01 -1.061014482032400508e-01
-3.157229874534672187e-01 -1.475635849059044880e-01 -1.669585731457117750e-01 5.458071883663395685e-01 -3.094741159066008440e-01 -7.786657079334230458e-01
6.752794307153794362e-01 -1.373009568289102478e-01 -1.693008818389127867e-01 6.134941364706151257e-01 -5.645329409019456124e-01 -5.522024113971024661e-01
1.361657145766150268e-01 -1.140310695234716537e-01 -1.703170441927255307e-01 -4.879043514011807692e-01 -8.483268132068699785e-01 -2.056476644119002162e-01
-6.112867269693209593e-01 -9.749214541278758417e-02 -2.070368776035322322e-01 -7.825141235313377158e-03 -6.539063816166811316e-01 -7.565350033181721390e-01
-2.345835230223791978e-01 -1.241023629477148171e-01 -1.990069600671661443e-01 5.396667361399748453e-01 -2.372945747228999702e-01 -8.077444513650990920e-01
-8.613333711049068198e-01 -1.311804673837699275e-01 -1.993734343671546838e-01 7.618903488238999433e-01 -3.960584588902532621e-01 -5.125044326739758294e-01
-8.481927405872351500e-01 -1.167758086279223478e-01 -1.873737909016490455e-01 7.321719945975702082e-01 -3.828746398639760185e-01 -5.633215604572988644e-01
-5.699336304621357430e-01 -8.187837416340867924e-02 -2.043434093422534514e-01 -7.615121033453861044e-01 -4.066869869132458404e-01 -5.046830798965933340e-01
-9.643131171619233610e-01 -1.131974611880659648e-01 -1.373748895446928187e-01 -9.961744403301209250e-01 6.956022101396630575e-02 5.289480206464886036e-02
1.090332269135847326e-01 -1.027554900233542540e-01 -2.150883358867703432e-01 -6.710440432970568025e-01 -6.998065021878723257e-01 -2.448892636501515396e-01
-8.464198728541691974e-01 -1.185174241256579386e-01 -1.482803856956037003e-01 5.974475988213642230e-01 -4.141069436721785402e-01 -6.867108604537089933e-01
6.639693493509700728e-01 -9.956314860937971745e-02 -1.968493763513265438e-01 7.067128576564725151e-01 -3.472412207848611376e-01 -6.164255603159732866e-01
6.540263821465860383e-01 -6.569592308253488500e-02 -1.852079772588061113e-01 7.156080423797280821e-01 -4.473106900954741394e-01 -5.364869767364014441e-01
-8.165490823305282531e-01 -6.424309596234872854e-02 -1.999101747273584473e-01 4.909383903532839044e-01 -3.769071417210057562e-01 -7.854428708677853033e-01
6.856411088114541252e-01 -2.656269512992319448e-02 -1.903909575777967267e-01 8.166831566292578337e-01 -5.046952236675058545e-01 -2.798416568084131639e-01
-7.888966431161488213e-01 -3.167420940733819967e-02 -1.355107973263057208e-01 3.263003253881381349e-01 -1.675532291362218373e-01 -9.302978087997519907e-01
-2.250804074197388371e-01 -2.456691197274045099e-02 -1.698976412467909924e-01 5.239061875909934995e-01 5.557030814229062948e-02 -8.499613211534048363e-01
-7.430848286821877258e-01 4.260341242272238510e-02 -1.322046807293100756e-01 2.849319119879528683e-01 -1.651847963071646427e-02 -9.584054180572952886e-01
-8.028778242397757170e-01 -8.925581869680461466e-03 -1.408560305446633631e-01 2.131600015008844051e-01 6.436948178912054938e-03 -9.769961000220445113e-01
-8.218356464936893424e-01 7.322816180074931403e-02 -1.762651505507366323e-01 2.537333735749112695e-01 1.531730673814010735e-01 -9.550693098216838095e-01
-7.722021021395273355e-01 5.270947648505928951e-02 -2.051193056586355090e-01 3.505651444574879871e-01 1.434139738725325741e-01 -9.254925778144247328e-01
7.802561695373088496e-03 6.208737671936304103e-02 -1.691009895076453773e-01 -9.516446917403428296e-01 -2.572477059981791991e-01 -1.679166413465396634e-01
-6.976013005853556326e-01 4.623362944034373895e-02 -1.813724354028423136e-01 -8.884023951034356603e-01 1.278133570816520626e-01 -4.409137445419420986e-01
-3.062277564372231642e-01 8.364010465942627037e-02 -1.756855801661155458e-01 4.561683965092375170e-01 2.310180979252925704e-01 -8.593841006541667049e-01
-8.014217807225401113e-01 1.018556183124722653e-01 -2.165917723592886146e-01 5.755123939033981451e-01 3.176955060819185994e-01 -7.535615767002278309e-01
-6.549752872512240032e-01 9.195951659883309925e-02 -1.637857597801780363e-01 2.069786677153838753e-02 4.975367364025243266e-01 -8.671959376294567923e-01
-2.363204950307335184e-01 1.165224983950211152e-01 -1.922609390296803056e-01 4.265832625770647479e-01 2.954564505791864026e-01 -8.548287582318787603e-01
-3.257233380948333923e-01 1.344850781000804241e-01 -1.517526690856391136e-01 4.304500193384183104e-01 2.872133649162695868e-01 -8.556992835482736259e-01
-5.851523009959452848e-01 1.101664342760684534e-01 -2.035867370502590368e-01 -3.300590669049530690e-01 5.051580541414425474e-01 -7.974185555214169385e-01
-3.343943141357326176e-01 1.498426429416672145e-01 -1.658816976037819635e-01 4.350230706860525598e-01 3.109800092191575271e-01 -8.450126400456564602e-01
-3.431082053398262222e-01 1.576978442761672872e-01 -1.732716725266294500e-01 4.596306021930199881e-01 3.271967946260026516e-01 -8.256403376253799165e-01
-8.474860688606974390e-01 2.006283559042720821e-01 -1.551578022340618368e-01 7.551000845065055644e-01 4.822418534107663635e-01 -4.441471121117611665e-01
-9.778383940229119498e-01 2.105772181353982031e-01 -1.973230392764590280e-01 -9.998849473446445035e-01 6.877358747369257709e-03 1.352013351477397360e-02
-5.796688108894567648e-01 2.024472513410049690e-01 -1.867592096636807308e-01 -9.732126397963495323e-01 2.189616533153432576e-01 -7.009245407340387868e-02
-9.641258921134890914e-01 2.278028817973080655e-01 -1.676910593485889944e-01 -4.839926678141513450e-01 6.038593718729261539e-01 -6.333284744138506506e-01
3.191421402280817388e-01 2.047277055571435356e-01 -1.545778856882383812e-01 3.471478770003311176e-01 3.129293781081692871e-01 -8.840608326416216078e-01
6.470889192047426519e-01 2.246630504858860844e-01 -1.539517964493652413e-01 7.131221981111613983e-01 4.785589054818696342e-01 -5.122871309579233312e-01
-3.454761004377266409e-01 2.470148461927407779e-01 -1.667331306681903158e-01 3.732070510788670914e-01 4.607247301287818453e-01 -8.052634476199556079e-01
-9.751576472752232494e-01 2.346764582779013175e-01 -1.610999034012030318e-01 -4.616556014492058657e-01 7.112675850674475830e-01 -5.300684183036122876e-01
-8.829828751008610421e-01 2.027230066098538452e-01 -1.734979358550312323e-01 4.098259571975936821e-01 7.211089392166485368e-01 -5.586095081440306531e-01
2.757942762445801388e-01 2.239297219810359174e-01 -1.901207101235315444e-01 4.447209443687472619e-01 6.470893079231065936e-01 -6.192727260354394803e-01
1.181638516063139299e-01 2.582219429937932520e-01 -1.780548761907271571e-01 -5.597288395829465024e-01 6.461606202950559430e-01 -5.188256729567618519e-01
2.509076359291321778e-01 2.321250961164799398e-01 -1.337224240798931263e-01 2.911539127552508766e-01 6.505169848624856588e-01 -7.014677836456413296e-01
-3.608838511179738306e-01 2.438614097171227790e-01 -2.218849665567863005e-01 3.973523603536193161e-01 5.255909131375733345e-01 -7.522401835508518708e-01
2.759354459843210705e-01 2.318783965568667893e-01 -1.973919620274479925e-01 3.916273772632819505e-01 6.539040280341148481e-01 -6.473310741024586035e-01
-3.885114797983248436e-01 2.708899215198237176e-01 -1.842375922091019358e-01 3.294493458092913607e-01 5.587484221766368941e-01 -7.610935088811023874e-01
-4.237102154289141276e-01 2.443150004520101559e-01 -1.934328918045667423e-01 3.489339767227489508e-01 5.582883747364298932e-01 -7.527012491836344577e-01
1.803101342106263882e-01 2.355954495883876287e-01 -1.590441840759961589e-01 -1.979295225542482273e-02 8.754370708602746687e-01 -4.829266755984773507e-01
3.543989019536250562e-01 2.446596812645630281e-01 -1.360794783698794919e-01 -3.904724189999653761e-01 7.719661030929995116e-01 -5.015970750270816181e-01
-5.304281347243066103e-01 2.463896643103880013e-01 -2.113088081828747855e-01 -7.940312590813299876e-01 5.765125226693571525e-01 -1.927373103660305342e-01
4.589893327001245971e-01 2.876111267755065426e-01 -1.525102209097223827e-01 4.446550775377265674e-02 9.616859794070393708e-01 -2.705233735412200247e-01
4.561384806211268295e-01 3.159380814416868910e-01 -1.615203258958282651e-01 3.464088344508076123e-02 9.402869926244351584e-01 -3.386153875644750677e-01
6.012651351749807027e-01 2.776472826049246612e-01 -1.905242946488372446e-01 -2.772757598696822257e-01 8.375865771840699248e-01 -4.707089108034437364e-01
-4.917314119619194956e-01 3.035607267990485525e-01 -1.703152102754501296e-01 1.302272274621206205e-01 8.136087715103575979e-01 -5.666406587502663683e-01
3.804949430982085268e-01 -2.618744608096148507e-01 -1.719645541444662640e-01 2.002868712745852764e-01 -7.314457431861770553e-01 -6.518222871073515723e-01
-4.262771690289617887e-01 -2.778995805211522119e-01 -1.533292870316396439e-01 1.329525463804632490e-01 -7.642655452576060382e-01 -6.310481730763863872e-01
3.862609651916185105e-01 -2.645964959489348067e-01 -1.666902932102902468e-01 -7.715885013041340335e-01 -2.726872662747911180e-01 -5.747110921731209965e-01
-3.218969725697094497e-01 -2.645006837618976703e-01 -1.708078605008625517e-01 2.385713257557888212e-01 -6.627513131030680071e-01 -7.098199909183203760e-01
-3.246607576059827860e-01 -2.209776220413916525e-01 -1.891929693014167968e-01 3.339980114651969756e-01 -5.683355317127292139e-01 -7.519574800014316995e-01
3.147080536815556329e-01 -2.032342597808194928e-01 -1.734755144253697923e-01 2.733738734149145366e-01 -7.323738313810328471e-01 -6.236147019132828317e-01
-2.927646330763340465e-01 -2.342427897421583416e-01 -1.490071490275368671e-01 4.622354674281847209e-01 -4.674460463541503241e-01 -7.535466584089675068e-01
-3.239885895944233929e-01 -2.017257433722284554e-01 -1.876543718867942911e-01 4.890093556144347042e-01 -4.275022293173126320e-01 -7.603365662982960460e-01
5.344232051028335873e-01 -2.221674856440408741e-01 -2.064731575856865453e-01 9.381336580559189731e-01 -2.998245065023806277e-01 -1.732354032039172820e-01
-5.097756374064601470e-01 -1.909527404580183829e-01 -1.655956133547271114e-01 -8.255963656462037559e-01 -5.369905096236640141e-01 1.732969520963867915e-01
3.388535805560879965e-01 -1.811019399643770122e-01 -1.627237685387865063e-01 -8.310271801055768570e-01 -9.344083581084337842e-02 -5.483271251075803043e-01
2.147695529844915741e-01 -1.529156775169285831e-01 -1.646398826236960267e-01 -2.143615963548692327e-01 -5.439610660959125488e-01 -8.112678131048899344e-01
1.920342097927616454e-01 -1.917549541216436448e-01 -1.863520300501408378e-01 2.886619443275106542e-02 -5.009566918842046634e-01 -8.649908298215679414e-01
1.578603444895693153e-01 -1.680330065926785577e-01 -1.706765890792460161e-01 -4.738914675333800175e-01 -4.448506921530356872e-01 -7.599570637148026497e-01
-2.488960103384832701e-01 -1.762252130511096637e-01 -1.553336558627440855e-01 5.073063189186939326e-01 -3.008940097065704866e-01 -8.075290048709499180e-01
2.279693433902292010e-01 -1.899034353471049930e-01 -1.688074736069349324e-01 6.147914033946650925e-01 -4.489878600513212414e-01 -6.484145524574177477e-01
2.756484173204643562e-01 -1.798620276684402830e-01 -1.644598848446495731e-01 -3.427659845838229580e-01 -7.425595735475157833e-01 -5.754274581085038198e-01
6.641834103318823290e-01 -1.306981569391419129e-01 -1.427584199518691643e-01 8.626060474420369495e-01 3.036727701409834279e-01 -4.045907260322805787e-01
2.163694056099129959e-01 -1.647264876840535408e-01 -1.276681260516680794e-01 2.927253697389646803e-01 -9.417495852704454995e-01 -1.655885761582925053e-01
2.462684466726552390e-01 -1.456732955092952253e-01 -2.259577044116549416e-01 -3.994077066366494289e-02 -9.926001877130039563e-01 -1.146717148685827969e-01
-2.555467204343889187e-01 -1.317078478515210649e-01 -1.809238223945676682e-01 5.369746555187200343e-01 -3.110452583114171610e-01 -7.841613779143524754e-01
-8.449461437951455434e-01 -1.602055558002078439e-01 -1.785448303104004153e-01 7.591657591063487587e-01 -4.487090638045576063e-01 -4.715161993612932423e-01
6.219637072124487576e-01 -1.187356259157399258e-01 -1.511876103966816043e-01 7.449374760244749094e-01 -4.666722284860125858e-01 -4.767443633376105550e-01
-5.681175932384291416e-01 -1.055097219147602822e-01 -1.301419998602290629e-01 4.622631309682805889e-01 -6.353772546494766971e-01 -6.185535886416764217e-01
-5.824127982763618316e-01 -1.506548306915334867e-01 -1.555750133926897816e-01 -7.826961447581285425e-01 -4.305607501540032467e-01 -4.494487572655918028e-01
6.821473209138423366e-01 -1.359500538100318068e-01 -1.498230979709138655e-01 6.836584667986039809e-01 -6.735134305027494772e-01 -2.810529482268429025e-01
-2.408282556175475320e-01 -8.268059205817065993e-02 -1.892804534575379394e-01 5.209129608738907180e-01 -2.133723491891586777e-01 -8.265119042065250943e-01
-6.535329368621406454e-01 -7.966830721771614443e-02 -1.429177833502960626e-01 -6.525868946775460477e-01 -3.881691216596682148e-01 -6.507342605742216790e-01
-8.522491837892589572e-01 -1.019110326773204483e-01 -1.717735445645682257e-01 5.727377457984416109e-01 -4.206224322073534583e-01 -7.035966486998710412e-01
-6.688264957618133000e-01 -9.445121753996800484e-02 -1.653177155335880943e-01 -4.326839523651487829e-01 -4.917096191184272547e-01 -7.556495535842557842e-01
-2.624128412250594788e-01 -8.190953801518940924e-02 -1.725451484652748557e-01 5.385909215194075728e-01 -1.572472762171222005e-01 -8.277639236999709826e-01
-2.174839187680218389e-01 -7.553962768893868196e-02 -1.715791569160197150e-01 5.300003195579897630e-01 -1.178629401311678537e-01 -8.397666274698378786e-01
-7.991698836098665160e-01 -4.138192788063885935e-02 -1.902713790891278345e-01 4.248868746061065238e-01 -3.127899728766398435e-01 -8.494901863207636739e-01
-9.845480671447277565e-01 -1.990813488060787229e-02 -1.800618250865141934e-01 -9.987407641501041544e-01 -9.477639874935240086e-03 4.926520442733388350e-02
6.648364360939373885e-02 -2.684616691048421350e-02 -1.614521805851960035e-01 -8.698522212210763049e-01 -4.381062664596751532e-01 -2.267598124128782366e-01
-2.043961453973848486e-01 1.458661444001822793e-02 -1.893636871282861622e-01 5.271474661317342436e-01 1.544504641251411708e-02 -8.496334500784484822e-01
1.067692339823445719e-02 -5.177978233664334157e-03 -1.941027180515746964e-01 -8.847487548028564186e-01 -4.335414570523883349e-01 -1.710597728622574587e-01
7.156481650856314491e-01 6.339999809974870837e-03 -1.580995683662361484e-01 9.049099307281783799e-01 -2.399103894636147871e-01 -3.515409254936613936e-01
-6.733420575250964601e-01 -1.678978351895784454e-03 -1.642570347990542634e-01 -6.557653834778797153e-01 -1.113961405101835667e-01 -7.467011863600757637e-01
-8.071735128704555784e-01 1.531319875392494687e-02 -1.676451809562029271e-01 2.835626254389896350e-01 -1.472313018420727815e-01 -9.475838650019510201e-01
-7.727692944998162394e-01 -2.076736095269688526e-02 -1.853151266400981101e-01 1.061998425599473411e-01 -1.212160912944178631e-01 -9.869286968426572715e-01
-7.491678349790826807e-01 1.460964231291105551e-02 -1.595112185209247024e-01 -8.020598815860767493e-04 -1.348852695970159388e-01 -9.908608987873559482e-01
-7.054287031124790719e-01 -1.761095095642069980e-02 -2.212942974599765300e-01 -2.542534920402773069e-01 -1.329733793369806127e-01 -9.579526304431905670e-01
-7.934852720441208929e-01 1.533065435796124136e-02 -1.787885001510606253e-01 1.215910274361205468e-01 -1.100563158419573528e-01 -9.864599481937033065e-01
-7.478059296873910133e-01 -1.491641717081695906e-02 -1.520976250276775132e-01 -4.139687262927016498e-02 -9.445105333656807212e-02 -9.946684359424141642e-01
-9.938985110197905426e-01 2.757028597966566796e-02 -2.028273968968903884e-01 -9.974242117351660442e-01 1.616075450344385198e-02 6.988398856935797154e-02
-2.593686566202692001e-01 3.517489159621985106e-02 -1.552537016445600937e-01 5.322627937442574453e-01 9.709254160742318562e-02 -8.409930777121584766e-01
-7.211908252570069511e-01 7.213954911278964467e-03 -1.661479882026642152e-01 3.883782781611524321e-02 3.063968085904387323e-02 -9.987756670481022780e-01
3.657454824710755503e-03 -1.633377525692569429e-03 -1.535019838747663234e-01 -9.297740622516956766e-01 -3.469444817161486116e-01 -1.230841978919019475e-01
-7.866961300004957636e-01 1.891632368744901316e-02 -1.595034508996480416e-01 -3.262662876869232981e-02 3.407647951084226759e-03 -9.994618006860648274e-01
-6.975345875294416409e-01 3.093399198491530305e-02 -2.091577994300790611e-01 -1.975983916961444875e-01 3.422488170458735240e-02 -9.796854255685362167e-01
-7.242186552084035611e-01 -7.908899072676500719e-03 -1.992647950884533781e-01 4.569978641844678335e-02 6.566418294895225508e-03 -9.989336372713077949e-01
-7.474008740911948223e-01 4.050718749141571373e-02 -1.584252517503177138e-01 -1.785382482352575184e-02 6.296095899013436081e-02 -9.978562815266602826e-01
-7.590365164948594812e-01 3.323139747392220983e-02 -1.544445954355565531e-01 1.327025351052415689e-02 1.230995715723356004e-01 -9.923055959987698849e-01
-7.226860948140161334e-01 6.149678020161458009e-02 -1.853385580178371628e-01 6.737121490959416259e-02 1.131448393261234031e-01 -9.912917656953833534e-01
-7.065564645615443062e-01 2.174246412278949686e-02 -1.626495863830129396e-01 -2.519143677001168813e-01 6.903027285924227818e-02 -9.652843999439900680e-01
2.016312593372263789e-02 4.708118643857387570e-02 -1.480074229464665159e-01 -9.510701008990494199e-01 -2.824178234972340995e-01 -1.253229274592527753e-01
-9.416415771121608991e-01 6.359959660131879466e-02 -1.184319148643948605e-01 -9.997227718647828665e-01 -2.935996379972936107e-03 2.336149268030969506e-02
-2.377341742560709903e-01 8.708829276111615392e-02 -1.692523483665965278e-01 4.948112698897100814e-01 1.964779050224608747e-01 -8.464976314368028998e-01
-7.610465406785974496e-01 3.255090700701449014e-02 -1.592166518206691306e-01 1.474997217762963053e-01 1.988888198953243092e-01 -9.688586426288204878e-01
-2.348845334957654352e-01 5.818459401261137642e-02 -1.359940983855079388e-01 4.758156889496274466e-01 1.933263556929461502e-01 -8.580351684773042109e-01
5.873711271419859714e-02 1.126953107552626787e-01 -1.690945368103724533e-01 -9.731780986649302134e-01 -1.934581459524199187e-01 -1.244923051580446582e-01
-8.179115907483081038e-01 1.117702258063714288e-01 -1.620518955075434253e-01 4.617322146266442107e-01 3.475857140178999494e-01 -8.160805924580251114e-01
-2.416156007724265531e-01 1.347306911993474687e-01 -1.960885080419397519e-01 4.503365322494113365e-01 2.699375461104852603e-01 -8.510762180447909442e-01
-9.560563582208563282e-01 7.434708895855343669e-02 -1.603284695489973488e-01 -9.995981312687488574e-01 1.366423134375740860e-02 2.483676198318488307e-02
7.270906925205998794e-01 8.640715926075798192e-02 -1.567818038028349903e-01 9.715070524874519498e-01 1.698855116216934635e-01 -1.652663302314746341e-01
-9.781854456765654016e-01 1.335060230368367573e-01 -1.598146501922858009e-01 -9.984267443284617904e-01 -7.144456355965307995e-03 5.561468289081608618e-02
