-5.993204432008908400e-02 -1.481157708215896096e-01 4.698607003438675656e-01 7.388313461030335955e-03 -8.554135956647729300e-02 9.963072260240414257e-01
-1.400921899905311352e-01 -5.422906362111725720e-01 -4.543343600037869079e-01 3.761615604693634984e-01 -2.467334470387727574e-01 8.930985872442182005e-01
1.997218418055385358e-02 -9.963584818799370302e-02 4.828694875319773927e-01 2.104336029275089004e-02 -2.173406860590405137e-02 9.995422988795539254e-01
-2.043276580882931182e-01 6.360589498381331586e-01 1.844781510203926111e-01 -5.021104840544158288e-01 5.842763319347317186e-01 -6.375784106629830417e-01
-3.085168252111051279e-01 -1.625300284628710124e-01 3.769414381022302418e-01 3.773697259020252770e-01 9.417800832019770918e-02 9.212614138893863158e-01
3.416516323506347819e-01 -1.523768336465665951e-01 3.559670830597536084e-01 -1.458464179259135740e-01 -3.149255734178214583e-01 9.378436466627239065e-01
-9.132731138925455350e-02 -1.200011938104454945e-01 4.746335655893018091e-01 -5.306863240117336983e-02 -3.921290528905974765e-02 9.978206593941920666e-01
3.866084205026070197e-01 -1.054416916451672848e-01 3.857843198238286586e-01 9.683032369414422413e-02 -3.485804057778368326e-01 9.322636907662154027e-01
-2.761280405540256222e-01 -4.365825326289390906e-01 1.884385052038697883e-02 -8.739426245253582859e-02 -4.857519919572820255e-01 -8.697167614803741342e-01
1.920084139235750664e-01 1.035002442613216916e-01 4.454291934462622504e-01 1.078469566912837463e-01 -9.540597802023668139e-01 2.795334858878984474e-01
-1.680884528123421651e-01 -5.038323531593797977e-01 5.150490209008581899e-02 6.218583311424074056e-01 -1.713940378533972964e-01 -7.641441616456203789e-01
-1.010516524266213967e-01 -1.282930598671253863e-01 4.157734821948236847e-01 -2.360688290998635974e-01 2.307470527525092713e-02 9.714623337545721382e-01
-1.859123032765961359e-01 -1.108513328747547794e-01 4.415392813686455087e-01 1.072439673682540513e-02 6.883765105581858279e-01 7.252742702084273851e-01
1.216712221789235243e-02 -7.585153204483491285e-02 4.453798805896757029e-01 3.534913385346642734e-02 2.569999342999784026e-02 9.990445180638888312e-01
-1.586343497675878067e-01 -4.410281488307954967e-01 1.734302880882100939e-01 9.421764364314175744e-01 1.200271791333183402e-01 3.128850250534422894e-01
-3.831380408262126391e-02 -8.547382305672288072e-02 5.155720783244238659e-01 -1.226943016683784173e-02 -1.773387835896005158e-03 9.999231551369157645e-01
-1.748606635985089086e-01 -6.259879368671296129e-01 -9.819873801884237974e-02 6.543324492038961049e-01 1.711931995724020050e-01 -7.365744594669263456e-01
4.116425825790233084e-01 -1.064005143835485001e-01 3.721350710018250796e-01 2.445672362995139973e-02 -6.998180904159373439e-02 9.972484219453817689e-01
-2.611635449857162561e-01 -5.786852114534273284e-01 8.298065454766029303e-02 -3.419110857564938710e-01 -1.761531480409974371e-01 -9.230746870497870127e-01
-2.897152653626464125e-01 -5.670003748848884140e-01 -5.483089934161858303e-02 2.821632636718588993e-01 8.238673770873462532e-01 -4.915551216346560337e-01
4.165697009057500177e-01 -3.261639950104245345e-01 7.585604787833055696e-02 9.336752016990182979e-01 -1.919703148605372833e-01 -3.023210478029003667e-01
6.976228894378914969e-02 -1.064856929463967039e-01 4.608280642798591176e-01 7.619084312699539452e-02 6.043203960732002750e-02 9.952602292930712302e-01
-8.594363530866284961e-02 -1.223096437295761452e-01 5.077033815247956605e-01 -1.435705070542948880e-01 1.946654024501687230e-02 9.894486158032976819e-01
7.521114552619248550e-02 -1.707743906915948073e-01 -8.184207935576570669e-01 -7.099510402590481634e-03 3.987286966122932097e-01 -9.170414513258958733e-01
-2.158545765732320931e-01 5.294285721842185710e-01 4.505616909942424253e-01 -9.916273027145737773e-01 -1.216571858851337312e-01 -4.329921054163803074e-02
2.798773870994193946e-01 -1.280390399354388864e-01 3.677863937114133064e-01 -1.896367654193441554e-01 -4.943657110904670637e-01 8.483162387337079835e-01
2.120896860397612077e-02 -1.037041776684317768e-01 5.162949330952510962e-01 1.279296514702248262e-02 4.336931174846115483e-02 9.989771983590074456e-01
3.151065275235447327e-01 -1.224455042088684054e-01 3.360069107744336203e-01 -6.264284333874980959e-01 -8.293906760370302333e-02 7.750538877450477981e-01
2.197954313421054962e-01 1.486243535715743302e-01 5.098144596070214307e-01 2.465209911701498613e-01 -6.983895836978245564e-01 6.719221608898358067e-01
-2.159959561477567680e-01 -5.645637654097506175e-01 7.809357930749671883e-02 1.668698000769211487e-01 -1.743759902398404060e-01 -9.704367490208537506e-01
-2.536074294676753382e-01 -1.189025985522221551e-01 4.051117922524039017e-01 4.524867798440820182e-02 7.130635509288953955e-01 6.996377130182003246e-01
2.663428554698901718e-01 -2.659492170562491320e-01 -7.794691532493857045e-01 6.631877614086243433e-01 8.183688193301265346e-02 -7.439655354069162341e-01
-3.620692287116257235e-01 -4.643908467230583037e-01 1.280337264102230643e-01 -5.214193599177610050e-01 -6.486107087794090731e-01 -5.544600973556390588e-01
-2.261084212071630961e-01 5.544411685922918664e-01 5.281876484101467178e-02 8.757316093945202717e-02 3.834993455466643164e-01 -9.193797873829688827e-01
-2.764182824002466288e-01 -1.508157183642258037e-01 3.694119745786623721e-01 -1.520280683594646409e-01 -2.229860259645419229e-01 9.628939186927242266e-01
4.040835031898458440e-02 -4.877485066134056718e-02 4.661328029336749279e-01 3.015370483756079842e-02 9.614276007872002427e-02 9.949107114555630904e-01
5.268303942327749734e-02 -6.718150491987932849e-02 4.835280452939598184e-01 1.410059785753663315e-02 1.344014739278495130e-01 9.908266331432969976e-01
3.243717584612907517e-02 -9.925259321916928001e-02 4.962429616737840665e-01 4.559106759445075152e-02 1.277938557021408572e-01 9.907523328261098605e-01
-1.005498713056472981e-01 -1.255737883055510762e-01 4.645866473620394177e-01 -6.939840751424140863e-02 7.898335487675708921e-02 9.944573850532256731e-01
-6.781931096150140004e-02 -4.917253519573786674e-02 5.145565833437162340e-01 -1.094704034937128562e-01 8.931555311650830886e-02 9.899691726162062055e-01
-4.029675927905070898e-01 -4.235619416770247114e-01 2.680177628043004662e-02 -5.200235515822033694e-01 -5.940967988689460633e-01 -6.136974004943335226e-01
3.665189130489409086e-01 -8.525256168124682732e-02 3.695263636268429908e-01 -3.295383000479089053e-01 1.259185746449620336e-01 9.357077649356745352e-01
2.980202699860411419e-01 -9.380140609271415963e-02 3.286589364989609408e-01 5.386301801544230994e-01 -3.961020959518180007e-01 7.436266930452339885e-01
-1.321458987599315182e-01 -8.202534229034694202e-02 5.017504879253653627e-01 -2.695676475719098186e-01 1.614531413271483862e-01 9.493503918670611608e-01
-2.479040747940529643e-01 -3.746455519337417717e-01 -4.755189685332981281e-04 5.266422430613383332e-01 -4.295524095647518803e-01 -7.335752689809258431e-01
-8.814391140037784733e-03 -3.640152726073666023e-01 3.007676705233766623e-01 -1.413094319857191306e-01 -9.871794979400818626e-01 7.421780971331140564e-02
-7.287561147484594715e-02 -5.773722152510453454e-02 4.240551839039539139e-01 5.135652226042355072e-03 2.289910269335170001e-01 9.734149858411604850e-01
-1.938355667161887341e-01 -4.099858871335374522e-01 2.171186045743258297e-01 9.632008231591255853e-01 6.437908616110088467e-02 2.609588234389565442e-01
1.917273238315971018e-01 2.753909653367550558e-01 5.448455454982675805e-01 3.731215145810523603e-01 -6.855232306288678856e-01 6.251705652259240686e-01
-8.133400796257507503e-02 -6.555685941420238971e-02 4.886436626568921304e-01 -1.263901420152882538e-01 2.308401942643205085e-01 9.647478099033788279e-01
-1.235481219728352953e-01 -7.023252518785599863e-02 4.608386956983028804e-01 -2.010709276933815570e-01 2.588136477213662801e-01 9.447676845604338070e-01
-3.689008479161020038e-01 -6.190512581589635577e-01 1.499416995390275287e-01 -2.773706206734617430e-01 -1.594449782567326224e-01 -9.474401499281780437e-01
-3.886477722643180699e-01 -4.416227134411235822e-01 5.401162187329824893e-02 -8.246196151475241320e-01 -5.565563209080671703e-01 -1.012301929822599506e-01
4.288748924806942003e-02 -8.860331507535068596e-02 5.019696168514888868e-01 1.750410424462845171e-01 -2.321186651190217665e-01 9.568080051727626545e-01
2.037006915340434099e-01 9.825582271993685279e-02 4.700170031280997973e-01 2.909999661713156272e-01 -9.254509722548457384e-01 2.426098053271008581e-01
3.249065026188329153e-01 -7.488408162699311532e-02 2.995475251417518692e-01 -1.378624168019292051e-01 2.509108903480023467e-01 9.581428281515778078e-01
-3.652407899633287602e-01 -6.826797538331486059e-01 2.894363325900618511e-01 -9.557756464722777512e-01 2.895493495487308500e-01 5.151783949668672924e-02
-3.578557125901887792e-01 -4.887839844097707775e-01 1.042854469116105409e-01 -7.960626821878546977e-01 5.714927240673226549e-01 -1.991990772217321071e-01
-2.668080152810758943e-01 -6.254683346241241004e-02 3.707155898000398242e-01 -5.022967338901244451e-03 6.971139712094807095e-01 7.169427319832872847e-01
-2.552849941208021889e-01 -5.530758331958897100e-01 -1.313001760046899127e-02 -2.761990983808763206e-02 9.898684607940139157e-01 -1.392751625589633557e-01
-2.731775102238764505e-02 -2.346335273765992602e-02 5.045338010706539311e-01 -1.101063322047097365e-01 2.554940133447729522e-01 9.605203822685945969e-01
-1.198947641818592924e-01 -1.788810135086768560e-02 4.662261733543486275e-01 -1.357009874645756786e-01 2.705013694753836684e-01 9.531076807544260898e-01
7.382536640773283698e-02 -4.593056396635616934e-02 4.672381050159228333e-01 3.142472874757056001e-02 2.230103914714105240e-01 9.743094229857934829e-01
9.737627366115365890e-03 -5.352196083968049217e-02 4.795873209430444040e-01 1.147330723396544350e-01 6.326805410022692810e-02 9.913795819169741730e-01
-2.911126038155016360e-01 -5.543767035330769977e-01 9.929648763306906517e-03 6.437822848578041331e-03 9.734187168285991509e-01 -2.289422550879015306e-01
-2.026400096210826118e-01 -6.803006024297018062e-01 -1.646355056766641844e-01 1.409657118770945294e-01 -2.235451015626674087e-01 -9.644460874731779487e-01
-3.096702218257061379e-01 -1.101094089174946000e-01 4.120904361285478434e-01 -1.800005959628819263e-01 6.745260547871579915e-01 7.159709399593529033e-01
2.532246704640538359e-01 -5.317925867419018848e-01 1.621095380496060875e-02 -4.181566381456797155e-01 -2.762605017709452992e-01 -8.653468444132493831e-01
-2.889059187408350993e-01 3.467156293502122733e-01 3.657377762830592571e-01 -9.583203247055867013e-01 -2.723237644243035604e-01 8.638242058402335888e-02
-2.911991060279057741e-01 2.894993159140775707e-01 3.888833480686387789e-01 -6.375740399455627205e-01 -6.599254700867358547e-01 3.974892671737120242e-01
2.264010367904085996e-01 5.998615615973682536e-01 3.220242683562522107e-02 -5.942731035468841183e-01 -3.033130562901896199e-01 -7.448762771659858117e-01
-9.997455355710305538e-03 -3.180571588439319586e-02 5.561261913054589279e-01 -4.663447750633890054e-01 2.023593177039780533e-01 8.611464784282970575e-01
3.140882457481641854e-02 -3.914085565640776365e-02 4.317720073087765731e-01 1.292492014613127183e-01 2.291881120684312045e-01 9.647628999957041929e-01
1.592730638827188211e-02 -1.940825485290625582e-02 4.258821519712727710e-01 -7.336428590006502382e-02 2.909205308288725922e-01 9.539302523227893849e-01
2.729174068676859521e-01 -2.297131898953116980e-01 3.450554315548838846e-01 8.367477514366677971e-01 -4.713470041506894193e-01 2.787206525248004940e-01
2.911821478299424226e-02 -2.029793714907900115e-02 4.746830877892893596e-01 -1.132991209670106414e-01 9.223129027578977346e-02 9.892707911801327247e-01
2.021441857513175400e-01 -4.896263323005544676e-01 -7.571892474057025924e-01 -1.285958879203026768e-02 -5.428033788853399155e-01 -8.397613487454383963e-01
-8.767243711225910716e-03 2.157613217142376194e-02 4.845333290923532488e-01 -1.495379802856367235e-01 2.979101707219525275e-01 9.428085291470954532e-01
-6.469073918271811552e-02 1.788568600176166853e-02 4.362173102624081755e-01 -9.052780692086667691e-02 3.475229645322307492e-01 9.332912221256709495e-01
2.250280402958753923e-01 2.889531565004602731e-01 5.212640247860959031e-01 4.860229461002836260e-01 -8.222118897549575145e-01 -2.962250904457321421e-01
3.762101018217747089e-02 5.499583409341982643e-01 2.614145062100108052e-03 1.775935104515661833e-01 1.787585897349643904e-01 -9.677323553759356045e-01
-4.086367826385661761e-02 2.197767452445081870e-02 4.287580307951636138e-01 -2.245348715344556711e-01 1.559262320182198958e-01 9.619101317865437206e-01
-2.586711006448767503e-01 -6.112207021045052979e-01 6.803037339669312789e-02 8.921335217936052775e-01 3.476534962998556466e-01 2.885044640947952987e-01
2.745458076623408794e-01 -1.493431479554694352e-01 4.369417999348372272e-01 8.027537834499636205e-01 -5.439645744117522774e-01 2.443131288772873722e-01
2.575245175670338171e-01 1.184034376377391812e-01 5.172932814091051323e-01 6.341025963780778651e-01 -6.984291330056601188e-01 3.318292383674810719e-01
2.524275542661856830e-01 -2.310005451740322069e-01 3.093344799587893768e-01 8.196486841840343596e-01 -4.989619191505918483e-01 2.814481084550743972e-01
7.994198755548595492e-02 4.353116443810686742e-03 4.364121798331990765e-01 9.949650082465114065e-02 3.795596994668379853e-01 9.198015442824033494e-01
1.747787769348654180e-02 5.280729783399970012e-01 -2.175727892268355251e-03 1.076845854539099645e-01 1.369244670236248185e-01 -9.847109831752237641e-01
2.762641742181598525e-02 1.537729426511238832e-02 4.414273914863573456e-01 7.026178740428691560e-02 3.643155658850719680e-01 9.286212627786393226e-01
-2.218625056470198420e-01 -6.473821834598593172e-01 -8.608223039694862244e-02 3.803858661009582587e-01 4.177342451137089907e-01 -8.251088978613088099e-01
2.988221026787524770e-01 4.421831853517237398e-01 7.833464784664388725e-02 9.163458276188960472e-01 3.158674838387030559e-01 -2.460448269296620361e-01
3.250474884155295924e-02 2.216744447571303636e-02 4.577187028970605143e-01 9.753491929589591658e-02 3.155708221453156215e-01 9.438760489219295557e-01
2.025077809263925444e-01 -4.867474223407634026e-01 -7.259137228581121759e-01 -1.541762822404233735e-01 -1.940304991186931338e-01 -9.688043349439928731e-01
-1.580718491523044333e-01 3.632438232520724536e-02 4.499091761341384443e-01 2.068836351971240772e-01 -4.961671703004671974e-01 8.432184180884869651e-01
-4.139896392304786427e-02 4.562693004138774350e-02 4.207373973747323692e-01 -1.504502647319173048e-01 2.412302858291425489e-01 9.587349305417458556e-01
1.533423103271765731e-01 8.666783493523706750e-02 -4.767725009320966656e-01 9.238405892562298050e-01 -9.090050572138635857e-05 3.827774253790316439e-01
-6.678067258453090904e-02 7.803449921794755606e-03 4.471679009879969691e-01 -1.530768572267182381e-01 2.054434479283653581e-01 9.666232282978182155e-01
-2.678289147573049700e-01 -1.799387660267893208e-01 -1.862271647022945564e-01 -9.716662678618790405e-01 -1.231140458581787001e-01 -2.017612341650334429e-01
-2.242783830821127589e-01 3.886954880621695807e-02 4.756995104471123392e-01 -5.845488787152485211e-01 3.473956127599387433e-01 7.332249972742965749e-01
2.662744199555729940e-01 -2.445426092829958986e-01 2.805297666210503915e-01 7.251364023437201212e-01 -6.000610133888757414e-01 3.377928036633137676e-01
-1.353465062940237100e-02 3.141875790442537342e-02 4.860816012881568615e-01 -1.125759134893650482e-01 3.394195166386715368e-02 9.930632445213561921e-01
-1.016584076537436904e-01 5.603841902667876518e-01 -1.282832925144686623e-02 3.880486351678041901e-01 -2.636902577596278996e-01 -8.831113772945432538e-01
4.368733513192716855e-01 2.684544044033034260e-01 1.694211501334368375e-01 9.381508936506911533e-01 -2.048728614570940326e-02 3.456199818424758874e-01
-1.693713612378994482e-01 1.171392557022395489e-02 4.507762374368083913e-01 1.596095674760511854e-02 6.056022733958604798e-02 9.980369265334216866e-01
1.928802345214176150e-01 -4.390942095018857128e-01 -7.169147323784358372e-01 3.912499568338158595e-01 -1.190293521659142179e-01 -9.125543735035738235e-01
2.492580984602992544e-01 7.787687523154213087e-02 4.182036845229490929e-01 1.712179525515594991e-01 -8.337605619643220778e-02 9.816989589365883173e-01
-1.981311238779847467e-02 3.241554883419944799e-02 4.656698967468829164e-01 -3.074829807406307958e-01 -4.148505399097641988e-02 9.506488346651579269e-01
-3.905711313594696366e-01 -4.584819279589586460e-01 8.528538698527352024e-02 -8.696434164393288535e-01 -3.046883138794024837e-01 -3.884396473444217124e-01
-2.429276671549585043e-01 -5.216187939127092665e-01 7.535876494715473828e-02 -3.821380312977591398e-01 -2.691020761629772107e-01 -8.840557661373223963e-01
-1.373818627160715566e-01 5.332725940444829615e-02 4.702074460986363502e-01 6.145734834823761705e-01 -2.840999709767429993e-01 7.359257026978685001e-01
-3.399168156384382300e-01 -6.056400056716244595e-01 3.376953078383914536e-02 4.435119561266041566e-01 8.228370328748350060e-01 -3.552975683880920110e-01
1.670304668769002077e-01 5.589993617357207761e-02 3.958668310184396133e-01 -3.017959001018148402e-01 -5.843179291305924394e-01 7.533205110563971907e-01
-3.218728069229499500e-01 -5.236255692997652256e-01 -1.302692086046688610e-02 5.290218957038437253e-01 7.627580213177947988e-01 -3.719355250325973583e-01
-2.920435780972109319e-01 -5.564211878964430147e-01 -1.745524120646114313e-02 4.903515365208960808e-01 6.659394004703951264e-01 -5.622100012741919617e-01
-6.739606559667631058e-02 8.622524635906667068e-02 4.438423198520840551e-01 -1.129357024620182559e-01 -2.375995918302215848e-01 9.647756014076654951e-01
-4.644884429976434137e-02 8.970773131949726087e-02 4.133707312304914505e-01 -1.449919712003437111e-01 -2.509085682574364040e-01 9.570904965897645278e-01
3.095710003247026387e-01 -1.147453621645917465e-01 3.646888474460607266e-01 8.227351661651007841e-01 -2.708445021714125933e-01 4.997500395185614508e-01
3.311111426072030350e-02 7.131587747590878434e-02 4.658974145517419396e-01 -3.987728181956561313e-01 -2.254701832706207665e-01 8.889001270807688204e-01
-3.018440139002711020e-01 -3.974982294110595005e-01 -7.862291656384245986e-01 -4.843040663634233245e-01 8.273584762890264788e-01 -2.844776318386971203e-01
-5.311616107170669121e-02 7.049776133282992241e-02 4.392750763778088818e-01 -2.975748375017536196e-01 -3.993930990870692144e-01 8.671414927723337662e-01
4.661060923265716166e-02 8.865959490980782065e-02 4.474886694186582803e-01 2.513701582242495736e-01 -3.362236195388451088e-01 9.076159546958800783e-01
2.676838469197722614e-01 1.494672753091371986e-01 4.566527317105235073e-01 7.912296980451728468e-01 -6.114589803229194542e-01 -8.572065900374636199e-03
-2.310388730103471108e-02 -4.174586612929607199e-01 -8.518356879210380317e-01 2.099694889102301232e-01 -2.043672662282177699e-01 -9.561102625854307480e-01
2.047628203646577327e-01 1.078077566928237752e-01 4.307535205018928615e-01 -2.699137350681083455e-03 -3.619456877695954589e-01 9.321952766253198686e-01
-1.081984603780227067e-01 5.068509510105753679e-02 4.724554513780406251e-01 -1.502740650021018864e-01 -5.528437718848745464e-01 8.196227603451777810e-01
-1.358336662763885427e-01 -2.887674317803895496e-01 1.617086193661861349e-01 7.400690229628327232e-01 -6.441601637410131476e-01 -1.932757737016961574e-01
1.429968414950976985e-01 8.445151301637414398e-02 4.627983319046434785e-01 1.018266292359752412e-01 -6.202819626653723883e-01 7.777413608459001759e-01
2.376065074958956802e-01 9.869531857512170436e-02 -2.786571001416681681e-01 4.324980146829253136e-01 7.068734647545089622e-01 -5.597100786311463017e-01
-3.521862158096180639e-01 -2.159681369159909825e-01 -5.388993663389582411e-02 -9.403338772306244486e-01 -2.261778603705592028e-01 2.541963312296554034e-01
-2.245241051287309719e-01 -3.817479978922664885e-01 -8.475831433852698549e-02 3.011498798697062051e-01 -6.151383847393557813e-01 -7.286381251861020480e-01
-4.685430115236076387e-02 9.637724158446764333e-02 4.884805683941980670e-01 -2.874453828976518688e-01 -5.124209366422598499e-01 8.091970931370745523e-01
-3.096383509397142644e-02 9.103607286117808284e-02 4.258083914543742132e-01 -1.277287442322455058e-01 -6.831686273764007167e-01 7.190034731943218960e-01
-1.085224355173438904e-01 7.229342756581851048e-02 4.622312199163384761e-01 -2.929341837396389966e-02 -6.997589169287730115e-01 7.137782245338102349e-01
-2.668874617112502734e-01 -6.082720114196834560e-01 7.225366666965618578e-02 5.841548127732325568e-01 -7.444023509288095752e-01 3.234629726035594954e-01
3.812352481232669787e-01 -5.741880163412544924e-01 1.973650507593800452e-01 3.015073065439605737e-01 -1.820079012175810362e-01 9.359308029950598184e-01
-2.982285240285202366e-01 6.066584062980009961e-02 2.771298240042529004e-01 4.073843699117286055e-01 5.330950533746494635e-01 7.415171199770802524e-01
5.733692291045936786e-03 1.064820959096477310e-01 4.705187921887026836e-01 -2.586508348555754400e-01 -8.416743612299105726e-01 4.740084548578599732e-01
2.294820013024628236e-01 -3.978884968176403802e-01 -7.768718249811874532e-01 5.241056474528029696e-01 -2.670941359188609976e-01 -8.086865850660782673e-01
-6.170338012644136644e-02 1.024035393202106792e-01 4.892850324797455852e-01 -1.970340432153986354e-01 -7.351818193887398323e-01 6.486025580079488595e-01
-1.445848953559202288e-01 -2.751569781828679395e-01 -8.524494683180713350e-01 3.293591956856230241e-02 4.355072399456024201e-01 -8.995824971380539381e-01
-3.440728035085806602e-01 -7.063911691563669049e-01 -3.584126296034208237e-02 -6.038754459485652371e-01 -5.958424162741517843e-02 -7.948485163413890886e-01
-1.506131767260888467e-02 1.077806861148059292e-01 5.560766598232682600e-01 -1.042685940875535261e-01 -7.947312774052753825e-01 5.979383387948830064e-01
7.871251491959192770e-02 4.726598205341606129e-02 5.338681595844970706e-01 1.955937701182552391e-01 -7.163275878984752820e-01 6.697894175832276309e-01
-3.616687578317616114e-01 2.360028299540005703e-01 2.140796156445425730e-02 -9.717429267553826522e-01 -1.631905978871289187e-01 -1.705418220323810796e-01
-1.039470256200135390e-01 1.014706202580971106e-01 5.312111069331009183e-01 -2.797323435507635403e-01 -5.962412924959211713e-01 7.524932804313876344e-01
5.932011443509804111e-02 1.070166089710389429e-01 5.271151483026492723e-01 -6.361160499491627651e-02 -6.931416834802853755e-01 7.179889764697551247e-01
-3.139818050330673294e-01 -5.402645675804539360e-01 -4.959557741506985529e-02 3.606992318576378587e-01 8.709422782094518034e-01 -3.336998833752269356e-01
-2.916115076554883778e-01 -5.795694273047570233e-01 -3.761402597484025424e-03 1.534919499814149657e-01 9.758393076382207987e-01 -1.554923373001402542e-01
-9.312448141268478419e-02 5.694278111789341512e-01 -9.020607955298508632e-03 3.343428783566693152e-02 -3.169138578699054465e-01 -9.478648400942695229e-01
3.703227942637851156e-01 -3.224357426599202547e-01 1.900964551624448051e-01 4.707098768039714720e-01 1.979601251230566350e-01 8.597929987738059943e-01
3.839690148971175998e-01 -6.184578830345578426e-01 2.205670307816627318e-01 4.677913119719734891e-01 -8.521752504162834196e-02 8.797211273291777323e-01
-1.404748005577854397e-01 5.218363118941424794e-01 -1.564226561397152188e-02 2.699057182180485126e-02 -6.868529720797786342e-02 -9.972732017758142442e-01
-4.730711233314444097e-02 1.124963340543543577e-01 5.163503447443240635e-01 -1.245144268814811495e-01 -6.204124168295033215e-01 7.743284771607917838e-01
-3.611053638145851341e-01 -3.133743729431491820e-01 1.499656487339531136e-02 -9.181037766018240731e-01 2.197648679655933301e-01 -3.298315603418408015e-01
6.722131340430999302e-02 1.336316795463174112e-01 5.264992937033806664e-01 1.013414687110846257e-01 -3.151729972537875013e-01 9.436079103746133345e-01
-6.747128257045804586e-03 1.997137768533260860e-01 5.795369840591451105e-01 -7.943128670378406253e-02 -3.396724928100841590e-01 9.371836897432458402e-01
-1.723139335476764900e-01 1.458392004370630268e-01 -2.125562142995607862e-01 -6.496057736273259664e-01 4.175236840300161067e-01 6.353631340769202440e-01
-3.286640002705856212e-01 -5.486792299660122607e-01 2.988708433956319133e-02 5.793408164438883512e-01 7.009422437134686934e-01 -4.159858043011286366e-01
-5.467758866307392829e-02 2.037786370288207916e-01 5.438133168425237640e-01 -1.997897929693258079e-01 5.091793617409858808e-01 8.371501754179571098e-01
-7.869860939522382859e-02 1.700618339410542856e-01 5.700318160466212314e-01 -1.189392251239333453e-01 7.322389362774849308e-01 6.705815393568000937e-01
3.791023642702829322e-01 -5.236835482645730844e-01 -5.735206228464506673e-01 8.598935225861404907e-01 -3.313241402641207700e-01 -3.883393411600734035e-01
2.380171964456967437e-01 1.331354868899761179e-01 4.183533967536764986e-01 8.262940807810963406e-01 -5.404280345911597339e-01 1.586683065204246845e-01
-1.427015050525937134e-01 1.668257977398798220e-01 5.539498864442991000e-01 5.511687875636053086e-02 4.196414682201474733e-01 9.060149931575059989e-01
4.262282896462415982e-02 2.348024689787588937e-01 5.694975668912747313e-01 -2.036055795605256902e-01 -8.556143093773280195e-02 9.753071359872796942e-01
-1.511018787730779855e-01 1.474640487503401931e-01 5.409103785849581625e-01 -1.602260960519883131e-03 3.231596623709622196e-01 9.463431012989423907e-01
-4.620875479137120240e-02 1.969404029173004445e-01 5.387415550279568421e-01 -1.866297843500370757e-01 1.889900484479346277e-01 9.640809536450277717e-01
4.783222438463910486e-02 -3.081431320378841821e-01 4.097079143306681104e-01 9.984372600982095447e-01 -4.553948167273121073e-02 3.239125277847679230e-02
1.646984235814457839e-02 1.689700696461282625e-01 5.267863040520032181e-01 3.261824965672664722e-02 2.909864184073484572e-01 9.561709858031642861e-01
5.134757272225901753e-03 -3.807731268883993159e-01 -8.979401418529626699e-01 2.150288532885356596e-01 -1.858219811660979659e-01 -9.587662820358899829e-01
-3.729943087972853455e-01 -6.821539533308726977e-01 2.228227475925344814e-01 -9.601524628036902653e-01 -2.594175516343962262e-01 -1.039701018371328167e-01
3.272396579976160486e-02 2.213444656676971656e-01 5.643987590762624684e-01 3.454927917690162747e-02 1.857735907010119591e-01 9.819849898579964265e-01
2.811682503461886973e-01 -1.838465664124542542e-01 3.523177224457699208e-01 8.401519981061940090e-01 -4.182942175457597944e-01 3.452166966500175849e-01
-6.899401501980489612e-03 2.002627398905487410e-01 5.610646177265299350e-01 -9.400663002253914491e-02 -4.582104162537918302e-01 8.838585678423511727e-01
-1.122920965411870753e-01 1.978288391174607974e-01 5.342123109195199282e-01 -3.528629645807931370e-01 7.061274551461279581e-01 6.138988070652254825e-01
-2.694553436346676031e-02 2.274207052210480140e-01 5.505459499448757121e-01 -4.434253587818939857e-01 3.260078386765145053e-01 8.349208587109416824e-01
-1.978335035497679195e-01 8.951212296523279599e-02 -3.091808549903860004e-01 -6.414457435076976743e-01 5.508213781104611684e-01 5.339879844643972140e-01
-1.653211029435854573e-01 5.788340508689804320e-02 -2.867293556484437067e-01 -7.451539124229613620e-01 4.854402866197166655e-01 4.572672904629423440e-01
-1.074287768478075257e-02 2.584271542267346233e-01 4.876729711634010256e-01 -4.911343813281335291e-01 3.296115690391464015e-01 8.063145992929705574e-01
-2.436800600461979660e-01 -4.388350147559006986e-01 -3.736669433282494707e-02 -2.637324129169403911e-02 -4.798628021774702379e-01 -8.769470583964327215e-01
3.270458381182443364e-01 -5.131885787353140937e-01 1.831936219709141556e-01 4.085079188675567741e-01 -1.822461801753441357e-01 8.943755419475610813e-01
-3.045474499531461432e-01 2.322062845341087700e-01 2.208996006366235054e-01 9.027993416532759455e-03 -2.474611559857647913e-01 9.688557537699098443e-01
-3.610559778867253877e-01 2.012928847882480277e-01 2.714994429367432183e-01 -9.840701493125547650e-02 -3.240860531609185968e-01 9.408954721747245786e-01
-3.912887845483906668e-01 -2.487433033572321872e-01 -2.856311937553499686e-02 -9.711918726716324279e-01 -1.913648995547992948e-01 1.420064142035467603e-01
-1.613093237969619453e-01 3.129510099615969154e-01 6.558516926276036774e-01 -4.673323717565024960e-01 -5.659718531757873539e-01 6.791732589856636082e-01
-2.444012430457069562e-01 3.043184665785854115e-01 3.782453732139586244e-01 1.332382590430687686e-01 1.352571377034569589e-01 9.818111188143268109e-01
-1.630197059847666718e-01 3.383226528015747525e-01 6.086740041536752299e-01 -2.118563471733563019e-01 4.158824362169381006e-01 8.843973583229581825e-01
-4.092422338226178735e-02 3.315661956310427816e-01 6.381076391296749417e-01 4.556567450726025509e-02 1.680694503322465172e-01 9.847214982784294746e-01
5.065473458724009670e-02 4.054091968850874195e-01 6.902974768352156953e-01 -1.057327844414231999e-01 -5.960091991302995940e-01 7.959859375933237002e-01
-3.622627782792865458e-01 3.874801114702965954e-01 3.173498267327561906e-01 -8.036720773190485223e-02 -6.183563282976987097e-01 7.817778221307928321e-01
-2.844045469169007578e-01 3.799506661928175877e-01 3.184989233886670879e-01 2.576995028495167039e-01 -3.784720858933077192e-01 8.890162239412061629e-01
-3.801718665792358509e-01 -4.298658974561782031e-01 -7.162517363351598165e-01 -9.359923136189015613e-01 1.845138509716635344e-01 -2.997883047184172756e-01
-3.362732413321635194e-01 3.920255562999138688e-01 3.623081382213917956e-01 2.574219224103934667e-01 2.558225655746435567e-01 9.318201375830771349e-01
-2.177444467344143986e-01 -5.119096739944664076e-01 2.057151497860832956e-01 8.624370073394412861e-01 2.119376747445456954e-01 4.596572966844578723e-01
-2.015294740529667006e-01 4.363124099931465771e-01 4.917095434945582544e-01 -5.213255543788420932e-01 2.172155924538534955e-01 8.252496911520259548e-01
2.845135128389086887e-01 -2.673860096662669106e-01 2.668543918504697188e-01 8.198433630377632841e-02 -5.688049088011652987e-01 8.183761630964867528e-01
-1.922552016954099385e-01 4.702052257688719983e-02 -3.293064848851222637e-01 -7.145865167616819447e-01 2.384196956113963650e-01 6.576641687114901380e-01
-3.493183795092729693e-01 -6.976093130242483342e-01 3.865347118310410446e-01 -7.297258658171362766e-01 6.829013954713797352e-01 -3.385032969814748965e-02
1.407642221652033176e-01 4.786825874287404803e-01 5.378612983830652894e-01 -2.047650635615256287e-01 -3.092345875612513839e-01 9.286792980359082073e-01
2.420002528530823538e-01 7.398073280178045774e-01 2.402908529663941584e-01 6.213807733179285142e-01 5.547918934677338321e-01 -5.532557179942200198e-01
-3.539031192230118195e-01 -5.684056125786371982e-01 6.807955736996099128e-02 -1.385396837963411010e-01 9.518815346686394507e-01 -2.733647745604497192e-01
-3.223697504293776550e-01 -5.941444778317375164e-01 3.507972701526473891e-02 3.948024924192118923e-01 8.174082596932951139e-01 -4.194934194534601368e-01
-3.029856495400712335e-01 -5.436826309576461291e-01 6.004965129091353188e-02 -1.432244790736571238e-01 6.700801209374996903e-01 -7.283401541302426674e-01
-2.774258549293212028e-01 4.527186887761073253e-01 3.669142205660596567e-01 -1.044991313841465014e-01 -3.832753133983767824e-01 9.177036371723361619e-01
-3.796938029963726757e-01 -4.124923670846716295e-01 3.825115581653600050e-02 -9.960611799750713757e-01 8.452054807544583104e-02 -2.680303527017903475e-02
-3.459484339806012665e-01 4.662434198942909669e-01 3.756668265072778401e-01 -4.748598612051913026e-02 -1.918997068583537524e-01 9.802650578439688900e-01
-2.055819677322333339e-01 -4.615218877394109409e-01 2.762135133478089144e-01 6.630131717972641558e-01 3.900875265942479464e-01 6.389407293473419180e-01
-2.874775377095729612e-01 -4.656964035507880628e-01 2.617015268669445685e-02 -4.416928149996234287e-01 -6.732588627673997683e-01 -5.929839465642017249e-01
-3.894224147432427952e-01 -3.948265750084363757e-01 1.224954676126451952e-01 -9.028470280411292626e-01 -3.563559994947402831e-01 2.405777329293072864e-01
-2.088282124217885893e-01 -3.992108711912303320e-01 -7.552608161211038507e-01 3.662145426481733246e-01 6.606229880650037467e-01 -6.553351634034717543e-01
3.286321677295405697e-01 -4.166408411910577092e-01 -8.371219905455145049e-01 2.927639541497520925e-01 -1.620164835710344864e-01 -9.423587035741106677e-01
-2.091502119707077390e-01 5.386038505701585821e-01 -5.969993256380513869e-03 -3.077504536642441946e-01 4.939719374191220425e-01 -8.131920949639456220e-01
-3.087695011258170252e-01 6.258140865425748656e-01 4.200568768543560538e-01 -1.940901632705623395e-02 -4.159440105152895084e-02 9.989460425300159541e-01
-1.538767676060363854e-01 7.642727802536000703e-02 4.676619459791006017e-01 -2.616203411664494993e-01 -5.940898740067513950e-01 7.606655103858678268e-01
-1.853933156471215815e-01 -2.120917833305871192e-01 4.371885346881473344e-01 -5.252387125576564175e-01 -5.855416475292660738e-01 6.174668200312373179e-01
1.897643187755022887e-01 4.994312316737617441e-01 1.513319347080526074e-02 -2.515564296899249763e-01 -4.562976495391282139e-01 -8.535290374127436630e-01
-2.076750935453723912e-01 1.350280226161374442e-01 3.910611221664283543e-01 -8.572024807173450611e-01 -4.463873498184779409e-01 2.567922136165064484e-01
-1.510217172487297588e-01 -6.480960165742770673e-01 -8.739582516452143457e-02 6.345296488489119424e-01 3.489732832676246677e-01 -6.896301706690990407e-01
-2.404680912343099275e-01 5.124773591600226830e-01 4.196230771979744256e-01 -9.662674041127150559e-01 -1.469200155125346130e-01 2.115226058629938177e-01
2.704647799188258928e-01 -4.397931347908458632e-01 1.784445722147960656e-01 3.805769042268587476e-01 -1.784188812413914360e-01 9.073741911613261157e-01
-3.038840117861037471e-01 3.367222551735845615e-01 3.580108601300339699e-01 -9.262651804976181902e-01 -3.721967100138121043e-01 5.918128464817980217e-02
-3.290240228319141202e-01 -7.095861728282206737e-01 -1.424595270687598614e-01 -4.189936897550700645e-01 -2.192102831211137359e-01 -8.811306031000133432e-01
-3.401831076549045596e-01 4.605640307034707948e-01 4.062345031924470273e-01 -8.794681288660647356e-01 2.425505067146359328e-01 4.095180850723155186e-01
-2.550364840770926733e-01 4.893301557711456362e-01 4.241646917507269077e-01 -7.241228160400895453e-01 4.592012042302979213e-01 5.145681697536438337e-01
1.257448836991352237e-01 5.345982527257973071e-01 2.451186545754625162e-02 7.608689747285254934e-02 6.859472346687585376e-02 -9.947389345679892303e-01
9.264020858827298754e-03 -2.426707386524377119e-01 5.105407489877822336e-01 -9.039105244463714328e-01 1.747651434563632089e-01 3.903881509827909491e-01
-3.808967025489360392e-01 -7.170605137507990445e-01 -1.157249388144995783e-02 -9.337503571224115007e-01 -2.279863975636523266e-01 -2.759211356524129410e-01
-1.690477837228098468e-01 1.197921795867784023e-01 5.129199626219987929e-01 -6.846619929193846765e-01 -5.980379440241636591e-01 4.166396200063166577e-01
-2.460063258439893208e-01 4.611797208988352437e-01 4.972744812465683117e-01 -9.085413415473971854e-01 8.249954462429823221e-02 4.095686216448216066e-01
-2.412496064001499463e-01 4.910043386279548394e-01 5.432038360278600431e-01 -8.511830721253572651e-01 1.255131080100550245e-01 5.096408906719466225e-01
-3.369062332616045707e-01 2.088007025666231975e-01 1.293610529336893800e-01 -7.837048835661829527e-01 5.537914054818653398e-01 2.812858593831830678e-01
-3.223754158361117339e-01 3.312141736199166742e-01 1.280695819448396389e-01 -9.259144387392703734e-01 3.758610722460608011e-01 -3.756203541055219697e-02
1.943950935872154062e-01 1.705761059463679896e-01 3.622088875119175988e-01 8.425592390332595771e-01 -5.364470121237918665e-01 -4.815113605254374429e-02
-3.066551678741903930e-01 4.520263541801963769e-01 2.075890763375129178e-01 -7.349940099532440430e-01 4.109445989270796851e-01 5.393591956623269290e-01
5.666316204400725920e-02 2.131330736990978414e-01 -1.699834087703565588e-01 -9.438629068905987282e-03 9.008681998845312622e-01 -4.339900905759297434e-01
-3.010521003507157234e-01 3.331069920715236665e-01 3.560559208535171716e-01 -9.700013170848871269e-01 2.412037103571670338e-01 3.030206203412762547e-02
-1.608806559987461249e-01 -3.581646974771057201e-01 1.382106783981364440e-01 8.596341726559068031e-01 -4.488510714476580121e-01 2.440528730879517882e-01
-2.843089338938693533e-01 6.575910019164427078e-01 4.537136510746326845e-01 5.777505871085126810e-01 6.978013750515943414e-01 4.234117382310901845e-01
-2.728145120547962876e-01 6.464422536788125839e-01 2.050162889604306704e-01 -8.902840405417197234e-01 4.343290118476212380e-01 1.369402666281122616e-01
-2.693100957832168518e-01 6.691892996711005237e-01 1.935484031879610711e-01 -2.496972438239296876e-01 5.668899151642838863e-01 7.850395598387153173e-01
-3.643098445182995082e-01 5.992541871783076957e-01 2.989733244850650284e-01 -9.212029734965659911e-01 2.638220688186012075e-01 2.859772676723770224e-01
-3.855961815872827048e-01 -1.706159028441740499e-01 2.460709608658357139e-01 -8.058754462403289187e-01 -3.081188032094251406e-01 5.055962502390047852e-01
2.714579185245903636e-02 -1.552251717793477481e-01 -8.030092230331316028e-01 -1.356318119993105975e-01 3.965909021289050207e-01 -9.079205185049871174e-01
-1.264847714395612721e-01 -2.187122757487104108e-01 4.537775716945652293e-01 -2.168912582406673784e-01 -5.791344327826167815e-01 7.858508070011359647e-01
-1.358546113471840178e-01 -2.727671856252033566e-01 4.492448092536424631e-01 -3.880518465296010078e-01 -5.202669101505902338e-01 7.607483858723097514e-01
-3.934993932977097209e-01 -1.438783309985286474e-01 2.568386922893676760e-01 -8.207912808352930689e-01 -2.388906148148785269e-01 5.188766206509292100e-01
-3.288498288634564282e-01 -1.419173341766077345e-01 3.355812381751865359e-01 -9.550760847895868322e-01 1.281129002877635092e-01 2.672391383065948478e-01
-8.106369660840143099e-02 -2.135333599390382142e-01 4.477529299052346312e-01 -3.009354488434590746e-01 -4.625770591709599255e-01 8.339426358917811921e-01
-1.414708902700016757e-01 -2.277531705704806397e-01 4.572184876686385402e-01 -4.879933803649958435e-01 -3.538537072536631634e-01 7.979035120757290711e-01
-1.987754381216983723e-01 -1.935253429793180602e-01 3.992368583738232779e-01 -6.388430410699662554e-01 -4.043630991420077425e-01 6.544998494489883134e-01
-4.010886587360190658e-01 -1.580418930228359164e-01 2.443769090986850911e-01 -9.343224062450095069e-01 -2.062710521376513728e-01 2.906783346563033832e-01
-3.145078159467274426e-01 -1.831091226344933875e-01 3.777206745429159129e-01 -5.348939805278642989e-01 2.344906146200373964e-01 8.117281449168642915e-01
-3.502203374224474031e-01 -1.416133000885656246e-01 2.497516079535950784e-01 -8.154715033328536755e-01 -1.380330883083688009e-01 5.620970501471340697e-01
-3.697143495567160043e-01 -1.152394288042016685e-01 2.702481684642233928e-01 -8.310464414539374678e-01 -1.420418878702010557e-01 5.377600898514287575e-01
-1.950089900155886069e-01 -1.834189136686940891e-01 4.236111872075440932e-01 -7.216131764820280514e-01 -2.783965626094562218e-01 6.338531197799349703e-01
-3.942750622855125120e-01 -1.516822687712998108e-01 1.807998879794550096e-01 -8.370249533616571647e-01 -1.527066904493233346e-01 5.254235378643882237e-01
-9.697540710424867871e-02 -2.261425646453507354e-01 5.031554781604188342e-01 -3.620376453333096212e-01 -6.948085173138786041e-01 6.214256734554843842e-01
-1.358237662122983858e-01 -2.186779517609186430e-01 4.686303344325893905e-01 -4.754153427317662772e-01 -6.533148521809438725e-01 5.892028138213774024e-01
-4.199687017715044157e-01 -1.699561855533076871e-01 1.926418903635528090e-01 -9.546306559118262758e-01 -9.750662302056892217e-02 2.813765613203790816e-01
-8.876510941262685805e-02 -2.268985344629766421e-01 4.833978194464191303e-01 -2.322657145391393285e-01 -6.114752881386154026e-01 7.564063787709753850e-01
-3.237218543893526923e-01 -1.636138402523455715e-01 2.893992904247176257e-01 -6.705502396626525918e-01 -1.819825082963917873e-01 7.191972905695019902e-01
-2.000975373606110330e-01 -5.495052287699109250e-01 1.240245141414480362e-01 9.988150044286980833e-01 -1.661410400383184216e-02 -4.574449121205503149e-02
-1.839293944850204920e-01 -1.390105188174125261e-01 4.879475202254444643e-01 -4.195765249594689550e-01 -1.744235015370186603e-01 8.908041209011674511e-01
-2.361134738228202329e-02 -2.119348787895095065e-01 4.800020972336030423e-01 -7.708305843350216069e-01 -5.098943557926794989e-01 3.818742675076412518e-01
-3.752110684625077630e-02 -2.104815507392709950e-01 4.788791540846122907e-01 -1.660215084308272818e-02 -2.086882836245784398e-03 9.998599969532790954e-01
-1.078734398454143789e-01 -1.927683914385749098e-01 4.861789056975934220e-01 -1.183886422624359780e-02 3.805175516955834336e-01 9.246979150757460575e-01
-2.350840498169222137e-01 -9.817128802423522038e-02 4.461422383951356707e-01 -6.866097650224487481e-01 -3.364669014209608067e-01 6.444820050428056168e-01
-3.973804126044352403e-01 -2.424574279910987895e-01 1.358082467126563442e-01 -9.471507221153211420e-01 -2.787143796529142348e-01 1.588200370580388210e-01
-3.959627716945436915e-01 -1.401855272650566753e-01 2.306300002721549669e-01 -9.257777798014632520e-01 -3.990335396924758748e-02 3.759564133884115700e-01
-6.659112332080246999e-02 -2.005896521692418499e-01 5.375646710527601790e-01 6.830947946032376976e-03 5.312856760365121112e-01 8.471651955720236327e-01
-2.897620754702096013e-01 -1.593248416688398672e-01 3.622718898428042289e-01 -3.319233061950918606e-01 6.149865370907930950e-01 7.152751065160829480e-01
-3.711713818560197220e-01 -1.117570568027042160e-01 2.420564813213448851e-01 -9.641368850498210907e-01 1.854397979761558332e-02 2.647568463698225516e-01
3.169645535717708906e-01 -2.901062457902942038e-01 -2.341957043842129993e-01 7.043289411901776376e-01 -6.799440200714222948e-01 2.039531126779789982e-01
-3.211599836076323711e-01 -6.482824973670712199e-01 3.396137197363586768e-01 -2.943952601155846449e-01 -9.350425817749660196e-01 -1.975520212224700922e-01
-3.783317331280478535e-01 -9.132989243624026199e-02 2.891678259935017148e-01 -6.388267659590620706e-01 -1.604409977229663831e-01 7.524354120746475916e-01
6.243629623682234175e-02 -2.380133283925049137e-01 5.098183369373842089e-01 8.832646193262874701e-02 1.972124260018205399e-01 9.763737476770564250e-01
3.675247693923333614e-01 -6.725958816504606919e-01 1.657282523410059383e-01 6.683503593707565971e-01 -1.039101714158334883e-01 7.365531029092964310e-01
-3.329040614760794270e-01 -1.385917077307481926e-01 3.704053335978814143e-01 -7.420914265119856745e-01 6.697270830329629110e-01 2.767578272723019220e-02
-1.491628243206478965e-02 -2.298491668594219439e-01 5.158762706254680364e-01 1.008924171368306699e-01 4.000966642705592324e-01 9.109025081773894916e-01
-3.775074232021828624e-02 -1.924018225165610718e-01 4.976848403782830887e-01 7.674217363442546562e-03 5.051598524442514337e-01 8.629916742740688651e-01
-2.088214716409838578e-01 -1.416561793370992306e-01 4.162600394200665632e-01 -7.515110280539859522e-01 -5.777796083797468452e-01 3.184366481009802130e-01
-3.231652703506771029e-01 -6.267031119802748407e-01 3.690463532456907392e-01 -7.211797719465593559e-01 -6.844481660733673367e-01 1.069132568670172895e-01
-1.757399056280515015e-01 -1.483644858224210661e-01 4.579218388569628595e-01 -2.380864120243210424e-01 4.224735571834391523e-01 8.745461416587214654e-01
-3.153517337965120459e-01 5.877877608972592594e-01 3.598502161597481042e-01 -8.810243916288214017e-01 -3.722191076486055517e-01 -2.919742407410987339e-01
2.634468135272840517e-01 -1.003404382892184726e-01 3.690669431178439930e-01 6.242222212188760500e-01 -5.319307966088892003e-01 5.721854997774803442e-01
3.316530989586902872e-02 -2.278445569366153722e-01 4.708031783640069801e-01 7.228073006219566665e-02 1.778721245565867068e-02 9.972257072171440972e-01
-2.367330707375791821e-01 -1.518193626510101757e-01 4.300887786828156978e-01 -6.654659375865181747e-01 6.029434378383666943e-02 7.439890308464047752e-01
1.894654221177959341e-01 3.037362882345313042e-01 4.703827762760981468e-01 6.192255164003057644e-01 -7.699055499052269713e-01 -1.542893517515221136e-01
3.190241377384689381e-01 -4.336504023539422548e-01 -8.080261494406197897e-01 -5.120127384955528438e-01 3.948124930057643200e-01 -7.628669942951117333e-01
-3.504337530997260197e-01 -1.071310750456175437e-01 2.901891124056055205e-01 -7.038709114323745686e-01 -7.047358991982073662e-02 7.068233252823304946e-01
-3.809117830105426261e-01 -9.579088371665452073e-02 2.822648299475556399e-01 -8.502612485643272766e-01 -9.187108516104713907e-02 5.182813067255686024e-01
-4.823464876478359906e-03 -1.537882769235953129e-01 4.634781971271698664e-01 2.811424661572551123e-02 5.275510503811491336e-01 8.490579947088281454e-01
8.987969020037646362e-02 -5.067845191816570116e-01 -8.059584398538021111e-01 2.670380966322796201e-01 -6.287094123548908620e-01 -7.303527433804689606e-01
-2.313647884149087897e-01 -1.082855440897849825e-01 4.015373938745007143e-01 -6.927534577083493961e-01 1.433297835749608451e-02 7.210320468360126300e-01
-2.665552983717842661e-01 -1.081282686719181874e-01 4.225904152667163127e-01 -8.707873910883130453e-01 -4.733123677811885699e-01 1.330590922371485130e-01
-3.494676897227638745e-01 -1.353483260065063698e-01 2.507297708356323596e-01 -9.004983702967767067e-01 -3.535408379630077674e-02 4.334198586264518260e-01
-3.339199113223783599e-01 -7.279600487824024191e-02 3.500401739934427270e-01 -4.506021892720138977e-01 8.653364602564835861e-01 2.194321707818785716e-01
-3.238642072651861104e-01 -6.826133401845561055e-01 2.537771777597786493e-01 -9.447161971416763171e-01 3.256702592372806015e-01 3.808134853825412280e-02
-1.578045305667907516e-01 -1.320198114949434343e-01 5.092945093768121989e-01 -4.323657072883643759e-01 -1.690675554345635878e-01 8.857065297605145604e-01
-3.450171170282558264e-01 -5.922137019545559156e-02 3.252977766518978520e-01 -4.694505102224680315e-01 -1.245729292246835779e-03 8.829579076096406576e-01
-1.602232711748438065e-01 -1.081499044600403303e-01 4.864900374072703704e-01 -3.217488925271579370e-01 -1.108826724270869785e-01 9.403098867463718369e-01
-1.721896187208276918e-01 -4.572373515082790996e-01 2.041096695359014834e-01 9.051759180871369326e-01 2.361854950048120627e-01 3.533736963392160035e-01
-3.071849261472632819e-01 6.579744100573703403e-01 3.972562926882973189e-01 -3.595266439405611081e-01 7.018494171859538389e-01 -6.149373853430722958e-01
-1.395132561713048613e-01 -1.100806781104827492e-01 4.606987489553078796e-01 -5.229456237598834045e-01 -3.714799521904479235e-02 8.515561643494762301e-01
-2.564054960233741465e-01 -1.088725306728322711e-01 3.410691009887008573e-01 -9.312156101757993465e-01 -1.268325290707540132e-01 3.416884501039361144e-01
-3.150251105551694075e-01 5.949421412706188406e-01 4.351120565887690028e-01 -8.725880080455054033e-01 -3.017083376617530899e-01 -3.841383177978455743e-01
-3.784708605559832795e-01 -9.573332609961318629e-02 2.908774333104858778e-01 -7.629018372826599226e-01 -4.003297508473171312e-02 6.452736997403561992e-01
-3.075868161017045743e-01 -4.689239732828229951e-02 3.102704525862687301e-01 -4.457026217418827985e-01 5.750355542703482203e-02 8.933322529079882335e-01
-4.440152175600079465e-01 -9.536072749970432583e-02 2.575530150188666823e-01 -9.524626305504209078e-01 8.826877054645719534e-02 2.915879996693781506e-01
-3.572873714945127288e-01 6.536062418679621233e-01 3.414188103339362290e-01 -7.918935447031966168e-01 -1.559552078879297698e-01 5.904088303794575721e-01
-2.484392100519415003e-01 -7.531548541081942161e-02 4.018332709972749495e-01 -6.619628004778999042e-01 1.891901386694310183e-01 7.252670833656368332e-01
4.914611279580660685e-02 7.364030028100028158e-01 1.541298572682737733e-01 4.324960617769990634e-01 7.266205107974917921e-01 -5.338256174405443533e-01
-3.208325202734397807e-01 -6.281016339980183272e-01 3.072262680629874732e-01 -6.665818745487874786e-01 6.841459140760655089e-01 -2.959948864018592252e-01
-3.067905706471513727e-01 5.182302936757793299e-01 4.254320129504003956e-01 -7.704375379773968913e-01 -6.081476096398047426e-01 1.912654829411695456e-01
