6.363713870793529237e-01 2.017548414116369371e-01 -6.767357892525877050e-01 4.379510245136613578e-01 2.625052483117412683e-01 -8.598196873392847106e-01
5.945864531522279117e-01 1.383619405986656059e-01 -6.611873487087457368e-01 6.521639992847960698e-01 2.622316801542162179e-01 -7.112781902746332374e-01
-6.039987170239029535e-01 2.928696689375036022e-01 -6.546216330857740351e-01 -6.523433379133954935e-01 2.880046157617954239e-01 -7.010716873329790877e-01
-5.980043921106907856e-01 2.149784899488058065e-01 -7.348814316653109469e-01 -3.594696738359602350e-01 3.991743995300787162e-01 -8.434698289518536285e-01
-5.543890459656783953e-01 2.794477548736886696e-01 -6.729179238943445718e-01 -3.256236663257179864e-01 3.521983498331749396e-01 -8.774540160620304396e-01
-5.238146200290042520e-01 2.858233551878202605e-01 -7.244746293910359070e-01 1.732252639689124962e-01 3.400074520315509163e-01 -9.243310773126225399e-01
-5.500629117757049880e-01 2.519361041304369331e-01 -7.474374188258747775e-01 1.087733507359719548e-01 4.124448465145189036e-01 -9.044653706766688783e-01
-4.832031553426082149e-01 2.487017415305602108e-01 -6.654666283950485539e-01 4.788284348097671672e-01 3.106326906981833891e-01 -8.211154982627201226e-01
-4.933753723528538915e-01 2.495090923422915719e-01 -6.002732877432039871e-01 4.806871514550867808e-01 3.145540589909689433e-01 -8.185325933634532980e-01
-4.523301726956438507e-01 2.367939731065786535e-01 -6.258848070171818545e-01 6.926375564419100517e-01 3.236230970727653755e-01 -6.446094216246078812e-01
-4.618636194584707644e-01 2.805586504596370157e-01 -6.553093846983376602e-01 6.926375564419100517e-01 3.236230970727653755e-01 -6.446094216246078812e-01
4.675905865318887300e-01 2.382512433312557187e-01 -5.986877547543465461e-01 -7.693213680925859999e-01 2.751052832430326833e-01 -5.765949321039187669e-01
5.479291814850814069e-01 2.462285803672181750e-01 -6.639414415375721745e-01 -2.812443794755218329e-01 3.120003961787163882e-01 -9.075006070509002987e-01
5.027994995708002790e-01 2.282785778686156897e-01 -6.357193062694544983e-01 -5.609091249964741621e-01 2.974195602244169567e-01 -7.726076356674220769e-01
4.877042672291317382e-01 2.641193570179075079e-01 -6.104767265310147017e-01 -5.609091249964741621e-01 2.974195602244169567e-01 -7.726076356674220769e-01
5.283252563758805698e-01 1.896016673832084387e-01 -6.649250050210300245e-01 1.331252876360602966e-02 3.245995357806794046e-01 -9.457578537600866975e-01
5.371791944997574841e-01 2.677103289956569432e-01 -6.978586836537243876e-01 -1.473630707807895845e-01 4.382117272137900921e-01 -8.867099906408875132e-01
5.548489813946750893e-01 2.669361950313104415e-01 -6.762918419135743875e-01 2.605848071493153673e-01 3.560211154944505352e-01 -8.974098972069793900e-01
6.663786151235595590e-01 2.193269080825979434e-01 -6.356749050028914771e-01 6.340426101311225082e-01 2.628184722117860028e-01 -7.272664018104891825e-01
6.161215463954448079e-01 1.942253305464621826e-01 -6.434093804986638077e-01 6.340426101311225082e-01 2.628184722117860028e-01 -7.272664018104891825e-01
6.423745359896446683e-01 2.514478288784608440e-01 -6.226672172732063970e-01 5.512998675596945120e-01 3.794818841114723784e-01 -7.430087184278999501e-01
6.712798942292739213e-01 2.848973319840560348e-01 -6.391496704415273733e-01 5.512998675596945120e-01 3.794818841114723784e-01 -7.430087184278999501e-01
-6.261544156502433234e-01 3.092573701772107775e-01 -5.900509128107568335e-01 -6.223987910725664596e-01 3.719044454374497710e-01 -6.886993744263680828e-01
-6.119378416622766048e-01 3.261987703779214987e-01 -7.073898574207787560e-01 -3.600160570377995417e-01 4.261986543232798019e-01 -8.299055040954851359e-01
-6.083880943877024716e-01 3.181192965813253726e-01 -6.446442894728455775e-01 -3.172067256059452056e-01 3.839339494930916197e-01 -8.671646992682480182e-01
-5.425964947513096659e-01 2.486574077372347424e-01 -7.219008365291361695e-01 1.060755091526744132e-01 3.822018539183467678e-01 -9.179704402753824377e-01
-6.105519930252029104e-01 2.950735505143922688e-01 -6.320103091353685976e-01 -2.835747516235745565e-03 4.712355188130240013e-01 -8.820028596013984590e-01
-4.980678418175314426e-01 2.783513247982802308e-01 -6.565946963603508379e-01 3.957166616459630859e-01 4.233842117969067731e-01 -8.149565220899126494e-01
5.017673462896434788e-01 3.317662757327929368e-01 -5.989038771495107660e-01 -5.954271323398904192e-01 3.632756716723910539e-01 -7.165872706408256132e-01
4.897277418497392176e-01 2.862292320003452240e-01 -6.085622179035414803e-01 -5.925132269244870464e-01 3.884992409352419074e-01 -7.056886110121602940e-01
5.401104377621968045e-01 3.026656512373783192e-01 -6.389495205719124549e-01 -1.487967672056084711e-01 3.727381237988010021e-01 -9.159289345446565145e-01
5.267216044232614358e-01 2.693673305973409704e-01 -6.664947095664451870e-01 -2.502009098335016279e-01 4.518157341186062603e-01 -8.563072153855488811e-01
4.829237734591459996e-01 2.824384055965390994e-01 -6.560491712891652893e-01 -2.502009098335016279e-01 4.518157341186062603e-01 -8.563072153855488811e-01
5.955641034490680719e-01 3.187032860809425605e-01 -6.871550873868261800e-01 1.743714133182289738e-01 4.486988560019846695e-01 -8.765066724446046731e-01
6.179111753915901284e-01 2.722421670454376885e-01 -6.219405498249526154e-01 5.447478478917801015e-01 3.258495820205197790e-01 -7.727042332706135497e-01
-5.844464708227677940e-01 3.088422232080413887e-01 -6.698435252031453846e-01 -1.602711683485971150e-01 5.182595861281792393e-01 -8.400715171831645289e-01
-5.698353432547865749e-01 2.796370803815864670e-01 -6.274791350733674999e-01 -4.918991819054277688e-03 4.298188000813517040e-01 -9.029017679770656724e-01
-4.871451846246032669e-01 2.714860084225400594e-01 -6.815304233782363275e-01 3.683465737639366466e-01 4.256271194806758862e-01 -8.265363614257700275e-01
5.234877158879477355e-01 3.861554496580113516e-01 -6.355086791222535059e-01 -2.515723047719629069e-01 4.239385055019411208e-01 -8.700502968360526168e-01
5.428397022348295797e-01 3.091804583471093326e-01 -6.035233884100970059e-01 -2.675245030690062698e-02 5.360095625962441046e-01 -8.437879207525785796e-01
5.345197553581151340e-01 3.046658519416007849e-01 -6.300609894809563460e-01 1.832655888849067660e-01 4.285440865949651235e-01 -8.847393343664309295e-01
-5.780884717179310961e-01 -3.489938530189639065e-01 -6.263659495750395489e-01 -2.337763536309130363e-01 -5.332429229229601608e-01 -8.130194349679545907e-01
-5.775081060341511474e-01 -4.246568904826759638e-01 -5.782738826457396453e-01 -3.305021264653194568e-01 -5.978992193705465752e-01 -7.302635605574149258e-01
-5.312145203805789251e-01 -3.914315123910747651e-01 -5.865573554587864002e-01 1.985565864623759780e-01 -5.137706634992241783e-01 -8.346346430025392005e-01
-4.714471089110616742e-01 -3.540257731387738138e-01 -5.738917884208442066e-01 5.640133719883546615e-01 -4.483994363354245061e-01 -6.934168023003188797e-01
-5.206586643542865378e-01 -3.912694464977497510e-01 -5.570201304709796464e-01 4.359297564581412487e-01 -5.783871190642685400e-01 -6.895169236029536908e-01
-5.094927900592027825e-01 -4.128809304062966423e-01 -5.913148620640461539e-01 4.359297564581412487e-01 -5.783871190642685400e-01 -6.895169236029536908e-01
-5.042244200161837275e-01 -3.691698697119581984e-01 -5.692841440003717501e-01 7.432942669818811687e-01 -3.889467419261849468e-01 -5.442738875023067635e-01
4.757662752436023212e-01 -3.540965102605277415e-01 -6.691200330515881811e-01 -4.187250785868683045e-01 -5.025017963947348010e-01 -7.564134142005186634e-01
4.934847873502359872e-01 -3.894365280268447527e-01 -6.484940553504234817e-01 -2.287255480832733542e-02 -5.187873219898632149e-01 -8.545973091340305361e-01
5.149460714532166916e-01 -3.939291367468644167e-01 -5.710072887870699665e-01 -1.907426693833794706e-01 -6.072410118243398713e-01 -7.712817822527994194e-01
6.349361875854234727e-01 -4.021730279974577993e-01 -6.066827903572401537e-01 3.896441983816537058e-01 -4.932200725275985853e-01 -7.777604764472084709e-01
6.019462189475939251e-01 -3.609240649840004256e-01 -6.508579288498131943e-01 1.717587935393410092e-01 -6.093708263402531911e-01 -7.740582102447510771e-01
-6.187765682753428864e-01 -3.436205670785288935e-01 -6.249914609403209864e-01 -5.012883590368073516e-01 -5.056362614401758160e-01 -7.021694611779887296e-01
-6.630006671445420885e-01 -3.394813989338211213e-01 -6.221938167311034107e-01 -5.857343673347747970e-01 -4.187761111572197437e-01 -6.939321434023407731e-01
-5.623169585928093905e-01 -3.489239663645453682e-01 -6.090507272006403516e-01 -2.366707858364084649e-01 -5.452702915662582805e-01 -8.041562337424391638e-01
-5.074266675329544007e-01 -3.387960258090171317e-01 -6.677887883485384979e-01 1.716569225286639078e-02 -4.872617446694342269e-01 -8.730872414548153104e-01
-5.034433866421769155e-01 -3.684593228427744949e-01 -6.073858820282985738e-01 3.332635077104799115e-01 -4.634785994461670389e-01 -8.210499511503099868e-01
4.684052022543615523e-01 -3.827657669121472539e-01 -5.768181786385118137e-01 -6.250886497740597569e-01 -4.562849419230584069e-01 -6.332994802602588402e-01
3.991574171046989861e-01 -3.498223791520139181e-01 -6.313670119497897248e-01 -7.751632166138814339e-01 -3.199565601402658555e-01 -5.447474527081599405e-01
5.305535165968898736e-01 -3.305831316129678732e-01 -6.397784441852568671e-01 -4.492588646138215291e-01 -4.685183904093600527e-01 -7.606950705861860174e-01
4.868281997124777050e-01 -3.558866202256361078e-01 -6.318649003277652110e-01 -1.531579123137178644e-01 -4.751075120301184729e-01 -8.664961084207213338e-01
5.901037673910323189e-01 -3.534286962092810236e-01 -6.210553270164537176e-01 -2.391270171178709256e-02 -5.797301451781945447e-01 -8.144575749960907274e-01
5.790231152107890855e-01 -3.050064693970688245e-01 -6.198564290218842032e-01 3.881092491058876215e-01 -5.056147044522972811e-01 -7.705355159887702365e-01
6.048091589424329229e-01 -3.910820217842286284e-01 -5.788446177500051748e-01 6.370326896646291148e-01 -4.194114582033191541e-01 -6.467483135087510604e-01
6.052788443686125675e-01 -3.899400220474862344e-01 -6.007105758610249424e-01 6.361348170501954780e-01 -4.169784425315706256e-01 -6.492006415588786883e-01
-6.460561783313771844e-01 -3.597165527942402519e-01 -6.289853507371097052e-01 -6.231877035340285254e-01 -3.940731038657779850e-01 -6.755319940414189483e-01
-6.056167153185296748e-01 -3.293180141803012662e-01 -6.212624224148028951e-01 -7.810609444735460150e-01 -2.681986130351401987e-01 -5.639266840504351119e-01
-6.227529278326009443e-01 -3.313147743999359518e-01 -6.448195849868199048e-01 -4.436882156957868695e-01 -4.209941577299941007e-01 -7.911413820613238945e-01
-4.840395350738676550e-01 -3.254321771771191973e-01 -6.100267150675783290e-01 5.735611627524240808e-01 -3.805241484528623097e-01 -7.254164080211525922e-01
-4.228037037587970004e-01 -3.119062065228346281e-01 -6.456922136936722456e-01 6.852801140333141250e-01 -3.911703986121612409e-01 -6.143100882779729544e-01
-4.602780092460999617e-01 -3.192351984195359593e-01 -6.421498664867594242e-01 7.474258078304026887e-01 -3.792193505459637848e-01 -5.454790059760021848e-01
-4.190584188901118057e-01 -2.752073997003000594e-01 -6.092586583439902892e-01 -2.581193931925733053e-03 -4.615370862749114123e-01 -8.871171599235080363e-01
-4.538704349697839091e-01 -3.179897708721735605e-01 -5.698494379972410817e-01 -1.588716136386469609e-03 -4.605409460400264887e-01 -8.876370389982581877e-01
-3.510798272328435887e-01 -2.579550248685841263e-01 -5.988030973155361592e-01 -1.803718863858203014e-03 -4.673119476724537091e-01 -8.840906572070751368e-01
-2.812226760054777897e-01 -3.018183003973793355e-01 -5.840168270203967005e-01 -6.213638634269548185e-04 -4.706659682755496288e-01 -8.823112603918122909e-01
-2.963356156069120728e-01 -2.894244660455053686e-01 -5.709497623306926117e-01 -1.217867593212461954e-04 -4.717484013863058046e-01 -8.817331971506178201e-01
-2.427937848372502538e-01 -2.507388130010210769e-01 -6.304328330501830502e-01 -1.217867593212461954e-04 -4.717484013863058046e-01 -8.817331971506178201e-01
-2.682274933887860979e-01 -3.091000674986332242e-01 -5.881115076364146210e-01 4.395685742220190452e-04 -4.715216643918051509e-01 -8.818543682426540631e-01
-1.552020294903436459e-01 -2.401695691546446021e-01 -6.396534647491639580e-01 3.086563654884040889e-05 -4.719067888008104950e-01 -8.816484456579163353e-01
-2.394795942994139837e-01 -3.478777735515115599e-01 -6.363019117159047777e-01 6.315811048253279795e-05 -4.718937839496897269e-01 -8.816554047249394177e-01
-1.770476169538879041e-01 -3.597549093603565340e-01 -6.036633705938320160e-01 -5.449250212846279819e-05 -4.718402295572809990e-01 -8.816840674538127809e-01
-1.910106647830645543e-01 -2.928682053471306501e-01 -6.176495523039071678e-01 -5.449250212846279819e-05 -4.718402295572809990e-01 -8.816840674538127809e-01
-7.107952149918141116e-02 -2.956713125159328159e-01 -5.936717746223971748e-01 5.957396642141243312e-05 -4.716652356707367044e-01 -8.817776941557383674e-01
-9.664904265972404374e-02 -3.456157787582759267e-01 -6.106403840039362763e-01 -5.522788849030442596e-05 -4.717114107220265473e-01 -8.817529937258595796e-01
-4.488029972466518053e-03 -2.332332678906476331e-01 -5.902818633522272096e-01 1.669002988736746404e-05 -4.715500265198140362e-01 -8.818393120124581319e-01
-8.800051047288343087e-02 -3.129674727693099179e-01 -5.703285960408298605e-01 -5.256773978259505966e-05 -4.715778750582525491e-01 -8.818244184599198787e-01
-3.819554284996111437e-02 -2.623911304304735737e-01 -6.535845266206845583e-01 -9.671739817947031109e-06 -4.715405911322050891e-01 -8.818443574810399532e-01
4.491504665927406603e-02 -2.636563279037550389e-01 -5.947749598433539342e-01 -4.316967349273830376e-05 -4.715945505415150008e-01 -8.818155011315720326e-01
3.861588633230393641e-02 -2.841625160590113830e-01 -6.252580453517531112e-01 2.458898775902321096e-05 -4.715673296544880544e-01 -8.818300590237990733e-01
1.108663314840259984e-01 -3.289023626724217886e-01 -5.850872082153280029e-01 3.822644761732951009e-05 -4.716581216067254334e-01 -8.817815006344564832e-01
1.786613686140854640e-01 -2.858132081985101380e-01 -5.779709486902830928e-01 -8.902675700113244427e-05 -4.718440038641119605e-01 -8.816820447824262885e-01
1.518609478819953895e-01 -2.954960851976800029e-01 -5.424603862346575323e-01 6.950982990364492535e-05 -4.717803422090746657e-01 -8.817161129714438106e-01
2.089249154277039722e-01 -2.464932503345345083e-01 -6.620792114617476409e-01 -1.416941491439004520e-04 -4.720716002781162324e-01 -8.815601988143672019e-01
2.001069819821904849e-01 -2.411996140957102519e-01 -5.569201384948666567e-01 8.536031437352272042e-05 -4.719804127458303578e-01 -8.816090305219724810e-01
2.789186479402459562e-01 -2.620701804470104146e-01 -6.238189691702225037e-01 -3.800623234040136056e-04 -4.725415130431977473e-01 -8.813083308374407565e-01
3.205170463271941328e-01 -3.107410581837927732e-01 -5.625429559829235870e-01 -1.223427241654764146e-03 -4.739952603133716358e-01 -8.805265449867162308e-01
2.448955375517670729e-01 -2.842090312524381823e-01 -5.889739798673981896e-01 5.539973949556556117e-04 -4.732847100125293638e-01 -8.809093462753375681e-01
3.485826480839235297e-01 -2.511156517935372867e-01 -6.802973594155174997e-01 -2.988432961855719706e-03 -4.781342506935688519e-01 -8.782816789516515454e-01
4.083155881279932342e-01 -2.550032472450705634e-01 -5.974024144111753643e-01 -4.493651277468494777e-03 -4.868128593675388749e-01 -8.734947321264149300e-01
3.530716750109246238e-01 -2.927746465374377327e-01 -6.047520054662124389e-01 3.673878739165127756e-03 -4.841421994635005666e-01 -8.749816188433068298e-01
4.317492473992903257e-01 -3.243192366381578706e-01 -5.719852508745775221e-01 8.156755816835168857e-03 -5.013868112255941423e-01 -8.651847969443146047e-01
4.736379186991847012e-01 -3.694417593747298389e-01 -5.993788791188033871e-01 -7.768390909838542857e-01 -3.120854852643427102e-01 -5.469220023062689728e-01
4.854654730801319928e-01 -3.435680147331313106e-01 -6.337746694693461302e-01 -7.768212191952252876e-01 -3.120532806098846312e-01 -5.469657607827499435e-01
6.168064761769227466e-01 -3.395835968988962228e-01 -6.266689840862601502e-01 5.744855929510167547e-01 -3.761703733102562119e-01 -7.269540244990334577e-01
6.457198770889873707e-01 -3.092033405966552184e-01 -5.631218010862454326e-01 8.005660195653802047e-01 -2.711566272076216255e-01 -5.343857519045863702e-01
-6.546570085145491102e-01 -2.974364226003694545e-01 -6.100587296372379509e-01 -7.765666398716608576e-01 -2.891331232558929099e-01 -5.597734281606540074e-01
-6.405109150021796038e-01 -3.290561389889752331e-01 -6.680666221759130607e-01 -7.765666398716608576e-01 -2.891331232558929099e-01 -5.597734281606540074e-01
-6.507672422660468747e-01 -2.163322102982144224e-01 -6.034275153380763701e-01 -8.762407604813643447e-01 -1.568038685453526093e-01 -4.556475353606690981e-01
-4.198829079912715923e-01 -2.057713613933691843e-01 -6.374031424366989329e-01 1.436877918298644407e-03 -4.120470176381033078e-01 -9.111614514658709085e-01
-3.714484469560233038e-01 -2.268050476128512793e-01 -5.831981170554338956e-01 1.436877918298644407e-03 -4.120470176381033078e-01 -9.111614514658709085e-01
-3.269575079592759725e-01 -2.409926548099164401e-01 -6.119984092035553047e-01 1.045777453430654690e-03 -4.150020484758016881e-01 -9.098198756404510812e-01
-2.948296696739692857e-01 -2.714340850370330904e-01 -6.301811126765609616e-01 5.026461516732600365e-04 -4.165286034083714450e-01 -9.091224724367547028e-01
-3.375709229400299383e-01 -2.488155805683571753e-01 -6.256347221863745034e-01 -5.516855797959114779e-04 -4.156376212880156240e-01 -9.095301333177812086e-01
-2.024984687074332379e-01 -2.244980703184270010e-01 -5.929134683100092396e-01 1.087879601732950262e-04 -4.170158318737060554e-01 -9.088992156074624518e-01
-3.096458017813932262e-01 -2.070257026580312187e-01 -6.092993443190370950e-01 -1.643405296177407650e-04 -4.167926314001373922e-01 -9.090015816282936978e-01
-1.669643332449529671e-01 -2.717059361045633392e-01 -6.271473157967228929e-01 2.688555494855750287e-05 -4.170480718329681591e-01 -9.088844288783752834e-01
-1.287721803312831537e-01 -2.635828831271330164e-01 -6.175603782734951919e-01 -6.522530732293546456e-05 -4.168448810288020168e-01 -9.089776349865507088e-01
-2.006690424790554816e-01 -2.840883343355837809e-01 -6.134362892147494639e-01 -6.522530732293546456e-05 -4.168448810288020168e-01 -9.089776349865507088e-01
-6.910160892483897810e-02 -2.390592717585411642e-01 -6.267365846613058844e-01 -3.204336826142893798e-05 -4.167420923923026987e-01 -9.090247672102822474e-01
-1.622793702915203695e-01 -2.635834383596998842e-01 -6.039376211762702562e-01 4.279224410699950621e-05 -4.168024623888852975e-01 -9.089970877375711522e-01
-1.141361191563734223e-01 -1.777935780796502663e-01 -6.454746463875548068e-01 4.279224410699950621e-05 -4.168024623888852975e-01 -9.089970877375711522e-01
-4.743912735666994812e-02 -2.333612341784250810e-01 -6.216178679322301726e-01 3.312660359210991531e-05 -4.167165071343076344e-01 -9.090364962884662781e-01
1.501794424452918345e-02 -2.586806572412627681e-01 -5.747685484808443546e-01 -1.468919858657161813e-05 -4.166700698510731327e-01 -9.090577829129067311e-01
6.097746340375479607e-02 -2.826505898180557974e-01 -6.362302957143476378e-01 3.372205291135145451e-05 -4.167563176403397684e-01 -9.090182454547803825e-01
7.622986778364201910e-02 -2.225122273814959528e-01 -5.823540638044356621e-01 7.345771769917493654e-05 -4.169072776677013037e-01 -9.089490175096015534e-01
1.705726061266628901e-01 -2.888740240026356765e-01 -6.175461125321202172e-01 -6.412931618226385148e-05 -4.169612168941801977e-01 -9.089242759952862460e-01
2.263100498202702537e-01 -2.375050771888040924e-01 -6.480955350791215430e-01 1.480607594657718624e-04 -4.173607149996071408e-01 -9.087408935736458471e-01
2.668296219019526405e-01 -2.576693319211684208e-01 -6.324329706081001090e-01 4.478575923702753547e-04 -4.181963681310787440e-01 -9.083565363366701284e-01
2.613067507010428669e-01 -2.660872010817376676e-01 -6.240236843777204889e-01 -3.375280589338227992e-04 -4.175510736529643996e-01 -9.086533920951741505e-01
3.182839712047892400e-01 -2.180431337015284465e-01 -5.854543498808286728e-01 -9.377226873881810889e-04 -4.187382485927434450e-01 -9.081064914654246589e-01
4.265850849103190456e-01 -2.777057637519876887e-01 -6.679000965202344098e-01 3.253993958681057879e-03 -4.270764750970276746e-01 -9.042096526481094854e-01
3.675247087685615810e-01 -2.641797525455695239e-01 -5.679567686997659681e-01 -2.274901345150930586e-03 -4.219959468624774890e-01 -9.065948630206940306e-01
4.839582015231159162e-01 -2.312434053267145295e-01 -5.998291728681254265e-01 6.178097774230556852e-03 -4.436271607158906449e-01 -8.961901435426801177e-01
3.816002700753272636e-01 -2.795333591699457054e-01 -5.700321542242287043e-01 -3.166990274663022097e-03 -4.294111247072899262e-01 -9.031035688946316142e-01
6.573324746251028028e-01 -2.309944149404710989e-01 -6.253070596298466732e-01 8.854920295657452423e-01 -1.576427169397976724e-01 -4.370956867453351102e-01
-6.631634644058970185e-01 -1.894867914873096526e-01 -6.298725287577365828e-01 -8.679447648889189182e-01 -2.066738847461129513e-01 -4.516168624684754884e-01
-6.936322563675467734e-01 -2.745510676058760535e-01 -5.845709841351155456e-01 -9.485865133262718629e-01 -6.217778107475784022e-02 -3.103506891826185998e-01
-3.939286465291700901e-01 -1.972001971587557800e-01 -6.339358025436003796e-01 2.010771144454100764e-03 -3.575856266809614437e-01 -9.338781914096659920e-01
-4.070612143405626382e-01 -2.182246888004759633e-01 -6.204553616165299212e-01 8.465037602269263016e-04 -3.568561440982581101e-01 -9.341589671200011269e-01
-3.628326194881139610e-01 -2.233661676956818498e-01 -6.430184234415434741e-01 6.014714015241866361e-04 -3.569655085949361983e-01 -9.341173715897331808e-01
-2.905252092185740542e-01 -2.356427700821089877e-01 -6.558874397513557719e-01 1.318431144918744439e-03 -3.576089606745261329e-01 -9.338704904774544069e-01
-3.185224074803110761e-01 -1.963285809547187510e-01 -6.151870172071159937e-01 -1.398987539237137772e-04 -3.582004375023196130e-01 -9.336447006230397250e-01
-3.472055065004157615e-01 -1.673466253336737264e-01 -6.529064269657386399e-01 -1.398987539237137772e-04 -3.582004375023196130e-01 -9.336447006230397250e-01
-3.170502994550535303e-01 -2.018959779015618572e-01 -6.295441206295639969e-01 5.738905591280718272e-04 -3.588228099055182918e-01 -9.334055183794096600e-01
-2.965088302089410877e-01 -2.378204175524580022e-01 -6.239660111520898278e-01 -1.028719581979344749e-04 -3.590851836289641885e-01 -9.333047842562006702e-01
-2.527316686182834449e-01 -2.159193506487538106e-01 -6.618832411496899937e-01 1.316213356024163326e-04 -3.592836345125318687e-01 -9.332284032578999078e-01
-2.217587870005269524e-01 -2.011608001470197027e-01 -6.504321346126592518e-01 2.117558482410854322e-05 -3.593257123197034497e-01 -9.332122116740286799e-01
-1.829192918562159154e-01 -2.168839829925843787e-01 -5.936726876504480055e-01 -2.136158531112072542e-05 -3.592901632386048538e-01 -9.332258987745996048e-01
-1.669510520393086561e-01 -2.232078579289213938e-01 -6.191074105111690207e-01 -5.434262660038663109e-05 -3.591723146087406060e-01 -9.332712603876103241e-01
-9.765317490886003815e-02 -2.037585350439229948e-01 -6.457283320515141423e-01 4.847076108627892862e-05 -3.591333804912007488e-01 -9.332862436935132067e-01
-7.055790435622015522e-02 -2.153264237352886523e-01 -6.405384522514792067e-01 3.516699164883833640e-05 -3.590090965898745101e-01 -9.333340598783509412e-01
-1.827597447751813306e-03 -2.263132297271960858e-01 -5.695746499167861909e-01 -9.644217540578717070e-06 -3.589494708315412175e-01 -9.333569934900286524e-01
3.941522676378723250e-02 -2.026369386033851638e-01 -5.549564891506958419e-01 -9.644217540578717070e-06 -3.589494708315412175e-01 -9.333569934900286524e-01
7.820799225229529972e-02 -2.395144870581931151e-01 -5.830178685098776903e-01 3.597306196700864836e-05 -3.590090548793458680e-01 -9.333340758916807145e-01
6.661046781189400301e-02 -2.261011525599914418e-01 -6.219569541326410711e-01 -4.574958982434527456e-05 -3.590399678689885632e-01 -9.333221841248661166e-01
7.047458641990031469e-02 -2.029684018778313004e-01 -6.532685275722119878e-01 -4.574958982434527456e-05 -3.590399678689885632e-01 -9.333221841248661166e-01
9.208502733985032829e-02 -2.254802982421601765e-01 -6.056779636935102351e-01 4.469557384424638395e-05 -3.591155874673740978e-01 -9.332930905349445805e-01
1.427297652201677536e-01 -2.211389242957426116e-01 -6.170303252079183398e-01 -8.577645061167560444e-05 -3.591649183061704220e-01 -9.332741044840590083e-01
1.274845113124523643e-01 -2.580661716321638877e-01 -6.025436026914222643e-01 9.598206525209626464e-05 -3.593170578884664623e-01 -9.332155392500810498e-01
2.003960856071347330e-01 -2.169544031377688142e-01 -6.797074167766016251e-01 9.598206525209626464e-05 -3.593170578884664623e-01 -9.332155392500810498e-01
2.287681442402509091e-01 -1.626475943955799086e-01 -6.281585025643144915e-01 -1.236355161823495810e-04 -3.594000623274455353e-01 -9.331835724621856398e-01
2.109847685697570085e-01 -1.932460643788397048e-01 -6.220859448155389160e-01 1.492387133337964877e-04 -3.596291153199837609e-01 -9.330953205015937169e-01
2.178215699241843883e-01 -2.184533390666901220e-01 -5.995665648013607241e-01 3.394901624631312901e-04 -3.602965922519270059e-01 -9.328377406377156289e-01
2.965525155718849448e-01 -2.134244886469707503e-01 -6.541577207376251257e-01 -8.061640260456403098e-04 -3.607286277573963917e-01 -9.326704708608657413e-01
4.167561160160270228e-01 -2.433549140147946432e-01 -6.389311400012021025e-01 1.059078288550624122e-03 -3.623496815914599711e-01 -9.320416227850270019e-01
3.876118480154777113e-01 -2.317475677774104292e-01 -6.300772265441887399e-01 -2.151196123670413071e-03 -3.635542408509442325e-01 -9.315705482219428513e-01
3.474612404005502642e-01 -2.624847961530019091e-01 -6.478743500160945024e-01 2.795358562149963255e-03 -3.680899359346102573e-01 -9.297859888351529545e-01
3.660437076489547192e-01 -2.186104930436195692e-01 -6.223841462685140158e-01 -5.013580758438113648e-03 -3.711082797047284831e-01 -9.285760651355253747e-01
4.455098582794105311e-01 -2.805855588863519490e-01 -6.500481308937192670e-01 4.040528966764218854e-03 -3.797624175932837187e-01 -9.250752295404807146e-01
6.693913019200768977e-01 -2.461566971810631443e-01 -6.335213779352789620e-01 8.836890060454979379e-01 -2.067579003043040764e-01 -4.199344130409833897e-01
6.424027827518545841e-01 -2.509437196814011672e-01 -6.409140415899222676e-01 8.836890060454979379e-01 -2.067579003043040764e-01 -4.199344130409833897e-01
6.761775627657223842e-01 -1.728549462445859164e-01 -5.968585061564717353e-01 9.546747406575224471e-01 -5.789025404978948713e-02 -2.919672208254601720e-01
-6.543702100356220130e-01 -1.004268929540802213e-01 -6.724648563557089620e-01 -9.440723235517869405e-01 -1.196616926020878102e-01 -3.072597064815584256e-01
-6.350865327147451334e-01 -1.856781591483739891e-01 -6.596612044601519731e-01 -9.440723235517869405e-01 -1.196616926020878102e-01 -3.072597064815584256e-01
-6.839597869768040406e-01 -1.667822923311575722e-01 -6.258728218911764341e-01 -9.807460461521370076e-01 -6.178531021742701516e-03 -1.951896992962578736e-01
6.109536646257692771e-01 -1.662885647051262072e-01 -5.552525236552252608e-01 9.834089323392579685e-01 -3.916908889553451061e-03 -1.813602206111138149e-01
-7.000409789500307012e-01 -1.365043740158707608e-01 -6.311243280006738621e-01 -9.794440848412258038e-01 -6.266245683627763574e-02 -1.917360194975770704e-01
-6.687647771743723268e-01 -7.374181567811349813e-02 -6.012951551667159444e-01 -9.794440848412258038e-01 -6.266245683627763574e-02 -1.917360194975770704e-01
-6.787872265381722503e-01 -1.275123043257054833e-01 -5.897205389192662350e-01 -9.942694037390382711e-01 3.248653622530217611e-02 -1.018478166309893518e-01
-6.197324975811548953e-01 -1.724355068604979668e-02 -6.114054117892153695e-01 -9.942694037390382711e-01 3.248653622530217611e-02 -1.018478166309893518e-01
6.102264256796020581e-01 -1.411615446871018753e-01 -6.151968448201347028e-01 9.849801235201219862e-01 -6.175512040858382318e-02 -1.612465856184443214e-01
6.912279940303761583e-01 -7.377108892849774946e-02 -6.331703088955032976e-01 9.949150941104094592e-01 2.720179052827090965e-02 -9.697431672010477233e-02
-6.662905443427128427e-01 -6.210071814023933323e-02 -6.393079130788330566e-01 -9.947629918234075497e-01 -2.425833464665186692e-02 -9.928808235993971665e-02
-6.992240380837180247e-01 -3.858614296418497180e-02 -6.030235742269024479e-01 -9.972892893403320080e-01 3.194115269278301021e-03 -7.351102634776636446e-02
-6.982930885238656238e-01 -3.088218505708013178e-02 -6.366600556306503123e-01 -9.972892893403320080e-01 3.194115269278301021e-03 -7.351102634776636446e-02
7.082769203510603795e-01 -5.544363826701949327e-02 -6.658311216809019717e-01 9.965802559359282498e-01 -2.090669748935956168e-02 -7.994187562703405914e-02
6.628301981035724655e-01 -4.797447870016395555e-02 -6.394952148912282919e-01 9.975580834577180145e-01 -5.195823654711943969e-03 -6.964821278908499280e-02
-6.468506469571490003e-01 -1.566233803511357658e-02 -6.529140243829290036e-01 -9.972405558264414438e-01 5.989343159188272210e-03 -7.399595653474244639e-02
-6.667897323948946964e-01 1.007914989601788221e-02 -6.355556991244682985e-01 -9.972405558264414438e-01 5.989343159188272210e-03 -7.399595653474244639e-02
-6.406850533303960482e-01 2.894100797048086704e-02 -6.308813567283415580e-01 -9.967251093671544160e-01 -1.607437866314030466e-03 -8.084845391558170835e-02
6.215657855025283896e-01 -2.661514468789462004e-02 -5.984810626357826013e-01 9.970409658755757798e-01 9.238382479394695659e-03 -7.631490454074597862e-02
6.540571709790107269e-01 1.201956433083288533e-03 -5.888129936510991813e-01 9.962038005319876488e-01 -7.724901367778611548e-03 -8.670821013307629388e-02
-6.517016166218104756e-01 3.463259747928069260e-02 -6.559625610201021972e-01 -9.962080277280844776e-01 2.003122278479622237e-02 -8.466590579368840630e-02
-6.957070164421007563e-01 1.148120934067771437e-02 -6.141780973853836478e-01 -9.940115005693571648e-01 -6.276311638487856899e-03 -1.090951174346107833e-01
6.758114408363394832e-01 3.423478677424228456e-02 -6.735775489816656636e-01 9.946305916883807496e-01 2.430675682854149117e-02 -1.005940736330916963e-01
6.535866297167364225e-01 5.055106678871403025e-02 -6.264274380560416189e-01 9.946305916883807496e-01 2.430675682854149117e-02 -1.005940736330916963e-01
6.538320277343167009e-01 9.463470372723106760e-02 -5.708067827249010406e-01 9.926362529155139391e-01 -8.512978881286275765e-03 -1.208337642731313194e-01
-6.843136945265368976e-01 1.016129286506068791e-01 -6.163172339654277021e-01 -9.896159704063607343e-01 6.874185843330787860e-02 -1.262330702146305383e-01
-6.596516878059884847e-01 1.136241190610591534e-01 -6.467687121815766105e-01 -9.896159704063607343e-01 6.874185843330787860e-02 -1.262330702146305383e-01
6.763385055286971204e-01 1.076127330507436475e-01 -6.732360050152421671e-01 9.842968601349950664e-01 7.481683067690227118e-02 -1.598816217576430332e-01
6.741572557317906389e-01 9.594027789306186493e-02 -6.423591261497942906e-01 9.842968601349950664e-01 7.481683067690227118e-02 -1.598816217576430332e-01
6.671751745535801081e-01 6.986408244984493310e-02 -6.008094836280831741e-01 9.783687656623321072e-01 -2.217895146787774927e-02 -2.056760863303034315e-01
-6.743321462840672353e-01 1.694660127243385606e-01 -6.080674838252401182e-01 -9.701351070587256320e-01 8.551972779999707230e-02 -2.269895376645573726e-01
6.543873768358977605e-01 1.451682155546860920e-01 -6.320360213493102508e-01 9.642894688477394727e-01 8.579159036374478520e-02 -2.505705954261271406e-01
6.650644795749008908e-01 1.585749331278828722e-01 -6.358587578906400584e-01 9.642894688477394727e-01 8.579159036374478520e-02 -2.505705954261271406e-01
-7.311881421201492648e-01 1.839388608157682126e-01 -6.184286594611515531e-01 -9.301310176718069478e-01 1.837072569905992270e-01 -3.179747375088132766e-01
-6.829613658669466680e-01 2.206204215201093555e-01 -6.440985030015542456e-01 -9.301310176718069478e-01 1.837072569905992270e-01 -3.179747375088132766e-01
-3.705991485476465841e-01 2.504188602734093161e-01 -5.951270642509165487e-01 4.599837992693237357e-03 3.694145751938976985e-01 -9.292533094505249780e-01
-3.861240995012473198e-01 2.104139715198009575e-01 -6.716324946749823166e-01 1.957431574213652683e-03 3.629115442532864222e-01 -9.318215384446354443e-01
-3.662937538292207473e-01 1.936739298392312625e-01 -6.257015482194565603e-01 -2.250705911520778542e-03 3.667407303733013491e-01 -9.303204668328851623e-01
-3.151713151929986245e-01 2.391244133516496062e-01 -5.940099161701962727e-01 -7.982175040255340285e-04 3.618628745677803238e-01 -9.322309922215411548e-01
-2.439871045544712846e-01 2.298886307833932496e-01 -6.232804233484471323e-01 -2.766790265266090326e-04 3.601550263526558937e-01 -9.328924270469955982e-01
-2.019387506090865592e-01 1.667952954865361548e-01 -6.000842496413637539e-01 1.359297668867816365e-04 3.593711276164712753e-01 -9.331947139577915218e-01
-1.905562042397955236e-01 2.425053502489055990e-01 -6.807289156176024036e-01 -1.144078151637236221e-04 3.595812344416791095e-01 -9.331137780293731199e-01
-1.478874331113988472e-01 1.793012900063403192e-01 -6.372070239348761600e-01 5.284752502932492455e-05 3.591837327073807429e-01 -9.332668661029021040e-01
-1.880476735539853561e-01 2.153464370244213555e-01 -6.187832610460054505e-01 -7.553197427682016910e-05 3.592911860050155282e-01 -9.332255021987077015e-01
-6.939493597951390536e-02 1.771342560200527549e-01 -6.254955228927754352e-01 6.446146787834940444e-05 3.590470440150060893e-01 -9.333194608647167323e-01
-1.178996593946567695e-01 2.763292163236271137e-01 -5.955305475774944624e-01 -5.173063178866821028e-05 3.591441887895571727e-01 -9.332820843574747283e-01
2.787913345653261071e-02 2.072933036121276384e-01 -6.680088098477869885e-01 2.733468029414605144e-05 3.589561650850032204e-01 -9.333544186429306722e-01
-2.588948052955349077e-02 1.931211562523945657e-01 -6.482999275114134097e-01 -3.597306235716413983e-05 3.590090557435614005e-01 -9.333340755592581806e-01
-3.147278440812349004e-02 1.937315797648011539e-01 -6.600202955188984033e-01 7.640880528788244059e-07 3.589570115050845778e-01 -9.333540935201145583e-01
1.360845923714021528e-02 2.360333450961411839e-01 -5.833517408920640968e-01 9.749988435747750003e-06 3.589495108567268833e-01 -9.333569780960840889e-01
7.028044464282615089e-02 1.706592982728206143e-01 -6.151011652237883265e-01 -3.515783295793093062e-05 3.590004998657098101e-01 -9.333373665830042576e-01
6.790181762562665091e-02 2.149916046842639539e-01 -5.795269497152178984e-01 1.192644835876767035e-05 3.589612367921574676e-01 -9.333524684375159586e-01
9.782493362566956063e-02 1.974607552451605186e-01 -6.454072121873878354e-01 5.826346427496340534e-05 3.590358691178033856e-01 -9.333237601669596151e-01
8.838943759524886534e-02 2.514688593386393278e-01 -6.480722253816360023e-01 5.826346427496340534e-05 3.590358691178033856e-01 -9.333237601669596151e-01
1.633778598259474357e-01 2.574811085791781640e-01 -6.044089257767039092e-01 -6.287626370429868518e-05 3.592809052337519460e-01 -9.332294611621470004e-01
1.929470659328554882e-01 2.287351609223728932e-01 -6.297214821258231288e-01 6.335474390400658155e-05 3.591757302069924496e-01 -9.332699453086712449e-01
2.322897013119653575e-01 2.182222153833330847e-01 -6.126991279099831544e-01 -2.748678614266309711e-05 3.593813948877840891e-01 -9.331907694855254842e-01
2.256805587688815451e-01 2.345672286546111596e-01 -6.301443276766116597e-01 4.414612507427197804e-05 3.593214895321216185e-01 -9.332138368088725988e-01
2.994205322602118136e-01 2.251510827427942729e-01 -5.861016861097909647e-01 7.319415270851899788e-05 3.586401781313165449e-01 -9.334758793201640703e-01
2.843519804759812031e-01 1.879362967713823496e-01 -5.979439376542574625e-01 7.319415270851899788e-05 3.586401781313165449e-01 -9.334758793201640703e-01
3.069789753501571683e-01 2.546157046850746064e-01 -6.558858485567319319e-01 -3.963555606289677108e-04 3.590538297697044579e-01 -9.333167684285854637e-01
3.341921698591209244e-01 2.240792464341454238e-01 -6.368774831619455901e-01 -5.592153123908772229e-04 3.576327509467393528e-01 -9.338621433212195289e-01
4.058531846378038432e-01 1.821825722159452765e-01 -6.467731580998623553e-01 -1.179988968963323727e-03 3.573831965286413115e-01 -9.339570966939561014e-01
4.569900841179898587e-01 2.175214218138729338e-01 -5.968132248202292489e-01 7.594437892527435528e-03 3.688034015858441261e-01 -9.294763985663149208e-01
6.578075402254836002e-01 1.725713683166447687e-01 -6.280862038779041479e-01 9.184533840521205139e-01 1.920138309443828739e-01 -3.457948380893934859e-01
6.965986656657379150e-01 2.049079268704024903e-01 -6.237178538741937617e-01 9.106502356822603339e-01 9.335961243516072150e-02 -4.024923987081002741e-01
6.815098094247605820e-01 2.053863289175218432e-01 -6.451397914023578872e-01 9.106502356822603339e-01 9.335961243516072150e-02 -4.024923987081002741e-01
-6.324463374091373602e-01 2.831781009046750452e-01 -6.157173057391882587e-01 -8.864730299719199014e-01 2.108565531635890888e-01 -4.119527656423417339e-01
-6.412964413802672015e-01 2.225433088864578468e-01 -6.290455004479451606e-01 -8.864730299719199014e-01 2.108565531635890888e-01 -4.119527656423417339e-01
-6.892625504098949252e-01 2.148971516267311754e-01 -6.214362001108846290e-01 -8.770998023454207315e-01 1.911907307880536810e-01 -4.406155253578268871e-01
-4.029769892166249479e-01 1.986950725171137133e-01 -6.181726917970250534e-01 5.393258177327894254e-01 2.444775070899179448e-01 -8.058277798971422712e-01
-3.852586158001413130e-01 2.746346416944683844e-01 -6.205376653167847811e-01 1.649316671744031773e-03 4.224678102018515902e-01 -9.063764279248267552e-01
-3.540190133768657543e-01 2.652915386491784822e-01 -6.805207978266535340e-01 -5.006180442446731211e-04 4.214491406108279437e-01 -9.068519015031992758e-01
-2.448080964749683730e-01 2.716595132421040781e-01 -5.799200040214929075e-01 6.340403887421016543e-04 4.181123148554972135e-01 -9.083951178638969282e-01
-3.220912189449628982e-01 2.783302883961105700e-01 -6.124590511446152963e-01 6.340403887421016543e-04 4.181123148554972135e-01 -9.083951178638969282e-01
-3.727848303611478453e-01 2.572078371907661754e-01 -5.987419339719309841e-01 -4.084549456899605750e-04 4.189842661235047561e-01 -9.079934019063714556e-01
-2.128308231382022020e-01 1.969135877422255321e-01 -6.130722453561739949e-01 2.441224716380355566e-04 4.174545733451236473e-01 -9.086977603127783798e-01
-1.688510685227119223e-01 2.564039413354168850e-01 -6.015167237017196022e-01 -1.060762303704158643e-04 4.173165013786423461e-01 -9.087612042912719401e-01
-2.277822500675393269e-01 3.036752070069969056e-01 -6.530440706519503591e-01 -1.060762303704158643e-04 4.173165013786423461e-01 -9.087612042912719401e-01
-1.339688149531351458e-01 2.457722020624534820e-01 -6.553652486929806287e-01 7.742837522807764501e-05 4.169424942450176141e-01 -9.089328635810183243e-01
-1.446771926765287875e-01 3.068254015052188644e-01 -6.230923275545691142e-01 -6.578615526269465186e-05 4.170585257431162485e-01 -9.088796299715162785e-01
-1.019675795299043314e-01 2.872883583552521269e-01 -6.104299043595106111e-01 5.691082290609472932e-05 4.167920081343278182e-01 -9.090018804801850427e-01
-8.594553756570316727e-02 2.351457028832736607e-01 -5.780207443670337675e-01 -6.163966665573268968e-05 4.168879641944189807e-01 -9.089578766424680767e-01
-7.679888100352549873e-02 2.187916144152668996e-01 -6.315143675654523170e-01 -3.396690898029009858e-05 4.167563681252577368e-01 -9.090182222999129147e-01
-5.800376703312681848e-03 2.711074031005014651e-01 -6.276655528073975532e-01 -1.170470089831498827e-05 4.166915475904773847e-01 -9.090479382461922331e-01
6.062135566803069503e-02 2.178260856087990693e-01 -5.840016309719365806e-01 -4.148147314241599164e-05 4.167229589688623559e-01 -9.090335382963178334e-01
4.591192829359132949e-02 2.504446631414136148e-01 -6.221813409212740842e-01 2.097049807564111597e-05 4.166725346702694899e-01 -9.090566530264718725e-01
7.077101568089719241e-02 2.557488350263365517e-01 -5.931356076663041321e-01 5.047410748243011310e-05 4.167590604993127723e-01 -9.090169871592579387e-01
1.129659174332302563e-01 2.450475158690420818e-01 -6.071849565746814115e-01 -6.439005987324930124e-05 4.169733333736655445e-01 -9.089187175480403225e-01
1.847663156326080358e-01 2.906901901982072989e-01 -6.026929354760683921e-01 -6.439005987324930124e-05 4.169733333736655445e-01 -9.089187175480403225e-01
1.948448706152198229e-01 2.464158916513859987e-01 -5.972443575447629049e-01 -3.112168974903372259e-05 4.170838286063497380e-01 -9.088680206424415431e-01
1.856031852833648910e-01 2.737805923424674881e-01 -6.007954869556889621e-01 9.258969733740497374e-05 4.169430079407913103e-01 -9.089326265221383538e-01
2.004428755755392200e-01 2.436057681307744749e-01 -6.410088602112862244e-01 9.258969733740497374e-05 4.169430079407913103e-01 -9.089326265221383538e-01
2.189649219117752732e-01 2.437673200116050043e-01 -5.862156687772414054e-01 -6.378382042463492181e-05 4.170709530767696682e-01 -9.088739274680834868e-01
3.543421149611702403e-01 2.845588501479671129e-01 -5.923003811233562566e-01 4.104679473360251353e-04 4.161801752214647210e-01 -9.092820757436578250e-01
2.929567284951073991e-01 2.538654986005371428e-01 -6.306768295581282047e-01 -3.034007662534988592e-04 4.167854252552890548e-01 -9.090048499555668515e-01
3.877427127660497130e-01 2.167839002680908289e-01 -5.930523553059092734e-01 8.149784248808051830e-04 4.144793386797960277e-01 -9.100583572594265203e-01
3.351409556611354423e-01 2.724215399203588350e-01 -6.474846936107143680e-01 -5.775615861505374853e-04 4.157818393875585827e-01 -9.094641985576523702e-01
4.004318409693360947e-01 2.233942355257436396e-01 -6.170921101534895259e-01 -1.181306250550832925e-03 4.137706580745454388e-01 -9.103803859003664067e-01
4.512214717090105576e-01 2.909264820300501708e-01 -5.669913481553532364e-01 -6.726624221482790933e-03 4.109541414550493821e-01 -9.116312007317028954e-01
6.757845898572054644e-01 1.929946398871701108e-01 -6.846845111940846884e-01 8.675732732493806054e-01 2.221121326317072875e-01 -4.449525998139019500e-01
6.468580273336900222e-01 2.690727794788788096e-01 -6.018790292109046369e-01 8.619660682926072459e-01 1.998719452317098688e-01 -4.659031043269367123e-01
-6.277975026681542614e-01 3.274491067273713751e-01 -6.300415818333394702e-01 -6.861098803166064686e-01 3.765711045794697953e-01 -6.224527575067284602e-01
-6.282058415190890921e-01 3.384475320645548568e-01 -5.732028316077839580e-01 -8.752826734224509186e-01 2.082015534317399608e-01 -4.365001199943221444e-01
-5.195700955297296586e-01 3.120088876540073053e-01 -6.021004021900274727e-01 5.626713796934111889e-01 3.827050022147788222e-01 -7.327603972334334470e-01
-4.424547173762207741e-01 3.190851280121472233e-01 -5.892607997773614548e-01 7.471320703398731666e-01 3.141577710740127150e-01 -5.857461603318140364e-01
-4.047554686008796865e-01 2.943907725302804534e-01 -6.057907841228064028e-01 -3.216703529205598190e-03 4.673310938072652299e-01 -8.840765247303598029e-01
-3.963525108743580216e-01 2.879949308423379595e-01 -6.017615570774336176e-01 8.527515473834727583e-04 4.726700273536869057e-01 -8.812390810990303747e-01
-3.897672680701394499e-01 2.945029630697443279e-01 -5.898244578359588264e-01 -1.135787481267641814e-04 4.727991728874166855e-01 -8.811702044536245948e-01
-3.313261800088719844e-01 2.785900572842665568e-01 -5.849204113515527048e-01 2.559696660309233266e-04 4.725028763790372621e-01 -8.813290908015384284e-01
-2.791394459682164930e-01 2.791536658699597662e-01 -5.678711553367185028e-01 -6.799978460031772367e-05 4.723647505379214295e-01 -8.814031641792968719e-01
-2.483464634945876659e-01 3.163647562983573081e-01 -6.242569060208119636e-01 1.596222970766755127e-04 4.721846388783872417e-01 -8.814996547520647097e-01
-2.123751137125378385e-01 3.432559564718771772e-01 -5.699214982662228479e-01 -5.157877325344913854e-05 4.720985605120450734e-01 -8.815457710760599142e-01
-2.123792902965278839e-01 2.976693469821761195e-01 -6.088049285171666103e-01 -7.321958393339183862e-05 4.719415532421311066e-01 -8.816298344329649428e-01
-1.263018745343787164e-01 3.054504007968912860e-01 -6.334248474820178831e-01 7.041858926539608344e-05 4.718292035511116311e-01 -8.816899668917335120e-01
-1.130659624840888999e-01 3.482733990540046731e-01 -6.582567487318886634e-01 5.196627325109888902e-05 4.716954676124539003e-01 -8.817615228242696723e-01
-2.645553454861045498e-02 3.170860928247680177e-01 -5.886334485320441345e-01 4.289120574832892358e-05 4.715947640171403998e-01 -8.818153869784548515e-01
-1.354498318683364580e-02 2.844165220236692937e-01 -6.012632098385152224e-01 -2.486672013280533865e-05 4.715675481483928566e-01 -8.818299421742036293e-01
4.169405584669354237e-02 2.563453843887296690e-01 -5.966209245805674799e-01 -1.697568630265658735e-05 4.715610855776048993e-01 -8.818333982565510487e-01
2.539793429425408339e-02 3.023732387788716780e-01 -6.076152250800558319e-01 -1.697568630265658735e-05 4.715610855776048993e-01 -8.818333982565510487e-01
9.478528592350356219e-02 2.586316564099757076e-01 -5.830105557378959524e-01 4.338590887195025369e-05 4.715853533063767977e-01 -8.818204197366733554e-01
1.164818140409574765e-01 2.713778838594725906e-01 -5.808984703964635843e-01 -4.160546697206629987e-05 4.716515695614791337e-01 -8.817850050886431035e-01
9.740873142726094724e-02 3.076635995447691285e-01 -5.632076292517843585e-01 5.403449756840252065e-05 4.716900312278225482e-01 -8.817644308547316623e-01
1.183923804202891839e-01 2.560433528548979321e-01 -5.948119870785103513e-01 -6.446545372696287546e-05 4.717823210185484450e-01 -8.817150545491193592e-01
1.483180121607763913e-01 2.799079326080636809e-01 -5.577638371513531368e-01 6.723896478254939217e-05 4.718353162756838692e-01 -8.816866959379318081e-01
1.794809056992888729e-01 2.954216709345646730e-01 -6.229718800416429447e-01 -4.198477570548149354e-05 4.719205100482545823e-01 -8.816411006940826356e-01
2.596519736232364983e-01 3.062943565078693475e-01 -6.458405812693437387e-01 -3.197244222441497641e-05 4.719245462135973623e-01 -8.816389406434206322e-01
2.731927830150419623e-01 2.556499758402238087e-01 -5.817487692174674319e-01 6.870557490600511289e-05 4.718453459669526007e-01 -8.816813283544517876e-01
3.115650186092922547e-01 2.788562485980762840e-01 -6.422052803563589318e-01 -3.107573525655899426e-04 4.716913703595435603e-01 -8.817636613958435010e-01
3.381878186385917640e-01 2.911705245271036802e-01 -6.031983735309082162e-01 -8.249279364273916140e-04 4.679278902156227549e-01 -8.837662638120192815e-01
3.834554676183342670e-01 2.442836747461703539e-01 -6.048711477509072232e-01 1.575216730044391202e-03 4.660597996488592965e-01 -8.847518193502167394e-01
4.159897417190658309e-01 2.700369714321241843e-01 -5.722406198487915985e-01 4.989184411399252145e-03 4.697006746623988427e-01 -8.828116357754900445e-01
4.934487979319628348e-01 3.342853030292078920e-01 -5.431435477457727812e-01 -7.875917582329973188e-01 3.232643137294000657e-01 -5.245945156332803005e-01
4.922341336061615835e-01 3.172169562225818362e-01 -5.971525188148021357e-01 -8.022200732146005375e-01 2.914903450585750733e-01 -5.210339076002574732e-01
6.401926508714805841e-01 2.883457825807418939e-01 -5.821365220044257827e-01 6.437839529645238423e-01 4.277967358139103116e-01 -6.344542337571207336e-01
6.846731284699086872e-01 2.937757392218489083e-01 -5.504980424444627651e-01 8.593882784310041822e-01 2.116036264855619686e-01 -4.654843629527781190e-01
6.221434187855245934e-01 2.804984826485761307e-01 -6.507158423721225438e-01 8.593882784310041822e-01 2.116036264855619686e-01 -4.654843629527781190e-01
-6.731756506718318267e-01 3.594737054816564137e-01 -5.814662741241138910e-01 -6.842334773416971494e-01 3.859496268451175216e-01 -6.187628253402135403e-01
