-2.993074694053676765e-01 5.665694686778395273e-01 8.646047572489736627e-03 -6.759148936764540760e-01 3.026168068605086248e-01 6.719837235468558712e-01
-2.463228840193177338e-01 5.353838398226188344e-01 7.216537984993000657e-03 -7.562812087365745617e-01 2.795832429642200467e-01 5.914997409682912766e-01
-2.784468041992983478e-01 -1.782318155924156877e-01 -3.463321255085492489e-01 4.437921272512345139e-01 4.983342152866713226e-01 -7.447896063080106099e-01
-2.714103621339354344e-01 -1.604493305565998229e-01 -3.412775706725196811e-01 2.646391019584475313e-01 4.473618881996307972e-01 -8.543029244366938668e-01
-3.366319350991413550e-01 -1.435243652988872631e-01 -3.567262850135879404e-01 2.646391019584475313e-01 4.473618881996307972e-01 -8.543029244366938668e-01
-3.111877966832886089e-01 -1.809483132749389600e-01 -3.144186854185321289e-01 3.339903076281529049e-01 3.012525239633396801e-01 -8.931390660004572268e-01
-2.639540689116501304e-01 -2.130602424509968340e-01 -2.528411957644853825e-01 4.174429905357462944e-01 5.014846882540487938e-01 -7.577957885204379407e-01
-2.751171806374073103e-01 -2.086135182955555778e-01 -2.954260834022254256e-01 3.826045895010889430e-01 6.404995975270457720e-01 -6.658633445838534337e-01
-2.372321488956527502e-01 -2.224953280418910107e-01 -3.397236133322368290e-01 3.826045895010889430e-01 6.404995975270457720e-01 -6.658633445838534337e-01
-2.761568932370842000e-01 -2.184962619605507750e-01 -3.633541093889948170e-01 2.658951781295187944e-01 4.473729000345349482e-01 -8.539070456215719362e-01
-3.043841889851794935e-01 -2.123952030772527921e-01 -3.511635376905163919e-01 2.658951781295187944e-01 4.473729000345349482e-01 -8.539070456215719362e-01
-2.655705118768286188e-01 -2.198433375699658243e-01 -3.361886872838145135e-01 3.945296919736768215e-01 6.388527925608381564e-01 -6.604645574051452028e-01
3.625346110387279164e-01 -1.911754556041494746e-01 -4.148985597955699989e-01 -2.642348171843728055e-01 2.675147027421675427e-01 -9.266152627732346936e-01
4.197571479791912252e-01 -2.026335763767306009e-01 -3.724834292178417772e-01 -2.642348171843728055e-01 2.675147027421675427e-01 -9.266152627732346936e-01
3.117360385598237915e-01 -2.537331783440510691e-01 -3.283480605048033629e-01 -2.603364946414505887e-01 3.913205723734249353e-01 -8.826625171576830686e-01
3.992407707927401184e-01 -2.509184034840580835e-01 -3.889495442877649589e-01 -3.196249410436705074e-01 2.728386088695334832e-01 -9.074133515509720249e-01
5.898835893232912131e-01 1.747978587910327952e-01 -3.827365143412542192e-01 5.522290408211693036e-01 3.683596209152546486e-01 -7.478999105180460516e-01
5.660367181720226126e-01 2.647166140080627894e-01 -3.395824281226567098e-01 5.522290408211693036e-01 3.683596209152546486e-01 -7.478999105180460516e-01
5.518050480904218569e-01 2.189627774150490758e-01 -3.298094542185230904e-01 5.522290408211693036e-01 3.683596209152546486e-01 -7.478999105180460516e-01
5.828757877376282703e-01 1.890305919635848764e-01 -3.561309202346744085e-01 4.666175731582966058e-01 3.130178485208942041e-01 -8.272169406674481085e-01
5.348173260486512870e-01 2.224322983362801431e-01 -3.393377168071249339e-01 4.666175731582966058e-01 3.130178485208942041e-01 -8.272169406674481085e-01
5.608646027191312999e-01 2.236331623334941454e-01 -3.402845185886700929e-01 5.481125417547586531e-01 3.677389122982369085e-01 -7.512261536666888784e-01
5.374196583431448682e-01 2.334549804624112546e-01 -3.688735253525896041e-01 4.690294240086527733e-01 3.139716648226570928e-01 -8.254896686831402208e-01
5.247529643445185688e-01 2.488824698844662175e-01 -3.795276521520744017e-01 4.690294240086527733e-01 3.139716648226570928e-01 -8.254896686831402208e-01
4.623254307747335368e-01 2.438557569534242908e-01 -3.464725021497221391e-01 4.690294240086527733e-01 3.139716648226570928e-01 -8.254896686831402208e-01
2.015804811544089775e-02 8.545344790827865689e-01 -3.299017368327977762e-01 2.139683488912601517e-01 7.393443483746291456e-01 -6.384257828434273252e-01
1.586976222871478576e-02 8.478789785308636917e-01 -3.281947779675570831e-01 5.044254608329868522e-02 6.422658635264122395e-01 -7.648203122912637930e-01
4.562943410154848833e-02 8.777556939530839486e-01 -3.039128092755307708e-01 1.096528625731135187e-01 7.193093513262366345e-01 -6.859812729398306885e-01
2.736342602377075418e-03 8.999344993291933381e-01 -3.534074044191762853e-01 -5.176783486724501754e-02 7.989257692151325863e-01 -5.991975521955728023e-01
6.626695246783671778e-03 8.322661205349710656e-01 -3.132954350047600922e-01 -2.197259870148179361e-01 7.232708957104669878e-01 -6.546752645766777956e-01
2.208979266858552420e-03 8.477298307297812530e-01 -3.088758746556754531e-01 -1.101334301743320254e-01 7.105867590832541936e-01 -6.949367491891565995e-01
-5.067202905252490841e-03 8.509657163347984499e-01 -3.147620165093101829e-01 -1.101334301743320254e-01 7.105867590832541936e-01 -6.949367491891565995e-01
-4.555902087135080269e-01 2.744363539574490307e-01 -3.551269092798733928e-01 -5.582137408722258609e-01 3.771106173218989888e-01 -7.390433017114300673e-01
-4.683996244849646939e-01 2.374956433655217025e-01 -3.644431371526905550e-01 -4.924685811057139539e-01 3.331397975240844578e-01 -8.040476179489227659e-01
-4.499691567597359776e-01 2.728785849175185962e-01 -3.477736150638473522e-01 -4.924685811057139539e-01 3.331397975240844578e-01 -8.040476179489227659e-01
-4.459102882701485582e-01 2.295414417375972738e-01 -3.856757277346671842e-01 -4.924685811057139539e-01 3.331397975240844578e-01 -8.040476179489227659e-01
-4.261062007328868528e-01 2.749049767786003740e-01 -3.387893050130495465e-01 -5.457498352818445086e-01 3.750280442762363720e-01 -7.493404321776456767e-01
-3.149776414027328775e-01 -3.049852606915350872e-01 -1.466516941391646789e-01 5.479420993695020003e-01 5.571734846589893042e-01 6.239528537730248958e-01
-3.269485379014432924e-01 -3.359277664217078518e-01 -1.657977345275929437e-01 5.479420993695020003e-01 5.571734846589893042e-01 6.239528537730248958e-01
-2.844901965580565184e-01 -2.931817970386537131e-01 -1.092024694032407844e-01 5.479420993695020003e-01 5.571734846589893042e-01 6.239528537730248958e-01
-3.112789052876910878e-01 -3.577744739291900955e-01 -1.411585800172968086e-01 5.282429906298284905e-01 5.488622827305508212e-01 6.478499343569188440e-01
-2.758004073437702042e-01 -3.670364383632371830e-01 -1.313640107067965690e-01 5.282429906298284905e-01 5.488622827305508212e-01 6.478499343569188440e-01
-3.154221979886748795e-01 -3.265851588032464003e-01 -4.924421864355144063e-02 5.282429906298284905e-01 5.488622827305508212e-01 6.478499343569188440e-01
-3.354356099249768408e-01 -2.796041279924492140e-01 -1.223781838235223490e-01 6.117553424191081168e-01 5.138799864100969117e-01 6.014006656039202481e-01
-3.797579505131629118e-01 -3.659576872696751471e-01 -5.872611128994051355e-02 6.117553424191081168e-01 5.138799864100969117e-01 6.014006656039202481e-01
-3.270802277984038997e-01 -3.681948916589221077e-01 -6.840977598656602932e-02 6.017100273338301664e-01 5.142143772895088061e-01 6.111698758894158479e-01
-3.244194677857795139e-01 -3.524915348777440949e-01 -9.541024783548709975e-02 6.017100273338301664e-01 5.142143772895088061e-01 6.111698758894158479e-01
-4.362725642398472825e-01 -3.107842473570464614e-01 1.041849110999601702e-01 8.376013401083171050e-01 5.414393098898824253e-01 7.257732948186586264e-02
3.964592107874264082e-01 -9.662512518994401112e-02 -2.630790982038273551e-01 -8.276604375576444017e-01 2.710924276072301242e-01 4.914133655039382709e-01
4.601209879154349314e-01 -1.324733313486091413e-01 -1.971628597507239788e-01 -8.276604375576444017e-01 2.710924276072301242e-01 4.914133655039382709e-01
3.954917191279634925e-01 -1.439985419267594824e-01 -2.563383980324124289e-01 -7.964186539254866082e-01 3.434720715577238015e-01 4.977391523070711088e-01
4.062325215667567102e-01 -1.368297570197504198e-01 -1.747285194969329380e-01 -7.964186539254866082e-01 3.434720715577238015e-01 4.977391523070711088e-01
3.966895541975073436e-01 -1.021739415410259783e-01 -1.784169477436593765e-01 -8.047070420076486430e-01 2.143064687977210836e-01 5.536418643624699820e-01
4.576683223164113024e-01 -1.271709698054659110e-01 -1.745478810024975735e-01 -7.823983306540354121e-01 3.051417584667276417e-01 5.429008744049064195e-01
4.019935968246839408e-01 -1.485862339949256816e-01 -1.474590285922928179e-01 -7.823983306540354121e-01 3.051417584667276417e-01 5.429008744049064195e-01
4.184071143422253836e-01 -2.599964985230211467e-01 5.864050839149768241e-02 -7.877941079486452391e-01 6.115826884035505673e-01 7.312358529560566978e-02
4.766503197775039946e-01 -2.339219935583495558e-01 5.447430123940306262e-02 -7.877941079486452391e-01 6.115826884035505673e-01 7.312358529560566978e-02
-8.030803469014516360e-02 3.772532372536468448e-01 -1.508251121771389813e-01 1.882960731989415937e-01 -8.159429459342920632e-01 5.466092734284042631e-01
-7.555451679401715970e-02 3.845524569599930165e-01 -1.800187251005677114e-01 1.882960731989415937e-01 -8.159429459342920632e-01 5.466092734284042631e-01
-8.388027647137720477e-02 3.565216480281297451e-01 -1.869758576328078292e-01 1.882960731989415937e-01 -8.159429459342920632e-01 5.466092734284042631e-01
-1.317092296701057874e-01 4.105026154899977797e-01 -9.716326223332386047e-02 1.827579169646847412e-01 -8.043952974829048364e-01 5.652855465816533087e-01
-6.292020369932165014e-02 3.867480702495330047e-01 -1.268138639646649302e-01 1.071833961902018961e-01 -8.317141037996487185e-01 5.447599187916465358e-01
-6.411179566958016829e-02 3.795046323745323025e-01 -1.370178914681091098e-01 1.370801737307084378e-01 -8.281780233129638624e-01 5.434429019422285512e-01
-6.971121935369564704e-02 4.051835490007994478e-01 -1.598934498535989068e-01 1.370801737307084378e-01 -8.281780233129638624e-01 5.434429019422285512e-01
-1.078455059388538917e-01 4.100084876881401330e-01 -1.227140189045322488e-01 1.370801737307084378e-01 -8.281780233129638624e-01 5.434429019422285512e-01
3.164630355588107097e-02 -1.498401768326285133e-01 4.183659553406400833e-01 -1.943708322152839785e-01 1.521723610151530515e-01 -9.690529150294177052e-01
1.007855785063485055e-01 -1.428880066638629764e-01 4.167818569054797528e-01 -1.943708322152839785e-01 1.521723610151530515e-01 -9.690529150294177052e-01
4.856725645639382860e-02 -1.267298097231520648e-01 4.494517569146773694e-01 -1.943708322152839785e-01 1.521723610151530515e-01 -9.690529150294177052e-01
6.583937013090075674e-02 -1.329049443097216066e-01 4.780016550656794316e-01 -1.937044553839907257e-01 1.608940337014624355e-01 -9.677766756249420732e-01
1.292938066557539067e-01 -1.432961122004857701e-01 5.087903349326947655e-01 -1.937044553839907257e-01 1.608940337014624355e-01 -9.677766756249420732e-01
3.493580158760079685e-02 -5.946716506641900463e-02 4.156217233921511989e-01 -1.589011116369952736e-01 1.108205161991404897e-01 -9.810551716951922963e-01
-1.993347990211053952e-02 1.781024866845734023e-01 4.015789378550627675e-01 -3.851057853126382130e-02 -3.124946593940999828e-01 -9.491385690147423615e-01
-8.252430960231565971e-03 -3.502528823476325215e-01 -1.787223654637512815e-01 6.908987112048731519e-03 7.136462755846333383e-01 7.004721687842188071e-01
-9.033412946308530533e-02 -3.815451112927440991e-01 -1.555872498370372836e-01 6.222726413579533766e-02 6.988855083360782094e-01 7.125214479831435410e-01
-6.004729065897811136e-02 -3.596166602859649508e-01 -1.997303983180266918e-01 6.222726413579533766e-02 6.988855083360782094e-01 7.125214479831435410e-01
-7.321786845890258799e-02 -3.709631791990790628e-01 -1.871779199316723485e-01 6.222726413579533766e-02 6.988855083360782094e-01 7.125214479831435410e-01
-5.137294593296547196e-02 -3.978384394306983540e-01 -2.376730698125454899e-01 8.522788909229965515e-02 7.060394474785698371e-01 7.030252524092051036e-01
-9.168363976039324570e-03 -4.411063831013142256e-01 -1.591054035155241297e-01 3.087168223321258217e-02 6.924318539776347370e-01 7.208224932902600468e-01
-2.446535774273899538e-02 -3.958170465421512185e-01 -2.050261294311643279e-01 3.087168223321258217e-02 6.924318539776347370e-01 7.208224932902600468e-01
-5.969276191605793480e-02 -5.508073116988776441e-01 -1.137869751684246200e-01 5.801415937934245592e-02 5.688931072388025284e-02 9.966935153982241502e-01
-9.970293136395670663e-02 -5.229015465755056935e-01 -7.539749439097480355e-02 1.070504240108191979e-01 2.604115749659876577e-01 9.595446932492710523e-01
-1.195189540254794347e-01 -5.861971137110948415e-01 -1.283623110783171373e-01 1.022955130823930275e-01 -3.640452770337774396e-02 9.940876914869755110e-01
2.593790936664048807e-01 -3.362941468278636270e-01 -1.716310330170149334e-01 -4.743968920084106200e-01 7.038804204794416597e-01 5.286775411519246681e-01
2.593791986145416728e-01 -2.945624957634274121e-01 -2.011272966226458070e-01 -4.743968920084106200e-01 7.038804204794416597e-01 5.286775411519246681e-01
2.206962206509595348e-01 -3.310785260573229083e-01 -2.035983662536118288e-01 -4.743968920084106200e-01 7.038804204794416597e-01 5.286775411519246681e-01
1.981369775012381818e-01 -3.176812601947883730e-01 -2.224886660619284640e-01 -3.966408254206273409e-01 7.253149197662789316e-01 5.626671509641201219e-01
2.011324977337834441e-01 -2.963302119667009515e-01 -1.658200091516745800e-01 -3.846108818190298040e-01 7.340948539643796789e-01 5.596241729673623322e-01
-2.428177743781172182e-02 -3.653623976246016536e-01 -1.731315463697334911e-01 5.767055422053334046e-02 7.551764878817268656e-01 6.529797694619002835e-01
-5.499930970433976329e-02 -3.550966891393468328e-01 -1.625516052569127845e-01 5.767055422053334046e-02 7.551764878817268656e-01 6.529797694619002835e-01
3.865389540233682419e-01 1.720819516322647236e-01 -1.786072211280397282e-01 -6.001713565847933696e-01 -3.653407989184729310e-01 7.115619743780444706e-01
3.486667714380164984e-01 2.046552607573087768e-01 -1.576131434304250678e-01 -5.609142647476641486e-01 -4.178581695914974081e-01 7.146815638508040580e-01
3.567394054566243589e-01 2.231188426286887516e-01 -1.521852595241545703e-01 -5.609142647476641486e-01 -4.178581695914974081e-01 7.146815638508040580e-01
2.278639289528465173e-01 4.172391543264725167e-01 -9.716969170603927120e-02 -3.169437021419188039e-01 -6.125208922423684976e-01 7.241304069290194212e-01
2.593398233179590173e-01 4.051989292679740728e-01 -1.061410331546323305e-01 -3.169437021419188039e-01 -6.125208922423684976e-01 7.241304069290194212e-01
2.272009137671990309e-01 4.653550481820738494e-01 -8.376612710881801982e-02 -2.305054524639275071e-01 -6.775593634130754328e-01 6.984128760523163892e-01
1.973381581144639796e-01 4.201166990125756451e-01 -1.253938896061096153e-01 -2.392491874477440383e-01 -6.625394499906976931e-01 7.097896191912205222e-01
3.560864597870773141e-01 4.649569482568623180e-02 -3.134726387315036611e-01 -9.118477030703687758e-01 -4.076047759341718257e-01 4.890923267590765317e-02
3.231349382638820655e-01 1.031168685669873464e-01 -3.466328823384391411e-01 -8.908563896055197162e-01 -4.351032156429024966e-01 1.306142596971113234e-01
3.195953543059814050e-01 1.046702838121899293e-01 -2.955890264941900547e-01 -8.908563896055197162e-01 -4.351032156429024966e-01 1.306142596971113234e-01
4.291704117042536293e-01 1.514683917469889507e-01 -1.917891418116781099e-01 -6.002250916154440175e-01 -3.650104886057789488e-01 7.116861545674487699e-01
3.899926268152195119e-01 1.147802158600361583e-01 -1.678109472115914547e-01 -6.283987702020488175e-01 -3.196981614171243158e-01 7.091601167543640782e-01
3.946771788356133737e-01 1.717282068241819393e-01 -2.056226044481333504e-01 -6.283987702020488175e-01 -3.196981614171243158e-01 7.091601167543640782e-01
3.932817748234178068e-01 1.789747079359716164e-01 -1.218854217923930755e-01 -6.283987702020488175e-01 -3.196981614171243158e-01 7.091601167543640782e-01
4.069429472279673110e-01 1.207236165272086992e-01 -1.176392034673334058e-01 -6.280367937429278680e-01 -3.226337474348849876e-01 7.081505847778605256e-01
3.944339647271821181e-01 1.973614712406656091e-01 -1.161019475909504800e-01 -6.280367937429278680e-01 -3.226337474348849876e-01 7.081505847778605256e-01
-4.354220431735569274e-01 -9.698011657804653241e-02 -1.046393633270750051e-01 7.297666778196730819e-01 9.869566315538640111e-02 6.765351151406376884e-01
-4.654399667421889597e-01 -3.662028031552549967e-02 -1.338023768087735210e-01 7.103969037656527874e-01 1.408162286981946010e-01 6.895701768894819672e-01
-4.616533291224219071e-01 4.601723636357888531e-03 -6.447682731824438962e-02 7.103969037656527874e-01 1.408162286981946010e-01 6.895701768894819672e-01
-4.536531533282968653e-01 -8.626939601491986909e-02 -1.095570413911914898e-01 7.103969037656527874e-01 1.408162286981946010e-01 6.895701768894819672e-01
-4.569392808468822897e-01 1.865948993971340564e-02 -1.079325459520904251e-01 6.992351386479935815e-01 3.508961789853734525e-02 7.140300691116977516e-01
-5.158108945556383329e-01 -1.452844491451385500e-02 -1.026017958851134365e-01 7.011421450696299074e-01 3.763411346615589542e-02 7.120276440636095217e-01
-4.787520985483206259e-01 -4.967306273638173730e-02 -6.535973803457961750e-02 7.011421450696299074e-01 3.763411346615589542e-02 7.120276440636095217e-01
-4.895216922207328847e-01 2.941852409953196190e-01 -9.266950377199696665e-02 5.014114769969157948e-02 -3.975706543868399306e-02 9.979505203441008110e-01
-4.593633981621225715e-01 2.507091350304472277e-01 -8.789458423090062977e-02 2.341927402487252174e-01 -1.930837732399767470e-01 9.528233923063635924e-01
-4.329499523827186613e-01 2.702092089700968702e-01 -1.257926089876957310e-01 -9.561078321588195941e-03 -1.804923205735167388e-02 9.997913837413624494e-01
-1.933892924649026623e-01 1.872235436083988236e-01 -3.290676537901705556e-01 7.536328606841286026e-01 -6.403239523216032181e-01 1.484006313338928629e-01
-1.703224227313162864e-01 2.088424542265481521e-01 -3.496238793300184833e-01 7.334934855133505849e-01 -6.729645119166556277e-01 9.542574291172027656e-02
-1.912400793229842300e-01 2.074296784424033147e-01 -3.315077304845392425e-01 7.334934855133505849e-01 -6.729645119166556277e-01 9.542574291172027656e-02
-2.762320620663671900e-01 1.590890774411112540e-01 -3.424908274526899388e-01 7.961237379868353337e-01 -5.991794689383377337e-01 8.468150811505605058e-02
-3.247347008682799352e-01 2.549894554324334539e-01 -1.634531875574645188e-01 5.930743117703485279e-01 -4.129782310757214581e-01 6.911670140969514708e-01
-3.490289884432932754e-01 2.179410983461201323e-01 -2.178164921557755873e-01 5.930743117703485279e-01 -4.129782310757214581e-01 6.911670140969514708e-01
-2.416143460711297486e-01 2.592438549903246514e-01 -1.703176640068004011e-01 5.745874692904852088e-01 -4.613783168403045032e-01 6.760024326021047969e-01
-3.179733066193909385e-01 2.679794026490783798e-01 -1.286179901371738987e-01 5.745874692904852088e-01 -4.613783168403045032e-01 6.760024326021047969e-01
-3.568195679875979520e-01 2.567589653262081217e-01 -1.077499196816219529e-01 5.564097590697332230e-01 -4.735346591933510818e-01 6.827687064845591181e-01
-4.640098452748759317e-01 -2.399648749116917168e-01 7.938962549999678542e-02 8.300396098922681043e-01 5.455333036219384146e-01 -1.158777832426268195e-01
-4.298797558201162827e-01 -2.473914537052988583e-01 1.386894651780251064e-01 8.305192404040826482e-01 5.437090323740244591e-01 -1.209060769090106041e-01
-4.415961305885760524e-01 -2.711459966553540490e-01 5.094187629182714283e-02 8.305192404040826482e-01 5.437090323740244591e-01 -1.209060769090106041e-01
-4.597319159547621492e-01 -3.299368859595993020e-01 9.029555675878922494e-02 8.492408022798911826e-01 4.843739136294580860e-01 -2.101712909469059809e-01
-2.514603307765239104e-01 -3.190353996886828303e-01 2.532384592079004459e-01 7.769372721217858713e-01 7.337324653070130542e-02 -6.252878072387970665e-01
-3.603970014164892266e-01 -1.694539621398926665e-01 2.484837540757847962e-01 6.067382980858423425e-01 4.697875451948663184e-01 -6.412240638151979200e-01
-3.497385256865568892e-01 -1.571064475535379756e-01 3.000677328470245375e-01 5.666501224916927759e-01 4.472332977220546124e-01 -6.920187974967193512e-01
-4.458694796762038282e-01 -9.859338955791689674e-02 2.910037139608598888e-01 5.666501224916927759e-01 4.472332977220546124e-01 -6.920187974967193512e-01
-1.845656493959381139e-01 1.119429675539101651e-02 4.126953608361201287e-01 3.158491619825106178e-01 2.152298915894620412e-01 -9.240754301686276984e-01
-2.209937255674608303e-01 -4.760915878725328204e-02 4.314515823329802546e-01 3.158491619825106178e-01 2.152298915894620412e-01 -9.240754301686276984e-01
-2.407606222903607429e-01 -3.999417919405404143e-02 4.527082874458633333e-01 3.343865099524227502e-01 2.359032670429683509e-01 -9.124337294073977533e-01
-2.255000358065317734e-01 -2.526138924879261019e-02 4.146362126326564868e-01 3.343865099524227502e-01 2.359032670429683509e-01 -9.124337294073977533e-01
-1.974702705754812493e-01 -6.407082243662721999e-02 3.696812738168132051e-01 3.343865099524227502e-01 2.359032670429683509e-01 -9.124337294073977533e-01
-1.779190889034060197e-01 -6.238414259343727508e-02 3.841552955986193285e-01 2.971915655823527680e-01 2.140683694324994613e-01 -9.305116369800117138e-01
-2.158561487887527552e-01 -1.022223416905869604e-02 5.070682129790191617e-01 2.971915655823527680e-01 2.140683694324994613e-01 -9.305116369800117138e-01
7.471628285627428256e-02 4.865261275955010123e-01 3.741204628882208866e-02 1.255866943722389883e-01 -9.906556246791835552e-01 -5.319225026402366746e-02
8.258807305173286595e-02 5.483312769452729496e-01 8.602492276397477600e-02 1.194258932252575955e-01 -9.678302726476961659e-01 -2.214543279641102702e-01
6.695630519185970242e-02 4.825173632765195619e-01 1.165329732402903551e-01 1.194258932252575955e-01 -9.678302726476961659e-01 -2.214543279641102702e-01
7.079306307503555051e-02 5.326532780234684017e-01 7.422978390557284645e-02 1.325165988671904715e-01 -9.887723869330850013e-01 -6.905445578180945121e-02
4.036295494912211373e-02 4.710355313376989317e-01 1.219749342612031495e-01 8.780283731774157774e-02 -9.763931566868321310e-01 -1.973501085230955077e-01
1.983007911887042091e-02 5.004371077101754661e-01 1.007286870178655536e-01 8.780283731774157774e-02 -9.763931566868321310e-01 -1.973501085230955077e-01
-3.466750410703450108e-02 3.570279356952270056e-01 3.236634503781780636e-01 -2.438664947418340417e-02 -7.249641322180027103e-01 -6.883547764959733195e-01
2.786602754051136638e-02 3.674914900963104358e-01 3.107998577273132779e-01 -2.438664947418340417e-02 -7.249641322180027103e-01 -6.883547764959733195e-01
-8.130445305154523211e-03 3.568320760876680930e-01 3.023994751279216464e-01 -2.438664947418340417e-02 -7.249641322180027103e-01 -6.883547764959733195e-01
3.841808852975690802e-02 3.725234109077908973e-01 2.911987732411263630e-01 -3.263653757695506724e-02 -6.671692910819885247e-01 -7.441908313410914300e-01
8.066832612591471816e-03 3.547106855456338970e-01 3.354518717989039556e-01 -3.263653757695506724e-02 -6.671692910819885247e-01 -7.441908313410914300e-01
1.800756621379605293e-02 3.775067666675578915e-01 3.124816069831931609e-01 -3.263653757695506724e-02 -6.671692910819885247e-01 -7.441908313410914300e-01
-4.388122142108100143e-02 3.973427873968851110e-01 3.303627730038070642e-01 -4.065829233868265696e-02 -7.145374094892771311e-01 -6.984147719689606237e-01
-1.445946167510193114e-01 3.286658064057505491e-01 3.523761905941205086e-01 -1.821867694040453234e-01 -6.469433431529335587e-01 -7.404541118828517066e-01
-1.968830251514439300e-01 3.306488755650059952e-01 3.267453366699047956e-01 -3.321067170412967950e-01 -5.651845499696840358e-01 -7.551632624615802758e-01
5.469680879778274774e-01 -2.704076177955355709e-02 1.776126683932308103e-01 -4.037169392533232481e-01 7.589510232089901054e-01 -5.108874409593127108e-01
5.023719288828989438e-01 -1.172390993727154274e-01 2.232825903108936749e-01 -3.261197087716117271e-01 8.750317835570573521e-01 -3.577223970003478581e-01
5.185995070691633568e-01 -9.003462528839206724e-02 2.034621376468170872e-01 -3.537861888274745348e-01 7.604525954279052202e-01 -5.445614590676548517e-01
3.226072956457214924e-01 -1.870824368945649963e-01 2.762667706743648921e-01 -6.030881197309689856e-01 4.214408984157749782e-01 -6.772534894571373698e-01
3.203196418674794099e-01 -1.939525716679559864e-01 2.057081323804351158e-01 -6.262380119961155067e-01 4.609187497290683222e-01 -6.287923810601918628e-01
3.827622666231239035e-01 -2.339849977948573467e-01 2.772503546316916201e-01 -6.262380119961155067e-01 4.609187497290683222e-01 -6.287923810601918628e-01
3.354965584751332108e-01 -2.688681811479348704e-01 2.645420292422267505e-01 -6.262380119961155067e-01 4.609187497290683222e-01 -6.287923810601918628e-01
3.680501935726683826e-01 -1.857493435350475453e-01 2.177396082446987347e-01 -6.262380119961155067e-01 4.609187497290683222e-01 -6.287923810601918628e-01
3.008180925269770545e-01 -2.466579647013658061e-01 2.467051422939932348e-01 -6.450946920275985041e-01 4.601362959807236419e-01 -6.100224810930804376e-01
3.548346947224527703e-01 -2.264021465441934944e-01 2.412685374340453326e-01 -6.450946920275985041e-01 4.601362959807236419e-01 -6.100224810930804376e-01
3.749939703950895264e-01 -2.335331789876597397e-01 2.503139028606771177e-01 -6.450946920275985041e-01 4.601362959807236419e-01 -6.100224810930804376e-01
7.277024983227334265e-02 -1.231762387678175807e-01 4.313316530603992227e-01 -2.912962000676249108e-01 1.676189693876136699e-01 -9.418335335544156806e-01
1.444002053549698350e-01 -9.655016915121360233e-02 4.664628715197569053e-01 -3.136996724566350481e-01 1.671255270243737490e-01 -9.346986539614922096e-01
1.502163731655092038e-01 -1.503210584989261855e-01 4.872004473975594108e-01 -3.619996294725186803e-01 2.122760221003064107e-01 -9.076867073517324025e-01
1.384244199644587836e-01 -1.122113117684412631e-01 4.034731779605851276e-01 -3.619996294725186803e-01 2.122760221003064107e-01 -9.076867073517324025e-01
1.565456769851422680e-01 -1.405328962083175481e-01 4.499899706625434259e-01 -3.619996294725186803e-01 2.122760221003064107e-01 -9.076867073517324025e-01
2.707290726336989972e-01 -3.938126316389001791e-01 2.599034018818228153e-01 -7.655675733649323078e-01 3.033077758256592232e-02 -6.426401283326196312e-01
-6.038897953741283464e-01 -5.271563083607518907e-01 -1.194051583052332249e-01 -1.922978973029960958e-01 -9.364061225214436179e-01 2.935389112148531487e-01
-6.250619578919497377e-01 -5.931485801497121679e-01 -1.138108608098022667e-01 -2.720789889219014657e-01 -9.145445873776706369e-01 2.993012219912274396e-01
-5.637504632418128825e-01 -5.430515375975341064e-01 -1.356160123877967472e-01 -2.785430429320206458e-01 -8.863149721620248167e-01 3.699453248192218768e-01
-6.223801198652815225e-01 -5.561599781554933397e-01 -1.058134100970010566e-01 -2.785430429320206458e-01 -8.863149721620248167e-01 3.699453248192218768e-01
-6.736607187278886855e-01 -5.852195779228103190e-01 -1.582468330966444459e-01 -2.734134533594396177e-01 -9.132456965477470101e-01 3.020387082131789080e-01
-6.643439904620668246e-01 -5.415141968928520733e-01 -1.164138964128750148e-01 -2.734134533594396177e-01 -9.132456965477470101e-01 3.020387082131789080e-01
-6.812209192950167136e-01 -4.899528893641614813e-01 -7.392937425990400713e-02 -2.734134533594396177e-01 -9.132456965477470101e-01 3.020387082131789080e-01
-8.071289124575665719e-01 -4.603610240445167867e-01 -2.549148341388594169e-02 -6.353728779757428224e-01 -4.678712957160525709e-01 6.143270762206430868e-01
-7.276984359419069737e-01 -4.411486772486520880e-01 1.278622310307002061e-02 -6.353728779757428224e-01 -4.678712957160525709e-01 6.143270762206430868e-01
-7.760936984048668608e-01 -4.113429218990798941e-01 -1.491890296942667733e-02 -6.353728779757428224e-01 -4.678712957160525709e-01 6.143270762206430868e-01
-4.962957095549855313e-01 -4.485581271568516715e-01 1.397156363948005575e-01 -2.588750025435302415e-01 -7.761522734362529263e-01 5.749533733250230538e-01
-4.966100100694064157e-01 -4.945007413492223391e-01 1.623534180413241379e-01 -2.588750025435302415e-01 -7.761522734362529263e-01 5.749533733250230538e-01
-4.374690621397748225e-01 -4.796447169752695583e-01 1.273056508672517628e-01 -2.039555429477649950e-01 -8.016518581638248930e-01 5.619220896204107918e-01
-4.671991778801594664e-01 -4.314223517535252794e-01 1.380651243544419038e-01 -2.039555429477649950e-01 -8.016518581638248930e-01 5.619220896204107918e-01
-4.448043430487988448e-01 -4.470312732239306586e-01 1.511787351507071775e-01 -2.821713563321073259e-01 -7.401606055424493347e-01 6.103618628885111308e-01
-4.613906363221327300e-01 -4.316072324040371444e-01 2.456046337725499296e-01 -2.821713563321073259e-01 -7.401606055424493347e-01 6.103618628885111308e-01
-3.319227699246527497e-01 -2.692354132274775713e-01 3.526745068638879599e-01 -2.453800465886601667e-01 -6.929941222114232025e-01 6.778995348254532871e-01
-1.987155564216665227e-01 -2.843163271782794821e-01 3.789089756494243844e-01 -1.699688510755391901e-01 -7.433797972614758498e-01 6.469134924296666700e-01
-2.370463521032649401e-01 -2.834737251681209713e-01 3.664263725897372592e-01 -1.699688510755391901e-01 -7.433797972614758498e-01 6.469134924296666700e-01
-2.687305241411154233e-01 -2.785123426988423967e-01 3.630906629314163969e-01 -2.020645201137651059e-01 -7.268819880157455504e-01 6.563630894630435586e-01
-2.600650378806543261e-01 -2.881897010961468886e-01 3.971414688295560325e-01 -2.020645201137651059e-01 -7.268819880157455504e-01 6.563630894630435586e-01
-2.516384348316446640e-01 -2.512675086622300213e-01 4.007799982702717201e-01 -2.948052472522759149e-01 -6.319221465563774620e-01 7.167735115670114121e-01
-2.930371517968018980e-01 -2.746515160238382491e-01 3.903752723606179753e-01 -2.682196281403029237e-01 -6.556784195385074732e-01 7.057932000464176570e-01
-2.581218104101037913e-01 -1.290047356193165240e-01 5.265821585741017330e-01 -4.287681132483148194e-01 -3.211560353823958436e-01 8.444031655547850068e-01
-2.400868106608714525e-01 -1.508584885365562012e-01 5.676415200157445273e-01 -4.287681132483148194e-01 -3.211560353823958436e-01 8.444031655547850068e-01
3.300156510546533584e-01 -3.044614558659285430e-01 3.880660269413971353e-01 2.716585313978858163e-01 -6.540700059736116456e-01 7.059703036278676125e-01
2.812991746898663159e-01 -3.110891854726308137e-01 3.597709669020561218e-01 2.716585313978858163e-01 -6.540700059736116456e-01 7.059703036278676125e-01
3.479633330873184160e-01 -2.927225152814441622e-01 2.816067119030178367e-01 3.267717206283572429e-01 -6.263678449125621439e-01 7.077312805416864361e-01
3.631516836064103138e-01 -2.848693385445052462e-01 3.525463176209835403e-01 3.267717206283572429e-01 -6.263678449125621439e-01 7.077312805416864361e-01
3.096673279878989216e-01 -3.057796727041733331e-01 3.883309347301964753e-01 3.128826785349141382e-01 -6.281706091641653389e-01 7.123946344935081498e-01
2.362506738928359662e-01 -2.902341506620675360e-01 4.239191073409707688e-01 3.128826785349141382e-01 -6.281706091641653389e-01 7.123946344935081498e-01
2.715922701664122418e-01 -3.232784369124570567e-01 3.738786552204618197e-01 3.128826785349141382e-01 -6.281706091641653389e-01 7.123946344935081498e-01
2.555585067917264808e-01 -3.303764615285150752e-01 4.173530298180426201e-01 2.721561322005046080e-01 -6.539247361267142011e-01 7.059132235531989652e-01
2.349245486161869456e-01 -2.981086828184401072e-01 4.022230178304130876e-01 2.721561322005046080e-01 -6.539247361267142011e-01 7.059132235531989652e-01
-7.914219645655662730e-03 -1.387038410585580139e-01 5.312027408633139824e-01 3.180633072093055208e-02 -5.382698577088205205e-01 8.421721425030614938e-01
-2.022811282461826898e-02 -1.480971730809947373e-01 5.375672955431752831e-01 3.180633072093055208e-02 -5.382698577088205205e-01 8.421721425030614938e-01
4.920203025820871767e-01 -3.857466841240155264e-01 1.576066670770293610e-01 3.028495678461128882e-01 -7.302047401087410350e-01 6.124403454852959117e-01
4.768786970846082829e-01 -3.970865392606397482e-01 1.746936640783975370e-01 3.028495678461128882e-01 -7.302047401087410350e-01 6.124403454852959117e-01
4.733740736489552292e-01 -4.516991603185212534e-01 1.827286984161913264e-01 2.772442754300631917e-01 -7.481057932984606085e-01 6.028874967807343888e-01
6.649085464491770736e-01 -5.480304463985244956e-01 -1.615466523317279635e-01 2.528746016874866553e-01 -9.401002379172404000e-01 2.286175375804380405e-01
6.178441735542981039e-01 -5.929775790530393831e-01 -2.128845258973425802e-01 2.528746016874866553e-01 -9.401002379172404000e-01 2.286175375804380405e-01
6.320636602768154866e-01 -4.941354819430855416e-01 -1.566760291592867449e-01 2.528746016874866553e-01 -9.401002379172404000e-01 2.286175375804380405e-01
6.622679652652596616e-01 -5.424566209227250635e-01 -1.520335234146489578e-01 3.225968175196183840e-01 -9.269158025191537309e-01 1.917247724382201701e-01
6.495848406682729337e-01 -5.577073496467878089e-01 -1.618133144166978565e-01 3.225968175196183840e-01 -9.269158025191537309e-01 1.917247724382201701e-01
6.253589825307214189e-01 -5.921781686442353365e-01 -1.535422952193398194e-01 2.482421403373902824e-01 -9.237299322562860793e-01 2.917170752878694984e-01
5.991830312693277039e-01 -5.058638662883679915e-01 -1.510070207098958839e-01 2.482421403373902824e-01 -9.237299322562860793e-01 2.917170752878694984e-01
6.600268309549801593e-01 -6.019714760037426782e-01 -1.332366284408904866e-01 2.482421403373902824e-01 -9.237299322562860793e-01 2.917170752878694984e-01
6.798738492397049527e-01 -5.269093884490736457e-01 -1.439164941954576282e-01 3.096655333621439743e-01 -8.846142413262230164e-01 3.486615859115682614e-01
6.751458776704285514e-01 -5.316299344369463942e-01 -1.395835029691099294e-01 3.096655333621439743e-01 -8.846142413262230164e-01 3.486615859115682614e-01
6.437580129657906047e-01 -5.259995409627069574e-01 -1.232036375709425480e-01 3.096655333621439743e-01 -8.846142413262230164e-01 3.486615859115682614e-01
6.708735103679406286e-01 -5.237224527815798059e-01 -1.082839384964697643e-01 2.778000537871206377e-01 -9.009641608203727836e-01 3.333027318116583149e-01
5.080103052350460890e-01 -4.137407495388548129e-01 1.345549662232010113e-01 3.185146176382195882e-01 -7.334288870980696373e-01 6.005251917454137445e-01
5.133776450289605497e-01 -4.644443378364055963e-01 2.214008135958243917e-02 3.454749979321679598e-01 -7.148190079954344078e-01 6.080138251817897022e-01
5.331670451033876379e-01 -4.373737953259254629e-01 9.332983250209275772e-02 3.454749979321679598e-01 -7.148190079954344078e-01 6.080138251817897022e-01
5.476081785887019215e-01 -4.496726622208651603e-01 1.372159812955216496e-01 3.407391786941180722e-01 -7.168671443327956361e-01 6.082748634285333189e-01
5.278958548452511446e-01 -5.441439837639928667e-01 -3.111442551567254466e-01 1.126455439924440027e-01 -7.322424199977701775e-01 -6.716636209997201012e-01
4.889008233994820984e-01 -5.085602434189393506e-01 -3.096560762084628604e-01 1.126455439924440027e-01 -7.322424199977701775e-01 -6.716636209997201012e-01
6.500148662989935211e-01 -5.205659346160731449e-01 -3.006623670769819068e-01 1.351081908530843423e-01 -8.191847978495038207e-01 -5.573885931167539276e-01
5.793956297257498722e-01 -5.186359363129491307e-01 -3.203440246828817006e-01 1.326012543669758681e-01 -7.744815011934558235e-01 -6.185428939446604435e-01
5.678193222164237275e-01 -5.645898520430194800e-01 -3.766281131307066543e-01 1.326012543669758681e-01 -7.744815011934558235e-01 -6.185428939446604435e-01
5.424170651045187030e-01 -5.190739573335376722e-01 -2.928105747813255499e-01 1.326012543669758681e-01 -7.744815011934558235e-01 -6.185428939446604435e-01
4.636267497735712118e-01 -5.534860636877689810e-01 -2.884552498968936396e-01 1.200683138146649565e-01 -8.534131340361683637e-01 -5.072175299339207744e-01
5.323707245120260501e-01 -5.374003797280250128e-01 -3.322872373679469082e-01 1.200683138146649565e-01 -8.534131340361683637e-01 -5.072175299339207744e-01
5.148008421312413319e-01 -5.209989068858104089e-01 -3.132667369169253035e-01 1.200683138146649565e-01 -8.534131340361683637e-01 -5.072175299339207744e-01
2.843423147931009032e-01 -6.404885167672218493e-01 -1.576116222534701405e-01 4.431511454359340213e-02 -9.920492483025619146e-01 1.177898958540601893e-01
1.675844420358503783e-01 -6.226559697300899643e-01 -1.869450830744780745e-01 4.431511454359340213e-02 -9.920492483025619146e-01 1.177898958540601893e-01
2.341335909962036776e-01 -6.384271740052545052e-01 -1.791591229360247894e-01 4.431511454359340213e-02 -9.920492483025619146e-01 1.177898958540601893e-01
1.832728464816539282e-01 -6.162980353215574691e-01 -1.984175882971976057e-01 4.594857233600867924e-02 -9.725451088908977360e-01 2.281331625885951453e-01
2.134493360387135774e-01 -5.554979857298362189e-01 -1.652599882940367915e-01 5.140142709815329058e-02 -9.858882241307078687e-01 1.593182438161821479e-01
3.196010025330595083e-01 -5.988219864115342794e-01 -1.377850330201008111e-01 5.140142709815329058e-02 -9.858882241307078687e-01 1.593182438161821479e-01
2.704257115980333581e-01 -5.636474783906700869e-01 -1.361189505362241092e-01 5.140142709815329058e-02 -9.858882241307078687e-01 1.593182438161821479e-01
-2.134200512469515976e-01 -6.360572778989070919e-01 -1.523018793449483210e-01 -3.325670373267454460e-02 -9.993630459247320186e-01 1.294195104608139406e-02
-2.098425277770558650e-01 -6.149058444793428224e-01 -1.842633583255514074e-01 -3.325670373267454460e-02 -9.993630459247320186e-01 1.294195104608139406e-02
-1.715840552431273092e-01 -6.205378562376945295e-01 -2.208354157631436387e-01 -2.741106119566310423e-02 -9.949353432173989598e-01 -9.670727243079468849e-02
-1.750396802077442415e-01 -6.434894101612949058e-01 -2.042749014981385114e-01 -2.741106119566310423e-02 -9.949353432173989598e-01 -9.670727243079468849e-02
-1.383184080116657000e-01 -6.175155055129354364e-01 -2.028632574965447133e-01 -2.579923440210772287e-02 -9.993321239480593698e-01 -2.587866978277222202e-02
-2.227442654875929351e-01 -6.571187968629370602e-01 -1.910697141423505774e-01 -2.579923440210772287e-02 -9.993321239480593698e-01 -2.587866978277222202e-02
-1.857855389289098658e-01 -6.076264272089927365e-01 -1.846321302030722034e-01 -3.058889342270319431e-02 -9.962819228897139556e-01 8.053974001912705960e-02
-2.029549018887479572e-01 -6.187759937169388103e-01 -1.321106142173995579e-01 -3.058889342270319431e-02 -9.962819228897139556e-01 8.053974001912705960e-02
-1.666830549769171832e-01 -5.973959610364866224e-01 -1.242587989578281260e-01 -2.260079230575096076e-02 -9.831936631232176538e-01 1.811613230838782507e-01
-1.621909583521799203e-01 -5.835615678230526848e-01 -1.513702534200540017e-01 -2.715705428856658721e-02 -9.954281404942412204e-01 9.157134658038443287e-02
-1.660219976940847109e-01 -6.214257149071006348e-01 -1.838961080486111732e-01 -2.715705428856658721e-02 -9.954281404942412204e-01 9.157134658038443287e-02
-1.737399253773021582e-02 -5.163843902336010538e-01 -7.274518422684381203e-02 -3.780081883612929766e-02 -2.038585364098599029e-01 9.782703078536871821e-01
-2.893423253939930023e-02 -5.447930855633856817e-01 -5.996042711395155322e-02 -3.780081883612929766e-02 -2.038585364098599029e-01 9.782703078536871821e-01
-2.699100991719263418e-02 -6.120478252469285785e-01 -9.475918064104028871e-02 -3.780081883612929766e-02 -2.038585364098599029e-01 9.782703078536871821e-01
-4.916799786880444723e-01 -5.376358273364826301e-01 -3.727537983120722265e-01 -8.523197327805308310e-02 -7.340435236812820063e-01 -6.737325998292619245e-01
-4.560582737929074204e-01 -5.349808410796608182e-01 -3.478617218109365528e-01 -8.523197327805308310e-02 -7.340435236812820063e-01 -6.737325998292619245e-01
-5.076000767642028233e-01 -5.569384631761192805e-01 -3.328629320307386896e-01 -8.523197327805308310e-02 -7.340435236812820063e-01 -6.737325998292619245e-01
-4.166135381512499070e-01 -5.612396749457273515e-01 -3.287607130496921770e-01 -7.631165036760598208e-02 -8.186757363256913500e-01 -5.691630441005099961e-01
-4.189221178601377216e-01 -5.719953662699261976e-01 -3.085576480608817063e-01 -7.440996143470074431e-02 -7.677699436396873134e-01 -6.363901879215279056e-01
-4.962666862181721594e-01 -5.525921560526316778e-01 -3.436187962885387526e-01 -7.440996143470074431e-02 -7.677699436396873134e-01 -6.363901879215279056e-01
-4.235336760277165769e-01 -5.726994926384153528e-01 -3.397923653263310029e-01 -7.440996143470074431e-02 -7.677699436396873134e-01 -6.363901879215279056e-01
-4.269993285631085156e-01 -5.589298992704204716e-01 -3.293100062793930527e-01 -9.105616695257418014e-02 -8.495402583117747097e-01 -5.196057389670249993e-01
-4.926709506006507477e-01 -5.501940159804566965e-01 -3.275685557281085014e-01 -9.105616695257418014e-02 -8.495402583117747097e-01 -5.196057389670249993e-01
-5.624623327494252534e-01 -5.818805857810450677e-01 -1.005788841790819510e-01 -1.842397006573743279e-01 -9.412704491115426730e-01 2.829587855696230614e-01
-5.734280159004897515e-01 -5.509959543379698843e-01 -1.462441188340406484e-01 -1.842397006573743279e-01 -9.412704491115426730e-01 2.829587855696230614e-01
-5.545144965722457187e-01 -5.584482018147993720e-01 -1.678999576572587360e-01 -1.855579985233545559e-01 -9.517342048162698021e-01 2.444795135931622510e-01
8.026191296253029073e-01 -1.700568834587153633e-01 -9.196010184878143645e-02 9.013991744609446410e-01 2.833933093545979442e-01 3.273648736412879123e-01
8.420015763188466451e-01 -2.274982174148596215e-01 -1.417844469851466116e-01 9.013991744609446410e-01 2.833933093545979442e-01 3.273648736412879123e-01
8.433505483103213018e-01 -2.334575508550251477e-01 -1.099796215931977406e-01 9.103128100057670258e-01 2.523326802154892134e-01 3.281140143832201317e-01
8.543624394790670928e-01 -2.510568321726672214e-01 -1.537174887206634033e-01 9.103128100057670258e-01 2.523326802154892134e-01 3.281140143832201317e-01
8.226492190499371526e-01 -2.331360187578154775e-01 -1.198510677606808017e-01 9.067349583743936625e-01 1.759480184250070134e-01 3.832414514038113840e-01
8.625595831027124127e-01 -2.754693323113273640e-01 -1.346964456649254183e-01 9.067349583743936625e-01 1.759480184250070134e-01 3.832414514038113840e-01
8.650820297764773015e-01 -2.380977942019848470e-01 -1.118099402347639826e-01 9.048171157884861149e-01 2.032979835976440330e-01 3.741335548187802451e-01
7.440549397813406296e-01 -3.678577569872050201e-01 2.079843264231812094e-02 6.211637296051026880e-01 -4.305977653678196293e-01 6.547833118546309006e-01
6.855594881445152833e-01 -1.449174950238846515e-01 1.459511711133726630e-01 7.794570730244670953e-01 2.017219344815444071e-01 5.930893123814946488e-01
6.710737459201654431e-01 -1.239012794484250501e-01 9.586644251665087102e-02 7.724597589540522780e-01 2.845398447602134895e-01 5.677525847941875536e-01
7.085664084968625875e-01 -1.851823939803755037e-01 9.978503634774064934e-02 7.724597589540522780e-01 2.845398447602134895e-01 5.677525847941875536e-01
6.317948698184177037e-01 -1.658593424480839240e-01 1.990988691018714396e-01 7.604319380180711851e-01 1.537137588100827013e-01 6.309638246322494259e-01
4.417727791560169814e-01 -7.663486603509012118e-02 3.673003726438646699e-01 7.085161089463488659e-01 2.673392931117517524e-01 6.530961841276017310e-01
3.893329366472373931e-01 -6.955475901325512689e-02 4.199546422555511804e-01 6.793940163006193522e-01 1.757662850470042004e-01 7.124113865286608727e-01
3.958916441929209995e-01 -7.455029007848462674e-02 3.938608921824922060e-01 6.691779188812965184e-01 1.321581341004700871e-01 7.312558652570104734e-01
3.486831525704269241e-01 -1.204503108102337149e-02 4.617797997702321466e-01 6.691779188812965184e-01 1.321581341004700871e-01 7.312558652570104734e-01
2.369218176242305907e-01 -1.215632897218597991e-01 5.467976449177548437e-01 4.691733758283737621e-01 -2.562849396349781150e-01 8.451002148444308748e-01
2.755872135220039376e-01 -1.348277494965585410e-01 4.949749011733947657e-01 4.691733758283737621e-01 -2.562849396349781150e-01 8.451002148444308748e-01
2.415261367181695262e-01 -1.659356332905418674e-01 5.124879996235282009e-01 4.691733758283737621e-01 -2.562849396349781150e-01 8.451002148444308748e-01
2.053533265349272718e-01 -8.294307967404479509e-02 5.687005158739899535e-01 4.088156011137025758e-01 -2.675713964740495943e-01 8.725109466791628465e-01
2.015045183482393476e-01 -9.317121322149479745e-02 5.261941852761599092e-01 4.088156011137025758e-01 -2.675713964740495943e-01 8.725109466791628465e-01
2.253038449526651721e-01 -7.179657554329446634e-02 5.378223485766413514e-01 4.510075775157310063e-01 -2.379159113831107175e-01 8.602256588443148999e-01
2.304115679745845080e-01 -5.645814059427636811e-02 5.437283768534311168e-01 4.510075775157310063e-01 -2.379159113831107175e-01 8.602256588443148999e-01
1.428225561015449563e-01 3.879261059695430225e-01 3.582970640646804261e-01 3.753718024711444889e-01 6.120114866930156383e-01 6.960876022925339690e-01
1.725181667087643533e-01 3.139634579845428375e-01 4.627445548049849977e-01 4.142300052938533428e-01 5.765079011041832624e-01 7.043096923077969418e-01
1.366092484328614576e-01 2.911583845863537356e-01 3.986917905418042585e-01 4.142300052938533428e-01 5.765079011041832624e-01 7.043096923077969418e-01
1.364852340324864965e-01 3.240335462273688516e-01 4.155645979900469689e-01 3.792311392636755207e-01 5.941773113795129069e-01 7.093215530734902075e-01
1.565366011232409982e-01 4.628924875564381924e-01 2.090274608142140556e-01 9.428583054712013078e-01 -3.015389282243818858e-01 -1.417479825932838056e-01
1.275259962162056948e-01 4.863874447648204868e-01 1.758313079043227478e-01 6.751730547573813190e-01 -6.042036947177302775e-01 -4.231775530661214257e-01
1.675915101519498407e-01 4.137527852623251179e-01 2.727056177604567089e-01 8.020726131428617123e-01 -4.137311027483152048e-01 -4.307041883530320914e-01
1.883994235615628898e-01 4.462355611037704950e-01 2.776085800552171579e-01 9.337675867113917061e-01 -2.654907230911941474e-01 -2.399849369433392221e-01
1.458153780529153065e-01 4.067613843446266086e-01 3.896917901039929077e-01 3.769074026549725231e-01 6.124306137834765185e-01 6.948881587166934048e-01
1.676534029295265738e-01 3.445208841230298913e-01 3.895401933965702557e-01 3.769074026549725231e-01 6.124306137834765185e-01 6.948881587166934048e-01
9.388166114311476129e-02 4.024355309312787066e-01 3.478359621364646714e-01 3.100336921930554324e-01 6.418163815049425791e-01 7.013920744754990055e-01
1.703216131175135095e-01 8.230168455059561072e-01 -1.130591948407403124e-01 6.357314035054110191e-01 7.313439426522647668e-01 2.469445689681823708e-01
1.422009009280276182e-01 7.907856707374294469e-01 -1.636137707244539052e-01 6.357314035054110191e-01 7.313439426522647668e-01 2.469445689681823708e-01
1.595637474458636851e-01 7.457116033814715772e-01 -1.146611235125357398e-01 6.273383152091221993e-01 7.211675310751040069e-01 2.938775772215682647e-01
1.181920990602422089e-01 7.971538959809472136e-01 -1.219982258281798598e-01 5.553826257008469547e-01 7.565315485139780805e-01 3.452682365533721875e-01
1.645770951340005395e-01 7.685915100201931027e-01 -9.718705630166171727e-02 5.971814407863628160e-01 7.100969876730232055e-01 3.730101806627027505e-01
1.731155078785238111e-01 7.348194948157575901e-01 -9.158738845143792051e-02 5.971814407863628160e-01 7.100969876730232055e-01 3.730101806627027505e-01
2.201863560993101709e-01 8.144223426797425613e-01 -1.304508808681090204e-01 5.961989199692891983e-01 7.254719930316717580e-01 3.438564164794765676e-01
1.576023955350155104e-01 7.978689917183736657e-01 -1.853606140496385501e-01 5.961989199692891983e-01 7.254719930316717580e-01 3.438564164794765676e-01
1.576013172240348093e-01 7.939764916885972967e-01 -1.218562460361732741e-01 5.961989199692891983e-01 7.254719930316717580e-01 3.438564164794765676e-01
1.455241675641870958e-01 7.647385991899926516e-01 -1.578451359510923135e-01 5.961989199692891983e-01 7.254719930316717580e-01 3.438564164794765676e-01
1.498158684999104651e-01 6.539290278799222422e-01 1.000767315137489205e-01 3.503887903290031636e-01 7.062686248264852251e-01 6.151522780559973702e-01
