-2.056425898047654355e-01 -3.456784883151258758e-01 -2.951689943976953598e-02 -6.558278959329230107e-01 -6.479664950364479870e-01 3.873360197895054924e-01
-1.559388676219266023e-01 -3.918882260765823022e-01 -4.810328575514390137e-02 -6.574654345989741078e-01 -4.755995759780319854e-01 5.844178690261774278e-01
-1.445228472025458233e-01 -3.767981394754939539e-01 -3.256138422610206640e-02 -4.655465182943149816e-01 -6.794848165552227481e-01 5.670686231620969409e-01
-1.412681432937187287e-01 -3.973654976409941031e-01 -1.788018098833273756e-02 -7.600382406145942404e-01 -5.137952105895858823e-01 3.979401391901492002e-01
-1.893018759587521138e-01 -3.919533712823334848e-01 4.917810666670437494e-03 -5.701906886323261370e-01 -4.073392142313709274e-01 7.134124635485161736e-01
-2.105819150266784179e-01 -3.545928028656700759e-01 -1.154223588784029919e-02 -6.957521137020121760e-01 -6.167572593520891377e-01 3.681568678100169412e-01
-1.693243966506752518e-01 -3.667016602541714465e-01 -5.514309763392635788e-03 -4.532006175916620805e-01 -4.023210242042433715e-01 7.954539544799463791e-01
-1.547987397487493033e-01 -3.751412214339111539e-01 1.077693224362698612e-02 -4.169052707560619297e-01 -5.013604336717069065e-01 7.581739317362028441e-01
-2.092297458478509786e-01 -3.603647228217788934e-01 -2.534531791876999673e-02 -6.828148044637594172e-01 -5.492820813170805616e-01 4.817189408245164395e-01
-2.262633306394201682e-01 -3.304253173853833880e-01 -1.939867803763951903e-02 -8.439235281575154790e-01 -3.997345725657171500e-01 3.577783533388720349e-01
-1.713512713105747876e-01 -3.565182683210660897e-01 -2.615189102637233143e-02 -4.163515923186288936e-01 -5.271890311893735470e-01 7.407584471117099056e-01
-1.843589556894392190e-01 -3.058484330236727611e-01 -4.174255280833007870e-03 -2.753438513918874397e-01 -2.895283079833997908e-01 9.167110353742622397e-01
-2.271126761672820349e-01 -3.043392824236933469e-01 4.643020158347331561e-02 -3.133501914072376326e-01 -5.036865987547157753e-01 8.050537049041843751e-01
-1.767167612799193654e-01 -3.768571522069715796e-01 -1.699005787093312014e-02 -6.119858580494457190e-01 -4.252818145882638623e-01 6.667898377509940966e-01
-2.420102451326948123e-01 -3.387865527422460610e-01 -1.430946554536175093e-02 -6.749997479671173695e-01 -4.504304771453297995e-01 5.843695110997479958e-01
-2.623684610337417289e-01 -3.214985879489836162e-01 -9.422018150983906687e-03 -7.746426466787121878e-01 -5.090284256027728382e-01 3.752583535045719842e-01
-1.326244337924447625e-01 -3.402831365579355727e-01 3.510186840333952979e-02 -3.184102988479136087e-01 -3.402720761946766426e-01 8.847766925895746981e-01
-2.215594079913565384e-01 -3.513874200677663540e-01 2.747534712097138981e-02 -7.274931465579960177e-01 -4.554148295131626445e-01 5.131774106199953334e-01
-2.801950524408906018e-01 -3.346284291813377276e-01 -2.040775818000042929e-02 -7.057563780351990834e-01 -5.599473097533251842e-01 4.340126094512125055e-01
-1.680242017171406088e-01 -2.837181195430260039e-01 -2.140489754903707534e-02 -5.992122951191869440e-01 -3.146449298478413148e-01 7.361679112125463220e-01
-1.880885780105557847e-01 -3.271933625546083468e-01 -2.030218212188812654e-02 -8.178386950151977919e-01 -4.438800592012356883e-01 3.662108163057802845e-01
-2.085610453915783258e-01 -2.684232242470898644e-01 -5.146624761932110104e-03 -7.940907518121355091e-01 -4.404023276231054385e-01 4.188862228703496560e-01
-1.689986807862972618e-01 -2.866539729845348217e-01 2.271067320393975811e-02 -4.802108037212207137e-01 -3.738269125918004532e-01 7.935055282803653576e-01
-2.090775934682152226e-01 -2.550933947697049953e-01 -1.527435051498127541e-02 -5.032404758658720612e-01 -4.334108229775358034e-01 7.475988777253652628e-01
-2.047729081726735734e-01 -2.914705885461511548e-01 -5.513784211883710970e-03 -7.771761775655532389e-01 -4.374275675419491138e-01 4.523873475009321798e-01
-1.734755263587352825e-01 -2.677977972156913022e-01 4.080057854946052276e-02 -3.889584981479293213e-01 -1.653320337701925380e-01 9.062982982042497859e-01
-2.684078249712892883e-01 -2.888033170405865380e-01 9.596436749904693753e-03 -8.367490804023128836e-01 -4.563259320125383489e-01 3.026840270294621216e-01
-1.755401570448236470e-01 -2.716444297807585895e-01 6.921829430618399448e-03 -8.510124795661137831e-02 -1.731641648721987115e-01 9.812094320787694279e-01
-1.972003415169467921e-01 -2.940181687044973180e-01 2.790207212606368725e-02 -7.232545442496071120e-01 -3.997090924932699130e-01 5.631478541204785193e-01
-2.498047389666917806e-01 -2.977070654096820590e-01 7.365324452682448300e-04 -7.357729707419600196e-01 -4.208288834821982682e-01 5.306045479947164578e-01
-2.283553277069312604e-01 -3.044144294857112354e-01 -2.306250992576122996e-02 -5.371437833940527762e-01 -4.120078394191307725e-01 7.360204455164970350e-01
-2.060712433845814373e-01 -2.951370055902008960e-01 -1.189533610307299746e-02 -5.721530588147157870e-01 -3.155689172941474330e-01 7.570053736445759851e-01
-2.032660158200169653e-01 -2.717053465040956683e-01 3.191558840533046532e-03 -8.504660672598270965e-01 -4.269172066607824778e-01 3.073258321335155530e-01
-1.978339416108502724e-01 -2.710564005197764192e-01 3.059557306936418891e-02 -2.015974929031986995e-01 -1.312856601773672582e-01 9.706299636251384255e-01
-2.639286010243606651e-01 -2.660220609358371346e-01 3.781763487704761610e-03 -7.869528182516239978e-01 -3.964510709958633528e-01 4.727915081217717308e-01
-2.349974136912376943e-01 -2.657863562816661362e-01 4.586045822679318297e-03 -8.176797945051873517e-01 -3.049096397791649649e-01 4.882928068563927582e-01
-2.284768065479420851e-01 -2.743027713907090770e-01 3.305501074335136930e-02 -5.559634990941667576e-01 -1.919852951515204076e-01 8.087312496253338256e-01
-2.156527694161718689e-01 -2.160980485544958807e-01 1.068276677843022979e-02 -7.056984953154474827e-01 -3.948427341783700695e-01 5.882931658417106524e-01
-2.614635120750289365e-01 -2.493357418443769014e-01 5.754011588816047851e-03 -2.314294647873908484e-01 -3.123603982342776919e-01 9.213421646940648246e-01
-2.168866116723286996e-01 -2.319196884013080273e-01 -2.056478667088263226e-02 -6.454260950677074282e-01 -4.218697918168207717e-01 6.367503706776173056e-01
-1.981889285077114982e-01 -1.955630585952636280e-01 2.684185700429343388e-02 -7.135861704004333728e-01 -4.416438821274066839e-01 5.438248420150343376e-01
-2.620407519986862055e-01 -2.119443055031212664e-01 2.131632626019578161e-02 -6.314075835710524220e-01 -2.849424355665754471e-01 7.212019632685093828e-01
-2.729654183657051481e-01 -2.362445209155064896e-01 1.589508113910811666e-03 -7.654708015514981589e-01 -4.602552641527707933e-01 4.496882740207599483e-01
-2.437079134089727706e-01 -2.097622179789893904e-01 -9.110179687753010291e-03 -7.031223672019049076e-01 -3.288493624889118894e-01 6.304577967881958012e-01
-2.097911596234115494e-01 -2.301931475204376243e-01 1.980022766872963080e-02 -8.018058197556323652e-01 -4.986063652734019636e-01 3.293920459192135053e-01
-2.599789224011209154e-01 -1.862508652943710985e-01 1.132883732923912166e-02 -5.908448195449300666e-01 -4.242845946367328480e-01 6.862105959331014082e-01
-2.424693830420574792e-01 -2.301294391924443572e-01 -8.539427626118745868e-03 -6.637282067117383777e-01 -3.589606680085757895e-01 6.562104132350056185e-01
-2.923416903306871317e-01 -2.388746732420377050e-01 8.757128897212435731e-03 -7.642732648609628088e-01 -4.355961516158010638e-01 4.755442874394227859e-01
-3.043693159155591577e-01 -2.129167527700263352e-01 -2.946376816229475878e-02 -8.497934266594339148e-01 -4.393631686843845197e-01 2.912235189850478356e-01
3.558939765765975483e-01 -9.781294785385567792e-02 2.606056635628195006e-01 -4.625986975075510044e-01 -8.960028227175965976e-02 8.820284771372964849e-01
3.447076100101723051e-01 -1.090134249417253898e-01 1.743516622008438044e-01 -5.138457272542488186e-01 -1.332688606633808115e-01 8.474679813184901045e-01
3.701158380990319241e-01 -8.542999110998303336e-02 2.315583864369052669e-01 -4.135890085878320410e-01 4.309100163857696592e-02 9.094433998623104864e-01
3.215052835599501169e-01 -1.985747266324836002e-02 1.662386773350625346e-01 -8.144775147900903400e-01 2.555567899251424135e-01 5.208810853011603959e-01
3.508889555820217110e-01 -1.755879385682737950e-02 1.982578688742880069e-01 -7.828551145885291884e-01 2.302098256140354127e-01 5.780495703253625273e-01
3.548104150326571449e-01 -5.558424754726449396e-02 1.942597144651163343e-01 -7.864013670721303750e-01 2.276295026274862132e-01 5.742453303255045105e-01
3.415224620236125275e-01 9.128953103931709140e-03 2.280146437914566671e-01 -8.508972278896544950e-01 1.770611478432694841e-01 4.945940330150832565e-01
3.791329265998314435e-01 1.762750397684883369e-02 1.982327504534902585e-01 -7.438219322724169968e-01 1.930963781748859243e-01 6.398771146136337240e-01
3.517748771481296610e-01 2.160399653272896195e-03 1.582250237835428897e-01 -7.426952206300053705e-01 6.538907663405254533e-01 1.443283580865107885e-01
3.380521971704125161e-01 -4.733162615376775018e-02 1.861728674756133184e-01 -8.394497065441947070e-01 3.663717638302017576e-01 4.013675632768701207e-01
3.588581675219854605e-01 -2.312401568683948236e-02 1.854679691270794684e-01 -8.833319616205249636e-01 2.652155872756319366e-01 3.865039946050712327e-01
4.364435035307787647e-01 8.031968944393702570e-03 3.156017947759974795e-01 -5.237403757898291268e-01 -2.342464150310960280e-01 8.190388487810623674e-01
3.727944837137177059e-01 -3.395145677614962165e-02 2.615342784918476826e-01 -6.269577023196979404e-01 -3.656822196174736722e-02 7.781945801948002561e-01
4.440638853437441358e-01 3.139490618194861610e-02 2.866775999690441834e-01 -4.371421135402423497e-01 2.977277046216333586e-02 8.988995242565084309e-01
3.841897465095390762e-01 2.116731257421662626e-02 2.594566661104353300e-01 -6.452240676159299859e-01 -2.209891748082786211e-01 7.313341829743156275e-01
4.137393829407606249e-01 4.076898021986337384e-02 3.001221573258206488e-01 -6.606679639017929428e-01 6.249898900319864753e-02 7.480720004434315840e-01
3.901733131220477824e-01 2.974948397634220865e-02 2.383140870896998109e-01 -8.582699240565143661e-01 2.022737565593403421e-03 5.131945498470984468e-01
3.574502116846914879e-01 -3.118491859953342188e-03 2.655327426369447630e-01 -7.828370510340167954e-01 6.279208869813864002e-02 6.190503251960127740e-01
4.407900948466512703e-01 4.150542918359258204e-02 2.944304679217827903e-01 -5.035265082162881933e-01 -7.970388140678692779e-02 8.602954997047264074e-01
4.247630458958465138e-01 7.835061884585518832e-02 2.577346876343254989e-01 -7.173404609684177480e-01 3.249761941110015928e-02 6.959644874490573674e-01
4.313373446879236184e-01 3.346028984556493474e-02 2.478980498390434550e-01 -8.010767188920709936e-01 3.368917424262327098e-02 5.976128596239910218e-01
4.145177975990393948e-01 7.625063458168217234e-02 2.407950468413035394e-01 -7.564814624427425027e-01 1.688297831784489333e-01 6.318483214288123095e-01
4.126315187473306723e-01 3.765103504362649761e-02 2.921588523682630556e-01 -7.143006558802774686e-01 1.298019683778035560e-01 6.876961698411975243e-01
-1.849656137881626750e-01 1.302138743709900237e-01 8.436147653994838236e-02 -2.045339410819696779e-01 7.975732192739580506e-02 9.756047542649877169e-01
-2.128693164653595316e-01 1.692815073776694212e-01 1.149406227068681952e-01 -1.873364704571080785e-01 1.137689855400936950e-01 9.756852283220500688e-01
-1.918879480790502967e-01 1.006517894040087624e-01 8.034484861614427098e-02 -2.795446565802446326e-01 8.247579531411236564e-02 9.565837800029528548e-01
-2.606130252915332401e-01 1.491795969319185122e-01 6.315276252177309813e-02 -2.697234436956967296e-01 1.483110039265534141e-01 9.514479019027958229e-01
-3.159527361089288222e-01 1.318506716021747849e-01 5.649679016086789352e-02 -4.120999339875996426e-01 4.787710846984150059e-02 9.098798969600234710e-01
5.129627507225409389e-01 7.174286992828722564e-02 3.076454800332968920e-01 -5.373995603872320226e-01 5.963208701713483828e-01 5.963246869732087285e-01
-1.993494171474297361e-01 1.188685124653733466e-01 7.362403913376200371e-02 -3.245948916120283134e-01 1.547117423650598289e-01 9.331143730078017562e-01
-1.916673174935449864e-01 1.057409949094054447e-01 1.429602957970482757e-01 -1.983562325784682667e-01 -4.519981889011814857e-03 9.801195716651104339e-01
-1.947378425157041404e-01 1.196507048346011071e-01 1.061756396616694159e-01 -2.203619013082971645e-01 1.299256590274042037e-03 9.754173180665314247e-01
-2.338507370941474428e-01 1.387586538203731124e-01 6.317050892869036094e-02 -3.470349705105162386e-01 1.385816447374163818e-01 9.275569292418862632e-01
-2.716921403486570741e-01 1.156366396451165984e-01 5.707594927259539153e-02 -3.537042208535251531e-01 8.372237576286632732e-02 9.316028595635709175e-01
4.412539543764396610e-01 1.267943714892282581e-01 2.787075812282867049e-01 -5.594159999864851684e-01 6.727657008507649250e-01 4.841900977073984591e-01
-2.113665653627694041e-01 1.555266074091004869e-01 8.008064106303046381e-02 -2.579519893363930172e-01 -7.550509195870366841e-02 9.632028614397412092e-01
4.832111821061164103e-01 1.387886927584039698e-01 2.945459928668803795e-01 -4.742344568173517128e-01 7.631264800303924067e-01 4.390212471436599206e-01
4.739822546932220826e-01 1.483828373665780076e-01 2.708475590812486344e-01 -4.077104315497906972e-01 8.597214760306253201e-01 3.076543314455464362e-01
5.022807318939584986e-01 1.865031194015653315e-01 2.806801594049898041e-01 -4.287139817802126385e-01 8.340627849978849984e-01 3.471938831657713775e-01
4.823324569584312993e-01 1.380368382523899373e-01 2.705530315463982594e-01 -3.742185991933801303e-01 8.535819583736545813e-01 3.624338289353533082e-01
4.987824026640617636e-01 1.360066730711237959e-01 2.417263632701149023e-01 -3.607534763123633192e-01 9.103322093368668710e-01 2.028600452834517787e-01
-9.746271497002230444e-02 2.076913012164438022e-01 8.839159820530455292e-02 -3.205341573865360671e-01 -2.513029171860848079e-02 9.469035443943807362e-01
-1.639940641414768252e-01 2.084842755276591075e-01 1.810097761579539666e-01 -3.479807836604120186e-01 7.172630759774824283e-02 9.347538237426359364e-01
-7.599912783828169371e-02 2.251008408997234311e-01 1.480706109353418232e-01 -3.902282771125437644e-01 6.897587295519412576e-02 9.181308298340953300e-01
-1.271741630831597913e-01 2.657298834899913809e-01 1.020464965763289711e-01 -3.950018904560232968e-01 1.099853077994275008e-01 9.120727704544373537e-01
-1.902430269196736801e-01 2.384347763821615673e-01 1.131074277881724821e-01 -3.480282974797940798e-01 2.110232291670511573e-01 9.134251479487667247e-01
-1.470639424202643264e-01 2.831585201648647576e-01 5.242654957985634634e-02 -8.245933497437507587e-01 1.987231301833115027e-01 5.296743575901395884e-01
-1.077495538813051101e-01 2.895480637533869861e-01 1.302365513816824416e-01 -2.087762551426756152e-01 -5.038694664725776318e-02 9.766645436874253905e-01
-1.397342202707435033e-01 2.581703033621465804e-01 7.864914414714894997e-02 -4.794838346804255469e-01 8.353652557473438545e-02 8.735656249962311382e-01
-1.320637245818254146e-01 2.308482429124982249e-01 5.272642685623171038e-02 -7.839405873812381742e-01 2.452589779618464250e-01 -5.703377851637307927e-01
-1.368983963699017536e-01 2.748689870633962418e-01 8.847964778541650421e-02 -3.130542919227494725e-01 -2.389482309650243774e-01 9.191848308297039249e-01
-1.248409805561173092e-01 2.649709389424400596e-01 8.211369298690950058e-02 -1.579489078439580141e-01 -1.217681987611008432e-01 9.799105307533835241e-01
-1.034559277498432739e-01 3.168135754950307525e-01 9.141257235385262525e-02 -1.565695253056804126e-01 -2.525921175535686958e-01 9.548210334378679498e-01
-1.682417613961431080e-01 2.978071017271848864e-01 6.500954655712386232e-02 -9.499885996222542373e-01 -2.553587450848500695e-01 -1.797597616165499956e-01
-1.303088340618912822e-01 2.938276107389494185e-01 5.727041921308407418e-02 -7.022497134190341939e-01 -1.397575355382972562e-01 6.980781985301830472e-01
-1.745355713898999461e-01 2.801089280447463525e-01 6.692339956166626358e-02 -9.222120543500417211e-01 -7.550311186708580369e-02 -3.792416207510221349e-01
-1.036568089963099959e-01 3.408036083927448723e-01 1.058253104245377857e-01 -2.701851808730311721e-01 -1.754072334663879240e-01 9.466954475882279896e-01
-1.826665312182313983e-01 2.909754125454701579e-01 6.914298799981359600e-02 -9.395319336849066172e-01 -5.837208649782972547e-02 3.374499149565607370e-01
-1.319867417799408249e-01 3.621372865453861278e-01 5.113503244915065110e-02 -9.383306960770873006e-01 -2.761881996541194484e-01 -2.079797662545687098e-01
-9.897405814283367909e-02 3.152444015876106898e-01 9.501966121159502454e-02 -1.293098111511597481e-01 -1.402022145310990731e-01 9.816426599229614025e-01
-1.411943889204400060e-01 3.461009119517265420e-01 5.773860247632437576e-02 -9.672922161109841488e-01 -2.447740390379968822e-01 -6.656905034718711700e-02
-1.515724806378921374e-01 2.996837588472646696e-01 7.617639370823650613e-02 -1.186676246741521917e-01 -1.984924692102915944e-01 9.728919439079531939e-01
-1.673904399919930175e-01 2.953763065394671150e-01 7.645550385486374334e-02 -9.412075504766794776e-01 -2.719458714755953466e-01 -2.004340038842405414e-01
-1.560061558114283764e-01 3.024600537938993416e-01 1.075604233550400135e-01 -1.955161073859807419e-01 -1.993062822442950854e-01 9.602345846774062998e-01
-1.651508601133712117e-01 3.298363741885739220e-01 1.058238859381206570e-01 -9.041512179143988970e-01 -2.729680781239793297e-01 3.286320183262888550e-01
-1.375416988722237277e-01 2.979308186574215478e-01 8.634855890796862277e-02 -3.415832423342199387e-01 -2.577606654067258751e-01 9.038143215979285161e-01
-1.536479667988497333e-01 3.179171802677274172e-01 7.247663089925057700e-02 -9.502908182403900783e-01 -3.113617000484327213e-01 -1.119156360841840189e-03
-1.461738183319450379e-01 3.505666888674847659e-01 7.622890232848546221e-02 -9.348541291559714361e-01 -3.454457021764731350e-01 -8.194525030673507904e-02
-1.100372974149823324e-01 3.538074542049657323e-01 1.246739365140151767e-01 -1.223361190070817728e-01 -2.186943366592258298e-01 9.680943451438327463e-01
-1.526033221708700816e-01 3.650231505493586881e-01 1.379066708862914103e-01 -8.267884693315061817e-01 -4.267653753196574279e-02 5.608917365452514847e-01
-1.734703679999950177e-01 3.889076119471920889e-01 8.353757401032120555e-02 -9.053351990488283096e-01 -1.343817403306719060e-01 4.028768114807780298e-01
3.226520093834905900e-02 3.229216552242359373e-01 9.213648466722054731e-02 -9.778155873486885641e-01 1.426869210884842976e-01 -1.533529252679180777e-01
2.391796711086401420e-02 3.911197167920238971e-01 7.544932956118052814e-02 -9.612068229634048722e-01 6.309858164395273916e-02 -2.685144548867326453e-01
1.965397886983676068e-02 3.309917132617538615e-01 9.747213827717196577e-02 -8.564358022989556618e-01 5.302577335745589648e-02 -5.135231094122131301e-01
-1.472528421965785816e-01 3.772718376276974483e-01 1.272328827579630173e-01 -5.237814365380070170e-01 -2.246505380036430966e-01 8.216965026777560688e-01
5.745881880472337999e-02 3.664674746683341811e-01 1.752405603712798576e-01 -7.437060371390131763e-01 -1.399010553134399926e-01 6.537040806398339843e-01
-1.719585350651342825e-01 3.481371983709360962e-01 9.669387220578715136e-02 -9.431943675259584214e-01 -3.282009533520272027e-01 5.165771274580062411e-02
5.865065556350197717e-02 3.847166892211653089e-01 1.118313726346002318e-01 -7.960863635818004047e-01 -2.641616336355390171e-02 -6.046062255983273293e-01
-1.736530651275257353e-01 3.892486069599737641e-01 3.050985906485029209e-02 -9.268554185087776176e-01 -3.740882366660495117e-01 -3.157569269239365178e-02
9.351626166470117241e-03 3.527221269139981796e-01 1.533103161507625434e-01 -9.881771329619112310e-01 -7.036132347023649897e-03 1.531549761933075349e-01
1.045091743205111071e-02 3.736567807486160797e-01 1.517446594579007491e-01 -9.350226807604354873e-01 -1.776156289609632372e-03 -3.545834622940048364e-01
-1.523472632663823434e-01 3.895962033291432980e-01 1.099258120814671225e-01 -7.407847945702193959e-01 -2.757149962988210135e-01 6.125513276040619459e-01
2.075989626009072664e-02 3.507482899107272067e-01 1.353175636663780934e-01 -9.785346060233756083e-01 1.427737349856051108e-01 -1.486125345081541205e-01
-1.952392977011249142e-01 3.721722879680248175e-01 7.725016861283003078e-02 -9.766101023584125018e-01 -2.123404932104832055e-01 3.382636419451114096e-02
-1.687332986794065071e-01 3.652590347463786635e-01 4.476113627071520717e-02 -9.494475814266936098e-01 -3.139198388704699805e-01 1.903913480191018158e-03
-1.181620927819858335e-02 3.448127087825857973e-01 1.970422794911917408e-01 -9.057298341381846418e-01 3.170771830999977864e-02 4.226678224700696762e-01
-1.279507465076346884e-01 3.552119550355571920e-01 1.160718936629377279e-01 -8.013536755871766282e-01 -2.319192017351513480e-01 5.514034552752206109e-01
-4.575904663265614736e-04 3.744857572324549189e-01 1.143946394803729283e-01 -9.940165710387195430e-01 1.063249920294206813e-01 -2.502104255161631888e-02
-2.073257001515508846e-01 3.877360387603938641e-01 7.830202253013000824e-02 -6.235564777137215797e-01 -1.991071883501274453e-01 7.559984435490353372e-01
4.120886135604000938e-03 3.826719860650948379e-01 1.474744027759739562e-01 -9.815308279138827974e-01 8.053090926017301976e-02 -1.735281144610796300e-01
-1.650092432620436644e-01 3.651543964237548567e-01 1.087818304433303407e-01 -8.917410264462686253e-01 -3.305159732912000825e-01 3.091231682548653548e-01
-1.528742941655037713e-01 4.029337367670390302e-01 8.241927322722376881e-02 -9.612873835093470598e-01 -2.424649427836597926e-01 1.309095788193903598e-01
-1.713700566929458047e-01 4.047669750338460659e-01 6.104936284738688573e-02 -9.457000124574783673e-01 -3.224526609613116435e-01 4.093614389380932639e-02
4.382906914172267354e-02 3.313798455556611344e-01 7.431031975454149840e-02 -9.480351308170382740e-01 3.493619498875068230e-02 -3.162417635550833217e-01
-1.896565939726848060e-01 3.955694166833256809e-01 2.928371132138627222e-02 -9.472890306862853382e-01 -2.138858228923698757e-01 -2.385295518527876801e-01
4.523328661882492635e-02 4.096635928673361127e-01 1.618197767366257589e-01 -9.616477760598606261e-01 7.538525723627605146e-02 2.637245111675147746e-01
1.239250368109027362e-02 4.095884244425610499e-01 1.310617780638164143e-01 -9.845528008815468413e-01 3.014635331371076990e-02 -1.724731273508598450e-01
-2.047666566134772048e-01 3.936245778613407520e-01 1.265434824687854953e-01 -8.152218241519619824e-01 -2.037283194903484196e-01 5.421329627166995291e-01
-1.493170708340818276e-01 4.199659574675099205e-01 6.266638223603851476e-02 -8.460528350986846746e-01 -3.502128170457043388e-01 4.019273354704677170e-01
-1.984839973985910999e-01 3.882202420023478373e-01 7.787765750924222075e-02 -9.909130082390669170e-01 -1.131339838209998172e-01 7.274690239036037120e-02
3.082089524221773985e-02 3.801352032234027734e-01 1.669569411661296354e-01 -8.440899094365214017e-01 -1.327710614774806758e-03 5.362000204885938315e-01
-5.334797174515067825e-03 3.762416175014250963e-01 9.693609075112638584e-02 -9.895994017017427646e-01 9.077737216908303430e-02 -1.115907382072033466e-01
-1.785762998581099381e-01 4.115006419716590869e-01 2.822032576270170831e-02 -9.044957268266796691e-01 -1.008878508394275564e-01 -4.143779937512100386e-01
-2.070737446950161043e-01 4.262340987326258546e-01 -3.285631168109176548e-03 -9.505869087601760414e-01 -2.017604724831291441e-01 -2.359602522399849578e-01
4.573344803737976194e-02 4.130128205427231469e-01 1.837175699393109041e-01 -9.540639967372075425e-01 -6.856650068440346690e-02 2.916513759846182108e-01
-1.548761010192782617e-02 4.107826681266711910e-01 1.090775315524740302e-01 -9.967489245858972557e-01 1.653051036617842265e-02 7.885634764488592963e-02
-1.417785390190765271e-01 4.448701889595479408e-01 9.977475101454059969e-02 -7.122926331695195179e-01 -1.476343545496684728e-01 6.861802256616953422e-01
-2.134133255156556441e-01 4.717000550538424930e-01 4.529217277222048754e-02 -9.192001871351166420e-01 -2.488916149018876312e-01 -3.051622191594120515e-01
3.868364282334449400e-02 4.433495650292368362e-01 1.007452787401520444e-01 -8.881411037962685384e-01 9.302663722118865997e-02 -4.500571347227628749e-01
-1.941017922503776860e-01 4.216376045869900113e-01 1.008906001594423174e-01 -8.000605132744381676e-01 -2.788677066244979463e-01 5.311647364999257936e-01
-2.380730983164807135e-01 4.453238378348822191e-01 8.769425949827262812e-02 -9.555572096987767772e-01 -1.781284077781155883e-01 2.349057030706604154e-01
2.587432446791122082e-02 4.186946883838429945e-01 1.290447745963778647e-01 -9.838352910772217852e-01 1.510770260239581997e-01 9.614495430730810033e-02
-2.024130791194243273e-01 4.504970469850463899e-01 1.205054262649492836e-01 -7.487355844388712267e-01 -1.646432461940822434e-01 6.420962747732280596e-01
-1.861269155515325457e-01 4.154092128043899712e-01 7.447045440338360967e-02 -8.776910441337906210e-01 -2.431608933565637676e-01 4.129542480582736319e-01
-1.001436767961675495e-02 4.167225704851888479e-01 1.051319210823025430e-01 -9.586049941937443419e-01 1.800819498576020083e-02 -2.841692629757239796e-01
8.195870871974564320e-02 4.224929858886911083e-01 1.335445125181980164e-01 -9.512544013440928925e-01 -2.766394910698855361e-02 -3.071640764205625929e-01
-2.055759736044747710e-01 3.974597465121706974e-01 7.598893164956706248e-02 -7.775382930833453221e-01 -1.570070984537601522e-01 6.089195134204264948e-01
-7.238405938571543241e-03 4.693146637288884149e-01 1.253572617938453482e-01 -9.936819794238113124e-01 1.108006137153286219e-01 -1.787030410157422131e-02
-1.675755177528487072e-01 4.203892233839086612e-01 1.386688902131462675e-01 -7.874182953091718451e-01 -1.863858534537767009e-01 5.875650958359467380e-01
-1.983148265073052530e-01 4.684809964009478134e-01 6.478112162179266997e-02 -9.888169163379074700e-01 -1.373754536243537716e-01 5.804386880192074355e-02
-1.922848121767538054e-01 4.532760927412182173e-01 1.057578156311613088e-01 -8.471797925857926792e-01 -1.066010803859443051e-01 5.205022657922274698e-01
-1.922922371605095271e-01 4.451017318140251255e-01 4.324775777659729814e-02 -9.987146836580504949e-01 3.894548108890544952e-02 3.243809717837271150e-02
-1.842061250727710098e-01 4.877670559887548052e-01 9.801292510956179094e-02 -8.973316411163602124e-01 -8.989495418923190706e-02 4.321051064992587065e-01
-4.675663570349941067e-01 5.958262028377918629e-01 3.877985049942841989e-02 -6.254669595814896788e-01 -7.786501013112506753e-02 7.763556676351162089e-01
-4.253151470127038980e-01 6.283079888271927427e-01 5.824001242667707634e-02 -8.053116199373241413e-01 8.629877147971698470e-02 5.865370549547697099e-01
-4.646380550686010635e-01 6.190984961290220134e-01 2.792890466748583489e-02 -4.111064530172779397e-01 2.720805567734022601e-01 8.700365825144527054e-01
-4.661445352300725986e-01 6.676741289590376605e-01 -2.528116161338786472e-03 -7.681153978458996612e-01 1.749031231394218289e-01 6.159607399080817558e-01
-4.128782637720710413e-01 6.836031153839275953e-01 1.543499471823265093e-02 -5.463595161181550308e-01 2.248655740586629481e-01 8.068003177679118343e-01
-4.585625606380002162e-01 7.088508025464158591e-01 3.868749259951386604e-02 -5.891498819087719330e-01 2.903023866668048569e-01 7.540735646755143406e-01
-4.898052301534105979e-01 7.106832181832716255e-01 -1.914502512944050300e-02 -8.384891322134498948e-01 3.805417196220512444e-01 3.900307356953141014e-01
-3.739364616141632736e-01 7.098882803067975145e-01 -9.204971058441122761e-03 3.676847214799191521e-01 9.242346742867491027e-01 1.029476198671012005e-01
-1.965843455594314948e-01 5.827172997115218633e-01 1.074659878621628262e-01 -4.814206650685604605e-01 -1.188084386621543614e-01 8.684000795414553719e-01
-1.445356490441990494e-01 8.500942740726455948e-01 2.691907556588636619e-02 5.112664294288045141e-01 7.637176834264846059e-01 3.941344163617344631e-01
-3.098532463901667589e-01 4.587475857845651483e-01 8.382698867952316502e-02 1.830260921508629623e-01 1.845894402711578952e-01 9.656232122998930079e-01
-3.804760035045295918e-01 1.222943285399895330e-01 -1.133005226294894405e-02 6.419912423872029539e-01 7.603890526909501402e-01 9.826359064218696815e-02
-3.803492279364904527e-01 2.277707138201474080e-01 -2.028487315644241038e-03 6.594533042387716870e-01 7.270097824711367895e-01 1.912540606623463202e-01
-1.058565765423344213e-01 5.115188607294277601e-01 9.684379565569199710e-02 3.827367995107520682e-01 1.184282312243609275e-01 9.162353935257770976e-01
1.791413327718299475e-01 5.960954425492068776e-01 1.938482059123476653e-01 5.414963457308478167e-01 1.019325854815011402e-02 8.406413058137869321e-01
-3.679602546166507171e-01 5.717988795326192086e-01 6.479700565493275166e-02 3.621337779731140238e-01 3.709939926187174608e-01 8.551155385629140016e-01
-9.177220334988517303e-02 6.079424678504354862e-01 9.473661525842834441e-02 6.978723606492329701e-01 1.296544735830229833e-01 7.043890159008557861e-01
-1.213871862553924375e-01 5.975602431102479128e-01 8.697951156487995772e-02 6.171766387549418864e-01 1.260953205202445526e-01 7.766549856390859707e-01
1.105719674588280382e-01 6.356574567731321235e-01 2.245424764345847479e-01 5.827720524684468217e-02 2.164831576317360340e-01 9.745454375299338334e-01
1.186961967504138460e-01 6.268018166231867916e-01 1.996869539070899591e-01 -6.011447690354790319e-02 -7.610998919077481550e-02 9.952856470441001635e-01
-3.744545888314015913e-01 5.852839788171578794e-01 2.676152974840966675e-02 1.441921832100573064e-01 4.101836962982781665e-01 9.005320369604842279e-01
-2.024851987574503576e-01 6.534654486696870324e-01 1.120988939491649461e-01 -3.142543788559859497e-01 -3.467909632457175789e-02 9.487051942768890411e-01
-1.523085683294491954e-01 6.220829284507168877e-01 1.308665011384488874e-01 -9.966138502118578046e-02 -1.175729936134138620e-02 9.949519456975731702e-01
-1.193409374282266705e-01 6.344886457082189457e-01 1.419848364257744189e-01 5.615165823090944031e-01 2.123422035518858497e-01 7.997561605781124960e-01
-4.573381099452943910e-01 5.655898654053288510e-01 6.998911065346205551e-02 -3.002665710813868238e-01 7.730102964025171997e-02 9.507179061675358200e-01
-1.549923352969976853e-01 6.950427275288099116e-01 9.722581320241804881e-02 5.071599133547268767e-01 4.875419325109302260e-02 8.604718768945681662e-01
1.699992690656903782e-01 6.858954942242557751e-01 2.037220007842226177e-01 5.390525990055575756e-01 1.441187376062361969e-01 8.298506401613112704e-01
1.428165813974979770e-01 6.978686692063825747e-01 1.876249735236837635e-01 2.113661038839155237e-01 2.553652632554460622e-01 9.434579759858997550e-01
7.142278551813946441e-02 6.841696616270350750e-01 1.543187868592416356e-01 -2.932146013560760212e-01 2.093259130156766012e-02 9.558174638355374508e-01
-1.982066756252991169e-01 6.993060521653700068e-01 1.133813163807161212e-01 -4.910669203414358974e-01 5.499108065679412377e-02 8.693844148560381235e-01
1.928550046796057571e-01 7.600586492186943710e-01 1.879565088970287512e-01 4.002464730026472073e-01 2.013070961813202553e-01 8.940236092385849265e-01
-9.902652335114778270e-02 7.562185348341977642e-01 9.653466834728689772e-02 4.871044623242656302e-01 3.754973606907657802e-01 7.884991914377952327e-01
9.201645245702838594e-02 7.474220966749016704e-01 1.614420823021793239e-01 -4.066665743386508325e-01 2.740379158148852357e-01 8.715076121362914652e-01
-1.213163252347239790e-01 8.399176198804683136e-01 6.426103906376695596e-02 4.097832987919075021e-01 3.725742796514536215e-01 8.326259989775857129e-01
-2.355046211983479465e-01 8.083280594558159837e-01 6.718515450442469339e-02 -1.947019520393405423e-01 3.177434349779987843e-01 9.279710444838528138e-01
4.100786836222321263e-02 4.153378429533190475e-01 2.171870130254131837e-01 -5.831340085462674017e-01 7.141142855793863875e-02 8.092312005527692031e-01
-3.320015526591438837e-01 3.897295513812357171e-01 1.040140695501552692e-01 9.287859691992307598e-02 3.216314140608328986e-01 9.422986786170377549e-01
7.945108595377685379e-02 4.390703714819664261e-01 2.053258133092292770e-01 -4.291902156171532590e-01 1.143793166537285383e-01 8.959425934401866742e-01
-3.037625060744032490e-01 4.464239717041655897e-01 8.665690514423991797e-02 3.767493256710269245e-01 2.464202174297926429e-01 8.929373001774986163e-01
-7.642395672369600712e-02 4.477063823655902386e-01 6.783612316492100558e-02 9.599496332373239627e-01 1.161793062915506165e-02 2.799316440408683992e-01
-2.976591824460950164e-01 4.434100874347128851e-01 7.196977539022519910e-02 7.499960711370210475e-01 3.734636178233466941e-01 5.459219902525723755e-01
-2.968452164241402319e-02 4.363682015393408054e-01 8.892651962788859776e-02 9.268104208659788679e-01 7.001162421845502984e-03 3.754642825875318946e-01
1.345486370294045886e-01 4.944833536911651950e-01 2.394747853727621778e-01 6.065665574513996461e-01 2.554692400963310892e-02 7.946221530106015729e-01
9.634844217868948624e-02 5.231468927008715575e-01 2.100886204163423532e-01 -3.450220174607146473e-01 -8.431727910268149717e-02 9.347996597731831336e-01
1.153097672974278259e-01 5.154149854382168439e-01 1.929314802665071382e-01 -9.126742399546440565e-02 -3.991701593041230983e-02 9.950260746113356314e-01
1.457412388782940438e-01 5.422208820945552121e-01 1.858097449275801227e-01 5.647026935148741905e-02 7.567794120618914766e-02 9.955319974235701252e-01
8.947888676198190172e-02 5.386168705312690541e-01 2.395390289219109514e-01 -4.784909568529892993e-02 2.512570679396424964e-02 9.985385134786752825e-01
7.666260693262966219e-02 5.470832099418115879e-01 2.213871862041460470e-01 -3.516315996182252657e-01 5.099750432146363255e-02 9.347483472587210240e-01
-3.126056584623332357e-01 2.886243818173759301e-01 5.991353261499045291e-02 -2.845400981565609499e-01 -3.046798778975031707e-01 9.089593525265127205e-01
8.013521082702271259e-03 2.941342733421335454e-01 1.430988396749793279e-01 -5.066078836053916623e-01 2.580962736596489338e-01 8.226389036459859083e-01
1.159140595467681584e-01 3.450785079680036005e-01 1.664612956866050320e-01 -2.947160405318443449e-02 -2.842165523442661268e-01 9.583070363552963489e-01
9.257693311463879859e-02 3.369910807017663656e-01 1.895706819677542565e-01 -2.285499379145917720e-01 -2.471557937179715281e-01 9.416363095754516355e-01
-6.183670127963099006e-01 2.777259431433848902e-01 -3.506063633944710850e-02 -3.680398568316588515e-01 2.936521645852337506e-02 9.293461937543382456e-01
9.581264792020938170e-02 3.500806520584159864e-01 1.798672280306993498e-01 -2.822029265370945006e-01 -2.481689667535070531e-01 9.267004220320588237e-01
1.648945388844168247e-01 3.852586508774390461e-01 1.562407799519237861e-01 5.376668141409243207e-01 -3.128306287787850914e-01 7.829759860106940694e-01
-1.268304143858708932e-01 3.488110862908254672e-01 1.469854745142555319e-01 -2.302961585980858039e-01 -2.098791662442117678e-01 9.502180880785209283e-01
-1.850038615413769072e-01 3.774066148678650312e-01 6.874880063715552159e-02 -2.886598338953053622e-01 -2.331046777837466055e-01 9.286214026668083710e-01
3.906436884168052598e-02 3.837838663778574966e-01 1.683107064339771086e-01 -4.444897783142551240e-01 -1.409222989463644327e-01 8.846297206367281785e-01
-4.588687438394165041e-01 7.417779695957664454e-02 2.492630210032482918e-02 -1.132658328056272423e-01 -2.729112027801696705e-01 9.553482749845361166e-01
1.242205177199357802e-01 2.000984277013144186e-01 1.429104710905243769e-01 4.354860545382164827e-01 -4.216836148476198198e-02 8.992072762119021068e-01
-3.749146135667544844e-01 1.950909741509038731e-01 4.285201951588051006e-02 1.628038657832205083e-01 3.567071040643736701e-01 9.199211614024580541e-01
-4.501423168882248138e-01 1.597387364791694186e-01 4.406628039021150134e-03 -9.279710786575473547e-02 2.853602729057012066e-01 9.539172979975439892e-01
-4.938475959568111029e-01 1.168145213142648825e-01 4.102165334879823155e-02 -2.587812055515251175e-01 1.239778143639207048e-01 9.579466525850198755e-01
-3.846243945354231308e-01 1.687440662699540295e-01 -1.206850995148573552e-03 2.836833473210565448e-01 5.233247219953559570e-01 8.035265980670486252e-01
-3.962856064445987592e-01 1.641774815592234038e-01 -9.229589277015812915e-03 7.695526224790814052e-01 6.374988509111971791e-01 -3.720183224616107481e-02
-5.164968063585948510e-01 1.626338028986595297e-01 -1.612367958651980682e-02 -3.118881680927055866e-01 2.284231414143355829e-02 9.498441973757804080e-01
-4.311971190655867203e-01 2.024305717519415959e-01 2.942362633294772975e-03 1.592029091206738078e-01 6.298827413295576827e-01 7.601987673646122268e-01
-4.462330340798980055e-01 2.012017269723204160e-01 -3.453407132437194549e-02 1.431898299953437426e-01 6.610648714961402383e-01 7.365391423812424065e-01
-4.937200085677597716e-01 2.420224118026556570e-01 2.708404105648610713e-03 2.191997355964816763e-01 4.988241722043327830e-01 8.385260408234764817e-01
6.681287948301766200e-01 1.421872707477871423e-01 3.195049942235602680e-01 6.171177055802143929e-01 -1.977195020022985139e-01 7.616250626045434347e-01
6.378031580299673431e-01 1.276074551372896881e-01 3.156274838560000351e-01 6.951502887193712343e-01 1.518438107161450001e-01 7.026446706839627465e-01
6.381958934496417823e-01 1.799855894613504592e-01 2.881511605465863490e-01 6.015198964420568339e-01 7.789042983337537418e-01 1.774314183608416695e-01
1.480965212508813522e-01 1.397511683381046366e-01 1.638882679092414918e-01 5.761169593545071299e-01 3.865356805481568597e-02 8.164527854204116641e-01
-4.011433610642975434e-01 9.062160367773428038e-02 1.589229019094408682e-02 -1.685452847496484718e-01 -1.176171788891789693e-01 9.786514630954223914e-01
-2.745655501635528850e-01 -1.109967070304080927e-01 7.818458207385645120e-02 -2.613996986061395966e-01 -2.700539401720502553e-01 9.266828297568538986e-01
2.994722973086217377e-01 4.740437416782962432e-03 6.972481210300794652e-02 4.539377338041287735e-01 8.243107006092725841e-01 3.383081475368605595e-01
5.359222743059856020e-01 8.698427840712485981e-02 2.898188628026057700e-01 2.379170209258038571e-01 -3.594607935254876541e-01 9.023211341156858190e-01
2.418390808131442027e-01 -2.706031602790916549e-02 9.961217431304461578e-02 3.503224369157282858e-01 8.901028673288241544e-01 -2.915322894062185033e-01
-2.280141359635041443e-01 -8.563271088834648048e-02 9.610493510942505480e-02 -4.495968717666157938e-02 -1.301401683978583579e-01 9.904757256482127348e-01
3.007541622577156182e-01 1.999539897847004560e-02 1.418608062238302658e-01 6.822383741864346263e-01 4.774601340632834146e-01 5.536990348264314576e-01
2.316807029442713994e-01 4.586423271894532472e-02 1.370455765679094162e-01 7.313994873061151480e-01 3.791904386877694710e-01 5.668063171632164998e-01
4.244396294666347158e-01 5.783713765262207124e-02 2.979202837271274218e-01 -4.686692448941265909e-01 3.674346142234526796e-02 8.826092322953992264e-01
4.605158271594277375e-01 6.310111501610284057e-02 3.218982596230269277e-01 -4.689691707341887561e-01 -5.241480129961489931e-02 8.816578732737597734e-01
2.033728055374136034e-01 1.969230393027734602e-02 1.400461588989466710e-01 5.542134482578902066e-01 1.061089854225641532e-01 8.255836341538590473e-01
1.790258709930974967e-01 2.935003600076229596e-02 1.357148709584906632e-01 8.935066133793563570e-02 1.751321748053758232e-01 9.804821164439527781e-01
-3.073720443424871607e-01 7.874017354517790640e-03 6.603860509320852445e-02 -3.414012096663279205e-01 9.332393628888613346e-02 9.352731456392383569e-01
4.289974690843262883e-01 -1.196725147099518688e-01 2.132626998568266652e-01 5.119595785397049736e-01 -2.968277626189242957e-01 8.060959429745886418e-01
4.701189052507869781e-01 -1.302269864964107349e-01 2.609718484250419523e-01 5.236727567076019385e-01 -3.915880923725811869e-01 7.565881374924295910e-01
4.225953076347206960e-01 -1.351218444497016002e-01 1.734774534886915631e-01 4.185109523624562788e-01 -4.938829639722054909e-01 7.621864605532553405e-01
-1.891325003869931409e-01 -1.839940545823736118e-01 1.034032609453881951e-01 -2.923601681269482611e-01 -2.212356451273493618e-01 9.303656923048421179e-01
-2.558038315006782581e-01 -2.050951992959791914e-01 6.563298647373368155e-02 -2.645212959977634171e-01 -3.376241914808078004e-01 9.033484318304839666e-01
3.993374921651763332e-01 -5.178912908095995721e-02 2.646946509216007715e-01 -4.227700766657351839e-01 -2.275188088664434893e-01 8.772118637410479813e-01
-2.417873716916036364e-01 -1.234895749143484350e-01 5.376206548773016652e-02 -2.979842142960937301e-01 -4.488778946381374174e-02 9.535148107855441202e-01
-2.893186707438033523e-01 -1.349598464476232107e-01 2.808445430183658525e-02 -1.874095624775866664e-01 -2.999360711872617880e-01 9.353694505876859466e-01
2.714152737582025687e-01 -3.239178407570182383e-01 1.534581733423485694e-01 2.337845721581033320e-01 -5.679074017074922098e-01 7.891932316655393409e-01
3.320192619382260624e-01 -2.256406690485122934e-01 1.848579859310868212e-01 1.390749430359790872e-01 -4.460420339062446948e-01 8.841406359897273637e-01
-1.881423703361282118e-01 -2.549862506112452465e-01 2.044929464883828152e-02 -1.373003438984319036e-01 -3.428332433509249655e-01 9.293083357093369079e-01
-7.418350490335932912e-02 -2.049899788758415553e-01 5.723576938233611300e-02 -1.213679325215921839e-01 -2.191553821530779489e-01 9.681119477771011894e-01
2.835218707707138353e-01 -3.699897680100841524e-01 8.275751674315928730e-02 5.531488801777559861e-01 -7.038221116852183545e-01 4.457137550727535702e-01
2.562853416289614383e-01 -3.789088913529285452e-01 1.178853871438666212e-01 4.734374704819409030e-01 -6.905493286354865701e-01 5.468076318640222588e-01
1.538973856318113231e-01 -6.122743727945965109e-01 -6.442839393784974278e-02 3.328461889440076371e-01 -8.100667818401595388e-02 9.394952541631282905e-01
2.634021114495654348e-01 -5.418127704074233719e-01 -1.310779932177717766e-02 5.706081892722592031e-01 -3.680900639560906740e-01 7.341089831572930047e-01
2.659849877819041031e-01 -4.853343870635417057e-01 -6.634898117647097804e-02 6.083221601886439345e-01 -3.459603329188601362e-01 7.143217744616870979e-01
2.070988345940122655e-01 -7.810227188211762428e-01 -5.234135900507730366e-02 6.462569111248062104e-01 -2.799225263411903204e-03 7.631147811183772722e-01
2.033515467126188747e-01 -6.907481127640988650e-01 -3.749119415956839174e-02 5.012699610728401645e-01 3.638065490485407893e-02 8.645258087962018889e-01
2.803874017906981542e-01 -7.147884493006102513e-01 -6.248775149497720616e-02 4.556354437044731753e-01 1.711006347711876985e-01 8.735679225000908543e-01
1.689200679505797054e-01 -6.556234700993355258e-01 -2.481595281165701466e-02 2.980323614079366523e-01 -4.423330715285171688e-02 9.535303488048665344e-01
2.137031563184760841e-01 -6.543294952763303307e-01 8.448089980492151652e-04 3.016049468736124450e-01 1.532887279499798860e-01 9.410297667474937233e-01
1.334488313518812919e-01 -6.226707518930894025e-01 -3.080045919352020906e-02 2.678726302136542614e-01 -3.775530634145442960e-02 9.627142830692196895e-01
2.121668023324723984e-01 -6.424947576700991148e-01 -2.465725961232180866e-02 2.953843788199416176e-01 7.846970827840403506e-02 9.521504994652154608e-01
1.392352656245131604e-01 -6.002714135301135956e-01 6.180182404010126779e-03 2.355774032770208692e-01 8.649163188450741113e-02 9.679992172926642491e-01
1.855097007385997365e-01 -6.059277458170736486e-01 -2.682061865288364738e-02 3.953692211862179784e-01 7.093861435020364092e-02 9.157788444448127230e-01
1.189375882818270169e-01 -6.437469741800269096e-01 -2.084732945987232203e-02 4.072663867925261916e-01 1.188035031659222390e-01 9.055494563106231132e-01
1.915240045952072978e-01 -6.167109133071589921e-01 -5.888853188670616079e-02 3.338459011674911880e-01 -5.292565741900458892e-02 9.411406850521507605e-01
1.330960633501712120e-01 -6.173841821147040276e-01 5.570255579483228414e-03 1.174511488807222087e-01 4.893952300875244882e-02 9.918720435188573825e-01
1.979740945717599898e-01 -5.900114518520407358e-01 -2.095395925254602693e-02 2.272517409181367132e-01 -8.347415532050010689e-02 9.702518805151604253e-01
1.630390245851814912e-01 -6.372859220864393048e-01 -3.333716417894692224e-02 3.722707916510824555e-01 3.933350788846341761e-02 9.272903174522338920e-01
1.187339933443684603e-01 -5.714741290392436612e-01 6.210466950184803658e-04 3.714714155142408436e-01 -5.964182660897150018e-02 9.265267616073437074e-01
1.704959685144117054e-01 -5.883264895165920549e-01 -2.058569012982515434e-02 3.979784705320840721e-01 -4.044347090965576957e-02 9.165028437783064863e-01
1.621322460112235297e-01 -6.194470823129242243e-01 -1.509386448885411194e-02 3.674944829322075446e-01 -9.618057005613174504e-02 9.250389737508722954e-01
1.428402492099191401e-01 -5.909758213346826272e-01 -5.111264900508157710e-02 2.872773052743515798e-01 -8.700015157507630381e-02 9.538882133144432895e-01
1.423191291115233348e-01 -6.084664768751475439e-01 -5.115517037595417038e-02 2.861965526733002974e-01 -8.998853349896955567e-02 9.539358453672991400e-01
1.821193436787789666e-01 -5.419115047748577219e-01 -1.537575136530331711e-02 3.534754248735591520e-01 -1.893821536118820148e-01 9.160728813275624827e-01
2.109772933185568855e-01 -5.401481332812261282e-01 -8.177902379583876225e-02 2.143292440391330322e-01 -3.034176983201262168e-01 9.284399148548766467e-01
1.490976537981468508e-01 -5.698086331060101539e-01 -2.981535926644737072e-02 2.470742299258552321e-01 -1.407526488509427132e-01 9.587194671790016942e-01
1.846639406034154551e-01 -5.328703118218468537e-01 -6.637497283935948900e-02 3.351127051084552000e-01 -2.630312753393965752e-01 9.047176482573023870e-01
1.896173858229897036e-01 -5.431466361157000211e-01 -2.397928634904256812e-02 2.070986049979700594e-01 -2.509518245279968029e-01 9.455862465021179775e-01
1.844628746247392037e-01 -5.656115269716868177e-01 -4.499330235026627323e-02 2.721678586066860750e-01 -3.138976083110455173e-01 9.096114270599597873e-01
2.294455421511575055e-01 -5.235008719531076826e-01 -3.328902112466441271e-02 3.210099589509980977e-01 -4.186781888294875409e-01 8.495064334381103865e-01
1.993704957645313358e-01 -4.997618514265773637e-01 -6.066547318142424816e-02 2.057609705789692489e-01 -3.300168664860884116e-01 9.212769891954883938e-01
1.841067432475449461e-01 -5.634696091218051039e-01 3.758180482887470836e-02 4.158672805345582368e-01 -3.730717559424558405e-01 8.293804132596838130e-01
2.346155299799061733e-01 -5.278947056212822675e-01 -1.284438441391700519e-02 1.311639610851641213e-01 -4.376763016929008931e-01 8.895141765305791814e-01
2.240440455724908575e-01 -5.316956366129089728e-01 -6.094162989011139842e-02 1.550073612612374030e-01 -3.918315939176474361e-01 9.068851746295031324e-01
2.155512378933314988e-01 -5.531986925604792660e-01 -2.328432243089624890e-02 4.451607972897201337e-01 -3.770815386588168283e-01 8.121830937412325424e-01
2.422754324148004290e-01 -4.726862926494932449e-01 -3.837664491947999010e-03 1.994867428630904271e-01 -2.916082149551064706e-01 9.355050445575223694e-01
2.112791336507774953e-01 -4.750535239384061637e-01 -4.216946906696528857e-02 9.400436494938060883e-03 -2.532849590733985967e-01 9.673460401019333688e-01
2.477338889072905614e-01 -5.113560502161557109e-01 -1.485252225967633941e-02 3.838056822436627380e-01 -4.130108466310133952e-01 8.259026812177145960e-01
2.761681752162702397e-01 -4.588176083811645323e-01 -7.690085302624723174e-02 5.934755499306233473e-01 -3.323630364475036458e-01 7.330222258826396553e-01
2.615899331894964708e-01 -4.704966519950508630e-01 -1.657065860522229789e-02 2.886905016295095994e-01 -2.888984115215146864e-01 9.127954327719041139e-01
2.074784595005746690e-01 -5.119731911825813331e-01 -1.016383105653686537e-02 2.247006904094617230e-01 -5.091631080186291847e-01 8.308203952493710132e-01
2.771686575706606148e-01 -4.462278569322554178e-01 1.091566470909188444e-02 5.638601245365963965e-01 -3.782291335176840574e-01 7.341692465065776663e-01
2.534078745556467283e-01 -4.926027531940016524e-01 8.815901192054817481e-03 2.642938824761955630e-01 -5.118256448822590121e-01 8.174247689705265163e-01
