-6.170369581117705060e-01 4.999347089579280201e-01 -3.118157457533198285e-01 -5.773775496158719545e-01 5.773127845948692327e-01 -5.773604714066328247e-01
-6.135981476652605515e-01 5.144479172548699353e-01 -2.744453497108911288e-01 -5.772860161417375791e-01 5.774361080391743339e-01 -5.773286730275679624e-01
-7.085156151494529375e-01 4.807536509636146094e-01 -2.750894764606165444e-01 -5.773050253252265396e-01 5.773968689414746835e-01 -5.773489096472089743e-01
-4.837879144497684858e-01 8.017341561432105301e-01 -1.560697798625826360e-01 -5.773681001740716967e-01 5.773631440733616449e-01 -5.773195620859437049e-01
-5.249030591070751317e-01 6.983916869068125255e-01 -2.116580375620545351e-01 -5.773681001740716967e-01 5.773631440733616449e-01 -5.773195620859437049e-01
-4.967354461068155813e-01 7.230520688850801125e-01 -1.608803718194322385e-01 -5.773657951145431122e-01 5.773698729287017883e-01 -5.773151379151997276e-01
-4.872208882816382869e-01 7.583573190415873189e-01 -1.076577386165283035e-01 -5.773657951145431122e-01 5.773698729287017883e-01 -5.773151379151997276e-01
-4.732308734813867046e-01 7.110178692713525761e-01 -1.615057066731701851e-01 -5.773657951145431122e-01 5.773698729287017883e-01 -5.773151379151997276e-01
-5.065765287269164974e-01 7.224777473308969800e-01 -1.803867400077081296e-01 -5.773657951145431122e-01 5.773698729287017883e-01 -5.773151379151997276e-01
-4.555607771035650178e-01 7.878399621101239703e-01 -1.692798751761936671e-01 -5.773305124616189277e-01 5.772949474083559629e-01 -5.774253398298242468e-01
-4.106682480527996670e-01 7.436862253666367550e-01 -1.705733056347099041e-01 -5.773653594218992602e-01 5.773792043315157940e-01 -5.773062412144240874e-01
-4.103459630204561170e-01 7.752220609723017297e-01 -1.975318464144210362e-01 -5.773505269794355632e-01 5.773837686700691307e-01 -5.773165099604515849e-01
-3.839473839128598742e-01 7.991919044533656313e-01 -1.502612799510931463e-01 -5.773505269794355632e-01 5.773837686700691307e-01 -5.773165099604515849e-01
-5.766410366756886674e-01 7.037316211405751920e-01 -1.646728651978464630e-01 -5.773044423650226520e-01 5.773568499719414771e-01 -5.773895120419897387e-01
-5.267941972673019224e-01 7.505862516085054503e-01 -2.154143569873529784e-01 -5.772944909935128210e-01 5.774350098353618899e-01 -5.773212970997836369e-01
-4.110088826993656408e-01 7.387383019859226074e-01 -1.119697246082708153e-01 -5.772944909935128210e-01 5.774350098353618899e-01 -5.773212970997836369e-01
-5.061065126149856264e-01 6.713439092379721584e-01 -1.539882890729372678e-01 -5.772944909935128210e-01 5.774350098353618899e-01 -5.773212970997836369e-01
-5.603297726989053817e-01 6.371670516606980916e-01 -1.616502157588644573e-01 -5.773806996320834939e-01 5.773457275234050723e-01 -5.773243790130780928e-01
-4.692649133095347369e-01 7.816508837997458992e-01 -9.302737845339598133e-02 -5.773549530152457532e-01 5.773768688211267097e-01 -5.773189842531378790e-01
-6.080839461591320827e-01 7.533015880906082096e-01 -6.017223430478056689e-02 -5.773537435451224775e-01 5.773630634500140912e-01 -5.773340001923046305e-01
-5.203047221257829369e-01 8.220986450445522120e-01 -1.596855158427323840e-02 -5.773492567931305386e-01 5.772831124075209486e-01 -5.774184304380189925e-01
-5.951447379738445953e-01 7.517949349674201143e-01 -9.911464460651454866e-02 -5.773727751378981976e-01 5.773586360518835336e-01 -5.773193950543067388e-01
-5.377157572624617909e-01 8.002197322106027189e-01 -3.665654155342453618e-02 -5.773727751378981976e-01 5.773586360518835336e-01 -5.773193950543067388e-01
-6.083222565958430472e-01 7.936777586481704727e-01 -3.024823583889728329e-02 -5.773478017628616010e-01 5.773819267607074313e-01 -5.773210774341126506e-01
-5.151721993389094534e-01 7.529785675949987045e-01 -1.914764154896071019e-02 -5.773478017628616010e-01 5.773819267607074313e-01 -5.773210774341126506e-01
-5.075016247564302363e-01 8.596057059709468762e-01 -6.282709242222367374e-02 -5.773478017628616010e-01 5.773819267607074313e-01 -5.773210774341126506e-01
-2.841439716473295185e-01 4.306819817336640654e-01 -5.920137460161618570e-01 -5.773703647599869315e-01 5.773541377963855581e-01 -5.773263041524366868e-01
-4.032230671358152385e-01 4.353516270773835073e-01 -6.213421020454097388e-01 -5.773370842437540729e-01 5.773315909101925936e-01 -5.773821310830691278e-01
-3.682127820561375553e-01 4.257156475885758296e-01 -6.365287024568567764e-01 -5.773458174515045949e-01 5.773330501213497223e-01 -5.773719393154060908e-01
-3.474975003752415192e-01 4.194788349182931864e-01 -5.945846395497134118e-01 -5.773312580411249506e-01 5.773605367742082883e-01 -5.773590122830422056e-01
-4.160114326893786241e-01 5.291867279424228299e-01 -6.178198369784324573e-01 -5.773312580411249506e-01 5.773605367742082883e-01 -5.773590122830422056e-01
-2.709232333321917041e-01 3.218105086729219355e-01 -7.463299943707607520e-01 -5.773200697440509233e-01 5.773626757179839419e-01 -5.773680609095849237e-01
-2.920608037421277281e-01 4.462896669232087610e-01 -7.270120495758376489e-01 -5.774114808494217321e-01 5.773414819553849275e-01 -5.772978390716854147e-01
-2.905779799127753416e-01 3.559892329096646102e-01 -6.977195290173885400e-01 -5.774114808494217321e-01 5.773414819553849275e-01 -5.772978390716854147e-01
-3.076557798822067147e-01 4.628766321307594689e-01 -7.112804820270773876e-01 -5.774114808494217321e-01 5.773414819553849275e-01 -5.772978390716854147e-01
-1.859952264899318863e-01 3.268022858992508106e-01 -7.396429875564244361e-01 -5.773193878728090089e-01 5.773545738836270980e-01 -5.773768443588818133e-01
-2.750066651802125506e-01 4.186383997941033330e-01 -7.494015193274419229e-01 -5.773984564271235076e-01 5.773568388036967036e-01 -5.772955076927043239e-01
-4.115241888447884189e-01 3.390823921334854552e-01 -6.552167173479196416e-01 -5.773047818172216683e-01 5.773929076891048950e-01 -5.773531146891743848e-01
-3.579323563287671872e-01 3.731159808406205314e-01 -7.416429139231826007e-01 -5.773964641034712297e-01 5.773437941993909694e-01 -5.773105460151063406e-01
-4.295646851055425763e-01 2.726819491103069093e-01 -6.758744744969418239e-01 -5.773162577860045941e-01 5.773376287451805755e-01 -5.773969180129521206e-01
-1.554537160710465216e-01 5.894993435140295501e-01 -5.992167391646362473e-01 -5.773257918663686761e-01 5.773002364624489902e-01 -5.774247717463036889e-01
-2.491181114343003489e-01 6.255502750054265926e-01 -5.953417965450999993e-01 -5.774050300196140739e-01 5.773020790233959199e-01 -5.773436938802686269e-01
-2.024742673086536160e-01 6.073781912169512465e-01 -5.566441309248580938e-01 -5.774285432459504985e-01 5.773479126672795836e-01 -5.772743413521811418e-01
-1.193856558697575648e-01 6.669516208520270828e-01 -6.209973965880348779e-01 -5.774028524329833933e-01 5.773825974956285911e-01 -5.772653480951852600e-01
-1.736068480373305911e-01 5.887767951756207596e-01 -6.050918753213195833e-01 -5.773885815772472618e-01 5.773044781126829283e-01 -5.773577447434626864e-01
-2.474176816987040117e-01 5.160697997728096453e-01 -5.829877436059174300e-01 -5.772960873238895951e-01 5.773045681412247720e-01 -5.774501391148868512e-01
-3.152431868725483199e-01 4.969009307513511664e-01 -5.878177086617004665e-01 -5.772966521533960949e-01 5.773453421678365061e-01 -5.774088077693173560e-01
-3.255797770671095548e-01 5.294613526881487564e-01 -5.997846812585508891e-01 -5.772966521533960949e-01 5.773453421678365061e-01 -5.774088077693173560e-01
-2.447892560775958570e-01 6.407770075993520775e-01 -4.809754757706372064e-01 -5.773399178309601698e-01 5.773787827399609052e-01 -5.773321059153572188e-01
-2.368936988449615588e-01 6.467261575971368082e-01 -4.993848063510462065e-01 -5.773698789900351125e-01 5.772800056030891191e-01 -5.774009161457309691e-01
-2.741221558995098340e-01 6.244153522112977361e-01 -5.229510676576141215e-01 -5.773335646750746841e-01 5.772991035798870074e-01 -5.774181328166185789e-01
-2.668138037747777025e-01 6.571277060740488007e-01 -4.106573915379722051e-01 -5.773601332682362086e-01 5.773701790670145995e-01 -5.773204940382835604e-01
-2.644258677377473998e-01 6.336856385097136002e-01 -4.259333007394561221e-01 -5.773601332682362086e-01 5.773701790670145995e-01 -5.773204940382835604e-01
-3.055905426395372770e-01 7.046988079310163577e-01 -3.899616388413632562e-01 -5.773601332682362086e-01 5.773701790670145995e-01 -5.773204940382835604e-01
-2.790901276835116018e-01 6.994426400267624855e-01 -3.821597402309816482e-01 -5.773601332682362086e-01 5.773701790670145995e-01 -5.773204940382835604e-01
-2.445663548162095302e-01 6.273123648811007591e-01 -4.672362696813920913e-01 -5.773435683853003209e-01 5.773110445788517398e-01 -5.773961914070815382e-01
-1.526215182280862281e-01 5.319863902679758949e-01 -7.588858464494994127e-01 -5.773048638127579180e-01 5.773566072874105615e-01 -5.773893333269188854e-01
-1.466058340910091073e-01 5.040390204666567175e-01 -8.067261606437502452e-01 -5.774133009091575452e-01 5.773345700356442567e-01 -5.773029310292374650e-01
-1.978067519215449543e-01 4.491804474736505459e-01 -7.705358769893495552e-01 -5.774133009091575452e-01 5.773345700356442567e-01 -5.773029310292374650e-01
-1.788748809122066574e-01 3.883293818482495552e-01 -7.765235675118244973e-01 -5.773196639372096817e-01 5.773561893567452641e-01 -5.773749529057223828e-01
-7.061198307073728031e-02 5.303036906543205919e-01 -7.688332527930149540e-01 -5.773248945601001658e-01 5.773004673396290309e-01 -5.774254380702457112e-01
-1.317223350341202026e-01 5.206726732810708080e-01 -7.000274883238770673e-01 -5.773895120419897387e-01 5.773044423650226520e-01 -5.773568499719414771e-01
-7.110612503714983101e-02 4.858260170185759175e-01 -7.797280566133319990e-01 -5.774100911841019146e-01 5.773327379726318487e-01 -5.773079734975010702e-01
-5.146604868819471684e-02 5.885504755806232335e-01 -8.012907798346254884e-01 -5.773345717745264061e-01 5.773528392858445768e-01 -5.773633961401588577e-01
-6.635614203428341629e-02 5.441931145633904787e-01 -8.072121803747096536e-01 -5.773345717745264061e-01 5.773528392858445768e-01 -5.773633961401588577e-01
-2.209742515253172723e-02 5.503421807400704635e-01 -8.778693143408408117e-01 -5.773077987906463093e-01 5.773147357496463128e-01 -5.774282651046921400e-01
7.424767919808956951e-03 5.516145710338925534e-01 -7.828092406938903514e-01 -5.773178713485899172e-01 5.773482693676451616e-01 -5.773846649156159083e-01
-5.657780249153268048e-01 2.906959009413206951e-01 5.171474184759863313e-01 -5.772666523019467366e-01 5.774968529554039831e-01 5.772872742116423872e-01
-5.381960575198951879e-01 2.755102390586330885e-01 6.130133197119281840e-01 -5.773361970289356826e-01 5.773300534237666426e-01 5.773845555726933032e-01
-5.545404894599695877e-01 2.375986756340227879e-01 5.264691801880139188e-01 -5.773361970289356826e-01 5.773300534237666426e-01 5.773845555726933032e-01
-5.053108853665958522e-01 2.635396263525492944e-01 6.084090277156131155e-01 -5.773449527453774488e-01 5.773246420937286905e-01 5.773812113073872876e-01
-5.472139679625034336e-01 3.255513376431507511e-01 5.341997463889388564e-01 -5.774088077693173560e-01 5.772966521533960949e-01 5.773453421678365061e-01
-5.662290121342349325e-01 1.993208130677477929e-01 6.275042722483361590e-01 -5.773438353340755169e-01 5.773181043168393867e-01 5.773888656960322052e-01
-6.138817657497037672e-01 1.952466792505833382e-01 6.744160088277159071e-01 -5.772932411701343636e-01 5.773851858199557929e-01 5.773723762832235762e-01
-5.988291123504081437e-01 2.412010298277066922e-01 5.662036475359030208e-01 -5.774247717463036889e-01 5.773257918663686761e-01 5.773002364624489902e-01
-6.447347896118629240e-01 1.434265411225110198e-01 5.761929394981654129e-01 -5.774226729037219563e-01 5.773134979396411515e-01 5.773146299145875959e-01
-5.014001140876027662e-01 2.776723087093074804e-01 6.313105052885522595e-01 -5.774181328166185789e-01 5.773335646750746841e-01 5.772991035798870074e-01
-5.034997357571071586e-01 2.192045044869853077e-01 6.549534443669792205e-01 -5.773952301443191493e-01 5.773297065405510464e-01 5.773258682515360896e-01
-4.568359263033416884e-01 2.103270962659805898e-01 6.554831043111629674e-01 -5.774009161457309691e-01 5.773698789900351125e-01 5.772800056030891191e-01
-5.012941075748160724e-01 2.143839302952873782e-01 6.469279781832040221e-01 -5.773970974035094184e-01 5.773488763029258619e-01 5.773048301735842491e-01
-3.915354882363875633e-01 2.028261158739899650e-01 6.461356547365576519e-01 -5.773970974035094184e-01 5.773488763029258619e-01 5.773048301735842491e-01
-4.932090329826428476e-01 2.498063340266233057e-01 6.253372037379890669e-01 -5.773970974035094184e-01 5.773488763029258619e-01 5.773048301735842491e-01
-6.717780522246472596e-01 2.455590279954706634e-01 4.139980891694465259e-01 -5.772844613051512086e-01 5.774271413966342026e-01 5.773391958927894807e-01
-6.814808982418522065e-01 3.244333505942905704e-01 4.095517127150366532e-01 -5.772844613051512086e-01 5.774271413966342026e-01 5.773391958927894807e-01
-7.194645041997114188e-01 2.972050492939773969e-01 3.659787720526538890e-01 -5.772949897567525301e-01 5.773995319334689347e-01 5.773562810992550753e-01
-7.425851936532577025e-01 2.147661665826356425e-01 3.647736704688095410e-01 -5.773768443588818133e-01 5.773193878728090089e-01 5.773545738836270980e-01
-6.261104190703055128e-01 3.147806355827650893e-01 4.505865692996658955e-01 -5.773263041524367978e-01 5.773703647599869315e-01 5.773541377963855581e-01
-5.859540986813249752e-01 3.140190943885932673e-01 4.355559571945637476e-01 -5.773263041524367978e-01 5.773703647599869315e-01 5.773541377963855581e-01
-6.072911029626181234e-01 2.949653668771534676e-01 4.647333891804230621e-01 -5.773594719439911760e-01 5.773339487005307857e-01 5.773573865764676238e-01
-6.162281325570768686e-01 3.101409477299416628e-01 4.660174843211765117e-01 -5.773594719439911760e-01 5.773339487005307857e-01 5.773573865764676238e-01
-7.085962137470637190e-01 3.546212469251091570e-01 3.177963501489579623e-01 -5.773812778937152945e-01 5.773453425873003031e-01 5.773241856449227161e-01
-7.219093514755066110e-01 3.359494240694699263e-01 3.086220418496481432e-01 -5.773377619054665955e-01 5.773227580279114424e-01 5.773902854577934729e-01
-7.144156886328083544e-01 3.393402031686048592e-01 3.122266362195350031e-01 -5.773969180129521206e-01 5.773162577860045941e-01 5.773376287451805755e-01
-6.570679686464585556e-01 1.582050537573493343e-01 4.942955473160109414e-01 -5.774350098353618899e-01 5.773212970997836369e-01 5.772944909935128210e-01
-8.147587786241567986e-01 1.252410361956926566e-01 4.265247969216005020e-01 -5.772923199392879789e-01 5.774257228235063488e-01 5.773327567017707551e-01
-7.905467814528850390e-01 1.764020411620114137e-01 4.790183311825187418e-01 -5.772923199392879789e-01 5.774257228235063488e-01 5.773327567017707551e-01
-8.215746407731032708e-01 1.164340658276690893e-01 4.605096879004322297e-01 -5.773893333269188854e-01 5.773048638127579180e-01 5.773566072874105615e-01
-7.473218014955590460e-01 4.471532164306137730e-02 5.013730338912106843e-01 -5.772831124075209486e-01 5.774184304380188815e-01 5.773492567931304276e-01
-7.454287519506493931e-01 6.119626916003689798e-02 5.821730905739533890e-01 -5.773630634500140912e-01 5.773340001923046305e-01 5.773537435451224775e-01
-8.351250636912674885e-01 8.256930220580933899e-02 4.563234892388400854e-01 -5.773766058302779447e-01 5.773190226376500034e-01 5.773551776338516905e-01
-8.239767147870474817e-01 2.568008062202971342e-02 4.766105788458172565e-01 -5.773079734975011812e-01 5.774100911841020256e-01 5.773327379726319597e-01
-8.442206768650960536e-01 1.635120057158339843e-02 5.098180827689557937e-01 -5.773846649156159083e-01 5.773178713485899172e-01 5.773482693676451616e-01
-2.687377771413744787e-01 5.188583065210401468e-01 5.694329583761557068e-01 -5.772960873238895951e-01 5.773045681412247720e-01 5.774501391148868512e-01
-2.736480078468784272e-01 5.524357847476076833e-01 5.202282292911954986e-01 -5.773246420937288015e-01 5.773812113073872876e-01 5.773449527453775598e-01
-3.081061910420181960e-01 5.067225932371084429e-01 5.694478327345922075e-01 -5.772943751629675546e-01 5.773320198867473163e-01 5.774244047654091272e-01
-2.866281430193363677e-01 5.423656876807158023e-01 5.337733226330142466e-01 -5.772943751629675546e-01 5.773320198867473163e-01 5.774244047654091272e-01
-1.759307742688077658e-01 6.486343575758698465e-01 5.549988599646317189e-01 -5.773851858199557929e-01 5.773723762832235762e-01 5.772932411701343636e-01
-2.530553018151187050e-01 5.563710724948599529e-01 5.301551891203921674e-01 -5.774050300196140739e-01 5.773020790233959199e-01 5.773436938802686269e-01
-1.537906173218742678e-01 5.798828317256049525e-01 5.979759016048794562e-01 -5.773257918663686761e-01 5.773002364624489902e-01 5.774247717463036889e-01
-1.484906360094925826e-01 6.151263977027330299e-01 5.844927602670131339e-01 -5.773885815772472618e-01 5.773044781126829283e-01 5.773577447434626864e-01
-2.271176649768413824e-01 6.597825439604569908e-01 5.528150613804576619e-01 -5.773297065405510464e-01 5.773258682515360896e-01 5.773952301443191493e-01
-1.777102541530506952e-01 7.058852420946292172e-01 5.264377185341995169e-01 -5.773399178309601698e-01 5.773787827399609052e-01 5.773321059153572188e-01
-2.536838068918322309e-01 5.525492689372387689e-01 5.086856436643877322e-01 -5.773698789900351125e-01 5.772800056030891191e-01 5.774009161457309691e-01
-2.548233261076250922e-01 4.154214519983143727e-01 7.276265240568449144e-01 -5.773201275186455872e-01 5.773602663606656193e-01 5.773704124648195712e-01
-2.114336664744058403e-01 4.212069847911377729e-01 6.814858541180355278e-01 -5.773201275186455872e-01 5.773602663606656193e-01 5.773704124648195712e-01
-2.612272224126251374e-01 4.408736724603365409e-01 6.758212026819355733e-01 -5.773201275186455872e-01 5.773602663606656193e-01 5.773704124648195712e-01
-3.011491261003764186e-01 3.544474945856529446e-01 6.713901559815818043e-01 -5.774118975802464693e-01 5.773414211264042972e-01 5.772974830921426825e-01
-3.333430206207099178e-01 4.551498723864090268e-01 6.265614905617757913e-01 -5.773703647599869315e-01 5.773541377963855581e-01 5.773263041524366868e-01
-3.460798469417215029e-01 4.490517176780711717e-01 5.596531156213779834e-01 -5.773346022530486676e-01 5.773579952759010370e-01 5.773582097210592234e-01
-3.128175427518522511e-01 4.414971410405328367e-01 5.701382064422014784e-01 -5.773346022530486676e-01 5.773579952759010370e-01 5.773582097210592234e-01
-3.558260632965012382e-01 2.787032459059165523e-01 7.207587751725327285e-01 -5.773986846616261381e-01 5.773568040141204838e-01 5.772953142106944657e-01
-4.182395788880166609e-01 3.515208053997044280e-01 6.572849622776927303e-01 -5.773227580279114424e-01 5.773902854577934729e-01 5.773377619054665955e-01
-4.162829159697877257e-01 3.258508887875981030e-01 6.618803690801047246e-01 -5.773162577860045941e-01 5.773376287451805755e-01 5.773969180129521206e-01
-1.367548193130334877e-01 5.106415132057300355e-01 6.975605826308661772e-01 -5.773053680688261524e-01 5.773361978801099248e-01 5.774092366911491858e-01
-7.633979204551191722e-02 6.104550342538730412e-01 7.043985292652786834e-01 -5.773248945601001658e-01 5.773004673396290309e-01 5.774254380702457112e-01
-1.211873968880674834e-01 5.578717831142586681e-01 7.379589840491769248e-01 -5.774137646755975739e-01 5.773546029583852546e-01 5.772824324417978881e-01
-7.923281875958768095e-02 4.327998541236947050e-01 7.852806663967756284e-01 -5.773048638127579180e-01 5.773566072874105615e-01 5.773893333269188854e-01
-1.375642765622972497e-01 5.039436795977373373e-01 7.683390333888434620e-01 -5.773213114425893577e-01 5.773681174775769920e-01 5.773613775397586911e-01
-1.711285459731434200e-01 4.773647850129990600e-01 7.477476142486141342e-01 -5.773213114425893577e-01 5.773681174775769920e-01 5.773613775397586911e-01
-2.148815171731899287e-01 4.277457298445035971e-01 7.847697715126430440e-01 -5.773182956618063688e-01 5.773481826574293763e-01 5.773843273559741140e-01
-2.826850588377996520e-02 5.455875016173293846e-01 7.951008727612299820e-01 -5.774184304380188815e-01 5.773492567931304276e-01 5.772831124075209486e-01
-8.336651637976988383e-02 5.403219568687775975e-01 7.331482603430782286e-01 -5.773340001923046305e-01 5.773537435451224775e-01 5.773630634500140912e-01
-1.083064804075013765e-01 5.229597892939569226e-01 7.499942102417738177e-01 -5.773314206737251153e-01 5.773614863888195670e-01 5.773579000392661253e-01
-9.487753687726734053e-02 5.195434647220763535e-01 7.653395764623710518e-01 -5.773314206737251153e-01 5.773614863888195670e-01 5.773579000392661253e-01
-1.039877537911690075e-01 4.592876728420765553e-01 7.994381145892567320e-01 -5.773190226376500034e-01 5.773551776338516905e-01 5.773766058302779447e-01
-8.288546891086374935e-02 4.669266815751212940e-01 8.214363031893123779e-01 -5.774100911841019146e-01 5.773327379726318487e-01 5.773079734975010702e-01
1.857700091852766341e-02 5.575651062721774798e-01 7.701976986546261728e-01 -5.773213602803549671e-01 5.773477605094118337e-01 5.773816851951640849e-01
-5.503329067914362882e-02 5.658837160239490460e-01 8.838961338663757772e-01 -5.773213602803549671e-01 5.773477605094118337e-01 5.773816851951640849e-01
-4.883910122586369584e-01 5.679124812902784925e-01 2.735822336020865553e-01 -5.773474601294092956e-01 5.772698747967562882e-01 5.774334610448700333e-01
-5.880635926887172182e-01 5.092291594030581292e-01 2.650654049048936090e-01 -5.773730800332722568e-01 5.773491940054129579e-01 5.773285326693914365e-01
-5.816352338800361288e-01 5.410336259144964410e-01 2.277745102035573788e-01 -5.773730800332722568e-01 5.773491940054129579e-01 5.773285326693914365e-01
-5.783542368889355023e-01 5.713797892175684900e-01 2.870528437652307696e-01 -5.773812113073872876e-01 5.773449527453775598e-01 5.773246420937288015e-01
-5.872049982536662327e-01 5.860740624107038110e-01 1.844781356095606117e-01 -5.773723762832235762e-01 5.772932411701343636e-01 5.773851858199557929e-01
-5.802132937713863070e-01 5.798243218898304630e-01 2.220228073908911970e-01 -5.773020790233959199e-01 5.773436938802686269e-01 5.774050300196140739e-01
-5.872488828184667664e-01 5.495491546365404156e-01 1.546724584265482261e-01 -5.773479126672795836e-01 5.772743413521811418e-01 5.774285432459504985e-01
-5.934843632224634513e-01 6.439839967925913289e-01 1.412725286090423527e-01 -5.773044781126829283e-01 5.773577447434626864e-01 5.773885815772472618e-01
-6.133777881124101716e-01 4.738657919498273641e-01 2.500585544525414372e-01 -5.772980372897966728e-01 5.774115373151826880e-01 5.773412272795576117e-01
-6.663627429099644450e-01 4.798148965064474858e-01 2.470823569072943815e-01 -5.773048301735842491e-01 5.773970974035094184e-01 5.773488763029258619e-01
-4.242846720494955481e-01 7.171492683184207406e-01 3.412318163260593673e-01 -5.773414819553849275e-01 5.772978390716854147e-01 5.774114808494217321e-01
-3.707462221587612405e-01 7.458965170715315951e-01 3.422157163354900833e-01 -5.773562810992550753e-01 5.772949897567525301e-01 5.773995319334689347e-01
-3.506650305649577914e-01 7.249251226281461236e-01 2.244140204342901790e-01 -5.773626757179839419e-01 5.773680609095849237e-01 5.773200697440509233e-01
-3.692260573155689563e-01 7.291993914831881307e-01 2.656121223734705938e-01 -5.773521546796698267e-01 5.773009918908780236e-01 5.773976569475763876e-01
-4.068173567882074626e-01 5.544470432816809291e-01 4.017321785527134259e-01 -5.773309313719946489e-01 5.773741598933840313e-01 5.773457154673915515e-01
-4.427745298201651858e-01 5.325249328046520736e-01 3.405771953715774902e-01 -5.773309313719946489e-01 5.773741598933840313e-01 5.773457154673915515e-01
-4.227300619840411722e-01 6.397971676235900684e-01 2.952539839717385761e-01 -5.773309313719946489e-01 5.773741598933840313e-01 5.773457154673915515e-01
-4.224031739981461975e-01 6.642189613538586057e-01 2.867193001797892493e-01 -5.773549726169531215e-01 5.773764366870338671e-01 5.773193968273202525e-01
-4.190025065892951095e-01 6.909033267270611178e-01 2.941068871373728189e-01 -5.773549726169531215e-01 5.773764366870338671e-01 5.773193968273202525e-01
-4.518962489775388280e-01 6.085403131780462438e-01 3.053497606046121637e-01 -5.773549726169531215e-01 5.773764366870338671e-01 5.773193968273202525e-01
-4.153665324760894006e-01 6.332013127691545895e-01 3.993206691243271766e-01 -5.773612953010688331e-01 5.772905251645928937e-01 5.773989818517699657e-01
-3.196267556030137902e-01 6.981362400266991619e-01 3.613151118726581346e-01 -5.773568040141204838e-01 5.772953142106944657e-01 5.773986846616261381e-01
-3.175634139539575407e-01 7.134144957221576488e-01 3.429001190450766678e-01 -5.773241856449227161e-01 5.773812778937152945e-01 5.773453425873003031e-01
-3.030201772612753364e-01 6.841690664396953281e-01 3.890494436278357782e-01 -5.773362763483937954e-01 5.772720392261723177e-01 5.774424791611955099e-01
-3.629231107293176550e-01 6.411934313353133685e-01 3.883773555672558886e-01 -5.773664840304766344e-01 5.773728129050392788e-01 5.773115086644365901e-01
-6.069766030980165983e-01 7.386316278001623381e-01 5.732025032717740637e-02 -5.773004673396290309e-01 5.774254380702457112e-01 5.773248945601001658e-01
-5.458694925253231300e-01 7.627334886017522741e-01 1.029633272224955848e-01 -5.773044423650226520e-01 5.773568499719414771e-01 5.773895120419897387e-01
-5.808933752477388746e-01 6.252930473404467726e-01 1.104246279079794807e-01 -5.773808543277639815e-01 5.773456049332068574e-01 5.773243468970028491e-01
-5.853341461211769570e-01 6.663949848761584471e-01 1.587097465986251899e-01 -5.773016750177799583e-01 5.774331953425052566e-01 5.773159281868203152e-01
-4.763740262385590118e-01 7.748598793779118976e-01 1.603954863785583829e-01 -5.773305124616189277e-01 5.772949474083559629e-01 5.774253398298242468e-01
-4.546557331000424806e-01 8.213543862466535783e-01 1.081092292629042273e-01 -5.773566072874105615e-01 5.773893333269188854e-01 5.773048638127579180e-01
-4.331792299132720125e-01 7.206327296879962985e-01 1.510625784442941877e-01 -5.773494997769808013e-01 5.773827852516539849e-01 5.773185207511641881e-01
-5.456420312977156017e-01 7.968993235998534930e-01 4.702584189467402115e-02 -5.773628446151879423e-01 5.773617348885888845e-01 5.773262273137235168e-01
-4.661986905970262329e-01 8.173432190104126249e-01 8.433853626573498130e-02 -5.773327379726319597e-01 5.773079734975011812e-01 5.774100911841020256e-01
-5.233697566599141426e-01 7.784898921220835266e-01 8.767271727296402362e-02 -5.773528392858445768e-01 5.773633961401588577e-01 5.773345717745264061e-01
-4.847642300615364608e-01 8.180914234345317837e-01 4.715835538504213609e-02 -5.773482693676451616e-01 5.773846649156159083e-01 5.773178713485899172e-01
2.874307824553929414e-01 -6.148373222649499148e-01 5.160476301821990130e-01 5.773285326693914365e-01 -5.773730800332722568e-01 5.773491940054129579e-01
1.649333813122284553e-01 -6.696881350645317310e-01 5.682721364821757826e-01 5.773181043168393867e-01 -5.773888656960322052e-01 5.773438353340755169e-01
1.367287397208288013e-01 -6.220205241602659862e-01 5.967456195652143247e-01 5.773851858199557929e-01 -5.773723762832235762e-01 5.772932411701343636e-01
2.609413949495612561e-01 -4.958527796809898969e-01 5.552039160504190773e-01 5.774050300196140739e-01 -5.773020790233959199e-01 5.773436938802686269e-01
2.002484405124647648e-01 -5.939534365769516544e-01 5.439011265871003253e-01 5.774285432459504985e-01 -5.773479126672795836e-01 5.772743413521811418e-01
1.256365784788298079e-01 -6.060797362064639371e-01 6.496835047901685645e-01 5.773134979396411515e-01 -5.773146299145875959e-01 5.774226729037219563e-01
1.452254572990028803e-01 -6.878559507183624744e-01 5.440145647176025667e-01 5.774028524329833933e-01 -5.773825974956285911e-01 5.772653480951852600e-01
2.772669930780659042e-01 -5.669758692040878234e-01 4.705006759090433754e-01 5.773317305096250518e-01 -5.773039056959806681e-01 5.774151655567490993e-01
2.327922297606517810e-01 -6.085511994159460425e-01 5.130357598709169853e-01 5.773399178309601698e-01 -5.773787827399609052e-01 5.773321059153572188e-01
2.819056366364899868e-01 -7.084175885727561628e-01 4.987945391933133465e-01 5.773698789900351125e-01 -5.772800056030891191e-01 5.774009161457309691e-01
2.394061253803086986e-01 -4.430891052358530979e-01 7.255182452540995808e-01 5.773201275186455872e-01 -5.773602663606656193e-01 5.773704124648195712e-01
2.844654810670850797e-01 -3.529707115130955031e-01 6.927150469533940313e-01 5.773202476720922238e-01 -5.773637169742666941e-01 5.773668417475087411e-01
2.745570641876634577e-01 -4.343269262959322807e-01 7.639025261805749700e-01 5.773193878728090089e-01 -5.773545738836270980e-01 5.773768443588818133e-01
3.218546982853184857e-01 -4.870337784598475217e-01 5.697738527075580928e-01 5.773703647599869315e-01 -5.773541377963855581e-01 5.773263041524366868e-01
3.337544351666558162e-01 -4.643824835794468919e-01 5.433938771623069153e-01 5.773346022530486676e-01 -5.773579952759010370e-01 5.773582097210592234e-01
3.031881383170086375e-01 -4.018200944831604171e-01 5.547708335370320487e-01 5.773346022530486676e-01 -5.773579952759010370e-01 5.773582097210592234e-01
3.667526279130406963e-01 -3.174039667496921791e-01 7.259331239103303801e-01 5.773986846616261381e-01 -5.773568040141204838e-01 5.772953142106944657e-01
3.761267716216961654e-01 -3.406733998331157309e-01 6.758251739102369982e-01 5.773227580279114424e-01 -5.773902854577934729e-01 5.773377619054665955e-01
3.628861113701531416e-01 -2.849530166671785936e-01 6.772335168376307779e-01 5.773227580279114424e-01 -5.773902854577934729e-01 5.773377619054665955e-01
1.553931852079897813e-01 -5.168076440969595620e-01 6.527168878355289472e-01 5.773053680688261524e-01 -5.773361978801099248e-01 5.774092366911491858e-01
1.024682741183015611e-01 -5.256917233035847126e-01 7.171608453120112969e-01 5.773053680688261524e-01 -5.773361978801099248e-01 5.774092366911491858e-01
7.650199152848541351e-02 -5.803724705322123034e-01 6.813930060681405720e-01 5.774137646755975739e-01 -5.773546029583852546e-01 5.772824324417978881e-01
6.552136171864521297e-02 -5.328336252581400423e-01 7.608373394973593218e-01 5.773895120419897387e-01 -5.773044423650226520e-01 5.773568499719414771e-01
1.372202795233936901e-01 -6.710395735014942353e-01 6.771542440032004562e-01 5.773259061195984421e-01 -5.773002197986772943e-01 5.774246741728165100e-01
1.498915673039303564e-01 -4.458589605586361082e-01 7.930846073399268059e-01 5.774246069821378224e-01 -5.773262182654710362e-01 5.772999748439398005e-01
1.083481748915782888e-01 -4.385116563805619982e-01 7.730913956113553143e-01 5.773048638127579180e-01 -5.773566072874105615e-01 5.773893333269188854e-01
1.955297752222420749e-01 -4.976880706302354018e-01 7.307057790409426934e-01 5.774125035015797991e-01 -5.773413876046959992e-01 5.772969105743787077e-01
1.163443130705548723e-01 -5.021188673783365530e-01 7.328504573843658276e-01 5.773213114425893577e-01 -5.773681174775769920e-01 5.773613775397586911e-01
1.739970432344317142e-01 -4.600714388589409176e-01 7.349531606854083909e-01 5.773213114425893577e-01 -5.773681174775769920e-01 5.773613775397586911e-01
1.270352819573934700e-01 -4.470008488308044314e-01 7.636873086195640203e-01 5.773182956618063688e-01 -5.773481826574293763e-01 5.773843273559741140e-01
9.867265517185608292e-02 -5.072368063973548002e-01 7.662479323983413249e-01 5.774184304380188815e-01 -5.773492567931304276e-01 5.772831124075209486e-01
1.643537694046075942e-02 -5.225920390253654402e-01 7.931728973917222536e-01 5.774184304380188815e-01 -5.773492567931304276e-01 5.772831124075209486e-01
7.509259128543574469e-02 -5.484854251348559862e-01 7.185398212591936895e-01 5.773340001923046305e-01 -5.773537435451224775e-01 5.773630634500140912e-01
2.211815556540983052e-02 -5.512907771840166449e-01 8.074964263559577526e-01 5.773314206737251153e-01 -5.773614863888195670e-01 5.773579000392661253e-01
1.627650228349417083e-02 -4.958916277721463484e-01 7.634895520410241998e-01 5.774100911841019146e-01 -5.773327379726318487e-01 5.773079734975010702e-01
4.074616598499794518e-03 -5.392110436212510516e-01 8.576614758767974189e-01 5.773178713485899172e-01 -5.773482693676451616e-01 5.773846649156159083e-01
6.202295468992782279e-01 -5.458833458331406874e-01 2.665382549117366606e-01 5.773730800332722568e-01 -5.773491940054129579e-01 5.773285326693914365e-01
6.261973935059965690e-01 -4.295068306943195524e-01 2.625356881356042393e-01 5.773730800332722568e-01 -5.773491940054129579e-01 5.773285326693914365e-01
5.221732176431939099e-01 -5.323823032593624216e-01 3.086900795853704804e-01 5.773260649867891781e-01 -5.773895381990784559e-01 5.773352023435991409e-01
6.019551223637817916e-01 -5.563934204465235123e-01 1.985750944832663789e-01 5.773723762832235762e-01 -5.772932411701343636e-01 5.773851858199557929e-01
5.598392437806144484e-01 -5.646180742791825358e-01 1.767530059111117047e-01 5.773020790233959199e-01 -5.773436938802686269e-01 5.774050300196140739e-01
6.301999845285022328e-01 -5.772472470706352388e-01 1.974740731688453266e-01 5.773479126672795836e-01 -5.772743413521811418e-01 5.774285432459504985e-01
5.552874947543661177e-01 -6.125264007869005711e-01 2.141345883185659382e-01 5.773479126672795836e-01 -5.772743413521811418e-01 5.774285432459504985e-01
5.623861071781286469e-01 -6.335711701107984428e-01 1.414303454389853609e-01 5.773146299145874849e-01 -5.774226729037219563e-01 5.773134979396411515e-01
6.272078826127625018e-01 -6.223911141522141532e-01 1.332358215707743765e-01 5.773825974956285911e-01 -5.772653480951852600e-01 5.774028524329833933e-01
5.531402886056933088e-01 -6.429885649450283180e-01 1.022419942130072673e-01 5.773044781126829283e-01 -5.773577447434626864e-01 5.773885815772472618e-01
5.961225474551545833e-01 -4.858250736625208677e-01 2.925758339867222113e-01 5.772980372897966728e-01 -5.774115373151826880e-01 5.773412272795576117e-01
6.504595801485543172e-01 -5.426586128303738654e-01 1.963626182497778261e-01 5.773101795349625531e-01 -5.773975175699365137e-01 5.773431070943727539e-01
6.351854376991674656e-01 -4.656322947185637107e-01 1.959159019585089700e-01 5.773787827399607941e-01 -5.773321059153571078e-01 5.773399178309600588e-01
6.549893408673643780e-01 -4.916131402258857030e-01 2.516867682873257794e-01 5.773048301735842491e-01 -5.773970974035094184e-01 5.773488763029258619e-01
7.001362548076688341e-01 -4.184246418656441535e-01 2.813856237791934056e-01 5.773048301735842491e-01 -5.773970974035094184e-01 5.773488763029258619e-01
4.245690640704856689e-01 -7.027564755720528966e-01 2.795803679684769061e-01 5.773414819553849275e-01 -5.772978390716854147e-01 5.774114808494217321e-01
2.547052341896037242e-01 -7.116595960474255689e-01 3.397765615270019746e-01 5.773562810992550753e-01 -5.772949897567525301e-01 5.773995319334689347e-01
3.408089452040306000e-01 -7.467111954675835772e-01 2.813680938736237702e-01 5.773562810992550753e-01 -5.772949897567525301e-01 5.773995319334689347e-01
4.161636641055188046e-01 -7.299025731401485029e-01 3.201717695158056154e-01 5.773626757179839419e-01 -5.773680609095849237e-01 5.773200697440509233e-01
3.958959304713168814e-01 -7.647899389676633408e-01 3.087769903870428712e-01 5.773521546796698267e-01 -5.773009918908780236e-01 5.773976569475763876e-01
3.471351823718991647e-01 -6.465027450121573205e-01 3.767073312490296089e-01 5.773309313719946489e-01 -5.773741598933840313e-01 5.773457154673915515e-01
4.150800364228039441e-01 -6.366173839802742318e-01 3.256825408886687701e-01 5.773309313719946489e-01 -5.773741598933840313e-01 5.773457154673915515e-01
4.194710484828153008e-01 -6.082738711407656984e-01 3.447872840471049027e-01 5.773309313719946489e-01 -5.773741598933840313e-01 5.773457154673915515e-01
4.407825262429058144e-01 -6.756808514727168369e-01 2.780566975857364231e-01 5.773549726169531215e-01 -5.773764366870338671e-01 5.773193968273202525e-01
3.140265508980240039e-01 -7.343547449649953096e-01 3.120756449298829893e-01 5.773241856449227161e-01 -5.773812778937152945e-01 5.773453425873003031e-01
3.567822959102801561e-01 -6.543534948920466388e-01 3.451921731334632870e-01 5.773362763483937954e-01 -5.772720392261723177e-01 5.774424791611955099e-01
3.610011413165867822e-01 -6.347580048269341191e-01 3.530581578801597065e-01 5.773664840304766344e-01 -5.773728129050392788e-01 5.773115086644365901e-01
3.222795322430133669e-01 -6.660645872136854440e-01 3.857421868995917769e-01 5.773664840304766344e-01 -5.773728129050392788e-01 5.773115086644365901e-01
4.090194759302268057e-01 -5.865586794819027672e-01 3.640846278964993687e-01 5.773664840304766344e-01 -5.773728129050392788e-01 5.773115086644365901e-01
3.242089689440600941e-01 -6.742169234044541604e-01 4.221960684741814518e-01 5.773376287451805755e-01 -5.773969180129521206e-01 5.773162577860045941e-01
5.146602989137062378e-01 -6.966843696492036608e-01 1.955021918682038895e-01 5.773155310600568413e-01 -5.774220082480415739e-01 5.773132615726432881e-01
5.497559441000107183e-01 -7.217344523681954449e-01 1.258078611005185310e-01 5.773004673396290309e-01 -5.774254380702457112e-01 5.773248945601001658e-01
5.843717038393646535e-01 -7.220855148521785338e-01 7.966182235536478640e-02 5.773546029583852546e-01 -5.772824324417978881e-01 5.774137646755975739e-01
6.347643705353867016e-01 -6.510715091330748772e-01 1.289562906533271713e-01 5.773808543277639815e-01 -5.773456049332068574e-01 5.773243468970028491e-01
5.325008113591522818e-01 -6.436060946491937163e-01 2.006547095653351542e-01 5.773016750177799583e-01 -5.774331953425052566e-01 5.773159281868203152e-01
5.377503458324571772e-01 -6.690635890961811327e-01 1.452948003061619309e-01 5.773016750177799583e-01 -5.774331953425052566e-01 5.773159281868203152e-01
4.669639522126167730e-01 -8.321675303406608215e-01 1.815055251464041675e-01 5.773305124616189277e-01 -5.772949474083559629e-01 5.774253398298242468e-01
4.369302776766010310e-01 -8.359044116725135032e-01 7.399256096336910560e-02 5.773566072874105615e-01 -5.773893333269188854e-01 5.773048638127579180e-01
3.738510113664885726e-01 -7.760614745917965296e-01 1.757960163939190357e-01 5.773494997769808013e-01 -5.773827852516539849e-01 5.773185207511641881e-01
4.581934825603170003e-01 -7.550447427248989651e-01 1.746484981350749643e-01 5.773494997769808013e-01 -5.773827852516539849e-01 5.773185207511641881e-01
5.689849432245059901e-01 -7.808281832292751634e-01 3.743873499694279350e-02 5.773492567931305386e-01 -5.772831124075209486e-01 5.774184304380189925e-01
5.538418374466383964e-01 -7.801516748290967529e-01 4.734219621182252091e-02 5.773628446151879423e-01 -5.773617348885888845e-01 5.773262273137235168e-01
5.380355538249710357e-01 -8.152483019401852715e-01 8.477245060921398401e-02 5.773327379726319597e-01 -5.773079734975011812e-01 5.774100911841020256e-01
5.524117440994985584e-01 -8.173929990583391758e-01 5.018559645824494098e-02 5.773478022571125745e-01 -5.773819296548683422e-01 5.773210740453726952e-01
5.441236311072100706e-01 -7.972686793112294668e-01 -4.575338556799632417e-03 5.773478022571125745e-01 -5.773819296548683422e-01 5.773210740453726952e-01
4.864747148074565763e-01 -8.244338490029904376e-01 1.820893050084167880e-02 5.773478022571125745e-01 -5.773819296548683422e-01 5.773210740453726952e-01
5.831010824644698998e-01 -2.422885688172801699e-01 4.714947532066537383e-01 5.774501391148867402e-01 -5.772960873238895951e-01 5.773045681412246610e-01
4.879784998522463946e-01 -2.935477137115756197e-01 5.536087266021004760e-01 5.773361970289356826e-01 -5.773300534237666426e-01 5.773845555726933032e-01
5.371864557728007750e-01 -2.602353266086585015e-01 6.031910435834972883e-01 5.773361970289356826e-01 -5.773300534237666426e-01 5.773845555726933032e-01
5.847904066289590919e-01 -2.615641846189581399e-01 5.662585755347697702e-01 5.773449527453774488e-01 -5.773246420937286905e-01 5.773812113073872876e-01
5.843353002286575393e-01 -1.932903643212156020e-01 5.891880533621275395e-01 5.773438353340755169e-01 -5.773181043168393867e-01 5.773888656960322052e-01
5.541589898493520794e-01 -2.318311196142475994e-01 5.258728968786714475e-01 5.773436938802686269e-01 -5.774050300196140739e-01 5.773020790233959199e-01
5.665979198698624097e-01 -2.104191855176842096e-01 5.213346701004233363e-01 5.774247717463036889e-01 -5.773257918663686761e-01 5.773002364624489902e-01
6.259890173454731865e-01 -1.640234276581049866e-01 5.660843175303245101e-01 5.774226729037219563e-01 -5.773134979396411515e-01 5.773146299145875959e-01
5.105157098671623261e-01 -2.569633514879652303e-01 6.129629056452066127e-01 5.774181328166185789e-01 -5.773335646750746841e-01 5.772991035798870074e-01
4.905407533579470569e-01 -3.169948000578484137e-01 5.979493680944059086e-01 5.774181328166185789e-01 -5.773335646750746841e-01 5.772991035798870074e-01
5.108381891939669517e-01 -2.128282975758630513e-01 6.444773914473340692e-01 5.773952301443191493e-01 -5.773297065405510464e-01 5.773258682515360896e-01
4.721587395120985242e-01 -2.278688229639600216e-01 6.808979334682881968e-01 5.773970974035094184e-01 -5.773488763029258619e-01 5.773048301735842491e-01
6.245682450680341002e-01 -2.393964008972976898e-01 4.036583844667298582e-01 5.772844613051512086e-01 -5.774271413966342026e-01 5.773391958927894807e-01
7.474167664226387675e-01 -2.001397318297493677e-01 3.270514599103458431e-01 5.773009918908780236e-01 -5.773976569475763876e-01 5.773521546796698267e-01
6.177385414088863991e-01 -2.739257183020710751e-01 4.648863453386640199e-01 5.773263041524367978e-01 -5.773703647599869315e-01 5.773541377963855581e-01
5.648257736361176340e-01 -3.043334944578482970e-01 4.610367938343849503e-01 5.773594719439911760e-01 -5.773339487005307857e-01 5.773573865764676238e-01
7.113711462074507885e-01 -3.656677255481686206e-01 3.714136854711001523e-01 5.773812778937152945e-01 -5.773453425873003031e-01 5.773241856449227161e-01
6.761146515983628147e-01 -3.233076017724518803e-01 3.150391463242334100e-01 5.772720392261723177e-01 -5.774424791611955099e-01 5.773362763483937954e-01
6.072208293964130865e-01 -3.719260809610531737e-01 3.936458879227406338e-01 5.773377619054665955e-01 -5.773227580279114424e-01 5.773902854577934729e-01
7.059676271482476784e-01 -3.222683496333406117e-01 3.140657493592438065e-01 5.773969180129521206e-01 -5.773162577860045941e-01 5.773376287451805755e-01
6.943601357404074470e-01 -1.674649516834416096e-01 4.879432840694269968e-01 5.774350098353618899e-01 -5.773212970997836369e-01 5.772944909935128210e-01
7.207904486693524904e-01 -1.163952973961534798e-01 5.763221307166045415e-01 5.773568499719415881e-01 -5.773895120419898497e-01 5.773044423650227630e-01
8.339574099820493691e-01 -1.924170800732104836e-01 4.240177649008107785e-01 5.772923199392879789e-01 -5.774257228235063488e-01 5.773327567017707551e-01
8.039496667187447931e-01 -1.125755347805288409e-01 4.520161070071899156e-01 5.773893333269188854e-01 -5.773048638127579180e-01 5.773566072874105615e-01
8.017515468216683816e-01 -9.011449614372560313e-02 4.938494829324945323e-01 5.773893333269188854e-01 -5.773048638127579180e-01 5.773566072874105615e-01
7.328842523312540935e-01 -1.790646073295940888e-01 3.899051754162646266e-01 5.773749529057223828e-01 -5.773196639372096817e-01 5.773561893567452641e-01
8.024740869523034892e-01 -1.197859042620713355e-01 5.027690069533206074e-01 5.772831124075209486e-01 -5.774184304380188815e-01 5.773492567931304276e-01
7.609100079485237034e-01 -3.410853499030215563e-02 5.337367829942557540e-01 5.773630634500140912e-01 -5.773340001923046305e-01 5.773537435451224775e-01
8.031994913508128109e-01 -6.212051872739753067e-02 5.376449547324649858e-01 5.773579000392660143e-01 -5.773314206737250043e-01 5.773614863888194559e-01
8.498655560773002993e-01 -6.886947567441481510e-02 5.094866684501273557e-01 5.773766058302779447e-01 -5.773190226376500034e-01 5.773551776338516905e-01
8.242804490630147862e-01 -1.536995425819678157e-02 4.226964505304110498e-01 5.773816037107569743e-01 -5.773214556894453731e-01 5.773477465938652298e-01
8.459052104749300582e-01 -2.447588009744748952e-02 5.320288277831782819e-01 5.773816037107569743e-01 -5.773214556894453731e-01 5.773477465938652298e-01
4.489143698033339902e-01 -6.558104729287201895e-01 -3.187668189943185793e-01 5.773541377963855581e-01 -5.773263041524366868e-01 -5.773703647599869315e-01
4.423698290874383265e-01 -5.489022433831824976e-01 -3.239218160712785677e-01 5.773579952759010370e-01 -5.773582097210592234e-01 -5.773346022530486676e-01
4.999950495406049744e-01 -6.101949344382493479e-01 -3.352613567783646054e-01 5.773579952759010370e-01 -5.773582097210592234e-01 -5.773346022530486676e-01
3.761189590490384149e-01 -7.884060297678388007e-01 -2.256763167419334193e-01 5.773568388036967036e-01 -5.772955076927043239e-01 -5.773984564271235076e-01
3.653136888595084342e-01 -6.189183461098760608e-01 -4.303261190303160899e-01 5.773902854577934729e-01 -5.773377619054665955e-01 -5.773227580279114424e-01
2.783904321007741878e-01 -7.298973257630430034e-01 -2.986471950729215896e-01 5.773568040141204838e-01 -5.772953142106944657e-01 -5.773986846616261381e-01
3.408186833045193653e-01 -6.952208582455999819e-01 -3.811103616677493089e-01 5.773362763483937954e-01 -5.772720392261723177e-01 -5.774424791611955099e-01
5.866834080009629693e-01 -5.613070195014155939e-01 -1.944912116084069886e-01 5.773002364624489902e-01 -5.774247717463036889e-01 -5.773257918663686761e-01
5.581447651136589583e-01 -5.995022369445152099e-01 -2.050372579846459486e-01 5.773020790233959199e-01 -5.773436938802686269e-01 -5.774050300196140739e-01
6.030202227972243367e-01 -5.359465784837341706e-01 -2.116372740655645401e-01 5.773723762832235762e-01 -5.772932411701343636e-01 -5.773851858199557929e-01
5.833697386327109102e-01 -6.075300156690536246e-01 -1.482653494055221066e-01 5.773044781126829283e-01 -5.773577447434626864e-01 -5.773885815772472618e-01
5.195496310191582978e-01 -5.386551570399196187e-01 -2.869260688349647426e-01 5.773730800332722568e-01 -5.773491940054129579e-01 -5.773285326693914365e-01
5.824650086217803002e-01 -5.145045659934470716e-01 -2.275099688771049233e-01 5.773730800332722568e-01 -5.773491940054129579e-01 -5.773285326693914365e-01
5.214742823030563690e-01 -5.488933025492064299e-01 -2.901775570982970676e-01 5.773812113073872876e-01 -5.773449527453775598e-01 -5.773246420937288015e-01
5.282698144122285333e-01 -5.686266876047225693e-01 -2.458867522268634864e-01 5.772872742116423872e-01 -5.772666523019467366e-01 -5.774968529554039831e-01
4.860825283956827225e-01 -5.841035777985913446e-01 -3.224632795808082264e-01 5.773320198867474273e-01 -5.774244047654092382e-01 -5.772943751629676656e-01
5.495421027393430080e-01 -6.456881936432770086e-01 -2.936194242548038069e-01 5.773320198867474273e-01 -5.774244047654092382e-01 -5.772943751629676656e-01
5.923689470837829596e-01 -4.824335131939015975e-01 -2.640870295241428689e-01 5.773787827399607941e-01 -5.773321059153571078e-01 -5.773399178309600588e-01
7.188771264447113563e-01 -5.685347464331670375e-01 -2.194912765258093257e-01 5.773258682515359785e-01 -5.773952301443190382e-01 -5.773297065405510464e-01
6.432934918052338746e-01 -5.010474845934496102e-01 -2.202647550882519678e-01 5.772800056030891191e-01 -5.774009161457309691e-01 -5.773698789900351125e-01
6.738378845810825135e-01 -4.660458959629998898e-01 -2.586367075679059102e-01 5.773775496158719545e-01 -5.773127845948692327e-01 -5.773604714066328247e-01
6.319893381756753747e-01 -4.797853549294422426e-01 -2.624218460733236946e-01 5.773775496158719545e-01 -5.773127845948692327e-01 -5.773604714066328247e-01
5.884500708584186057e-01 -5.041247704458834411e-01 -2.763631408081497765e-01 5.772860161417375791e-01 -5.774361080391743339e-01 -5.773286730275679624e-01
6.521685098088018107e-01 -4.557004652687294266e-01 -2.716582703748786631e-01 5.773050253252265396e-01 -5.773968689414746835e-01 -5.773489096472089743e-01
5.765488729299861337e-01 -4.205451435558683060e-01 -2.754314957076968162e-01 5.773050253252265396e-01 -5.773968689414746835e-01 -5.773489096472089743e-01
4.754624918293624547e-01 -7.242347600256563434e-01 -1.647304675395133700e-01 5.773681001740716967e-01 -5.773631440733616449e-01 -5.773195620859437049e-01
