2.777053842889473656e-01 -3.424069453650226968e-01 -3.262831230985723252e-01 7.069964585254900902e-01 2.039357314603437443e-01 -6.771751804859282853e-01
3.136929578925629625e-01 -3.000776788982312815e-01 -3.362438667905232603e-01 6.606299423203968457e-01 2.109028040386819736e-01 -7.204776794310635557e-01
3.040507033484208810e-01 -2.183671981342964474e-01 -2.888000382143565137e-01 4.657065491856380857e-01 2.757173174761020640e-01 -8.408908198389296595e-01
2.965507387147898744e-01 -2.359812892524633943e-01 -3.043661776838723632e-01 4.324204367651817149e-01 3.944439455089621682e-01 -8.108184381963277065e-01
3.152704736998421242e-01 -2.640130621677039269e-01 -2.867979146800215262e-01 6.457372614099802233e-01 2.427830488516496132e-01 -7.239335469620372665e-01
3.162827247358730443e-01 -2.536400595051999107e-01 -2.908154076387382547e-01 7.086279019068278950e-01 2.298704997121050753e-01 -6.670877378585475803e-01
2.958852429240625970e-01 -2.595025280981864690e-01 -2.890477024891869862e-01 5.842340576585561829e-01 3.396694783911110571e-01 -7.370856200749879017e-01
3.392078703550384100e-01 -2.478040449941041057e-01 -3.303400551392242090e-01 6.661752690964370949e-01 2.970329038122580534e-01 -6.840920734061662900e-01
3.102409539180642772e-01 -3.000480152884871243e-01 -3.171416739617246572e-01 7.116775033285954732e-01 1.829191585652387708e-01 -6.782740690058569610e-01
2.896013403398596253e-01 -3.015198757395008422e-01 -3.051895100852992093e-01 7.128537344530538888e-01 2.107345416128047766e-01 -6.689024639269733896e-01
3.205713270933730485e-01 -2.440332646089862223e-01 -3.051953220381924958e-01 7.784025083786382249e-01 1.479084647663775620e-01 -6.100923053114974959e-01
2.742864304040258383e-01 -3.134751204732322272e-01 -3.198637482163577683e-01 7.999528739887675766e-01 1.729493594547046875e-01 -5.745989196485826733e-01
2.980778001079898432e-01 -3.221327027821347944e-01 -2.987871028868459011e-01 8.118458152569748565e-01 1.257552669232590847e-01 -5.701683831034456418e-01
3.298782196931808186e-01 -2.987486828141239781e-01 -2.472156167370722080e-01 8.889687276037252506e-01 3.205342789757607835e-02 -4.568448085538770465e-01
2.963738073037262555e-01 -4.321969831919920679e-01 -3.711764330675920709e-01 7.662459802482857185e-01 2.542673802518792825e-01 -5.900976165798248463e-01
2.685743356321509401e-01 -4.136015407958303358e-01 -3.591275822515699878e-01 7.165411427545441692e-01 1.803638476202819307e-01 -6.738231765171182053e-01
2.738157540303597370e-01 -4.358211908292742853e-01 -3.564828095179639056e-01 8.075924753436999337e-01 1.689472421599123864e-01 -5.650232058374197175e-01
2.783306685219389398e-01 -3.734446762954800048e-01 -4.031835490320622717e-01 8.227742452783397553e-01 1.101221191945458422e-01 -5.575981170796405761e-01
2.366264839079632309e-01 -3.369723829723287878e-01 -3.115400236479187179e-01 8.403621311675135708e-01 8.309864282865382645e-02 -5.356174979027762406e-01
2.798044011688669563e-01 -3.850937203836789502e-01 -3.328011887314284434e-01 8.939338949298887282e-01 3.796895770049067698e-02 -4.465876730795612648e-01
3.043969258584477977e-01 -3.830154610854242248e-01 -3.310211458849495747e-01 8.991096126382182030e-01 2.274647855554770212e-02 -4.371321335418791310e-01
2.859482169228638737e-01 -3.064182968546576014e-01 -2.833755395781887287e-01 8.915891303048061323e-01 6.838323234817594853e-02 -4.476522715858088919e-01
3.329198726288299937e-01 -2.174361199044407555e-01 -2.447093586522767206e-01 8.827789443039756323e-01 1.296408518813766189e-02 -4.696096975029295240e-01
3.545662876296120647e-01 -2.615214757963607584e-01 -2.490767324850735875e-01 8.537998126207148042e-01 -5.728167336079281746e-02 -5.174405181910474161e-01
3.500781700257014073e-01 -2.852673910084453923e-01 -2.243664476656721529e-01 8.847695785164013671e-01 3.871455302782184776e-02 -4.644178897456098798e-01
3.700999980224588537e-01 -2.127912753472222529e-01 -2.222391618544906911e-01 8.880409214722220224e-01 2.378724032744143971e-02 -4.591486567424231668e-01
3.737966633458594257e-01 -1.468587181319963297e-01 -1.988812576404561661e-01 8.547602426600787728e-01 8.225961359968009257e-02 -5.124629582107516068e-01
3.274652246696984625e-01 -2.239206332750416084e-01 -2.357987816280543714e-01 8.608897026027579891e-01 3.789151892172480662e-02 -5.073787074231035366e-01
-9.130851293027351240e-03 -3.584177673580540846e-01 -3.102244780047579975e-01 -3.258675961471190763e-01 4.367441873220750947e-01 -8.384896091316088595e-01
-3.343714934719824172e-02 4.904107167400138523e-01 3.936083269628101733e-01 -3.123778919277910848e-01 8.890529854567524870e-01 3.346712441862681464e-01
2.494039237337047632e-01 5.265867135152207945e-01 2.742573713759225984e-01 6.712295976604976122e-02 9.949923683036987487e-01 -7.405872865261770022e-02
1.967513535478739028e-01 4.770685894130426430e-01 3.233000051368229988e-01 9.447836720449668060e-04 9.993512653763433340e-01 3.600216346991601951e-02
2.226339145363422367e-01 5.237502966983064168e-01 3.957948309388606978e-01 -4.024003016247597840e-03 9.998314209211026649e-01 1.791471849106899064e-02
2.120185014243534949e-01 5.290598852150674158e-01 2.881725946954912798e-01 9.310405131697344072e-02 9.915809344859916052e-01 -8.999381085526983459e-02
1.801392706254623388e-01 5.064040022500608806e-01 3.419644688420074297e-01 1.341124365300250809e-01 9.904546448453962482e-01 3.183474316151956723e-02
1.745394576020486144e-01 5.503211059120742821e-01 3.701972224846557524e-01 2.083510058020743017e-01 9.780530314234685552e-01 1.458116808643343445e-03
1.979170063320230266e-01 4.886615252052199376e-01 2.080539735575897275e-01 2.495706404519131560e-01 9.306838276375454244e-01 -2.674735657936118116e-01
1.579699314050890813e-01 5.053308851948800084e-01 2.234249769251908102e-01 1.247947164879366910e-01 9.582280402705133371e-01 -2.573427705921172426e-01
1.337282852632740160e-01 3.954065563350071533e-01 -3.274369773790353905e-02 6.597344941968666387e-02 8.154930224773783154e-01 -5.749944645493364481e-01
2.707669423421955185e-02 5.208603601875421152e-01 3.971362614043738581e-01 -2.527248378534117101e-01 9.573340376024417342e-01 1.401488379537033646e-01
-3.030872664891736540e-02 5.384470218299078903e-01 3.328871980036904321e-01 -2.290746564832937815e-01 9.617136263163128529e-01 1.504383684921775932e-01
-2.752502262078998160e-02 5.173647046090227297e-01 3.271319643894092799e-01 -1.906950266033922703e-01 9.751546817338954121e-01 1.127331074760066498e-01
-3.780233388070618206e-02 4.884199827495102064e-01 3.600412578750031289e-01 -3.198304714018648798e-01 9.469505446317287856e-01 3.151405376229609451e-02
-5.095344678292393348e-02 5.113403156333289346e-01 3.349823539924541849e-01 -3.046733224464054368e-01 9.509097624373903379e-01 5.426592200206716704e-02
-2.712880007203669411e-02 4.820706200487933080e-01 2.339981381490692236e-01 -2.223363853164645465e-01 9.590739130430336878e-01 -1.753389890604258317e-01
-1.357444566044171685e-01 4.810478634910360096e-01 2.781633807068925046e-01 -3.861468159336575723e-01 9.155786247548787227e-01 1.122783079506600168e-01
-1.312980827704423037e-01 4.548548830431747847e-01 2.525211481568569449e-01 -4.599090478313819230e-01 8.857965080038422423e-01 6.203397561845216956e-02
-9.503203193431809803e-02 5.278444577348659905e-01 2.521767674892793631e-01 -1.842220659006846839e-01 9.819580696391219110e-01 4.266825407599045272e-02
-1.241838505331214482e-01 5.067431249826431783e-01 2.250375205790018374e-01 -2.700449574062138147e-01 9.549433716946292838e-01 1.231213947125735231e-01
-6.550828357414212322e-02 4.974133248674302843e-01 2.953699446121021421e-01 -4.408747609713529192e-01 8.968833974781551532e-01 3.506588750472725696e-02
-1.096663012852656244e-01 4.835803084503054738e-01 2.959462750345768223e-01 -3.948919106725944927e-01 9.071891778981900911e-01 1.451488008553763198e-01
-5.556895423808808770e-02 4.999458229947680299e-01 3.052209110025128624e-01 -4.868114505472462272e-01 8.734816232504469813e-01 -6.668242635825614821e-03
-5.647301953024567306e-02 5.220398453843410058e-01 3.395542138783077535e-01 -4.847879360671740745e-01 8.729895771004407834e-01 -5.357103058298539472e-02
-8.041555693646777747e-02 4.818761386679252245e-01 2.933516416516498970e-01 -4.280752461758788319e-01 9.037293471605386541e-01 4.985046865118433410e-03
-7.393116533577730187e-02 4.577304771349927082e-01 2.288446945385370079e-01 -4.106905173567672040e-01 9.099297303953978178e-01 -5.797572505617831773e-02
-8.047314494694075837e-02 4.707497087352821019e-01 2.873741110581529146e-01 -3.454715619334191024e-01 9.346574578184122517e-01 8.405258139823301722e-02
-6.017451124741224344e-02 4.948283856744076226e-01 2.375690144979321350e-01 -4.096735883099253406e-01 9.099377177496955627e-01 -6.465988600163959099e-02
3.288280271153418144e-02 5.504212378530259908e-01 2.299147907222691412e-01 -2.776598242020950069e-01 9.123447479832036411e-01 -3.008854979083012138e-01
2.639542118516267077e-01 4.575654411470058691e-01 5.450104902292728370e-01 9.683739295875845587e-02 8.442602373699920060e-01 5.271121046996697368e-01
2.446441998196136614e-01 4.843552733242052488e-01 5.044068113560754574e-01 1.009125441554698382e-01 9.397321359623421744e-01 3.266805336589929665e-01
2.532939113133741427e-01 4.729333358796232734e-01 5.022390082115339993e-01 1.434752632885035184e-01 9.302071381004582973e-01 3.378306218377037928e-01
3.237299292119259486e-01 3.467733823074120036e-01 -5.293221306382100977e-02 2.372194896133585779e-02 4.429607251927824008e-01 -8.962271280619439340e-01
2.967869881959829259e-01 3.619450294912742172e-01 -2.634851162038006830e-02 -1.480591615596702588e-03 4.464681666939919191e-01 -8.947982923415609413e-01
3.016566955990838683e-01 3.311708417746060396e-01 -2.315714319219057404e-02 -2.142133332018699918e-02 4.502195030014497501e-01 -8.926609242012967238e-01
2.738218921785440796e-01 4.090290954693566738e-01 -1.007464060470248182e-02 -1.959020913975726558e-02 4.607017370014165891e-01 -8.873387928123835922e-01
2.676397729823095650e-01 3.674233821801053956e-01 -3.526888960925500527e-02 -1.900775554667757106e-01 5.335977015136936785e-01 -8.241019450572106830e-01
3.151813357757827228e-01 3.919582415769063966e-01 -8.199396461038361422e-03 2.002257233389371713e-02 5.946322842258902064e-01 -8.037484327533298556e-01
-3.839558745248352611e-01 6.065955013427228731e-02 1.081842001809361076e-01 -8.897901034983400903e-01 4.427626326408545809e-01 1.106111334963755383e-01
-3.565587858076275651e-01 1.273346410486621560e-01 1.416405736981773411e-01 -8.913048172295516824e-01 4.409914980376182791e-01 1.053670794979761210e-01
-3.308760956468101977e-01 8.804862976764669946e-02 1.717149753103916765e-01 -9.467225175903485335e-01 3.200844253818850849e-01 3.553076575786931479e-02
-3.572366254867482827e-01 2.237736515111749327e-02 1.536805657848888673e-01 -9.342488155618181578e-01 3.245675326878765810e-01 1.477669359032793561e-01
-3.908987324000155472e-01 9.553173566312316012e-02 1.581562242383548200e-01 -9.010821081434938762e-01 3.978377160422628123e-01 1.725577760576230968e-01
-3.853598823999884737e-01 2.791869693247521766e-01 1.597546462911515475e-01 -5.930279734243191214e-01 6.398308109777537389e-01 4.888091202706787985e-01
-3.583807859927107820e-01 2.629094871046596671e-01 1.474016067428881027e-01 -4.983103359559202805e-01 8.414111367408660946e-01 2.090791908534688492e-01
-4.137378524711208261e-01 2.633692715306137355e-01 1.870144385215020411e-01 -7.601278095975181337e-01 3.792228626748201381e-01 5.276321952849295505e-01
-3.859427648915282338e-01 2.531617439426879224e-01 2.008074605230937282e-01 -7.266660351820830588e-01 4.685888687746645465e-01 5.023753033074295216e-01
-3.517222634083497224e-01 2.897261419312086028e-01 1.749402798072298149e-01 -7.654215468608442929e-01 3.933772091487541256e-01 5.092977782432293044e-01
-3.492171060829116769e-01 2.588455250771516392e-01 2.327237630219643749e-01 -5.710082899366284437e-01 1.664937226596299169e-01 8.038839301407794125e-01
-3.195146309279529029e-01 2.628666374490860602e-01 1.852111578451564045e-01 -5.059396989685387425e-01 -5.968451051026207183e-02 8.605014701979157854e-01
-3.895737038595984414e-01 2.663773532999202942e-01 1.820466390279851521e-01 -5.124320767473642402e-01 -3.784328110705980075e-01 7.708449741845558867e-01
-3.183486210964905916e-01 2.496796376386330452e-01 2.193473324919716638e-01 -5.124320767473642402e-01 -3.784328110705980075e-01 7.708449741845558867e-01
-3.179039251177473990e-01 2.574013183764502499e-01 2.309105334188109315e-01 -4.588326345573542353e-01 -2.647431937848837569e-01 8.481648747795070831e-01
-3.390305541575531212e-01 2.602134259570642039e-01 2.270345329490312813e-01 -5.220417471504807949e-01 -3.725831069672845552e-02 8.521057636913973443e-01
-3.632198201288909800e-01 2.312776956524352501e-01 2.007735483357672712e-01 -6.062481891490770769e-01 -3.733485230466718208e-02 7.943986668901538151e-01
-3.880903596782473985e-01 2.616540260758822845e-01 1.898003518561331704e-01 -7.068807244436606796e-01 -2.987134275906402903e-02 7.067017364431588122e-01
-3.492766119323444385e-01 2.712252108548801610e-01 2.161842866264645224e-01 -5.801366940368971603e-01 1.689581044793540265e-01 7.968027203534656655e-01
-3.871019292823749125e-01 3.056979580705623256e-01 1.622147297782618180e-01 -6.732780317067539322e-01 2.030799685139318411e-01 7.109537385860347225e-01
-3.785892470170171831e-01 2.208326823305062081e-01 1.377004300675630233e-01 -6.309965003584179222e-01 -3.199006533099152949e-01 7.067580834679701995e-01
-3.779713338452916904e-01 2.087761092696860943e-01 1.570489062939932345e-01 -6.137263319117814975e-01 -3.746170575225720722e-01 6.949834888191517290e-01
-3.936349588715581382e-01 2.196332670688152522e-01 1.735516194398473155e-01 -4.938172452983601857e-01 -3.547578668681719005e-01 7.939089268556460688e-01
-3.467949009096788493e-01 2.349124206869097342e-01 2.326567792421325165e-01 -5.295717895457049407e-01 -4.613543024409392790e-01 7.118327945076664554e-01
-3.625841863156500922e-01 2.554586695418152309e-01 1.575197577716494768e-01 -5.872783790660327519e-01 -3.312870630549909490e-01 7.384801875026653084e-01
-3.392394611749928734e-01 2.249717188642321453e-01 1.790569162663629421e-01 -5.872783790660327519e-01 -3.312870630549909490e-01 7.384801875026653084e-01
-3.625202330499378012e-01 2.103458549680674305e-01 1.774108837891784363e-01 -6.479524750824496859e-01 -3.174755311393397395e-01 6.923632552080747349e-01
-3.920544082373663142e-01 2.093783592352196909e-01 1.703786203786387676e-01 -5.981196631226726179e-01 -4.573088090759914737e-01 6.581196864761903464e-01
-3.763120621197222349e-01 2.251616600798126977e-01 1.256061628526964624e-01 -5.942135923802170927e-01 -1.855740259209006371e-01 7.826062148578339928e-01
-3.536137220880552490e-01 2.237370861715931580e-01 1.781746670006993105e-01 -5.942135923802170927e-01 -1.855740259209006371e-01 7.826062148578339928e-01
-3.742536197895463546e-01 2.462989808877094622e-01 1.269039286309769643e-01 -5.998232994212597813e-01 -3.547774648441782697e-01 7.171784714491445945e-01
-4.269927265387491455e-01 1.805922410413551560e-01 1.767363123369084799e-01 -5.996964074881596662e-01 -9.459454757854308948e-02 7.946169457129679259e-01
-4.044645579402562641e-01 2.249134978547450980e-01 1.387000891559301008e-01 -4.754586010965824450e-01 -9.757459628868708768e-02 8.743101948406987178e-01
-4.163714312553827845e-01 1.724771739179246643e-01 1.351436623139284643e-01 -4.755914795276895424e-01 -7.832741473245581620e-02 8.761721067815348984e-01
-4.169160927997723198e-01 1.621929424216475013e-01 1.456761461631519150e-01 -5.084511082037020957e-01 -5.978434117143675147e-02 8.590129819258404131e-01
-4.259207040840633507e-01 2.189975776458955026e-01 2.030773783769376228e-01 -6.504099750655396583e-01 -1.886164557438260170e-01 7.357925638098562482e-01
-3.980595556948285374e-01 2.363839939667979895e-01 1.583873253405448656e-01 -5.916891201467817663e-01 -3.093518420864323493e-01 7.444497450450621168e-01
-4.200759970165972024e-01 2.181802498393483891e-01 1.973958778902482336e-01 -5.751123761431791159e-01 -2.963307748019971544e-01 7.625180828755435680e-01
5.379027272758801770e-02 2.682221490750339443e-01 6.888720073000229593e-01 -4.586055737719287873e-01 3.293555344263882079e-01 8.253519610735944312e-01
4.520735372092552634e-02 2.506369949238934081e-01 6.644935416690858077e-01 -5.642875967378391255e-01 2.343969769716973128e-01 7.916044247945837053e-01
6.284582131417408568e-03 2.951655050565175631e-01 6.878328324334319621e-01 -5.642875967378391255e-01 2.343969769716973128e-01 7.916044247945837053e-01
6.333983092300213280e-02 2.098224178711290133e-01 7.046359094717151716e-01 -4.698552041118778666e-01 2.921233973995119859e-01 8.330066073331905407e-01
6.399957216014298678e-02 2.251744709294602187e-01 7.267655872922770266e-01 -5.794792960017366434e-01 3.164370378282269636e-01 7.510468338231837127e-01
7.933272097266728939e-02 2.205221548954927613e-01 7.086389248274078678e-01 -4.524669230389564145e-01 2.737937683094465169e-01 8.487111734804556606e-01
8.762017721623249766e-02 2.411065278451984817e-01 6.952846164980532873e-01 -3.785747249285629779e-01 3.167166393553691450e-01 8.696963539079050065e-01
4.127568875694619110e-02 3.058574281104328718e-01 6.398734058719798279e-01 -4.728679629277819929e-01 3.888016530220193556e-01 7.907143379526356819e-01
2.492786752195150918e-02 2.967153545588877561e-01 6.468596806515974906e-01 -4.894516034735236776e-01 4.163253461947425405e-01 7.662312535866860896e-01
3.205768067018358730e-02 2.596559667358799839e-01 6.668901505733146884e-01 -4.894516034735236776e-01 4.163253461947425405e-01 7.662312535866860896e-01
3.570449325983347105e-02 2.773019309894517725e-01 7.013058339783662110e-01 -4.727946003274430820e-01 4.147663690147513349e-01 7.774536160026090936e-01
6.603105763287984986e-02 2.536446296903935860e-01 6.891444289001034118e-01 -4.436416233693623590e-01 3.992565934748294465e-01 8.023567053256747128e-01
6.924644426043277678e-02 3.093697891426671620e-01 7.018645813778556786e-01 -4.193170923070255185e-01 4.206437486306086049e-01 8.045073106176046096e-01
7.055498928452758056e-02 2.983219272016766066e-01 6.946738896250012063e-01 -4.102303746958720909e-01 4.770558914466942468e-01 7.772571750153768333e-01
3.126712720046932736e-02 3.063242213392213809e-01 6.668929931608301720e-01 -3.958834204371098342e-01 4.135687843922804530e-01 8.199007122812530524e-01
7.399318441964627957e-02 2.978159061827273524e-01 6.828112515976935137e-01 -3.703360499809022488e-01 4.744215412430417000e-01 7.986084217494324733e-01
1.809820484084059544e-01 1.345497927020400386e-01 7.644248231745985889e-01 -1.126792724689257980e-02 2.685785485456794186e-01 9.631918796774892044e-01
1.291697141138179183e-01 1.521435991359579853e-01 7.238789792257530609e-01 -1.126792724689257980e-02 2.685785485456794186e-01 9.631918796774892044e-01
1.432329635697588699e-01 2.220200845488425057e-01 7.197252549535586574e-01 3.177580863084090296e-02 2.806349238120116052e-01 9.592884537629350339e-01
1.514754561762036988e-01 1.751714938884105233e-01 7.277074853758863648e-01 -8.280059810497847339e-02 2.808582905208085734e-01 9.561708433115845285e-01
1.317743201161250821e-01 2.305983049931100703e-01 7.576863660413925006e-01 -6.515857378960275559e-02 2.426584563544389173e-01 9.679210886334617125e-01
1.565634241516545289e-01 1.800094561999073528e-01 7.358762087296265575e-01 -7.892880350197863104e-02 3.093288526250204673e-01 9.476739444088533304e-01
1.155663392917636451e-01 1.662359745289733182e-01 7.472509264729348955e-01 -7.892880350197863104e-02 3.093288526250204673e-01 9.476739444088533304e-01
1.409126791274282475e-01 3.252541355506521348e-01 6.688310250898915621e-01 -2.612459849864939287e-01 4.272629144775336729e-01 8.655616311046835376e-01
1.141729267729628128e-01 2.836224625354323847e-01 6.702999329888578162e-01 -1.787934808510270590e-01 4.326731446485829191e-01 8.836440692411621223e-01
1.218986053473637837e-01 3.272679866488490963e-01 6.682853451859817051e-01 -1.787934808510270590e-01 4.326731446485829191e-01 8.836440692411621223e-01
1.246119567915242171e-01 3.596285413755560545e-01 6.916582797664155846e-01 -1.782722707958594999e-01 4.275240902192773418e-01 8.862517417458016800e-01
1.102291785318754852e-01 3.366256682395840083e-01 6.791563276932893745e-01 -2.398685287550453848e-01 4.003018795822622100e-01 8.844328658048603575e-01
-1.624095160052352604e-01 3.766373288907344241e-01 4.385400823877262932e-01 -5.997296320295114613e-01 6.726155625953511574e-01 4.334889542079312097e-01
-1.517893981076206544e-01 3.416334506202541310e-01 4.787796281327617587e-01 -5.951459524632156661e-01 6.652633195559003454e-01 4.508059570592606868e-01
-1.502618069731284089e-01 3.714602356933761618e-01 4.751200940516686066e-01 -6.750589364504271384e-01 6.170663730557710558e-01 4.043816558181320686e-01
-1.692356213772911455e-01 3.531448507433077588e-01 4.593786535995185161e-01 -7.256837117694319161e-01 5.515337593351902212e-01 4.113315728048751452e-01
-1.686882820149002149e-01 3.496138183151940027e-01 4.606115346378383268e-01 -7.859791253877133066e-01 4.978438138977189786e-01 3.665901681967733694e-01
-1.422970421713218581e-01 3.229777695646001701e-01 4.892378404847969597e-01 -7.770886607266676016e-01 4.780957099932003351e-01 4.093381309579302019e-01
-1.713110065590564002e-01 3.845474274082483213e-01 4.871426259147037530e-01 -6.408780462730533367e-01 6.077490837059712492e-01 4.689524294209237443e-01
-1.427050486687968800e-01 3.886419252263992874e-01 4.556480187353996181e-01 -6.089287299196052272e-01 6.473062261005799733e-01 4.584762278787430922e-01
-1.717626783852517769e-01 3.965520762901549312e-01 4.903104335333429709e-01 -6.613625029612596462e-01 6.252299678936522609e-01 4.143514533877252215e-01
-1.620998206046447287e-01 3.581203171511405103e-01 4.986922907226568058e-01 -6.822105732322021332e-01 5.925786304659375059e-01 4.282981443869491867e-01
-1.438254811199813354e-01 4.160140379816117950e-01 5.261058635452776633e-01 -5.878489493478867844e-01 6.608947384890008214e-01 4.665316252818676457e-01
-1.335647552240899483e-01 3.602166438355444145e-01 4.825032150961571786e-01 -5.878489493478867844e-01 6.608947384890008214e-01 4.665316252818676457e-01
-1.468646721257840237e-01 3.758590107741182074e-01 4.926745709907801585e-01 -5.957245713675843879e-01 6.675671694207603313e-01 4.466165126598677926e-01
-9.758009830708445909e-02 4.083559248995303204e-01 5.010606259413077357e-01 -5.475554738542154354e-01 7.177016293128849478e-01 4.302178219622195265e-01
-9.799429753364387319e-02 4.104053145684356529e-01 5.128586520477288468e-01 -5.824664851286276424e-01 6.930420120700526709e-01 4.247653036769778456e-01
-1.047835762005800281e-01 3.488861313218336591e-01 5.409015950710418519e-01 -6.728321535078087834e-01 4.991534061998044725e-01 5.460245143628419395e-01
-1.169360801672844341e-01 3.338609479148726411e-01 5.403404920501718722e-01 -7.383760289995683346e-01 4.156521318805721510e-01 5.310688703567212343e-01
-1.422553709982393166e-01 2.773708800280809683e-01 5.586433951260646458e-01 -7.383760289995683346e-01 4.156521318805721510e-01 5.310688703567212343e-01
-1.603102181345826827e-01 3.179756131778573303e-01 5.705600840859493816e-01 -6.288005521225994432e-01 4.461149645703137434e-01 6.368605059483133379e-01
-1.362324639331530807e-01 3.409111571490088810e-01 5.480386519485695995e-01 -6.394389333708965228e-01 5.006266165097735810e-01 5.835159306578238114e-01
-1.338567365464364833e-01 3.635714257762875379e-01 4.938411097619966328e-01 -7.044440856302820464e-01 5.293882914624387093e-01 4.727648115955710995e-01
-1.136529033579552900e-01 3.413247907052037178e-01 5.459964831673284058e-01 -7.049240987225017241e-01 5.103037783430864893e-01 4.926175685549984973e-01
-1.362737870986106270e-01 3.569207460721286473e-01 5.431014767998433301e-01 -6.421655477427009595e-01 5.639205189571908639e-01 5.192466250168307207e-01
-1.659857435601511666e-01 3.638451904391136749e-01 5.123864983376127391e-01 -6.429465143761733392e-01 5.461980794058610700e-01 5.369240520826735752e-01
-1.160789959487147638e-01 3.517516850905445525e-01 5.247219680507464457e-01 -6.297347206617502913e-01 5.561422143692807962e-01 5.423467700553773474e-01
-1.553416952666100415e-01 3.470705942605905592e-01 5.592997108505728399e-01 -6.020775426337615643e-01 5.443318889983507214e-01 5.841279203013481913e-01
-8.292134285881319622e-02 4.277447775688828502e-01 5.158664628924864992e-01 -5.429032341097629333e-01 6.713836778288957419e-01 5.044799654476929129e-01
-1.278643607228520940e-01 3.836664830457878761e-01 5.360307259650465284e-01 -5.429032341097629333e-01 6.713836778288957419e-01 5.044799654476929129e-01
-1.232702438956541080e-01 3.756603872615028039e-01 5.280073335911932286e-01 -5.494585332980497228e-01 6.679959340590143624e-01 5.018732432263955934e-01
-1.202824967288996100e-01 3.845471644532370559e-01 4.742609343458983329e-01 -5.719535976368932406e-01 6.155071362797003287e-01 5.422361545848608522e-01
4.882052239062392024e-02 -1.301340468115963211e-01 6.894741197733629257e-01 -2.131542903814214185e-01 -6.603307039301942183e-01 7.200893069189729934e-01
5.213363556881925320e-02 -1.296453826043834912e-01 6.592640244184955201e-01 -2.566551105918858933e-01 -6.186963724050803526e-01 7.425247154000067518e-01
3.121933937030796011e-02 -1.550758701410880069e-01 6.750816626529094755e-01 -7.044094300221354077e-01 -4.551231480496981674e-01 5.446744670032025448e-01
6.172550297182831380e-02 -1.706310977410408214e-01 6.104596601950919021e-01 -7.455821271738609646e-01 -4.978587353196606280e-01 4.429943242354340005e-01
-8.519175646102111407e-03 1.410796563329166919e-01 6.684201840805841233e-01 -5.676936436558970289e-01 1.058553001868481613e-01 8.164058931530588925e-01
2.308418080008184381e-02 1.150816967647758232e-01 6.772772875768263701e-01 -6.541894903688988405e-01 1.109207508757143051e-01 7.481528571863160781e-01
2.075772920790571602e-02 1.179242891937942045e-01 6.534750830113513764e-01 -5.989022155098560063e-01 1.428195964453867761e-01 7.879839459840300986e-01
3.440155498045039534e-02 1.107950361034783504e-01 6.927719035995727470e-01 -6.268627807403807095e-01 1.544487438566921611e-01 7.636678856960840145e-01
5.981108555007052380e-02 1.430326841178746200e-01 6.660834967423171493e-01 -6.571643741393305982e-01 1.781420577722761800e-01 7.323936049793996483e-01
1.038303124055974247e-01 1.772302778936483414e-01 7.692538158176395191e-01 -2.509589898671119590e-01 1.946693803373693854e-01 9.482211860973912554e-01
1.473029766764899495e-01 1.749608785009761913e-01 7.213773761559773012e-01 -2.536635793712738729e-01 2.672532119559978270e-01 9.296399890278795874e-01
1.013021779588137994e-01 1.683162778209770505e-01 7.517519197563244937e-01 -2.536635793712738729e-01 2.672532119559978270e-01 9.296399890278795874e-01
1.248209091544636717e-01 1.693326290967771541e-01 7.236460766808960887e-01 -3.616206943827340869e-01 2.302681961517399623e-01 9.034417696980656665e-01
1.370269870999088480e-01 8.422432102646479346e-02 7.499807688213124823e-01 -3.057405767926605900e-01 1.788408004582114352e-01 9.351677217451195290e-01
1.294715608963806219e-01 1.447273567841091402e-01 7.393880900464537831e-01 -1.794074882063111109e-01 1.642662566688220527e-01 9.699636849364593472e-01
1.452300048150165501e-01 1.425607547514806950e-01 7.498945182323956127e-01 -1.625430019725669917e-01 1.734991547995414218e-01 9.713278621524201739e-01
1.009385237876713748e-01 1.787555369336648048e-01 7.286819331659355470e-01 -1.676577301544944776e-01 2.942582559747701776e-01 9.409053960468762856e-01
-8.878326076275675632e-03 2.324433357429457614e-01 7.136809337921439234e-01 -2.878581316773360377e-01 2.834819492849560141e-01 9.147544372435889581e-01
2.493453947113778713e-02 2.721011984313815857e-01 6.991066415406279599e-01 -4.253136543532260450e-01 3.262649976124141205e-01 8.441915936288846289e-01
-1.231713460279431488e-03 2.787479315370001709e-01 6.663820028577279730e-01 -2.158285060266461886e-01 4.221125943514511536e-01 8.804765832639691592e-01
-1.934139362350362212e-02 2.261267229139495294e-01 6.780773877382072490e-01 -5.137125788840918306e-01 2.964796189876887644e-01 8.051082050390312439e-01
3.856214076969980559e-02 2.792119595722288294e-01 6.936538931986921952e-01 -3.497478607842183229e-01 4.144198513712425425e-01 8.401979651643416425e-01
6.273582564523386140e-03 2.906002226532877764e-01 6.543144155432494280e-01 -2.684522708483711440e-01 4.285135133694129017e-01 8.627337637627002787e-01
-4.876704164464874119e-02 3.022495999834930447e-01 6.757039165112461720e-01 -2.229196582773808888e-01 4.393551496653640975e-01 8.702148461248068179e-01
1.532111546584616173e-02 2.281660652697626301e-01 6.509046052243178115e-01 -2.828936411253932248e-01 2.796584493206929478e-01 9.174760702788725686e-01
-3.967552282645913503e-02 3.144032157649188086e-01 6.958991344431556536e-01 -2.160930139930373750e-01 3.482943579834669179e-01 9.121375167705193521e-01
4.255193690919122258e-03 2.920752430683293821e-01 6.411682340945928926e-01 -2.245302505568698703e-01 3.958163807098739606e-01 8.904580615315947911e-01
2.933900700537101988e-03 3.213178127008157747e-01 6.965400104334156239e-01 -2.245302505568698703e-01 3.958163807098739606e-01 8.904580615315947911e-01
-2.571692862784767664e-02 3.326413148507660900e-01 6.346836504023329883e-01 -3.285166682228005675e-01 5.261281211909368816e-01 7.843889333690814425e-01
-5.902593836099244429e-02 3.310578344404570550e-01 5.791041805008786403e-01 -3.617327082334088062e-01 5.060217944677506408e-01 7.830015270213469547e-01
-1.090414860399558372e-01 2.797982711629202757e-01 5.707533829397313241e-01 -5.694875755177243315e-01 4.209768490013422459e-01 7.060186923416725824e-01
-1.274045309436990792e-01 3.213486253689999961e-01 5.767421192143095121e-01 -5.650105074101919866e-01 4.740653347956083619e-01 6.752963681682325747e-01
-1.142633632426900137e-01 3.835622878593140661e-01 5.370231416583922668e-01 -4.629484784632393324e-01 5.363315126319048165e-01 7.057104327176580982e-01
-1.035192683915549805e-01 3.376689866772428772e-01 6.012313987533404180e-01 -5.462871576074143087e-01 5.306081988480008116e-01 6.480935740681992296e-01
-1.252492353230655331e-01 3.403232927663605301e-01 5.711062858953559473e-01 -4.548878072636502456e-01 4.375259903316305321e-01 7.756597776004594547e-01
-1.357165361366591272e-01 3.759509124809176650e-01 5.640762435927486607e-01 -4.268307964093073781e-01 4.849707921336661176e-01 7.632947019427299695e-01
-3.609489094994135922e-02 3.093905768460294969e-01 5.888058066573754745e-01 -3.227491659066470397e-01 5.235361269241893822e-01 7.885067531174242417e-01
-7.614915589592331779e-02 3.770774733191499806e-01 5.791842866831293790e-01 -3.449558970559957749e-01 5.449789564055949054e-01 7.642011293902686297e-01
-7.097152614121846059e-02 3.671764311385300461e-01 5.968987468294948417e-01 -3.812373506711095317e-01 5.515830359302095198e-01 7.418990746235546441e-01
-7.406767179493350950e-02 3.584967895966317819e-01 5.944929194160155639e-01 -4.095685195694965808e-01 5.243781796071171897e-01 7.465126606626152350e-01
-4.555336529248441707e-02 2.341672007100418784e-01 6.178511727882084470e-01 -4.925345450228792998e-01 1.794638089138468062e-01 8.515882005108100783e-01
-2.423140632613149728e-02 1.274459247253844629e-01 6.788976789121704547e-01 -4.618715048580780413e-01 -1.907583129105249603e-02 8.867416904943005163e-01
-5.813557599403630476e-03 1.439477051737203805e-01 6.843510167801913902e-01 -4.027593216632376905e-01 6.454456323884076585e-02 9.130273425093445860e-01
1.466582415636966813e-03 3.535910758291434530e-01 5.941544734447564702e-01 -3.826365256364917533e-01 2.947172638501514008e-01 8.756317854198275574e-01
5.084348844640538406e-02 3.623960864816073713e-01 6.322661087226023602e-01 -3.447882421008907627e-01 4.377447423561025563e-01 8.303617336128675808e-01
3.621617055844316563e-02 3.782349658800510661e-01 6.086744485654197456e-01 -3.447882421008907627e-01 4.377447423561025563e-01 8.303617336128675808e-01
5.884744407721462234e-02 3.956325080108298864e-01 5.982102208441915092e-01 -3.847385197671184254e-01 5.035286848761034717e-01 7.735858936888317938e-01
2.680259362293514747e-02 3.997640956993902539e-01 6.411841431678106940e-01 -5.030124939240474546e-01 4.148423825104120000e-01 7.582112031811422126e-01
-3.958134569271012926e-02 3.692549519848351003e-01 6.082403460064184086e-01 -3.786182568741792154e-01 5.010982934675969336e-01 7.781701072679548803e-01
5.944689521704290408e-03 3.944609088994400214e-01 6.186643018067581323e-01 -4.484780853266813749e-01 3.305979332987001307e-01 8.304049695662606423e-01
2.468966710595509040e-03 3.375927299740023591e-01 6.227585662377886910e-01 -3.293594160097075840e-01 5.310805147489853217e-01 7.806893504715541887e-01
-5.376103692933992956e-02 3.468311143009782938e-01 6.166058965193159658e-01 -3.293594160097075840e-01 5.310805147489853217e-01 7.806893504715541887e-01
-3.625862262246205142e-02 4.102152441139139682e-01 5.590069615773792799e-01 -2.911139689345258463e-01 5.331612059040999885e-01 7.943499138352528854e-01
-1.101339296734654000e-03 3.322204838139294347e-01 6.305572264020020690e-01 -3.261382618416397428e-01 5.016134724329727179e-01 8.012601066049959142e-01
-6.139390749136913739e-03 2.757593993677616151e-01 6.681354953179111655e-01 -3.314712564437455877e-01 4.210860692092761037e-01 8.442827301736578471e-01
-3.249338079611367724e-02 3.263604156928697764e-01 6.130430652088849630e-01 -3.235388116780561485e-01 4.688197459062896089e-01 8.219067363066892007e-01
-2.340019920934984302e-02 3.292028549568665197e-01 6.375739035301055679e-01 -3.556979828330502635e-01 4.861897963753816776e-01 7.981844566946689756e-01
-3.335726933875345773e-02 3.594938475309201187e-01 6.430587990324194703e-01 -3.618189740768898432e-01 4.838152664419340665e-01 7.968750328349278877e-01
-3.735056005237430421e-02 3.190232389914319233e-01 5.982123504737728581e-01 -3.713376578495126701e-01 4.500193441656937243e-01 8.121520385614490189e-01
-8.086310436547941571e-02 3.598817260559563636e-01 6.369183600643659737e-01 -3.817329428105218359e-01 4.525846505517824303e-01 8.058828044189426665e-01
-9.950801547818249881e-02 3.158429066424189857e-01 5.851918219259408804e-01 -4.097973804738105907e-01 4.260809236431301050e-01 8.065489157293685984e-01
-6.458437739355273044e-02 3.150591016230131491e-01 6.152035554810840745e-01 -3.700487728221442674e-01 4.271115184514759910e-01 8.250088827030286343e-01
-2.587030604892793031e-02 3.106786367917046543e-01 6.470550277117699256e-01 -3.700487728221442674e-01 4.271115184514759910e-01 8.250088827030286343e-01
-1.805942723243939563e-01 3.106975872848068976e-01 2.360889830815675328e-01 -2.910264615824384449e-01 6.307196532484602436e-01 -7.193721690925688472e-01
-1.804655910240452743e-01 3.599146702595709124e-01 2.141999854581590479e-01 -2.920145026400567945e-01 6.582060091277033287e-01 -6.938965195157431598e-01
-2.023706953809762954e-01 2.865252775202738467e-01 2.122268387228361253e-01 -1.711865494580502856e-01 7.558193167693474379e-01 -6.320065867401726267e-01
-4.879231214304256825e-02 5.342983342791817192e-01 3.210830857316998577e-01 -4.375006773877463950e-01 8.988698937394218325e-01 2.502141910730825911e-02
-1.144802008392357823e-01 4.867175970822735231e-01 3.336966111909995258e-01 -4.959718713737894524e-01 8.661468164276123760e-01 6.165707743879285385e-02
-8.757362056897041724e-02 4.891449884336958598e-01 3.136296243026489572e-01 -4.837176433180925827e-01 8.746336313689934139e-01 3.214424398050851756e-02
-7.986087462698393535e-02 5.309282791764938780e-01 4.025015207852058463e-01 -3.849781608877436700e-01 9.048834084018141377e-01 1.815979978926145766e-01
-1.196166855811982843e-01 5.234186052505056530e-01 3.918865566936363121e-01 -4.259393676722025845e-01 8.703755076126152845e-01 2.470265791672761335e-01
-1.616145681677669810e-01 3.527602170566449535e-01 3.628573641911752024e-01 -6.045296526455646857e-01 7.873682544158583374e-01 -1.208103100333622060e-01
-2.032690296321630063e-01 3.646054706848806393e-01 3.384693800730825819e-01 -5.428384297074900777e-01 8.398257078514725915e-01 -4.384023777218378111e-03
-1.807954161921806191e-01 4.025892712210808466e-01 3.966649549729095448e-01 -6.368780165722697229e-01 7.709132560808481527e-01 8.896269206611134503e-03
-1.931014770625237853e-01 4.110953429165262185e-01 3.238350944327911818e-01 -7.789294505145513137e-01 5.781002256615098700e-01 2.430412315044729876e-01
-1.605577673564427543e-01 4.283183481218805766e-01 3.769317093653924422e-01 -7.029995562298394507e-01 6.075041474911589967e-01 3.697706515148125317e-01
-1.434236373133284392e-01 4.161237060065496318e-01 3.662989345822155740e-01 -5.385520813895716685e-01 7.753641468313667851e-01 3.298061482741441730e-01
-1.306636163342090318e-01 4.634933454158687294e-01 3.103474271345337820e-01 -4.996447683932950246e-01 8.361246558641958204e-01 2.263860977913411676e-01
-1.247776276391928812e-01 4.096069858501413252e-01 2.959535393404820747e-01 -6.580111819674149265e-01 7.307138946193834084e-01 1.818749257484891524e-01
-1.530040661282135728e-01 4.413402771225410914e-01 3.423578054417924510e-01 -6.567304728462945995e-01 7.327961269852862891e-01 1.780868392398682887e-01
-1.465764207820684228e-01 4.690317964620542845e-01 3.552469301040843130e-01 -6.478358799903463083e-01 7.381965665824226086e-01 1.880811040031834802e-01
-1.083991414516577712e-01 4.748305034587623763e-01 3.248567005076107850e-01 -6.483591300921222045e-01 7.383578156089415367e-01 1.856291317530160689e-01
-2.005692748602926623e-01 3.576815548982213433e-01 2.802039674744224995e-01 -9.253909516198649543e-01 3.681860757712415722e-01 8.994776410925621468e-02
-2.075741157043739515e-01 3.478278277142962671e-01 3.677189427912238018e-01 -7.500640046855834298e-01 6.422144486869777458e-01 -1.580018695228206371e-01
-2.342674472684307396e-01 3.608311416785052184e-01 3.183950433338629815e-01 -8.408346379844093832e-01 5.047150552451239447e-01 -1.956011875591218141e-01
-1.795938368860285073e-01 4.273567110677883862e-01 3.604917399273817602e-01 -8.678240211496819345e-01 4.144465705361294883e-01 2.740720862956269599e-01
-1.907757380860695684e-01 4.299901198465804208e-01 3.009464079684538995e-01 -8.683061230216760906e-01 4.114764257298306749e-01 2.770047432656508324e-01
-2.134795238243161197e-01 4.169031781969521067e-01 3.179775473497383209e-01 -7.430121017019363228e-01 4.975352396152949996e-01 4.476513175066307304e-01
-1.593405461224885189e-01 4.250146136997487445e-01 2.856035298217401985e-01 -6.426619182486247306e-01 6.645162701108844328e-01 3.813184831488190540e-01
-1.639299315300266624e-01 4.372689476906949646e-01 3.461649352694016191e-01 -5.240887769813773467e-01 7.497698443719075234e-01 4.039506582649539657e-01
-1.564072576828645367e-01 4.500109004438721527e-01 3.676157984362334874e-01 -5.825549132471378178e-01 7.552042079398806340e-01 3.004935562728715537e-01
-1.813777601079707980e-01 3.591702719148297529e-01 3.983684456024524367e-01 -6.143477184075689657e-01 7.491703305527915857e-01 2.476301611412378700e-01
-1.259508089799917796e-01 3.935577205186915895e-01 4.418031794711043125e-01 -7.737169493919568986e-01 5.985938138879199899e-01 2.074789825469516846e-01
-1.037522441738159829e-01 4.184619571784068404e-01 4.171467871919291026e-01 -7.661215239086583972e-01 6.227432496399524231e-01 1.588982555969279953e-01
-1.496958980979006260e-01 4.051096175767323615e-01 4.336074773261099358e-01 -7.625885874486661997e-01 6.453996649068151070e-01 4.379405018057595800e-02
-1.317893989562329005e-01 4.361018606306158452e-01 4.143663930285342856e-01 -7.521722852498005096e-01 6.570765788327989076e-01 4.987206484072286006e-02
-1.070502495451327862e-01 4.824910194694612686e-01 3.504941441048913253e-01 -7.061504697652757345e-01 6.985941251435746624e-01 1.154026098715452142e-01
-1.254350204896595433e-01 4.635065077486836271e-01 3.099298437289235708e-01 -6.169607823198685059e-01 7.796383564838298419e-01 1.073472224999245939e-01
-8.864366367416880166e-02 5.148029141821378607e-01 3.124299126414203931e-01 -6.006684566184432583e-01 7.812884032948944624e-01 1.696638915636789757e-01
-8.434426120827108464e-02 4.298299664712437740e-01 3.522461597537939748e-01 -6.734120346836294235e-01 7.242859153683610662e-01 1.480747930684678804e-01
-1.866866621035363494e-01 3.296504078496283463e-01 4.310611371520615132e-01 -9.652640489103258004e-01 2.612547466172857602e-01 -3.357566258779638105e-03
-2.377161195692618356e-01 3.250867003664555388e-01 3.803745197876652884e-01 -9.669660062210116980e-01 2.541815938581320489e-01 -1.919531601005759064e-02
-2.443032883985011561e-01 3.430394342017804021e-01 4.427200041351522231e-01 -8.911551558515053983e-01 4.008470571841522001e-01 2.125185284771284322e-01
-2.464670950822282491e-01 3.180803360383746003e-01 4.207778421007931646e-01 -8.765510458622495227e-01 4.356825924650241100e-01 2.045456981233097493e-01
-2.268234604303377699e-01 3.408854942266890675e-01 4.210503515844577493e-01 -9.629731916664725500e-01 2.691911312928816358e-01 -1.479077296647389288e-02
-2.689857446044192635e-01 2.772901040757985713e-01 4.553661756641798064e-01 -9.557706850163240064e-01 2.843727121783486966e-01 -7.506369449845179398e-02
-2.371809568987780781e-01 3.003373919359687005e-01 4.447513578503640708e-01 -8.819610096644270314e-01 3.977505051554658944e-01 2.528622413099197441e-01
-2.259032830078789300e-01 3.135226163450015591e-01 4.542723858453070473e-01 -9.074037878416379987e-01 3.944297374363304187e-01 1.450639446470248783e-01
-2.408659189457401928e-01 3.508357807668554540e-01 4.734681234071531630e-01 -7.633924355174434018e-01 5.529829973363955542e-01 3.338289892319147856e-01
-2.575330322454412180e-01 3.354081861029505895e-01 4.041296045344006660e-01 -8.246832723672232746e-01 5.184319656270124366e-01 2.261101441638574960e-01
-2.279683693533007260e-01 3.271191310599562696e-01 4.563716984263178067e-01 -7.396396016629170900e-01 5.403601581426989986e-01 4.011784629612096253e-01
-2.041223453534980747e-01 3.256113377142365040e-01 4.093411115997075411e-01 -6.767057891912889867e-01 6.098909471917617342e-01 4.124346098577695297e-01
-1.773666359129324466e-01 3.490896407594020201e-01 4.993625210440816864e-01 -6.621186512311012518e-01 6.170524580342280352e-01 4.252589278613964074e-01
-1.887050791654998338e-01 3.733058058400688939e-01 4.537679282136909409e-01 -6.087025382051796107e-01 6.981282634475296511e-01 3.769590796867856031e-01
-1.970473703394527709e-01 3.520330608602182942e-01 4.213786718848729906e-01 -5.812106717552285584e-01 7.394585401728609453e-01 3.396987229932683650e-01
-2.109912172042844591e-01 3.381866638207496334e-01 4.634897454872023426e-01 -6.073121547982534008e-01 6.707417478598367566e-01 4.257669013817695358e-01
-1.783052378694984508e-01 3.460033678143470404e-01 4.398484934432235760e-01 -6.073121547982534008e-01 6.707417478598367566e-01 4.257669013817695358e-01
-1.873825677181858995e-01 3.479650908962182987e-01 4.035653819864107317e-01 -8.332831718209607885e-01 5.435369089753818717e-01 1.010286303059015900e-01
-2.042277755923681271e-01 3.315238646404598533e-01 3.645217980282120518e-01 -8.327295572024332460e-01 5.445190885237999323e-01 1.003017786215674167e-01
-2.520485989660348203e-01 3.581368398054122770e-01 3.839346625362483056e-01 -7.772408702098857480e-01 5.933604412475341761e-01 2.093323110222380379e-01
-1.709998589000718550e-01 3.370236075442430979e-01 4.099598331818153918e-01 -5.998968876120899241e-01 7.345539738209566627e-01 3.171027968611579984e-01
-2.398341827818195049e-01 3.827237645151199685e-01 4.242022630834317853e-01 -6.167974018846815731e-01 7.770746157268455523e-01 1.253634979620544543e-01
-2.051001992860470580e-01 4.012028364472715602e-01 4.043913289999252481e-01 -5.770675328398733317e-01 8.105023935556894266e-01 1.003938871774576885e-01
-1.818719500397624478e-01 3.516347255391350513e-01 3.829720929788949513e-01 -6.842334494788293586e-01 6.971120252592444277e-01 2.141481049490205069e-01
-3.749461566590498451e-01 -1.348812558216080926e-01 7.892479436321896136e-02 -8.475791841657589476e-01 -1.488266517458464722e-01 5.093723140287730322e-01
-3.453378296707349526e-01 -1.395806144394396986e-01 1.704066622570731826e-01 -8.926938512257419633e-01 -3.016015517832595916e-01 3.348644381621954103e-01
-3.248607685562079350e-01 -1.361404194159944736e-01 2.530303552971429615e-01 -8.926938512257419633e-01 -3.016015517832595916e-01 3.348644381621954103e-01
-3.384480824641064034e-01 -2.171322475520819084e-02 2.063499702172579275e-01 -8.765734897382048141e-01 -3.748783315157182550e-01 3.018031703746274497e-01
-3.573267830724002891e-01 -9.494612568371481320e-02 1.847360456047836275e-01 -7.871335684482398953e-01 -4.231640516944681907e-01 4.487236686151749865e-01
-3.757391791978081375e-01 -9.512576424527369179e-02 1.906767155505320332e-01 -7.746658889965429839e-01 -3.613730610416512889e-01 5.189434180896628224e-01
-3.311644042162817936e-01 -5.477453011615930623e-02 1.743939453654203831e-01 -7.924601321964568346e-01 -3.946951298604208791e-01 4.649975197177291242e-01
-3.521964170159411212e-01 -7.055962050121718232e-02 1.580407009378656802e-01 -7.366489577618727802e-01 -4.270265059238173011e-01 5.244012550202780121e-01
-3.496245679166343767e-01 -1.250755533953668008e-01 1.736904543300561710e-01 -7.366489577618727802e-01 -4.270265059238173011e-01 5.244012550202780121e-01
-3.683386655291683298e-01 -1.630262171613374167e-01 1.816440211627364243e-01 -9.328963203417677263e-01 -1.674015991149477578e-01 3.188748345457013134e-01
-3.765784778515957609e-01 -1.366481712132534554e-01 1.720906229786430264e-01 -8.820249049616911696e-01 -3.038395094138638952e-01 3.601577703541355979e-01
-3.552484807460125071e-01 -1.451021782348423939e-01 1.613945724213933786e-01 -8.600983137124107447e-01 -2.743561172643340651e-01 4.300693103078928603e-01
-3.885210618225509727e-01 -1.897911749239611368e-01 1.245384014438099263e-01 -8.622915172109688609e-01 -1.339274210223714567e-01 4.883818027366518266e-01
-3.973360519132846935e-01 -6.368510555179966726e-02 1.293621453816120592e-01 -9.548159545120258329e-01 -5.424547909722702427e-02 2.922052720379992863e-01
-4.299227117458437886e-01 -7.755910542621759218e-02 7.367849991229112605e-02 -9.392992326613290865e-01 -8.672613825528015241e-02 3.319571184131533403e-01
-4.367202490926138658e-01 -8.406135219308501216e-02 7.142997951437476956e-02 -8.891673360741446652e-01 -2.286480863282468745e-01 3.963603172332464952e-01
-3.710660292594035181e-01 -9.656657519855460503e-02 1.474045835730607434e-01 -8.635152667615584310e-01 -1.330330325372533207e-01 4.864602720918292378e-01
-4.063271923124005536e-01 -8.555370449032878577e-02 7.270070750622338596e-02 -9.329377898987626372e-01 -2.969373174387164860e-01 2.036057702795067426e-01
-3.751626752768885686e-01 -7.609338908921220446e-02 1.174074261061430480e-01 -9.294768655291439918e-01 -3.282188644351495266e-01 1.683601303011451333e-01
-3.890018522810989587e-01 -1.145243460731697471e-01 1.301093378697992242e-01 -8.495389868846796588e-01 -3.083505301184805703e-01 4.280227334366759617e-01
-3.927659224228696178e-01 -1.033257180654433560e-01 9.787515266775488609e-02 -9.008331380828724644e-01 -7.443453847050221506e-02 4.277372520770755249e-01
-3.664467084354431359e-01 -1.251130176324667664e-01 1.357534257953323109e-01 -8.377103572853838998e-01 -4.342069927127294449e-01 3.312184245723089893e-01
-3.829125186505426548e-01 -1.300072206264101526e-01 1.484565269905458729e-01 -8.377103572853838998e-01 -4.342069927127294449e-01 3.312184245723089893e-01
-3.831416468957911658e-01 -1.361113501018929861e-01 1.541837600437994671e-01 -8.735485085833608609e-01 -4.229693840125534621e-01 2.408524513884526819e-01
-3.914283952157060487e-01 -6.000861121611802962e-02 1.153774260003751356e-01 -8.735485085833608609e-01 -4.229693840125534621e-01 2.408524513884526819e-01
-3.999224888570356851e-01 -1.548550515053792598e-01 1.740367513006542133e-01 -8.875759395432291088e-01 -3.258217447583473536e-01 3.256518726901175276e-01
-3.408001388594575909e-01 -1.671231590534402456e-01 1.308110427192474834e-01 -8.189440771593248236e-01 -1.917559947834466261e-01 5.408883775329922372e-01
-3.755266247516062528e-01 -1.670508809339640854e-01 1.406545379278157371e-01 -7.939380660065693540e-01 -3.283840482150139350e-01 5.116896170762778029e-01
