-2.696104442435309778e-01 -2.408043868028047485e-01 4.599342234063523160e-01 -8.963236833576356810e-01 -2.147051489056210349e-01 -3.879504526168461864e-01
-2.668775228401065736e-01 -2.216222909131808638e-01 4.664112322559073598e-01 -8.963236833576356810e-01 -2.147051489056210349e-01 -3.879504526168461864e-01
-2.602562179246376561e-01 -1.870465831124100142e-01 4.845264692842640164e-01 -8.963236833576356810e-01 -2.147051489056210349e-01 -3.879504526168461864e-01
-3.083265528901114050e-01 -1.870970561230675955e-01 5.329279973874510024e-01 -9.305535901468415805e-01 -8.238032075342072158e-02 -3.567681300472165251e-01
-2.809914148078332952e-01 -1.527481422878522455e-01 4.512050663292972996e-01 -9.305535901468415805e-01 -8.238032075342072158e-02 -3.567681300472165251e-01
-2.710547545469461084e-01 -1.684684242925197917e-01 4.560319338883762619e-01 -9.305535901468415805e-01 -8.238032075342072158e-02 -3.567681300472165251e-01
-3.068470669809623685e-01 -1.998629314174723282e-01 5.011952493249387519e-01 -9.305535901468415805e-01 -8.238032075342072158e-02 -3.567681300472165251e-01
-2.858413531476977631e-01 -1.552366150247279364e-01 4.863050630598351187e-01 -9.305535901468415805e-01 -8.238032075342072158e-02 -3.567681300472165251e-01
-2.601227413795041410e-01 -2.111259183072310697e-01 4.990945683694654189e-01 -9.305535901468415805e-01 -8.238032075342072158e-02 -3.567681300472165251e-01
-2.582064467188413537e-01 -2.279553714814000764e-01 4.855607030443940264e-01 -9.305535901468415805e-01 -8.238032075342072158e-02 -3.567681300472165251e-01
-2.573752113939774544e-01 -1.926030734396993183e-01 4.799904648303088828e-01 -9.305535901468415805e-01 -8.238032075342072158e-02 -3.567681300472165251e-01
-2.140607740008476090e-01 -1.773606543729839002e-01 -5.568581908341981024e-02 -7.004285616579940532e-01 -3.206358775712208620e-01 -6.376460334918164774e-01
-2.332639162049438553e-01 -2.073034600597797039e-01 -2.092737653242714158e-02 -8.131130692797885473e-01 -3.471647675109420517e-01 -4.672512822512910335e-01
-2.182734714647787955e-01 -2.286997412973004185e-01 1.409893608710785853e-02 -8.131130692797885473e-01 -3.471647675109420517e-01 -4.672512822512910335e-01
-2.307419777615831169e-01 -2.371696392305174816e-01 9.019428365497052236e-03 -7.936484016758009741e-01 -4.591980536108337119e-01 -3.990731287339055466e-01
-2.355068763878248872e-01 -2.032983828302703244e-01 -1.847112733132049572e-03 -7.936484016758009741e-01 -4.591980536108337119e-01 -3.990731287339055466e-01
-1.162249125445269510e-01 -4.592355862465433702e-01 5.290323323690658830e-01 -4.758605517588131995e-01 -8.776311051721205070e-01 -5.762272567451665051e-02
-8.710992210147860959e-02 -4.455146568531834217e-01 5.119375678569003663e-01 -4.758605517588131995e-01 -8.776311051721205070e-01 -5.762272567451665051e-02
-1.187919123957074247e-01 -4.239754256117839182e-01 5.124959250198746208e-01 -4.758605517588131995e-01 -8.776311051721205070e-01 -5.762272567451665051e-02
-1.533710054023391112e-01 -4.340889345708487390e-01 5.561817305068709194e-01 -4.758605517588131995e-01 -8.776311051721205070e-01 -5.762272567451665051e-02
-1.243600772531218285e-01 -4.569087392639575862e-01 4.854949625187340301e-01 -4.758605517588131995e-01 -8.776311051721205070e-01 -5.762272567451665051e-02
-1.402059934749960712e-01 -4.797690143930369855e-01 5.082937334355855930e-01 -4.758605517588131995e-01 -8.776311051721205070e-01 -5.762272567451665051e-02
-9.429883274832892570e-02 -4.456346292419374189e-01 5.240916581877085312e-01 -4.758605517588131995e-01 -8.776311051721205070e-01 -5.762272567451665051e-02
-1.574686565035425256e-01 -4.449149678613178449e-01 5.230104381541591518e-01 -4.694213997209785161e-01 -8.816729837955414872e-01 -4.791971545266329041e-02
-1.125649567078869789e-01 -4.689166526405730284e-01 5.028144258454328996e-01 -4.694213997209785161e-01 -8.816729837955414872e-01 -4.791971545266329041e-02
-1.435386135140073183e-01 -4.364723834025899252e-01 5.154810360762319688e-01 -4.694213997209785161e-01 -8.816729837955414872e-01 -4.791971545266329041e-02
-1.069778236047387726e-01 -4.189868706770366602e-01 4.698715151095622100e-01 -4.694213997209785161e-01 -8.816729837955414872e-01 -4.791971545266329041e-02
-1.652871019669924779e-01 -4.372648886094545051e-01 4.857719591134814774e-01 -6.324063938955877262e-01 -7.726383348761607373e-01 -5.560716176692090396e-02
-1.770255062794860446e-01 -4.313011976445421114e-01 4.997518427131482088e-01 -6.324063938955877262e-01 -7.726383348761607373e-01 -5.560716176692090396e-02
-1.632662498400803130e-01 -4.095341692033696024e-01 4.737184992481064949e-01 -6.324063938955877262e-01 -7.726383348761607373e-01 -5.560716176692090396e-02
-1.996226963323568526e-01 -4.001067402886865909e-01 5.142205513608592016e-01 -6.324063938955877262e-01 -7.726383348761607373e-01 -5.560716176692090396e-02
-1.193452795040227943e-01 -4.124767766068333508e-01 4.468323808245117101e-01 -6.324063938955877262e-01 -7.726383348761607373e-01 -5.560716176692090396e-02
-1.948364017214663235e-01 -4.022432247268502570e-01 5.005640201307334225e-01 -6.324063938955877262e-01 -7.726383348761607373e-01 -5.560716176692090396e-02
-1.914605407778049162e-01 -3.764992348369696762e-01 5.247789651422178903e-01 -6.324063938955877262e-01 -7.726383348761607373e-01 -5.560716176692090396e-02
-1.657504395701634714e-01 -4.022918864843717524e-01 4.520333771683230917e-01 -6.750973580975804245e-01 -7.188822973416195694e-01 -1.656858462829650935e-01
-1.426304662203558005e-01 -3.915548738772406945e-01 3.958899315852843492e-01 -6.750973580975804245e-01 -7.188822973416195694e-01 -1.656858462829650935e-01
-1.407226850772232973e-01 -3.986529932830463752e-01 3.782708314139437977e-01 -6.750973580975804245e-01 -7.188822973416195694e-01 -1.656858462829650935e-01
-1.705326585581163346e-01 -3.810374362040658824e-01 4.177082718726979338e-01 -6.750973580975804245e-01 -7.188822973416195694e-01 -1.656858462829650935e-01
-1.813877871244042872e-01 -3.913815920515402724e-01 4.202062254649444051e-01 -6.719370963752596682e-01 -7.241777061775440671e-01 -1.551360318888414247e-01
-1.468045148128312993e-01 -4.436515834123808122e-01 4.539794861971753193e-01 -6.719370963752596682e-01 -7.241777061775440671e-01 -1.551360318888414247e-01
-1.556153265545849873e-01 -4.049154773223502812e-01 4.637343754257939321e-01 -6.719370963752596682e-01 -7.241777061775440671e-01 -1.551360318888414247e-01
-1.890818473872937777e-01 -4.135600910029365584e-01 4.434433527086169557e-01 -6.719370963752596682e-01 -7.241777061775440671e-01 -1.551360318888414247e-01
-1.180004121270034623e-01 -4.274182185776780329e-01 4.410713958919977307e-01 -6.719370963752596682e-01 -7.241777061775440671e-01 -1.551360318888414247e-01
-1.673024848309805912e-01 -3.851827232451470184e-01 4.507365088911056139e-01 -6.719370963752596682e-01 -7.241777061775440671e-01 -1.551360318888414247e-01
-1.439251277064624579e-01 -4.187570386392086563e-01 4.477048801491372298e-01 -4.560556492572349074e-01 -8.812252423528357248e-01 -1.243194153008607972e-01
-1.022259562699535523e-01 -4.544245229416262188e-01 3.854105518309838274e-01 -4.560556492572349074e-01 -8.812252423528357248e-01 -1.243194153008607972e-01
-9.557548820156536173e-02 -4.246792036116625590e-01 4.369447591149833721e-01 -4.560556492572349074e-01 -8.812252423528357248e-01 -1.243194153008607972e-01
-9.886152978703011129e-02 -4.316225114007435915e-01 4.409266658334772271e-01 -4.560556492572349074e-01 -8.812252423528357248e-01 -1.243194153008607972e-01
-1.081551510341858952e-01 -4.002179251827217565e-01 4.069080827016807733e-01 -4.560556492572349074e-01 -8.812252423528357248e-01 -1.243194153008607972e-01
-3.790720691929550662e-02 -4.486817060110358524e-01 2.525083410025451558e-01 -7.805806588580306571e-02 -9.900981421548902262e-01 -1.166730785211505667e-01
-1.670638853209224783e-02 -4.329117537293309947e-01 3.148528676921463210e-01 -7.805806588580306571e-02 -9.900981421548902262e-01 -1.166730785211505667e-01
-4.458050981548139502e-02 -3.989177187926936097e-01 2.814658718828832451e-01 -8.037189583669211712e-02 -9.896674759488112150e-01 -1.187377168751581752e-01
-4.866497974259859083e-02 -4.390050937334222803e-01 2.845418322775312703e-01 -8.037189583669211712e-02 -9.896674759488112150e-01 -1.187377168751581752e-01
-4.230937986178472110e-02 -4.248679801095589514e-01 2.521367968587205355e-01 -8.037189583669211712e-02 -9.896674759488112150e-01 -1.187377168751581752e-01
-8.298555489149980757e-02 -4.380462963625005868e-01 3.086912652950423164e-01 -2.598866875204422500e-01 -9.580755161870474490e-01 -1.206242717390440533e-01
-4.190122679589052684e-02 -4.275281026835617282e-01 3.099661559669875666e-01 -2.598866875204422500e-01 -9.580755161870474490e-01 -1.206242717390440533e-01
-5.303356971865136327e-02 -4.212254209837568153e-01 1.612119356364951628e-01 -2.891936806461796183e-01 -9.503311159119028906e-01 -1.150555744149446141e-01
-6.654750416705038085e-02 -4.103991900844121687e-01 1.978181551704472074e-01 -2.891936806461796183e-01 -9.503311159119028906e-01 -1.150555744149446141e-01
-5.442744606444192834e-02 -4.372574186519024297e-01 2.326720439683952202e-01 -2.891936806461796183e-01 -9.503311159119028906e-01 -1.150555744149446141e-01
-4.840446773675381731e-02 -4.334254790618029540e-01 2.298285284674149442e-01 -2.891936806461796183e-01 -9.503311159119028906e-01 -1.150555744149446141e-01
-4.833083723301058454e-02 -4.081122694808951845e-01 2.036211800005056360e-01 -2.891936806461796183e-01 -9.503311159119028906e-01 -1.150555744149446141e-01
-4.588772059131838998e-02 -4.574693146242733155e-01 2.456038790319937382e-01 -2.687771437784766682e-01 -9.581292734139619238e-01 -9.872761725838320734e-02
-7.053578785545755458e-02 -4.398912357669294559e-01 2.774939631739311574e-01 -2.687771437784766682e-01 -9.581292734139619238e-01 -9.872761725838320734e-02
-5.484177922249866555e-03 -4.337360335647176268e-01 2.041746308807737831e-01 -1.176266341704259588e-01 -9.880170094138734926e-01 -9.993179695473779212e-02
-4.608710472987688489e-02 -4.111120587190519315e-01 2.501004351922730407e-01 -1.176266341704259588e-01 -9.880170094138734926e-01 -9.993179695473779212e-02
-1.836269632761005147e-02 -4.233955915199283382e-01 2.512276824025126976e-01 -1.176266341704259588e-01 -9.880170094138734926e-01 -9.993179695473779212e-02
-5.023235121024132582e-03 -4.499625825873224683e-01 2.604290367931705319e-01 -1.176266341704259588e-01 -9.880170094138734926e-01 -9.993179695473779212e-02
-2.746059646046516978e-01 -1.051943953112742386e-01 -4.936962523289909477e-01 2.496123843291329220e-02 8.103405028114755160e-01 -5.854273704560970515e-01
-2.802640973501225319e-01 -1.120179680136297873e-01 -5.140402594543742598e-01 2.496123843291329220e-02 8.103405028114755160e-01 -5.854273704560970515e-01
-2.915758636437353890e-01 -1.012702734215721045e-01 -4.809709625757933038e-01 -1.087357282881106224e-01 9.545815818142510123e-01 -2.773996125712086536e-01
-3.013230879735893653e-01 -8.487413340027472053e-02 -4.808706046794921640e-01 -1.087357282881106224e-01 9.545815818142510123e-01 -2.773996125712086536e-01
-3.239470521792707225e-01 -1.122378802166500850e-01 -4.663535148179603906e-01 -1.151186886512391983e-01 9.543749517343346200e-01 -2.755288351975261896e-01
-3.147179481813395241e-01 -1.335662833175641495e-01 -4.682824967630933588e-01 -1.151186886512391983e-01 9.543749517343346200e-01 -2.755288351975261896e-01
-3.499201225085743494e-01 -9.570596540136379338e-02 -4.704400193224554938e-01 -8.357808914365667807e-02 9.869133777780187966e-01 -1.379010071677375937e-01
-3.057167266752612300e-01 -9.910870063916429884e-02 -4.494262195416898198e-01 -7.592435640471534297e-02 9.844193231032892788e-01 -1.586004048084092011e-01
-3.213152337708505835e-01 -1.170620960303601910e-01 -4.544040567170272160e-01 -1.080215982468665931e-01 9.835472498515396289e-01 -1.447968978316369615e-01
-2.066563054922378462e-01 -4.731975710245616557e-02 -3.802028125839912454e-01 -5.847879448838804173e-01 -8.031825022400514158e-02 -8.072001227697142012e-01
-1.933297616996186297e-01 -6.109550744904576614e-02 -4.090261713461574855e-01 -4.893389820307212923e-01 6.136303237153529766e-01 -6.196815202038290504e-01
-8.468600198632886267e-02 7.282814815250876483e-02 -4.891668448055319085e-01 -5.497041261708007776e-01 -4.305746266059889416e-01 -7.158427652731496060e-01
-1.079608510778358593e-01 1.149373687110624431e-01 -5.166242164481038568e-01 -4.760608274011645658e-01 -5.116561535710142383e-01 -7.152440626296966419e-01
-1.638460334948441122e-01 -2.158920798707612485e-02 -5.524967951910438879e-01 -5.902861963647915156e-01 -2.434178511224782404e-01 -7.696167592614532316e-01
-1.822542933857302927e-01 -2.456747881302000919e-02 -4.596508128511625491e-01 -5.902861963647915156e-01 -2.434178511224782404e-01 -7.696167592614532316e-01
-1.848201591007476163e-01 -3.610180729710441017e-02 -5.166049874530703745e-01 -6.779940734677992742e-01 -2.173672344706693849e-01 -7.021933649082091611e-01
-1.602664904743578422e-01 -5.812267020787380278e-02 -4.538815657992703034e-01 -6.779940734677992742e-01 -2.173672344706693849e-01 -7.021933649082091611e-01
-2.037165493900122970e-01 -4.366017543266966644e-02 -5.112686315659601410e-01 -6.779940734677992742e-01 -2.173672344706693849e-01 -7.021933649082091611e-01
-1.286016056652281303e-01 -8.422929326227958369e-02 -4.902080824444343121e-01 -6.779940734677992742e-01 -2.173672344706693849e-01 -7.021933649082091611e-01
-1.981967744926603214e-01 -5.209283265970009180e-02 -4.248612541081211447e-01 -7.248297247404350552e-01 -3.363524955770214042e-01 -6.012394438589461210e-01
-2.474957389199008984e-01 -3.524558897528071860e-02 -4.499854561654011986e-01 -7.248297247404350552e-01 -3.363524955770214042e-01 -6.012394438589461210e-01
-1.823712412520171466e-01 -5.075117022110994108e-02 -4.257183377888631992e-01 -7.248297247404350552e-01 -3.363524955770214042e-01 -6.012394438589461210e-01
-1.848919589275589970e-01 -3.042686089972109972e-02 -4.274780534692363965e-01 -7.579301066833132872e-01 -3.450218599125968177e-01 -5.536261099022279364e-01
-1.685769614858432519e-01 -1.235261747645066167e-02 -4.991426711040098385e-01 -7.579301066833132872e-01 -3.450218599125968177e-01 -5.536261099022279364e-01
-1.824809301767355563e-01 -4.525424455076548086e-02 -4.354479349238000729e-01 -7.579301066833132872e-01 -3.450218599125968177e-01 -5.536261099022279364e-01
-1.866983518447367929e-01 -3.297094320690293484e-02 -4.560453076584636278e-01 -7.598692318882285246e-01 -2.974679466258537408e-01 -5.780238499921881434e-01
-1.907450694148246084e-01 -1.347803117597531214e-02 -4.715610636301153513e-01 -7.598692318882285246e-01 -2.974679466258537408e-01 -5.780238499921881434e-01
-1.995765451773909849e-01 -4.454348922411457967e-02 -4.009022209257618874e-01 -8.147017296836568390e-01 1.279372485869677833e-01 -5.655909759485682198e-01
-1.912014359105524419e-01 -2.692228090769416965e-02 -4.144813722345233042e-01 -7.349657193318982484e-01 -2.026933803942422285e-01 -6.471018350702618660e-01
-2.062441555072969113e-01 1.056782341395198777e-01 -4.775984078936038046e-01 -3.234564281899168225e-01 -3.704385869136666010e-01 -8.707187791635294660e-01
-1.945705269548684002e-01 1.093093269624980240e-01 -5.033313211391325925e-01 -3.320491670593041511e-01 -4.514144430984843304e-01 -8.282320636254716373e-01
-2.207909413171125490e-01 1.068113613551986835e-01 -4.818387784446252486e-01 -4.251770897653356363e-01 -2.958784595500589254e-01 -8.553831770107264143e-01
-2.406410506716377962e-01 9.709778001314363360e-02 -4.873032444267568208e-01 -4.251770897653356363e-01 -2.958784595500589254e-01 -8.553831770107264143e-01
-1.744190443351274211e-01 1.545126758546825629e-01 -4.774599166882152468e-01 -3.945254919970172525e-01 -4.069183669062580444e-01 -8.238732176972712873e-01
-1.604397315398650159e-01 1.093443863535555477e-01 -5.152075270569100862e-01 -3.945254919970172525e-01 -4.069183669062580444e-01 -8.238732176972712873e-01
-2.340641012819892897e-01 1.320793631384098166e-01 -5.147650305503620460e-01 -3.945254919970172525e-01 -4.069183669062580444e-01 -8.238732176972712873e-01
-1.893613939459389273e-01 1.196085529821947352e-01 -4.604426168911103789e-01 -3.760838587617237327e-01 -3.426854056797006276e-01 -8.608877069124815096e-01
-1.175321658507441080e-01 1.171193599763046267e-01 -4.727360958675304037e-01 -3.231401696518488298e-01 -4.947902748874585810e-01 -8.066988376303561026e-01
-4.079694003007500180e-02 1.793557517231803566e-01 -6.538586063052918007e-01 4.057526789667348366e-02 -3.236155005965579701e-01 -9.453182825952073376e-01
-4.729934406057431651e-02 1.826299381112801989e-01 -5.842211292144072754e-01 -1.440224240111409870e-01 -4.386785391175875848e-01 -8.870280044618740201e-01
-1.305457320060970094e-01 2.586107450351221027e-01 -5.065233783228837439e-01 -3.987452991038995531e-01 9.142136229678679005e-01 -7.221937428769996392e-02
-9.520418554556399349e-02 2.215890359047990865e-01 -5.491777077186699163e-01 -6.788568899491419506e-01 7.084634854064755238e-01 -1.929580597287594290e-01
-1.112937391656245584e-01 2.239231967173756777e-01 -5.259375704903712645e-01 -8.293734591275740975e-01 3.695275563535079244e-01 -4.190334716823550520e-01
-8.427389473187894831e-02 2.521579734513141879e-01 -5.019410925124628831e-01 -6.250549009674988277e-01 7.491280689055799247e-01 -2.193479134943087938e-01
-1.285366579684729671e-01 2.430547114570945910e-01 -5.119019032356084686e-01 -6.250549009674988277e-01 7.491280689055799247e-01 -2.193479134943087938e-01
-4.361296541780037006e-01 -1.765842372096661228e-01 -3.701875538463407778e-01 -2.981922716251489969e-01 -9.080947954440470316e-01 -2.940156656208434693e-01
-4.518573281029097943e-01 -1.595386882093523251e-01 -4.144518644638868765e-01 -2.981922716251489969e-01 -9.080947954440470316e-01 -2.940156656208434693e-01
-4.235464707909402104e-01 -1.546290930253593487e-01 -3.841408574385369867e-01 -1.791128389385784614e-01 -9.799216243895468859e-01 -8.759110103837432215e-02
-4.212431672724791243e-01 -1.439258308679206844e-01 -4.116643508220628744e-01 2.071802829573758317e-02 -9.982275065510133327e-01 -5.579075612037937004e-02
-4.024887127980172896e-01 -1.764527116697550135e-01 -3.994418537792365775e-01 2.071802829573758317e-02 -9.982275065510133327e-01 -5.579075612037937004e-02
-3.718521198865184507e-01 -1.503310314108809997e-01 -3.745203402222802014e-01 2.071802829573758317e-02 -9.982275065510133327e-01 -5.579075612037937004e-02
-3.731824782137996288e-01 -1.038816281870592328e-01 -4.030060939697233668e-01 2.071802829573758317e-02 -9.982275065510133327e-01 -5.579075612037937004e-02
-2.225218411918661321e-01 -1.465309754030294231e-01 -3.656891349190941054e-01 -2.391908816252364400e-01 -9.029434524198945988e-01 3.570445964853461995e-01
-2.461724997515417901e-01 -1.428023886444931001e-01 -3.608314696398282617e-01 -2.391908816252364400e-01 -9.029434524198945988e-01 3.570445964853461995e-01
-2.088908035793614615e-01 -1.915591713054234368e-01 -3.381527081678618041e-01 -2.906014592380878891e-01 -9.224400018227975062e-01 2.542739367804954798e-01
-2.304580553277831012e-01 -1.598445837675720738e-01 -3.376748412693321710e-01 -2.906014592380878891e-01 -9.224400018227975062e-01 2.542739367804954798e-01
-1.671544824616805758e-01 -1.684258568944018153e-01 -3.144737295423072343e-01 -2.373859365560768431e-01 -9.443907857570664754e-01 2.275389217310851975e-01
-1.874955799560360237e-01 -1.689499255497810548e-01 -3.358475300830832122e-01 -2.373859365560768431e-01 -9.443907857570664754e-01 2.275389217310851975e-01
-1.095265724379277175e-02 -1.563490994416183444e-01 -4.745748665536132505e-01 -8.685315533314906522e-02 -7.826768537293001815e-01 -6.163387640292307124e-01
-4.187602681049507058e-02 -1.595129389566043443e-01 -4.663887902300577482e-01 -8.685315533314906522e-02 -7.826768537293001815e-01 -6.163387640292307124e-01
1.153892467809810272e-02 -1.710079914664371648e-01 -4.401558501247852528e-01 -8.685315533314906522e-02 -7.826768537293001815e-01 -6.163387640292307124e-01
-1.427716949908551872e-03 -1.917837594767367870e-01 -4.443810531467542457e-01 -1.286847903709607277e-01 -7.902893515458364604e-01 -5.990684147578164698e-01
-2.424184888154291492e-02 -1.729711310412409553e-01 -4.303125203037819757e-01 -1.286847903709607277e-01 -7.902893515458364604e-01 -5.990684147578164698e-01
5.075348238428544628e-03 -1.845677698295834501e-01 -4.013012313117880758e-01 -1.286847903709607277e-01 -7.902893515458364604e-01 -5.990684147578164698e-01
-4.017248932305451936e-02 -1.595030551961157117e-01 -4.542121704615701971e-01 -1.286847903709607277e-01 -7.902893515458364604e-01 -5.990684147578164698e-01
-2.774494624748004984e-02 -1.987281423491130128e-01 -3.932017185456889163e-01 -1.286847903709607277e-01 -7.902893515458364604e-01 -5.990684147578164698e-01
1.581360424665381736e-02 -2.274461010020880636e-01 -3.842047974077286709e-01 -1.515045047724604133e-01 -8.278524930637221058e-01 -5.400987268655902396e-01
-4.593062081072349367e-02 -2.255711573330582698e-01 -4.084266011582665667e-01 -1.515045047724604133e-01 -8.278524930637221058e-01 -5.400987268655902396e-01
-3.690170155263942237e-02 -1.951850768317941465e-01 -3.973155892221568175e-01 -1.515045047724604133e-01 -8.278524930637221058e-01 -5.400987268655902396e-01
-7.223192576173498303e-02 -2.481044628647387507e-01 -3.396549329251880023e-01 -3.078729223299357942e-01 -8.131037479364441323e-01 -4.940410496990435552e-01
-4.656798241291171259e-02 -2.135425055599728672e-01 -3.782123225645635523e-01 -3.078729223299357942e-01 -8.131037479364441323e-01 -4.940410496990435552e-01
-6.944531197977484027e-02 -2.307340520208881196e-01 -3.798755772523624841e-01 -3.078729223299357942e-01 -8.131037479364441323e-01 -4.940410496990435552e-01
-8.037913467692782421e-02 -1.896761740365574267e-01 -4.128517448528709055e-01 -3.078729223299357942e-01 -8.131037479364441323e-01 -4.940410496990435552e-01
-4.742793300463281347e-02 -1.892353878222582386e-01 -3.964488229587143642e-01 -2.372018892246200994e-01 -8.113475647048404849e-01 -5.342755777646920334e-01
-5.255563062310921602e-02 -1.872317398005889921e-01 -4.182832079174264583e-01 -2.372018892246200994e-01 -8.113475647048404849e-01 -5.342755777646920334e-01
-8.299853447348876090e-02 -1.908405151708704173e-01 -4.063404997726755008e-01 -2.372018892246200994e-01 -8.113475647048404849e-01 -5.342755777646920334e-01
-7.881739092514859768e-02 -2.016464728885479230e-01 -3.836770580398379260e-01 -2.372018892246200994e-01 -8.113475647048404849e-01 -5.342755777646920334e-01
-2.052434897342678144e-02 -2.117805697007011378e-01 -4.243783069456915080e-01 -2.372018892246200994e-01 -8.113475647048404849e-01 -5.342755777646920334e-01
-4.737171871522956323e-02 -1.485335114585617788e-01 -4.923820682287415873e-01 -2.332067057951589806e-01 -7.444330003170123167e-01 -6.256469774650728066e-01
-6.561471249585135168e-02 -1.455255534829945352e-01 -4.244332498744665116e-01 -2.332067057951589806e-01 -7.444330003170123167e-01 -6.256469774650728066e-01
-1.047910978370164420e-01 -1.711141294626764287e-01 -4.003837892441898250e-01 -2.332067057951589806e-01 -7.444330003170123167e-01 -6.256469774650728066e-01
-5.390700022069387642e-02 -1.785792971394642437e-01 -4.351337256521954355e-01 -2.332067057951589806e-01 -7.444330003170123167e-01 -6.256469774650728066e-01
-7.191996765261812752e-02 -1.941544892974901015e-01 -4.357443404317504765e-01 -2.332067057951589806e-01 -7.444330003170123167e-01 -6.256469774650728066e-01
-3.050063962477769092e-02 -1.601085315927730790e-01 -4.326270258496260901e-01 -2.332067057951589806e-01 -7.444330003170123167e-01 -6.256469774650728066e-01
-3.219298491171431742e-01 -4.638336173804772505e-02 -3.460518597570559352e-01 -4.655161500967504584e-01 7.261879640059675234e-01 5.059108171723225578e-01
-3.382388838751422822e-01 -4.301705024557762880e-02 -2.584108319220522199e-01 -4.655161500967504584e-01 7.261879640059675234e-01 5.059108171723225578e-01
-3.135411560499228867e-01 -5.029435189071247009e-02 -3.140011592447584099e-01 -4.655161500967504584e-01 7.261879640059675234e-01 5.059108171723225578e-01
-3.012936216900680142e-01 -3.183495547052309083e-02 -2.848249864897047234e-01 -7.407881778186922173e-01 5.449999456569551981e-01 3.926931815526947256e-01
-3.040971256343217854e-01 -5.975717721918138992e-02 -2.590534340099189259e-01 -7.407881778186922173e-01 5.449999456569551981e-01 3.926931815526947256e-01
-2.822235111626431592e-01 -4.749767192328374805e-03 -2.931410722117870904e-01 -5.213174124014368083e-01 4.998819527723285527e-01 6.916257577762657816e-01
-2.575372701422206090e-01 1.301346227146752202e-02 -2.864992431029310116e-01 -5.213174124014368083e-01 4.998819527723285527e-01 6.916257577762657816e-01
-9.429638590650284147e-02 2.568404561640283967e-01 -4.018414122177779157e-01 -1.334454726508550182e-01 9.881015732858342560e-01 -7.646951483466370159e-02
-1.108262150008022251e-01 2.550625083904068946e-01 -4.267959238380644171e-01 -1.334454726508550182e-01 9.881015732858342560e-01 -7.646951483466370159e-02
-4.735266790137226262e-02 2.450993682944186680e-01 -4.258545848349132856e-01 -1.265320269772360062e-01 9.919282741078041532e-01 -8.242886299433743041e-03
-1.228223349440615009e-01 2.786881414259144152e-01 -3.860170526278535741e-01 -1.265320269772360062e-01 9.919282741078041532e-01 -8.242886299433743041e-03
-6.464570903559359316e-02 2.970097198988038145e-01 -3.183239063817963066e-01 -1.265320269772360062e-01 9.919282741078041532e-01 -8.242886299433743041e-03
-1.203098090721122365e-01 2.675636564607247192e-01 -3.556515749760660317e-01 -1.265320269772360062e-01 9.919282741078041532e-01 -8.242886299433743041e-03
-1.268670705469281401e-01 2.533191247114716660e-01 -3.246715159246312266e-01 -1.263838454304374026e-01 9.919443588204336359e-01 -8.573949996002715179e-03
-5.797296730340752158e-02 2.939662823932324143e-01 -3.559676451989170487e-01 -1.263838454304374026e-01 9.919443588204336359e-01 -8.573949996002715179e-03
-1.173399294323687614e-01 2.565905141759526886e-01 -3.670638076694308083e-01 -1.263838454304374026e-01 9.919443588204336359e-01 -8.573949996002715179e-03
-1.141111435242371658e-01 3.407689308418324625e-01 -3.651935450598367550e-01 -1.263838454304374026e-01 9.919443588204336359e-01 -8.573949996002715179e-03
-1.531110400580090042e-02 2.579662975290189508e-01 -3.202306725065693360e-01 -1.437679701826049226e-02 9.967414309844426779e-01 7.937145246611629346e-02
-7.979178087658087004e-02 2.342812729870884236e-01 -3.237920696264907638e-01 -1.437679701826049226e-02 9.967414309844426779e-01 7.937145246611629346e-02
-2.932950210049999756e-02 2.476504981887281964e-01 -3.384589821081090411e-01 -1.437679701826049226e-02 9.967414309844426779e-01 7.937145246611629346e-02
-6.631748936058090224e-03 2.642727015855611539e-01 -3.294917897175037025e-01 -1.437679701826049226e-02 9.967414309844426779e-01 7.937145246611629346e-02
-6.476166983352445172e-02 2.580911628158431004e-01 -3.319705571732089466e-01 -2.057589071485915050e-02 9.979415468400423261e-01 6.073962307912139647e-02
-3.668949101640545107e-02 2.498481778216748439e-01 -3.334562486243071722e-01 -2.057589071485915050e-02 9.979415468400423261e-01 6.073962307912139647e-02
-7.789166309960099399e-02 2.387751276419156354e-01 -3.515304499321875165e-01 -2.057589071485915050e-02 9.979415468400423261e-01 6.073962307912139647e-02
-2.500368930587213226e-02 2.736244707497824113e-01 -3.873217557412039769e-01 -1.857811213850334500e-02 9.985111983791136181e-01 5.128586999238202854e-02
-4.944499290450490858e-02 2.946133070987637659e-01 -3.565306390245430723e-01 -1.857811213850334500e-02 9.985111983791136181e-01 5.128586999238202854e-02
-2.882710798312369121e-02 2.853851333350423958e-01 -3.368873543465231712e-01 -1.857811213850334500e-02 9.985111983791136181e-01 5.128586999238202854e-02
-4.628684253112089197e-02 2.775094892319309725e-01 -3.511279341999869463e-01 -1.857811213850334500e-02 9.985111983791136181e-01 5.128586999238202854e-02
-2.536122690731865692e-01 5.082468142073072459e-02 -2.022573091112866983e-01 -9.015303704599951784e-01 1.583662173993131139e-01 4.026948377182122396e-01
-2.371464270171058375e-01 1.123197701042225466e-01 -1.992755477209700865e-01 -9.015303704599951784e-01 1.583662173993131139e-01 4.026948377182122396e-01
-2.637029668394582638e-01 9.919424265191607859e-02 -2.491573295401133814e-01 -9.015303704599951784e-01 1.583662173993131139e-01 4.026948377182122396e-01
-2.170581713476698593e-01 1.061442157878315917e-01 -2.504687052240788803e-01 -9.015303704599951784e-01 1.583662173993131139e-01 4.026948377182122396e-01
-2.280193516553900290e-01 8.289402707693924177e-02 -2.534406832722269631e-01 -9.066503438431423589e-01 1.633801221098606649e-01 3.889628384672229044e-01
-2.434152064279557492e-01 1.627170144393292883e-01 -2.253630009246330168e-01 -9.066503438431423589e-01 1.633801221098606649e-01 3.889628384672229044e-01
-2.388467785518481323e-01 1.096219978038505821e-01 -2.742789395077432357e-01 -9.066503438431423589e-01 1.633801221098606649e-01 3.889628384672229044e-01
-2.257559909278635257e-01 1.180109442087960703e-01 -2.356614626065322016e-01 -8.579868119461556697e-01 3.862659971860082919e-01 3.386107055962214174e-01
-2.451214043902154027e-01 1.352493658550425748e-01 -2.688268446825892166e-01 -8.579868119461556697e-01 3.862659971860082919e-01 3.386107055962214174e-01
-2.728714148040808918e-01 1.591856080315809663e-01 -2.671419687460629966e-01 -8.579868119461556697e-01 3.862659971860082919e-01 3.386107055962214174e-01
-2.455864716222083688e-01 1.600793610146596657e-01 -2.257965822649051491e-01 -8.579868119461556697e-01 3.862659971860082919e-01 3.386107055962214174e-01
-2.472487226824721662e-01 1.233805839909470348e-01 -3.036940792511285681e-01 -9.236689493786236493e-01 2.083091764234560050e-01 3.216254949029554444e-01
-2.544346652029870759e-01 1.571551727666844200e-01 -2.609885312079881503e-01 -9.236689493786236493e-01 2.083091764234560050e-01 3.216254949029554444e-01
-2.656955365451087459e-01 1.423165928271618863e-01 -2.754810071298642304e-01 -9.309160901281235967e-01 2.190430702161594301e-01 2.922590743344779529e-01
-2.690961496274649201e-01 1.375659410456720189e-01 -2.711895806923221852e-01 -9.309160901281235967e-01 2.190430702161594301e-01 2.922590743344779529e-01
-2.610487896621068171e-01 1.031771226359846638e-01 -3.030669247224109242e-01 -9.309160901281235967e-01 2.190430702161594301e-01 2.922590743344779529e-01
-2.392672674408666822e-01 6.889877149179098048e-02 -2.483852500106476791e-01 -9.384894904381644309e-01 7.708827963226205782e-02 3.365930383719377139e-01
-2.942572485112791014e-01 1.102730916246770498e-01 -2.991160965324357046e-01 -9.384894904381644309e-01 7.708827963226205782e-02 3.365930383719377139e-01
-3.029110238184847259e-01 1.277972176583342390e-01 -2.795938076619122747e-01 -9.384894904381644309e-01 7.708827963226205782e-02 3.365930383719377139e-01
-2.531629427357691142e-01 1.352325187002352547e-01 -2.968166381556337496e-01 -9.384894904381644309e-01 7.708827963226205782e-02 3.365930383719377139e-01
-2.302887567756254639e-01 1.259840625181731788e-01 -2.106802091502396612e-01 -8.329169172176836833e-01 2.137987305493146695e-01 5.104307120737269221e-01
-2.155635552896253970e-01 1.284173748232146639e-01 -1.697141294286665936e-01 -8.329169172176836833e-01 2.137987305493146695e-01 5.104307120737269221e-01
-2.654762340430846801e-01 1.110024049092097342e-01 -1.443159899918954325e-01 -7.346297571582501851e-01 3.802071134166916111e-01 5.619267486113801446e-01
-1.953784140659437785e-01 1.519356251438253591e-01 -1.769717057570794894e-01 -7.346297571582501851e-01 3.802071134166916111e-01 5.619267486113801446e-01
-2.434491994425554973e-01 8.892300522779440775e-02 -1.931711498354412027e-01 -7.346297571582501851e-01 3.802071134166916111e-01 5.619267486113801446e-01
-2.048888884796847554e-01 1.185096647675841774e-01 -1.690806693728636456e-01 -7.346297571582501851e-01 3.802071134166916111e-01 5.619267486113801446e-01
-2.251230764874662116e-01 1.187645085218521079e-01 -2.582428636560240576e-01 -7.346297571582501851e-01 3.802071134166916111e-01 5.619267486113801446e-01
-2.082118081563648915e-01 1.461503005346533324e-01 -1.754716173538077295e-01 -7.601505159090550245e-01 3.739439510918020626e-01 5.313540388526744040e-01
-1.777929973668073149e-01 1.221611870952151735e-01 -1.579562752036914319e-01 -7.601505159090550245e-01 3.739439510918020626e-01 5.313540388526744040e-01
-1.909858986686741034e-01 1.216392108386899484e-01 -1.705970250714858027e-01 -7.601505159090550245e-01 3.739439510918020626e-01 5.313540388526744040e-01
-1.988530665221402149e-01 9.127337761161090357e-02 -1.785602681938499858e-01 -7.601505159090550245e-01 3.739439510918020626e-01 5.313540388526744040e-01
-3.368293676470340142e-02 2.111210668233185761e-01 -8.521817891493049801e-02 -1.326827781709984111e-01 9.710385611753689084e-01 1.986942200651416746e-01
-4.484592225822510436e-02 2.456486464756313104e-01 -7.313372381240325348e-02 -1.326827781709984111e-01 9.710385611753689084e-01 1.986942200651416746e-01
-4.817596910890060979e-02 2.264081549218855960e-01 -7.199026609014415323e-02 -1.326827781709984111e-01 9.710385611753689084e-01 1.986942200651416746e-01
-8.108965367871399932e-02 1.879841881822951200e-01 -2.943737911861496470e-02 -4.503267204569602056e-01 8.847068520683734061e-01 1.204144125333334731e-01
-7.510462144045340627e-02 1.720082510940807441e-01 -5.775925451643111608e-02 -3.875175359604460246e-01 8.809920481664547109e-01 2.714464411087750273e-01
-5.947558487827701856e-02 2.012326449388101568e-01 -1.177843223071070866e-01 -3.875175359604460246e-01 8.809920481664547109e-01 2.714464411087750273e-01
-2.589543862577076139e-02 2.586091550669557537e-01 -2.710240432391546397e-02 -1.998993862387381526e-01 9.798089700401856339e-01 3.823298336015720170e-03
-7.739977134122724527e-03 2.248977405144021446e-01 -7.089443335801248747e-02 -1.998993862387381526e-01 9.798089700401856339e-01 3.823298336015720170e-03
1.982202229412968059e-02 2.126380254394152625e-01 2.813578749807729359e-02 -1.998993862387381526e-01 9.798089700401856339e-01 3.823298336015720170e-03
-5.735203161923072002e-02 2.030717938765550790e-01 -7.109988240108955360e-02 -1.777417239356647027e-01 9.831544410285694147e-01 4.260545338544512173e-02
-2.920687447680008972e-02 1.995123668086004887e-01 -3.832784649217749195e-02 -1.777417239356647027e-01 9.831544410285694147e-01 4.260545338544512173e-02
-3.169300707365193398e-02 2.328496306862605780e-01 -3.606035274264957763e-02 -1.777417239356647027e-01 9.831544410285694147e-01 4.260545338544512173e-02
-4.494138436360411992e-02 2.342037793153031733e-01 -5.510348289728057847e-02 -1.777417239356647027e-01 9.831544410285694147e-01 4.260545338544512173e-02
-6.657070451620163143e-02 2.136312640440514721e-01 -5.900614704194792615e-02 -1.777417239356647027e-01 9.831544410285694147e-01 4.260545338544512173e-02
-4.529699914556704898e-02 2.263016709603312693e-01 -8.949163322858191827e-02 -1.924338770101411689e-01 9.782776690594321423e-01 7.708440308188069245e-02
1.326871131333952694e-02 2.232344145945049096e-01 -4.915284218703428604e-02 -1.924338770101411689e-01 9.782776690594321423e-01 7.708440308188069245e-02
-7.874879689673475874e-03 2.097239986296812464e-01 -7.486625306403062174e-02 -1.924338770101411689e-01 9.782776690594321423e-01 7.708440308188069245e-02
-2.456673260863880340e-03 2.230858606208138140e-01 -8.929711090249424499e-02 -1.924338770101411689e-01 9.782776690594321423e-01 7.708440308188069245e-02
1.105854493539916578e-01 1.936904329546737247e-01 1.105410802846788082e-02 -5.832811170735695550e-01 7.730495800552108498e-01 -2.493541362036548192e-01
1.335456796640887289e-01 1.540905447287185537e-01 -5.761496756214700560e-02 -4.685297442555279024e-01 8.042328369067539562e-01 -3.656356421203549867e-01
3.287683236054358971e-02 -1.679922190255747905e-01 9.371212942471655039e-01 -4.558159793750366645e-02 1.810058311773974360e-01 9.824251661115177559e-01
3.743975565235630083e-03 -1.806513157613590659e-01 9.419131841795835847e-01 -4.558159793750366645e-02 1.810058311773974360e-01 9.824251661115177559e-01
5.371816398421293270e-02 -1.566057908105662200e-01 9.552110892544455334e-01 -4.558159793750366645e-02 1.810058311773974360e-01 9.824251661115177559e-01
4.828406399340345878e-05 -1.825889098738014416e-01 9.697602912218012960e-01 -4.558159793750366645e-02 1.810058311773974360e-01 9.824251661115177559e-01
-1.293340015943524740e-02 -1.820799695731824541e-01 8.998533004380423472e-01 -4.558159793750366645e-02 1.810058311773974360e-01 9.824251661115177559e-01
5.784890793298053113e-02 -1.668300211926779519e-01 9.476187241558923224e-01 -4.558159793750366645e-02 1.810058311773974360e-01 9.824251661115177559e-01
4.349244341149396953e-02 -1.920213583156742954e-01 9.681891240042697078e-01 -3.527365654793338662e-02 1.709557218042755400e-01 9.846470993894804735e-01
5.612617662794294748e-02 -1.809152942980689072e-01 9.398720886517315520e-01 -3.527365654793338662e-02 1.709557218042755400e-01 9.846470993894804735e-01
3.155104362147327646e-02 -1.999966896187769239e-01 9.678584635727814911e-01 -3.527365654793338662e-02 1.709557218042755400e-01 9.846470993894804735e-01
4.359591825236788093e-02 -2.188979174602664057e-01 9.125164120722828454e-01 -5.991767122806860441e-02 5.876319968688285822e-02 9.964721566793347529e-01
2.601775443691773521e-02 -2.052759556610411484e-01 9.328619106574713715e-01 -5.991767122806860441e-02 5.876319968688285822e-02 9.964721566793347529e-01
3.045345723375058114e-02 -2.165413688242175949e-01 9.077587568922123040e-01 -5.991767122806860441e-02 5.876319968688285822e-02 9.964721566793347529e-01
2.949063731972703661e-02 -2.268950766908259531e-01 9.265126627332227471e-01 -5.991767122806860441e-02 5.876319968688285822e-02 9.964721566793347529e-01
5.484601429173347614e-02 -2.319770485573603713e-01 9.520422696106584093e-01 1.230543864778579216e-02 6.854891526499087839e-02 9.975718632738589386e-01
2.331471623007013577e-02 -2.735112484710953695e-01 9.560010694350093985e-01 1.230543864778579216e-02 6.854891526499087839e-02 9.975718632738589386e-01
4.112127682129214368e-02 -2.070324124107434105e-01 9.326690751134844026e-01 -1.943269572061303782e-02 1.140397171724491510e-01 9.932861185198642584e-01
7.398068923765288574e-02 -2.062658177360547906e-01 9.843154832829309475e-01 -1.943269572061303782e-02 1.140397171724491510e-01 9.932861185198642584e-01
6.847894879872984397e-02 -1.925360442202020961e-01 9.567701743934241554e-01 -1.943269572061303782e-02 1.140397171724491510e-01 9.932861185198642584e-01
5.303109140754225237e-02 -1.623474560427025093e-01 9.798663959551991987e-01 -2.698210972346300630e-03 1.597259191222308861e-01 9.871577130418964785e-01
6.786328290923283879e-02 -1.690644993032686672e-01 9.139543550135598160e-01 -2.698210972346300630e-03 1.597259191222308861e-01 9.871577130418964785e-01
5.137298868800259377e-02 -1.765322109666059014e-01 9.925943216889887566e-01 -2.698210972346300630e-03 1.597259191222308861e-01 9.871577130418964785e-01
5.897603622338291190e-02 -2.385673693028338982e-01 9.340433928721425527e-01 -2.698210972346300630e-03 1.597259191222308861e-01 9.871577130418964785e-01
1.895946517585149205e-01 -4.547316431165211725e-02 8.547380710054032216e-01 4.990429092547763457e-01 3.506391091561759654e-01 7.924698037481884283e-01
1.927483802346190156e-01 -8.905237356906173241e-02 8.740815163976640711e-01 4.990429092547763457e-01 3.506391091561759654e-01 7.924698037481884283e-01
2.101032068946643294e-01 -3.338723644666242996e-02 8.902410869475284594e-01 4.990429092547763457e-01 3.506391091561759654e-01 7.924698037481884283e-01
2.154192634823790253e-01 -9.746682433358920539e-02 9.071122206891129025e-01 4.990429092547763457e-01 3.506391091561759654e-01 7.924698037481884283e-01
1.760426493354508570e-01 -5.540322372293999403e-02 8.693672905735194689e-01 4.990429092547763457e-01 3.506391091561759654e-01 7.924698037481884283e-01
1.999372303441636634e-01 -2.059966441985973395e-02 8.618218732177522767e-01 4.990429092547763457e-01 3.506391091561759654e-01 7.924698037481884283e-01
1.600604126860082910e-01 -1.147424277889605715e-01 9.018653142789075927e-01 4.911092563912443087e-01 3.476347852466770139e-01 7.987250805961561007e-01
1.884276786839555740e-01 -9.218474414348480639e-02 9.316588699556428432e-01 4.911092563912443087e-01 3.476347852466770139e-01 7.987250805961561007e-01
1.972326464302546767e-01 -8.930158221993968193e-02 8.800314015677833668e-01 4.911092563912443087e-01 3.476347852466770139e-01 7.987250805961561007e-01
1.830059737178064971e-01 -8.621562467011613384e-02 8.881643318736002213e-01 4.911092563912443087e-01 3.476347852466770139e-01 7.987250805961561007e-01
2.009180111977810212e-01 -1.160127865473952469e-01 8.901901796474268602e-01 4.911092563912443087e-01 3.476347852466770139e-01 7.987250805961561007e-01
1.741093526816687442e-01 -7.982017605264726812e-02 9.390932403201275314e-01 4.911092563912443087e-01 3.476347852466770139e-01 7.987250805961561007e-01
1.458247661374712512e-01 -6.149154450289175122e-02 8.808703701900681970e-01 3.376025651634098623e-01 4.075736906737875143e-01 8.484740388872444861e-01
1.737957410242314260e-01 -6.225494857384715475e-02 9.205225907553699072e-01 3.376025651634098623e-01 4.075736906737875143e-01 8.484740388872444861e-01
1.458655582740559509e-01 -5.481516361110110036e-02 8.939660968183797962e-01 3.376025651634098623e-01 4.075736906737875143e-01 8.484740388872444861e-01
1.487426487838561795e-01 -5.144103813533722203e-02 8.918452290213907396e-01 3.376025651634098623e-01 4.075736906737875143e-01 8.484740388872444861e-01
1.290582468664223104e-01 -4.082725815119706003e-02 8.854110716820103866e-01 3.376025651634098623e-01 4.075736906737875143e-01 8.484740388872444861e-01
1.852478924678152838e-01 -4.901170897045994956e-02 8.894636950925560726e-01 3.376025651634098623e-01 4.075736906737875143e-01 8.484740388872444861e-01
1.489070687938944537e-01 -6.283988868762441227e-02 9.157496880357720581e-01 3.376025651634098623e-01 4.075736906737875143e-01 8.484740388872444861e-01
1.379126739741695362e-01 -6.788059136374220703e-02 8.818868653048494988e-01 3.376025651634098623e-01 4.075736906737875143e-01 8.484740388872444861e-01
1.072392477159021390e-01 -1.679394295334242226e-01 9.409772103597073833e-01 2.288892629634640963e-01 2.040253480145001741e-01 9.518315831425243623e-01
1.371342608003322527e-01 -1.797460157198858821e-01 9.650964907143553262e-01 2.288892629634640963e-01 2.040253480145001741e-01 9.518315831425243623e-01
7.859099271768874018e-02 -1.264935101087427682e-01 9.178196486854524050e-01 2.288892629634640963e-01 2.040253480145001741e-01 9.518315831425243623e-01
1.228923725273485951e-01 -1.297611650930668437e-01 9.371493511779065422e-01 2.288892629634640963e-01 2.040253480145001741e-01 9.518315831425243623e-01
1.206490636485329365e-01 -9.644320597466093936e-02 9.460150473262128878e-01 3.050902832870619474e-01 2.272420465452784366e-01 9.248140198579030136e-01
1.488313903392933790e-01 -1.288445743811308386e-01 9.677855873977744272e-01 3.050902832870619474e-01 2.272420465452784366e-01 9.248140198579030136e-01
1.364864057057642577e-01 -1.076574444271963665e-01 9.278229355269579370e-01 3.050902832870619474e-01 2.272420465452784366e-01 9.248140198579030136e-01
1.619310851062560896e-01 -1.423318197458973144e-01 9.162175013398798917e-01 3.050902832870619474e-01 2.272420465452784366e-01 9.248140198579030136e-01
1.316567309373292971e-01 -1.571510372031763580e-01 9.571215339681619083e-01 5.237950681992192825e-01 1.078605942805809237e-01 8.449880583366932152e-01
1.455757634658215727e-01 -1.638766610591784190e-01 8.950424034560342523e-01 5.237950681992192825e-01 1.078605942805809237e-01 8.449880583366932152e-01
1.778038185604716159e-01 -1.537427069358262011e-01 9.196006054060889001e-01 5.237950681992192825e-01 1.078605942805809237e-01 8.449880583366932152e-01
1.861262073237757164e-01 -1.134800563818220420e-01 8.991391719179110398e-01 5.237950681992192825e-01 1.078605942805809237e-01 8.449880583366932152e-01
1.371363870706530930e-01 -1.583139207328966014e-01 9.021193333063766140e-01 5.237950681992192825e-01 1.078605942805809237e-01 8.449880583366932152e-01
1.236264554613446531e-01 -1.542773113716470745e-01 9.571473346770911217e-01 5.237950681992192825e-01 1.078605942805809237e-01 8.449880583366932152e-01
1.357594886908413401e-01 -1.162234021439948056e-01 8.999264719312694005e-01 5.237950681992192825e-01 1.078605942805809237e-01 8.449880583366932152e-01
2.777985276981672635e-01 2.055726646366502486e-01 5.876647654462332504e-01 8.787521172346057785e-01 3.473487885332328107e-01 3.273278716519465448e-01
2.697501353508947042e-01 2.154711258966673371e-01 5.479360554091764479e-01 8.787521172346057785e-01 3.473487885332328107e-01 3.273278716519465448e-01
2.659999183592565708e-01 2.055952383008394224e-01 5.998493105685848148e-01 8.688697739882861315e-01 3.493254598639858322e-01 3.507663594764461323e-01
2.764624983430438165e-01 2.047782831241700408e-01 5.738054828482066494e-01 8.688697739882861315e-01 3.493254598639858322e-01 3.507663594764461323e-01
2.844910471696580623e-01 2.238547365301139513e-01 5.950270206727356070e-01 7.061979145676648972e-01 5.011509819627413265e-01 5.001321812661740918e-01
2.108890280293617414e-01 2.274050398180286758e-01 5.580777985477273218e-01 7.061979145676648972e-01 5.011509819627413265e-01 5.001321812661740918e-01
2.646375575711728545e-01 2.464855598858544383e-01 5.783325527860907478e-01 7.061979145676648972e-01 5.011509819627413265e-01 5.001321812661740918e-01
2.932101770758350212e-01 1.568319048895386314e-01 3.957978213094129338e-01 4.742688785490611902e-01 -8.285423221821036632e-01 -2.976350973808415401e-01
2.787161944086862797e-01 2.040867244730621699e-01 3.850924726912351992e-01 5.322571108297382558e-01 -7.808030080590421251e-01 -3.271834815163062737e-01
3.003272330661602152e-01 1.695450584680860961e-01 3.643153962976519167e-01 5.807914295714557973e-01 -7.060930727367484838e-01 -4.051097233707451895e-01
3.285485105577806153e-01 1.564752488040400680e-01 4.393387354015975133e-01 5.807914295714557973e-01 -7.060930727367484838e-01 -4.051097233707451895e-01
2.026114603900056876e-01 1.310018745209519941e-01 3.982374178220158267e-01 3.582024882061143334e-01 -7.538624565128100308e-01 -5.508015741657062980e-01
3.164082527269562184e-01 1.798614826931458355e-01 3.977771679467853039e-01 4.327728169280630754e-01 -7.083792223233846830e-01 -5.575899625250314573e-01
1.396404837912478270e-01 1.661194311574332727e-01 4.070367492304334811e-01 -5.674541856256990480e-01 -1.205709656657698997e-01 -8.145295510012502405e-01
1.357625342898640675e-01 1.962395328798560712e-01 4.346284613539408981e-01 -5.674541856256990480e-01 -1.205709656657698997e-01 -8.145295510012502405e-01
1.267566326551766709e-01 1.331662066461839766e-01 4.418449932062548102e-01 -2.686062614043364660e-01 -4.358727801780866440e-02 -9.622633867758783044e-01
1.131199815518511564e-01 1.896405708015123370e-01 4.095952978410429268e-01 -4.377025392019331385e-01 -2.847648749752352826e-01 -8.528337781517093541e-01
1.988853231752374939e-01 1.536033129869728286e-01 4.113484344558719918e-01 -4.377025392019331385e-01 -2.847648749752352826e-01 -8.528337781517093541e-01
1.588904609282426050e-01 1.659113328244533614e-01 4.277555974025652463e-01 -4.377025392019331385e-01 -2.847648749752352826e-01 -8.528337781517093541e-01
8.017287969642561407e-02 1.887657334924965347e-01 -3.690673112655553506e-02 -4.877521094731305240e-01 8.593532685427410778e-01 -1.536549366256053650e-01
1.094458555897767221e-01 2.088446953630683500e-01 -1.314364780886628087e-02 -4.877521094731305240e-01 8.593532685427410778e-01 -1.536549366256053650e-01
7.916510706296778221e-02 2.208911963335449813e-01 -5.044533628114651787e-03 -4.877521094731305240e-01 8.593532685427410778e-01 -1.536549366256053650e-01
7.258403748503922115e-02 2.103357000568809865e-01 2.676250106366086234e-02 -3.356742868016980852e-01 9.396780630943384338e-01 -6.578685977795142859e-02
8.794130832626000094e-02 1.910133692380980852e-01 -2.558393438431890571e-04 -3.356742868016980852e-01 9.396780630943384338e-01 -6.578685977795142859e-02
8.995239412069053198e-02 1.865064496800558080e-01 3.396018782011493709e-02 -3.901984836703079607e-01 9.173503555481136162e-01 7.882555751240737096e-02
