-1.737690316132809443e-01 3.774102255410473616e-01 2.815671590093670185e-01 0.000000000000000000e+00 8.165097366074486329e-01 5.773316637992714773e-01
-2.764295871692943329e-01 4.458024352919707223e-01 1.442482215693971503e-01 0.000000000000000000e+00 8.165089845643328514e-01 5.773327273987870489e-01
-1.917880664573108906e-01 4.960128232033490514e-01 7.260589903403438794e-02 0.000000000000000000e+00 8.164840341916630440e-01 5.773680125449515144e-01
-1.929213750418815876e-01 3.556755147964167363e-01 2.768657378651011025e-01 0.000000000000000000e+00 8.165097366074486329e-01 5.773316637992714773e-01
-2.664971762757396556e-01 4.032976141911049361e-01 1.855785320371788616e-01 0.000000000000000000e+00 8.165089845643327404e-01 5.773327273987869379e-01
-3.627879101467127998e-01 3.478714026217143429e-01 2.456573352680009870e-01 0.000000000000000000e+00 8.165097366074485219e-01 5.773316637992713662e-01
2.990764681834277572e-01 -1.085794489821421821e-01 -2.056791691394817823e-01 0.000000000000000000e+00 0.000000000000000000e+00 -1.000000000000000000e+00
3.432756396012689448e-01 -6.576656679625209057e-02 -2.227330379658823412e-01 0.000000000000000000e+00 0.000000000000000000e+00 -1.000000000000000000e+00
2.534759635617597762e-01 -5.397288767519389102e-02 -1.921025560995920922e-01 0.000000000000000000e+00 0.000000000000000000e+00 -1.000000000000000000e+00
2.833396328971168332e-01 -7.035520256040678211e-03 -2.745333737564513710e-01 0.000000000000000000e+00 0.000000000000000000e+00 -1.000000000000000000e+00
2.540649262289472743e-01 -2.749159927875446940e-01 -2.380534048964534632e-01 0.000000000000000000e+00 0.000000000000000000e+00 -1.000000000000000000e+00
1.899846435465242234e-01 -1.891036519370133395e-01 -2.194174063628966387e-01 0.000000000000000000e+00 0.000000000000000000e+00 -1.000000000000000000e+00
3.475696658884585011e-01 -3.167800674141587058e-01 -1.907042833004398141e-01 0.000000000000000000e+00 0.000000000000000000e+00 -1.000000000000000000e+00
1.406813380971151106e-01 9.584603847028493051e-03 -2.091578384680986558e-01 0.000000000000000000e+00 0.000000000000000000e+00 -1.000000000000000000e+00
1.499295347516016730e-01 -2.547546283686430088e-02 -2.046966245066602352e-01 0.000000000000000000e+00 0.000000000000000000e+00 -1.000000000000000000e+00
2.789498331005905302e-02 1.241614024961313831e-02 -2.366840048723601875e-01 0.000000000000000000e+00 0.000000000000000000e+00 -1.000000000000000000e+00
5.464897034198481496e-01 -1.732725732422182585e-01 -2.245079433905078081e-01 0.000000000000000000e+00 0.000000000000000000e+00 -1.000000000000000000e+00
6.632269328671054343e-01 -2.503426327533162521e-01 -2.270074752155163411e-01 0.000000000000000000e+00 0.000000000000000000e+00 -1.000000000000000000e+00
6.230759793439704097e-01 -1.877701703592730142e-01 -2.371034064305231892e-01 0.000000000000000000e+00 0.000000000000000000e+00 -1.000000000000000000e+00
6.649624395395953291e-01 -1.941365787923952924e-01 -1.999308634583530642e-01 0.000000000000000000e+00 0.000000000000000000e+00 -1.000000000000000000e+00
6.451808439498464276e-01 -3.394149813342489663e-01 -1.968822998933207613e-01 0.000000000000000000e+00 0.000000000000000000e+00 -1.000000000000000000e+00
5.022572994889137332e-01 -7.294705272889950853e-02 -2.244599315882941648e-01 0.000000000000000000e+00 0.000000000000000000e+00 -1.000000000000000000e+00
4.945259958769351871e-01 -5.590307816220857484e-03 -1.776435429598053062e-01 0.000000000000000000e+00 0.000000000000000000e+00 -1.000000000000000000e+00
5.182228703746085685e-01 -1.151270187076566670e-01 -2.159171534145454818e-01 0.000000000000000000e+00 0.000000000000000000e+00 -1.000000000000000000e+00
4.325044054631958512e-01 -3.934155423872810753e-02 -2.165135142180316108e-01 0.000000000000000000e+00 0.000000000000000000e+00 -1.000000000000000000e+00
4.569487715797481697e-01 -5.163402492829630847e-02 -1.836824215962648277e-01 0.000000000000000000e+00 0.000000000000000000e+00 -1.000000000000000000e+00
7.030840944208602838e-01 -9.482663594034938803e-02 -2.102666970413020753e-01 0.000000000000000000e+00 0.000000000000000000e+00 -1.000000000000000000e+00
5.946327580471590935e-01 1.035592821389704626e-03 -2.308207523515279913e-01 0.000000000000000000e+00 0.000000000000000000e+00 -1.000000000000000000e+00
5.989248383844508750e-01 -7.151299941408426064e-02 -2.147663791384959719e-01 0.000000000000000000e+00 0.000000000000000000e+00 -1.000000000000000000e+00
5.608367765922681603e-01 -3.193121415468300195e-02 -1.951051494701042666e-01 0.000000000000000000e+00 0.000000000000000000e+00 -1.000000000000000000e+00
4.440679554161237053e-01 -3.376521552859146347e-01 -2.328069464048875270e-01 0.000000000000000000e+00 0.000000000000000000e+00 -1.000000000000000000e+00
4.900301821269787417e-01 -3.867463726349348874e-01 -1.945817218182115393e-01 0.000000000000000000e+00 0.000000000000000000e+00 -1.000000000000000000e+00
5.269102980750974830e-01 -4.097430133943164021e-01 -2.090682709488762558e-01 0.000000000000000000e+00 0.000000000000000000e+00 -1.000000000000000000e+00
4.696709675284888030e-01 -4.925705294746131613e-01 -1.984555359479512338e-01 0.000000000000000000e+00 0.000000000000000000e+00 -1.000000000000000000e+00
4.137299755002327162e-01 -3.716848791196020185e-01 -2.293107812906757526e-01 0.000000000000000000e+00 0.000000000000000000e+00 -1.000000000000000000e+00
3.477891966463175777e-01 -3.834052496146335143e-01 -1.997099005050036180e-01 0.000000000000000000e+00 0.000000000000000000e+00 -1.000000000000000000e+00
6.788035899117487171e-01 -4.308005100625841854e-01 -2.273883908429862599e-01 0.000000000000000000e+00 0.000000000000000000e+00 -1.000000000000000000e+00
6.993360556916472515e-01 -5.114474198422737095e-01 -2.455940016456110153e-01 0.000000000000000000e+00 0.000000000000000000e+00 -1.000000000000000000e+00
5.307908459973967874e-01 -3.736392450707328727e-01 -2.446282362321022252e-01 0.000000000000000000e+00 0.000000000000000000e+00 -1.000000000000000000e+00
6.417244661429759578e-01 -3.376945044252335215e-01 -2.407358191236335931e-01 0.000000000000000000e+00 0.000000000000000000e+00 -1.000000000000000000e+00
6.511101860248289519e-01 -3.779842701189534693e-01 -1.681763079053546495e-01 0.000000000000000000e+00 0.000000000000000000e+00 -1.000000000000000000e+00
5.765918225509245598e-01 -5.067956519141251226e-01 -2.260935061701736803e-01 0.000000000000000000e+00 0.000000000000000000e+00 -1.000000000000000000e+00
6.380926321812163682e-01 -5.695694660635232109e-01 -2.015545804767155114e-01 0.000000000000000000e+00 0.000000000000000000e+00 -1.000000000000000000e+00
5.795291968882702038e-01 -5.444426344270221207e-01 -2.746207107048867502e-01 0.000000000000000000e+00 0.000000000000000000e+00 -1.000000000000000000e+00
6.602619244107278407e-01 -5.229652221126015466e-01 -2.423137630187791602e-01 0.000000000000000000e+00 0.000000000000000000e+00 -1.000000000000000000e+00
6.416968461642587052e-01 -6.294203875988398922e-01 -2.291571105125931318e-01 0.000000000000000000e+00 0.000000000000000000e+00 -1.000000000000000000e+00
6.898200526453677206e-01 -6.410704676492713361e-01 -2.353363902864044344e-01 0.000000000000000000e+00 0.000000000000000000e+00 -1.000000000000000000e+00
-9.151017576216731453e-02 4.861342705690361310e-01 -2.108006725523094982e-01 0.000000000000000000e+00 0.000000000000000000e+00 -1.000000000000000000e+00
-1.276468013531417145e-01 4.835040619973900444e-01 -2.142434376096394033e-01 0.000000000000000000e+00 0.000000000000000000e+00 -1.000000000000000000e+00
-1.151374270881936612e-01 5.012940389638069760e-01 -2.296027628534690890e-01 0.000000000000000000e+00 0.000000000000000000e+00 -1.000000000000000000e+00
-2.469058322506763672e-02 5.213572355902785782e-01 -2.069116060433223714e-01 0.000000000000000000e+00 0.000000000000000000e+00 -1.000000000000000000e+00
-6.509395870261211470e-02 4.125405273535707185e-01 -2.110266349826779297e-01 0.000000000000000000e+00 0.000000000000000000e+00 -1.000000000000000000e+00
-2.117322543056749384e-01 6.786728662673918722e-01 -2.378687833589535339e-01 0.000000000000000000e+00 0.000000000000000000e+00 -1.000000000000000000e+00
-2.120717644281283343e-01 6.951628341313064174e-01 -1.893314589694203853e-01 0.000000000000000000e+00 0.000000000000000000e+00 -1.000000000000000000e+00
-2.440625417473632208e-01 5.984478662611780742e-01 -1.810542417559884432e-01 0.000000000000000000e+00 0.000000000000000000e+00 -1.000000000000000000e+00
-2.692415543716033532e-01 6.312758835253349243e-01 -2.200088515631120623e-01 0.000000000000000000e+00 0.000000000000000000e+00 -1.000000000000000000e+00
-8.202804821915762185e-03 5.298695462872728967e-01 -2.327157143691024055e-01 0.000000000000000000e+00 0.000000000000000000e+00 -1.000000000000000000e+00
-2.378447257757061450e-01 3.230150061678305207e-01 -2.591668090173550598e-01 0.000000000000000000e+00 0.000000000000000000e+00 -1.000000000000000000e+00
-2.639035636357887071e-01 3.352234448233007424e-01 -2.072882069993375043e-01 0.000000000000000000e+00 0.000000000000000000e+00 -1.000000000000000000e+00
-2.374279703244112916e-01 2.611092233309166843e-01 -2.215607549492869532e-01 0.000000000000000000e+00 0.000000000000000000e+00 -1.000000000000000000e+00
-3.201105274021190383e-01 2.852214451947495677e-01 -2.121438564462932164e-01 0.000000000000000000e+00 0.000000000000000000e+00 -1.000000000000000000e+00
-6.632016207271275443e-02 2.641608593377561820e-01 -2.464750954808082872e-01 0.000000000000000000e+00 0.000000000000000000e+00 -1.000000000000000000e+00
-1.889894095278642216e-02 3.349047350486516472e-01 -1.709472538027137778e-01 0.000000000000000000e+00 0.000000000000000000e+00 -1.000000000000000000e+00
-4.225203515689572586e-02 3.042468704844479843e-01 -2.201895388310497192e-01 0.000000000000000000e+00 0.000000000000000000e+00 -1.000000000000000000e+00
-1.025078371429414409e-01 1.320758356010545143e-01 -2.278179160419930294e-01 0.000000000000000000e+00 0.000000000000000000e+00 -1.000000000000000000e+00
-7.284044595350035178e-02 1.348866253044765928e-01 -1.911734977610856090e-01 0.000000000000000000e+00 0.000000000000000000e+00 -1.000000000000000000e+00
-8.200371028998501219e-03 9.734298712388642083e-02 -2.182381089875713998e-01 0.000000000000000000e+00 0.000000000000000000e+00 -1.000000000000000000e+00
-1.584982682810797544e-02 6.485424543442547263e-02 -1.825724578150056399e-01 0.000000000000000000e+00 0.000000000000000000e+00 -1.000000000000000000e+00
-6.622800549207899512e-02 1.502658847848790669e-01 -1.859766902659576171e-01 0.000000000000000000e+00 0.000000000000000000e+00 -1.000000000000000000e+00
-3.078639469405681714e-02 3.597845795932530510e-02 -1.798345565345113306e-01 0.000000000000000000e+00 0.000000000000000000e+00 -1.000000000000000000e+00
-3.754667942017029247e-01 6.571731750186298182e-01 -1.880918538412123531e-01 0.000000000000000000e+00 0.000000000000000000e+00 -1.000000000000000000e+00
-3.800402716755759136e-01 6.405952702626982465e-01 -2.109117992747969739e-01 0.000000000000000000e+00 0.000000000000000000e+00 -1.000000000000000000e+00
-3.523608503358925392e-01 5.990408030167162501e-01 -1.983058961399342679e-01 0.000000000000000000e+00 0.000000000000000000e+00 -1.000000000000000000e+00
-3.591072851143926603e-01 6.618337678227370624e-01 -2.359262666489130300e-01 0.000000000000000000e+00 0.000000000000000000e+00 -1.000000000000000000e+00
-4.157723246498321035e-01 6.938291406735627165e-01 -1.954576028141192245e-01 0.000000000000000000e+00 0.000000000000000000e+00 -1.000000000000000000e+00
-4.098749756682754097e-01 5.225486084317335633e-01 -2.061883776170681803e-01 0.000000000000000000e+00 0.000000000000000000e+00 -1.000000000000000000e+00
-5.126705524183970963e-01 4.901498076789689851e-01 -2.011636291970337054e-01 0.000000000000000000e+00 0.000000000000000000e+00 -1.000000000000000000e+00
-3.425009547260181031e-01 4.696286082503980941e-01 -2.270502446480550107e-01 0.000000000000000000e+00 0.000000000000000000e+00 -1.000000000000000000e+00
-3.683227720082669632e-01 4.764333384908766567e-01 -2.307925795391846391e-01 0.000000000000000000e+00 0.000000000000000000e+00 -1.000000000000000000e+00
-3.756944346864641293e-01 4.389198918153474072e-01 -1.631474075922252076e-01 0.000000000000000000e+00 0.000000000000000000e+00 -1.000000000000000000e+00
-3.293968386685530714e-01 4.274401588559481047e-01 -2.158089138328342371e-01 0.000000000000000000e+00 0.000000000000000000e+00 -1.000000000000000000e+00
-5.171145910987556826e-01 6.656150251253492023e-01 -2.073978522337465158e-01 0.000000000000000000e+00 0.000000000000000000e+00 -1.000000000000000000e+00
-5.690436984359455996e-01 6.855311029440351867e-01 -2.491509472918092827e-01 0.000000000000000000e+00 0.000000000000000000e+00 -1.000000000000000000e+00
-6.124002762724040094e-01 6.801603438204180119e-01 -2.139785238526678846e-01 0.000000000000000000e+00 0.000000000000000000e+00 -1.000000000000000000e+00
-6.124399246634482097e-01 6.141261491820737550e-01 -2.171717353869382361e-01 0.000000000000000000e+00 0.000000000000000000e+00 -1.000000000000000000e+00
4.619021953272645087e-01 3.017838295265704018e-01 -2.029630661621890930e-01 0.000000000000000000e+00 0.000000000000000000e+00 -1.000000000000000000e+00
4.893872449696603510e-01 3.089889528166625543e-01 -2.023496076589264558e-01 0.000000000000000000e+00 0.000000000000000000e+00 -1.000000000000000000e+00
4.722871119896352443e-01 2.539105315199282620e-01 -2.087449114254803506e-01 0.000000000000000000e+00 0.000000000000000000e+00 -1.000000000000000000e+00
5.307798361382521923e-01 2.556036192121520223e-01 -2.044784445910745874e-01 0.000000000000000000e+00 0.000000000000000000e+00 -1.000000000000000000e+00
4.111155294861496001e-01 2.589359755241046335e-01 -1.978370479451577180e-01 0.000000000000000000e+00 0.000000000000000000e+00 -1.000000000000000000e+00
3.903365256615722312e-01 3.416631632507527438e-01 -2.499156108728753378e-01 0.000000000000000000e+00 0.000000000000000000e+00 -1.000000000000000000e+00
6.784545704461322213e-01 2.357661238924875780e-01 -2.431217621204646018e-01 0.000000000000000000e+00 0.000000000000000000e+00 -1.000000000000000000e+00
5.786866648073004660e-01 3.225429842789341861e-01 -2.429923212938192301e-01 0.000000000000000000e+00 0.000000000000000000e+00 -1.000000000000000000e+00
6.174526651408361877e-01 3.210873378626695196e-01 -2.187703606313100568e-01 0.000000000000000000e+00 0.000000000000000000e+00 -1.000000000000000000e+00
5.581695611247794453e-01 3.463584971124722411e-01 -2.049754172380516271e-01 0.000000000000000000e+00 0.000000000000000000e+00 -1.000000000000000000e+00
6.111735292070434866e-01 1.696574910451220941e-01 -1.990911729960882504e-01 0.000000000000000000e+00 0.000000000000000000e+00 -1.000000000000000000e+00
6.197765703714357421e-01 7.436290470263583197e-02 -1.870659616627199096e-01 0.000000000000000000e+00 0.000000000000000000e+00 -1.000000000000000000e+00
5.369230326739967696e-01 1.654368755701106364e-01 -1.863744366907173489e-01 0.000000000000000000e+00 0.000000000000000000e+00 -1.000000000000000000e+00
6.966806146681558953e-01 2.049094112892061587e-02 -1.978104498873337058e-01 0.000000000000000000e+00 0.000000000000000000e+00 -1.000000000000000000e+00
3.033472981431067916e-01 5.823340375522422230e-01 -2.125860758162853581e-01 0.000000000000000000e+00 0.000000000000000000e+00 -1.000000000000000000e+00
3.179263370629861196e-01 5.755356197212393443e-01 -2.211786709188217903e-01 0.000000000000000000e+00 0.000000000000000000e+00 -1.000000000000000000e+00
3.485321847728517497e-01 5.710909310268300620e-01 -2.517602812354419739e-01 0.000000000000000000e+00 0.000000000000000000e+00 -1.000000000000000000e+00
3.036447998403615789e-01 6.889555713695757477e-01 -2.267393639576797959e-01 0.000000000000000000e+00 0.000000000000000000e+00 -1.000000000000000000e+00
3.527410614244239628e-01 6.471216424441167403e-01 -2.047840043109384334e-01 0.000000000000000000e+00 0.000000000000000000e+00 -1.000000000000000000e+00
2.157621560691596052e-01 4.831266431180167853e-01 -2.656012990204821289e-01 0.000000000000000000e+00 0.000000000000000000e+00 -1.000000000000000000e+00
2.938828237508235852e-01 5.163373080872368792e-01 -1.946578567506488389e-01 0.000000000000000000e+00 0.000000000000000000e+00 -1.000000000000000000e+00
3.002728936257345604e-01 4.404519622769356713e-01 -2.139689362993948130e-01 0.000000000000000000e+00 0.000000000000000000e+00 -1.000000000000000000e+00
3.395311153944617910e-01 3.751339577124400138e-01 -2.038269052757577804e-01 0.000000000000000000e+00 0.000000000000000000e+00 -1.000000000000000000e+00
1.312877363087764371e-01 6.333661164249744235e-01 -2.159362355292134550e-01 0.000000000000000000e+00 0.000000000000000000e+00 -1.000000000000000000e+00
1.325582798605254298e-01 5.888945388863314756e-01 -2.444749236536579995e-01 0.000000000000000000e+00 0.000000000000000000e+00 -1.000000000000000000e+00
1.404645492530314232e-01 5.732413793726888196e-01 -2.026240996651309800e-01 0.000000000000000000e+00 0.000000000000000000e+00 -1.000000000000000000e+00
1.567772152673537200e-01 5.181046093702417199e-01 -2.580166122982474608e-01 0.000000000000000000e+00 0.000000000000000000e+00 -1.000000000000000000e+00
8.140286058562469507e-02 5.704942253662838025e-01 -2.241063163721571105e-01 0.000000000000000000e+00 0.000000000000000000e+00 -1.000000000000000000e+00
4.315306356828801926e-02 6.752337997465134301e-01 -1.960505892151801488e-01 0.000000000000000000e+00 0.000000000000000000e+00 -1.000000000000000000e+00
6.123632186928525956e-01 5.147594860466873090e-01 -1.844071001317621750e-01 0.000000000000000000e+00 0.000000000000000000e+00 -1.000000000000000000e+00
6.769048925107306047e-01 5.047766879963238029e-01 -2.145142681767410742e-01 0.000000000000000000e+00 0.000000000000000000e+00 -1.000000000000000000e+00
6.366537017967807133e-01 4.228274154503681714e-01 -2.037048921548548774e-01 0.000000000000000000e+00 0.000000000000000000e+00 -1.000000000000000000e+00
4.146683508614252833e-01 6.756525495021026284e-01 -2.446012036894015806e-01 0.000000000000000000e+00 0.000000000000000000e+00 -1.000000000000000000e+00
4.370964892369093024e-01 6.074891914055551290e-01 -2.315031117709682174e-01 0.000000000000000000e+00 0.000000000000000000e+00 -1.000000000000000000e+00
5.227778715149375977e-01 5.390169368909032421e-01 -1.940642518295557228e-01 0.000000000000000000e+00 0.000000000000000000e+00 -1.000000000000000000e+00
5.288348687264895487e-01 5.634613573069320314e-01 -2.022570257221235346e-01 0.000000000000000000e+00 0.000000000000000000e+00 -1.000000000000000000e+00
3.431456341844149049e-01 7.153967066778568196e-01 -2.116940325398076472e-01 0.000000000000000000e+00 0.000000000000000000e+00 -1.000000000000000000e+00
6.490523183928789130e-01 5.947274844571164287e-01 -2.255965073707121848e-01 0.000000000000000000e+00 0.000000000000000000e+00 -1.000000000000000000e+00
5.872785854169386699e-01 6.941784393937500131e-01 -2.163559431036881642e-01 0.000000000000000000e+00 0.000000000000000000e+00 -1.000000000000000000e+00
5.809513577543645724e-01 6.096222060160404466e-01 -1.898806811921810722e-01 0.000000000000000000e+00 0.000000000000000000e+00 -1.000000000000000000e+00
5.150645706829811710e-01 6.720965900848235863e-01 -1.912833386924751300e-01 0.000000000000000000e+00 0.000000000000000000e+00 -1.000000000000000000e+00
6.478899580391134227e-01 6.204361962972394506e-01 -2.538227067101657131e-01 0.000000000000000000e+00 0.000000000000000000e+00 -1.000000000000000000e+00
5.987711692918336048e-01 6.738503845004849557e-01 -2.198236341187134735e-01 0.000000000000000000e+00 0.000000000000000000e+00 -1.000000000000000000e+00
1.527856067157278286e-01 -4.783549864878000601e-01 -2.426939904419652960e-01 0.000000000000000000e+00 0.000000000000000000e+00 -1.000000000000000000e+00
6.214742128963560847e-02 -5.003525170479851125e-01 -2.146665052202912372e-01 0.000000000000000000e+00 0.000000000000000000e+00 -1.000000000000000000e+00
3.241306847688033010e-02 -3.752301172596085310e-01 -2.386156653506932013e-01 0.000000000000000000e+00 0.000000000000000000e+00 -1.000000000000000000e+00
1.779238058940157130e-01 -6.182239942867404636e-01 -2.266200527290624378e-01 0.000000000000000000e+00 0.000000000000000000e+00 -1.000000000000000000e+00
2.075867343214339578e-01 -6.578901601226310181e-01 -2.102795144800555516e-01 0.000000000000000000e+00 0.000000000000000000e+00 -1.000000000000000000e+00
2.174503507876298924e-01 -5.520003484997703103e-01 -2.121702407219082098e-01 0.000000000000000000e+00 0.000000000000000000e+00 -1.000000000000000000e+00
2.226342486746475391e-01 -5.611823731144199856e-01 -1.853131680240240331e-01 0.000000000000000000e+00 0.000000000000000000e+00 -1.000000000000000000e+00
4.531912930621094515e-02 -5.748169951872413863e-01 -2.283102934996283917e-01 0.000000000000000000e+00 0.000000000000000000e+00 -1.000000000000000000e+00
3.519453224695864857e-02 -5.506166345420367980e-01 -2.673094290504440251e-01 0.000000000000000000e+00 0.000000000000000000e+00 -1.000000000000000000e+00
1.565586233904211200e-01 -7.162711971493106455e-01 -2.058293456628358664e-01 0.000000000000000000e+00 0.000000000000000000e+00 -1.000000000000000000e+00
-3.404413115776634691e-02 -6.264083906227916332e-01 -2.383437298585945052e-01 0.000000000000000000e+00 0.000000000000000000e+00 -1.000000000000000000e+00
2.271180479321371071e-01 -2.824700340694696887e-01 -2.155397704743085840e-01 0.000000000000000000e+00 0.000000000000000000e+00 -1.000000000000000000e+00
2.176009073964374485e-01 -3.520758159565546275e-01 -2.356708731113507649e-01 0.000000000000000000e+00 0.000000000000000000e+00 -1.000000000000000000e+00
2.522988583936185414e-01 -2.557029767371874485e-01 -1.930837890133171031e-01 0.000000000000000000e+00 0.000000000000000000e+00 -1.000000000000000000e+00
4.676592210862107191e-02 -2.841361172966080373e-01 -1.923266811510239982e-01 0.000000000000000000e+00 0.000000000000000000e+00 -1.000000000000000000e+00
6.078361949918467677e-03 -2.098381628202694860e-01 -2.062784877897146651e-01 0.000000000000000000e+00 0.000000000000000000e+00 -1.000000000000000000e+00
8.485320027177961633e-02 -2.837016506333057131e-01 -2.497628998158616387e-01 0.000000000000000000e+00 0.000000000000000000e+00 -1.000000000000000000e+00
1.385646763732444886e-01 -3.536122588197790351e-01 -2.317147809711742612e-01 0.000000000000000000e+00 0.000000000000000000e+00 -1.000000000000000000e+00
1.545434384754991175e-01 -3.387006033027777363e-01 -2.313488479065384518e-01 0.000000000000000000e+00 0.000000000000000000e+00 -1.000000000000000000e+00
1.348841983752586612e-02 -2.874914425998127965e-01 -2.093606889850468944e-01 0.000000000000000000e+00 0.000000000000000000e+00 -1.000000000000000000e+00
9.080731525947943750e-02 -3.383423038844710073e-01 -2.069977966676510572e-01 0.000000000000000000e+00 0.000000000000000000e+00 -1.000000000000000000e+00
1.063045709754917856e-01 -1.633167599723020225e-01 -2.491445113493203356e-01 0.000000000000000000e+00 0.000000000000000000e+00 -1.000000000000000000e+00
1.228701638676428509e-01 -1.581297639805632482e-01 -2.370083212398426953e-01 0.000000000000000000e+00 0.000000000000000000e+00 -1.000000000000000000e+00
1.949756089730914771e-02 -1.209531170376327014e-01 -2.301506287966490205e-01 0.000000000000000000e+00 0.000000000000000000e+00 -1.000000000000000000e+00
8.857158706978897345e-02 -1.703492733643058865e-01 -2.386329752118871161e-01 0.000000000000000000e+00 0.000000000000000000e+00 -1.000000000000000000e+00
1.808185469586218522e-02 -1.348162014438848977e-01 -2.275504830511059506e-01 0.000000000000000000e+00 0.000000000000000000e+00 -1.000000000000000000e+00
4.961292610205610826e-02 -6.785373747110585996e-02 -1.980579721252093695e-01 0.000000000000000000e+00 0.000000000000000000e+00 -1.000000000000000000e+00
9.948550728311094174e-03 -7.239204405307458901e-02 -1.866439293227599161e-01 0.000000000000000000e+00 0.000000000000000000e+00 -1.000000000000000000e+00
3.764397300171935523e-01 -5.953351169510139318e-01 -2.305463935620636895e-01 0.000000000000000000e+00 0.000000000000000000e+00 -1.000000000000000000e+00
3.699028373298197669e-01 -7.082030697469390290e-01 -2.410304594359969355e-01 0.000000000000000000e+00 0.000000000000000000e+00 -1.000000000000000000e+00
4.806057711497716545e-01 -4.852261851288396377e-01 -2.153344284835208844e-01 0.000000000000000000e+00 0.000000000000000000e+00 -1.000000000000000000e+00
4.338829918754786852e-01 -4.893215628667059169e-01 -2.137290903565073064e-01 0.000000000000000000e+00 0.000000000000000000e+00 -1.000000000000000000e+00
3.865098306081739543e-01 -5.191432798384416625e-01 -1.834441647620228821e-01 0.000000000000000000e+00 0.000000000000000000e+00 -1.000000000000000000e+00
4.349342313460118903e-01 -4.218271544911812998e-01 -2.326510407175453321e-01 0.000000000000000000e+00 0.000000000000000000e+00 -1.000000000000000000e+00
3.530719066638178805e-01 -3.802294102534117259e-01 -2.318741394878330031e-01 0.000000000000000000e+00 0.000000000000000000e+00 -1.000000000000000000e+00
5.043672835232340113e-01 -6.298634272241470100e-01 -2.208948117410050038e-01 0.000000000000000000e+00 0.000000000000000000e+00 -1.000000000000000000e+00
5.612516576839768900e-01 -6.758684208226972689e-01 -2.450975799615304762e-01 0.000000000000000000e+00 0.000000000000000000e+00 -1.000000000000000000e+00
6.211750959456897592e-01 -6.420431002161809397e-01 -2.351578315444139700e-01 0.000000000000000000e+00 0.000000000000000000e+00 -1.000000000000000000e+00
5.524151975949217475e-01 -6.107764648267367535e-01 -2.203316775896610180e-01 0.000000000000000000e+00 0.000000000000000000e+00 -1.000000000000000000e+00
6.057337945123736356e-01 -6.754955775926674288e-01 -2.389773265993371254e-01 0.000000000000000000e+00 0.000000000000000000e+00 -1.000000000000000000e+00
5.955299436013105074e-01 -6.785135590074949929e-01 -2.139824633450462255e-01 0.000000000000000000e+00 0.000000000000000000e+00 -1.000000000000000000e+00
6.631850965718074642e-01 -6.677655695731689045e-01 -2.420436734781954979e-01 0.000000000000000000e+00 0.000000000000000000e+00 -1.000000000000000000e+00
-4.847132264903381560e-01 -3.108413259963998532e-01 -2.203741461223842901e-01 0.000000000000000000e+00 0.000000000000000000e+00 -1.000000000000000000e+00
-4.674679510525275306e-01 -2.639717606247773962e-01 -2.126273735906407669e-01 0.000000000000000000e+00 0.000000000000000000e+00 -1.000000000000000000e+00
-5.992473343470214875e-01 -2.510204712804496863e-01 -2.060306399530358323e-01 0.000000000000000000e+00 0.000000000000000000e+00 -1.000000000000000000e+00
-6.775662931991904836e-01 -2.863687281746511437e-01 -2.036304242787443652e-01 0.000000000000000000e+00 0.000000000000000000e+00 -1.000000000000000000e+00
-6.845488140288675805e-01 -3.232365057834895583e-01 -2.573861035017571686e-01 0.000000000000000000e+00 0.000000000000000000e+00 -1.000000000000000000e+00
-5.573454027525571730e-01 -1.751538158631949782e-01 -2.061383104866023885e-01 0.000000000000000000e+00 0.000000000000000000e+00 -1.000000000000000000e+00
-5.433334850325830523e-01 -1.379040084075716377e-01 -2.050758681275820505e-01 0.000000000000000000e+00 0.000000000000000000e+00 -1.000000000000000000e+00
-6.398196934413048487e-01 -1.480138034230002730e-01 -2.106813841262294706e-01 0.000000000000000000e+00 0.000000000000000000e+00 -1.000000000000000000e+00
-7.067178638895251774e-01 -1.722046069156779602e-01 -1.646604542781820446e-01 0.000000000000000000e+00 0.000000000000000000e+00 -1.000000000000000000e+00
-6.962302020150605841e-01 -4.190547621334696216e-02 -2.757268545869269172e-01 0.000000000000000000e+00 0.000000000000000000e+00 -1.000000000000000000e+00
-3.363747476405984926e-01 -5.346654069787775132e-01 -2.281255410123692318e-01 0.000000000000000000e+00 0.000000000000000000e+00 -1.000000000000000000e+00
-2.658630193352705118e-01 -6.281832855933227044e-01 -2.474191091368939388e-01 0.000000000000000000e+00 0.000000000000000000e+00 -1.000000000000000000e+00
-1.645243651908337712e-01 -6.663955840282571597e-01 -2.101457032165248429e-01 0.000000000000000000e+00 0.000000000000000000e+00 -1.000000000000000000e+00
-3.062446179153064385e-01 -7.030108513942089354e-01 -2.321018310961045494e-01 0.000000000000000000e+00 0.000000000000000000e+00 -1.000000000000000000e+00
-3.602019921839011984e-01 -6.412249637076672393e-01 -1.888574241961952227e-01 0.000000000000000000e+00 0.000000000000000000e+00 -1.000000000000000000e+00
-2.975164501213317103e-01 -5.034664530304375774e-01 -1.912868172849411519e-01 0.000000000000000000e+00 0.000000000000000000e+00 -1.000000000000000000e+00
-1.668158589123703572e-01 -5.119753997895174491e-01 -1.868391736181261864e-01 0.000000000000000000e+00 0.000000000000000000e+00 -1.000000000000000000e+00
-3.248023326612874961e-01 -4.676644286744598977e-01 -2.214740606850429394e-01 0.000000000000000000e+00 0.000000000000000000e+00 -1.000000000000000000e+00
-2.839979883452290466e-01 -4.960866047874581963e-01 -2.313689815393477622e-01 0.000000000000000000e+00 0.000000000000000000e+00 -1.000000000000000000e+00
-3.296783717548157355e-01 -5.067327946776266634e-01 -2.309391568528329497e-01 0.000000000000000000e+00 0.000000000000000000e+00 -1.000000000000000000e+00
-2.924069189481681152e-01 -4.129277398836578294e-01 -1.956212674434148757e-01 0.000000000000000000e+00 0.000000000000000000e+00 -1.000000000000000000e+00
-3.123607723235618527e-01 -4.316845552983423762e-01 -1.894302920962649683e-01 0.000000000000000000e+00 0.000000000000000000e+00 -1.000000000000000000e+00
-3.175963840926306903e-01 -3.847078662853916087e-01 -2.276100511076284694e-01 0.000000000000000000e+00 0.000000000000000000e+00 -1.000000000000000000e+00
-1.581500051879328739e-01 -6.026153471656264804e-01 -2.017507639067747660e-01 0.000000000000000000e+00 0.000000000000000000e+00 -1.000000000000000000e+00
-1.985364968900098781e-01 -6.658464763472262682e-01 -2.111956309741288562e-01 0.000000000000000000e+00 0.000000000000000000e+00 -1.000000000000000000e+00
-2.003675398077882919e-01 -5.429737449709315378e-01 -2.247591147089212094e-01 0.000000000000000000e+00 0.000000000000000000e+00 -1.000000000000000000e+00
-6.385222384630317993e-02 -6.488450931502032226e-01 -1.961641254743539398e-01 0.000000000000000000e+00 0.000000000000000000e+00 -1.000000000000000000e+00
-6.095392531945119652e-01 -4.800487549273386167e-01 -2.122662161122391145e-01 0.000000000000000000e+00 0.000000000000000000e+00 -1.000000000000000000e+00
-6.850899802417649287e-01 -4.760256969222865231e-01 -2.169958139538584185e-01 0.000000000000000000e+00 0.000000000000000000e+00 -1.000000000000000000e+00
-6.651625328114391111e-01 -5.576992399280008561e-01 -2.250262172372026193e-01 0.000000000000000000e+00 0.000000000000000000e+00 -1.000000000000000000e+00
-6.140555975175909786e-01 -4.141573866788100244e-01 -2.090863817261139901e-01 0.000000000000000000e+00 0.000000000000000000e+00 -1.000000000000000000e+00
-5.127153272781288518e-01 -6.090935162722833640e-01 -2.335406274808941307e-01 0.000000000000000000e+00 0.000000000000000000e+00 -1.000000000000000000e+00
-4.611704696263577707e-01 -5.472438635161570586e-01 -2.112036641489560551e-01 0.000000000000000000e+00 0.000000000000000000e+00 -1.000000000000000000e+00
-4.766179169509740521e-01 -5.934842531111244046e-01 -2.360076965673780225e-01 0.000000000000000000e+00 0.000000000000000000e+00 -1.000000000000000000e+00
-5.126541163476325824e-01 -5.268989658040488244e-01 -1.868463443928178869e-01 0.000000000000000000e+00 0.000000000000000000e+00 -1.000000000000000000e+00
-6.045221546308596761e-01 -6.018285099213201983e-01 -2.255424558823581060e-01 0.000000000000000000e+00 0.000000000000000000e+00 -1.000000000000000000e+00
-7.117579564637789291e-01 -6.087763287306133808e-01 -2.189111710179919568e-01 0.000000000000000000e+00 0.000000000000000000e+00 -1.000000000000000000e+00
-6.101519632187722975e-01 -6.546947584401627829e-01 -2.048564165890381650e-01 0.000000000000000000e+00 0.000000000000000000e+00 -1.000000000000000000e+00
-6.822169325237520399e-01 -6.148409049797560755e-01 -2.147720989224309041e-01 0.000000000000000000e+00 0.000000000000000000e+00 -1.000000000000000000e+00
-2.245150392695791364e-01 3.358640239311157238e-02 -1.713294853861170863e-01 0.000000000000000000e+00 0.000000000000000000e+00 -1.000000000000000000e+00
-1.642086907828257392e-01 1.655042485441079181e-01 -1.771878094168733986e-01 0.000000000000000000e+00 0.000000000000000000e+00 -1.000000000000000000e+00
-2.958823826180770333e-01 2.048060308288230102e-01 -2.200088005704686211e-01 0.000000000000000000e+00 0.000000000000000000e+00 -1.000000000000000000e+00
-2.982962939181569850e-01 2.701287843798900190e-01 -2.000475085962766797e-01 0.000000000000000000e+00 0.000000000000000000e+00 -1.000000000000000000e+00
-3.617426856216927611e-01 3.369282282196976452e-01 -2.173059308832908654e-01 0.000000000000000000e+00 0.000000000000000000e+00 -1.000000000000000000e+00
-1.559003363454048441e-01 -6.818272477245784779e-03 -2.225299612129962301e-01 0.000000000000000000e+00 0.000000000000000000e+00 -1.000000000000000000e+00
-1.766963841999740492e-01 1.183716084155859022e-01 -2.116800838773210125e-01 0.000000000000000000e+00 0.000000000000000000e+00 -1.000000000000000000e+00
-3.248782648013339575e-02 5.419446804081662350e-02 -2.607730410831485823e-01 0.000000000000000000e+00 0.000000000000000000e+00 -1.000000000000000000e+00
-5.466123024277783626e-01 1.862419923592813220e-01 -1.845011587579982182e-01 0.000000000000000000e+00 0.000000000000000000e+00 -1.000000000000000000e+00
-6.575865094538377864e-01 2.802415967050063128e-01 -2.430196603904998531e-01 0.000000000000000000e+00 0.000000000000000000e+00 -1.000000000000000000e+00
-6.956554320403884883e-01 3.520188093134289931e-01 -2.550120132662176409e-01 0.000000000000000000e+00 0.000000000000000000e+00 -1.000000000000000000e+00
-4.632128908901626541e-01 4.819526426621040249e-02 -2.294106460563362926e-01 0.000000000000000000e+00 0.000000000000000000e+00 -1.000000000000000000e+00
-3.969388780903417291e-01 7.935738883332872640e-02 -1.884070037772707373e-01 0.000000000000000000e+00 0.000000000000000000e+00 -1.000000000000000000e+00
-6.363601476031723880e-01 9.107613334000687344e-02 -2.088990719395635298e-01 0.000000000000000000e+00 0.000000000000000000e+00 -1.000000000000000000e+00
-7.207724521065030920e-01 -9.299683252510666451e-03 -1.816089719653629364e-01 0.000000000000000000e+00 0.000000000000000000e+00 -1.000000000000000000e+00
-4.792411996647194528e-01 3.828878170072373410e-01 -1.965498515119844802e-01 0.000000000000000000e+00 0.000000000000000000e+00 -1.000000000000000000e+00
-4.897381373053402709e-01 4.115947171742502797e-01 -2.151275448680267099e-01 0.000000000000000000e+00 0.000000000000000000e+00 -1.000000000000000000e+00
-4.648939354934873980e-01 4.173993882465848460e-01 -1.712460527653803244e-01 0.000000000000000000e+00 0.000000000000000000e+00 -1.000000000000000000e+00
-3.764072830845490159e-01 3.115606202629690458e-01 -2.407414174329824963e-01 0.000000000000000000e+00 0.000000000000000000e+00 -1.000000000000000000e+00
-4.204182465681077785e-01 4.112068604057327326e-01 -2.173337567691547567e-01 0.000000000000000000e+00 0.000000000000000000e+00 -1.000000000000000000e+00
-6.408339300271429506e-01 4.053517643251435265e-01 -1.988089659977902435e-01 0.000000000000000000e+00 0.000000000000000000e+00 -1.000000000000000000e+00
-6.807957493575905739e-01 5.015762684112669012e-01 -2.473701195252900054e-01 0.000000000000000000e+00 0.000000000000000000e+00 -1.000000000000000000e+00
-5.219411528949403634e-01 3.795499145948543207e-01 -1.782361293535674462e-01 0.000000000000000000e+00 0.000000000000000000e+00 -1.000000000000000000e+00
-6.559310290073948613e-01 3.879969385651419467e-01 -2.107353678070806868e-01 0.000000000000000000e+00 0.000000000000000000e+00 -1.000000000000000000e+00
-6.369502282762098400e-01 4.947021718578992200e-01 -2.028201653407052940e-01 0.000000000000000000e+00 0.000000000000000000e+00 -1.000000000000000000e+00
-6.498250505240255048e-01 5.382604911215778110e-01 -2.331648480919791544e-01 0.000000000000000000e+00 0.000000000000000000e+00 -1.000000000000000000e+00
-6.894305089491344907e-01 6.621067434860978818e-01 -1.698015979539281295e-01 0.000000000000000000e+00 0.000000000000000000e+00 -1.000000000000000000e+00
5.206490234628802227e-01 2.702573168787940627e-01 6.047570254840459875e-03 8.165096369044591018e-01 0.000000000000000000e+00 5.773318048073814435e-01
4.559879444243692959e-01 4.035397106168516768e-01 4.322649439806082461e-02 8.165088516266298946e-01 0.000000000000000000e+00 5.773329154096118465e-01
4.773546182798059645e-01 4.494229018417638666e-01 7.210254992994728773e-02 8.165088516266298946e-01 0.000000000000000000e+00 5.773329154096118465e-01
3.952640302178985210e-01 2.735529130115682550e-01 1.988402381136722963e-01 8.164660847728842930e-01 0.000000000000000000e+00 5.773933948493327195e-01
4.033455899555354884e-01 3.861680411135742785e-01 1.964001652391860198e-01 8.164660847728842930e-01 0.000000000000000000e+00 5.773933948493327195e-01
3.918663905826364480e-01 3.733266618603932052e-01 1.886653044593661066e-01 8.164839012417077768e-01 0.000000000000000000e+00 5.773682005558682384e-01
3.561002885243733096e-01 3.542895512754673515e-01 2.615366856301266640e-01 8.164831491978573608e-01 0.000000000000000000e+00 5.773692640554650701e-01
6.388241257283262531e-01 2.441713463574132770e-01 -1.467375164379886854e-01 8.164841671414885260e-01 0.000000000000000000e+00 5.773678245341266058e-01
6.485122771916399520e-01 2.546444678002535156e-01 -1.499444175381159650e-01 8.164841671414885260e-01 0.000000000000000000e+00 5.773678245341267168e-01
6.155899001807367821e-01 2.830992263427121181e-01 -1.178061788497796331e-01 8.165096036701130489e-01 0.000000000000000000e+00 5.773318518100962748e-01
6.827617205516741672e-01 2.290209492959065785e-01 -1.635077431242793200e-01 8.164841671414885260e-01 0.000000000000000000e+00 5.773678245341266058e-01
6.651834801494271865e-01 2.238651142554093365e-01 -2.146396316961623196e-01 8.164841671414885260e-01 0.000000000000000000e+00 5.773678245341266058e-01
6.640125057357065819e-01 3.400091664847810780e-01 -1.304021039003162574e-01 8.164841671414885260e-01 0.000000000000000000e+00 5.773678245341267168e-01
6.918657022165922710e-01 2.872954864079465542e-01 -2.145694138532643347e-01 8.164841671414885260e-01 0.000000000000000000e+00 5.773678245341267168e-01
5.309335118758967687e-01 1.242782615530477197e-01 5.118682316970612350e-03 8.165095704357588913e-01 0.000000000000000000e+00 5.773318988128168794e-01
6.365835402683149846e-01 1.134996831671252759e-01 -1.450323439772161216e-01 8.164841671414884150e-01 0.000000000000000000e+00 5.773678245341266058e-01
6.604992017506355895e-01 1.195935683911916458e-01 -1.742477495350162886e-01 8.164841671414885260e-01 0.000000000000000000e+00 5.773678245341266058e-01
6.031006849472804188e-01 6.940737755669498799e-02 -1.328639190825797178e-01 8.165096036701130489e-01 0.000000000000000000e+00 5.773318518100962748e-01
6.986580994008186885e-01 8.944717904597077052e-02 -1.756158308932648793e-01 8.164841671414884150e-01 0.000000000000000000e+00 5.773678245341266058e-01
5.823636443454615064e-01 4.679717156364734398e-01 -9.978762128933145459e-02 8.164917888923710620e-01 0.000000000000000000e+00 5.773570460913557412e-01
5.879897149458309658e-01 5.119419094712598373e-01 -3.259496040013456358e-02 8.164917888923710620e-01 0.000000000000000000e+00 5.773570460913557412e-01
5.724568358949733149e-01 5.500822899103486874e-01 -4.552535774938283597e-02 8.165095704357587802e-01 0.000000000000000000e+00 5.773318988128167684e-01
5.319027391489264955e-01 5.424851441803403285e-01 -2.882643268552458754e-03 8.165080995831467403e-01 0.000000000000000000e+00 5.773339790061886578e-01
6.124276019702890039e-01 4.311801734708716194e-01 -1.390123219324318760e-01 8.164841671414884150e-01 0.000000000000000000e+00 5.773678245341266058e-01
6.670950562161305220e-01 4.126326614403796889e-01 -1.902640313841832409e-01 8.164841671414885260e-01 0.000000000000000000e+00 5.773678245341267168e-01
6.314657716201956816e-01 5.684494194283112867e-01 -1.584762502698221220e-01 8.164841671414884150e-01 0.000000000000000000e+00 5.773678245341266058e-01
6.883386369529113091e-01 6.638025126102228279e-01 -2.154758543977277896e-01 8.164841671414884150e-01 0.000000000000000000e+00 5.773678245341266058e-01
7.039188486799009548e-01 6.335138037002192579e-01 -2.311760182783680895e-01 8.164841671414884150e-01 0.000000000000000000e+00 5.773678245341266058e-01
3.004463644813453738e-01 -1.060498206960986539e-01 2.879294804729170543e-01 8.165097366074486329e-01 0.000000000000000000e+00 5.773316637992714773e-01
3.585956663508461650e-01 -1.626654685826424418e-01 3.091965030570029138e-01 8.164660847728841819e-01 0.000000000000000000e+00 5.773933948493327195e-01
3.241106397248914028e-01 -5.933840583517288603e-02 3.130488828250212463e-01 8.164660847728842930e-01 0.000000000000000000e+00 5.773933948493327195e-01
3.704520218366144646e-01 -1.293226576206504830e-02 2.595475630883655738e-01 8.164660847728841819e-01 0.000000000000000000e+00 5.773933948493327195e-01
2.399159773263836171e-01 -2.034586323646588868e-01 3.815677157056520108e-01 8.165093605858907422e-01 0.000000000000000000e+00 5.773321955993966359e-01
2.625776462582064541e-01 -1.710811861174946769e-01 3.931930288814923236e-01 8.165093605858907422e-01 0.000000000000000000e+00 5.773321955993966359e-01
1.975274642522001911e-01 -1.024526357770934037e-01 4.750260171384513286e-01 8.164380874503073260e-01 0.000000000000000000e+00 5.774329825706913111e-01
2.571384334091824098e-01 -2.261490196344405623e-01 3.388659545032985387e-01 8.165089845643328514e-01 0.000000000000000000e+00 5.773327273987870489e-01
3.217074548138563195e-01 -2.612156073802289202e-01 3.816543783154860425e-01 8.165089845643328514e-01 0.000000000000000000e+00 5.773327273987870489e-01
3.182569320349213360e-01 8.804036121811022186e-02 3.761307153723248420e-01 8.165093605858907422e-01 0.000000000000000000e+00 5.773321955993966359e-01
2.714360502924675345e-01 2.362900175712924766e-01 4.482931704274180640e-01 8.165093605858907422e-01 0.000000000000000000e+00 5.773321955993966359e-01
3.236038036065522205e-01 9.231030874540346876e-02 2.740456564384630700e-01 8.164660847728841819e-01 0.000000000000000000e+00 5.773933948493327195e-01
3.682251801209805442e-01 1.451903538487440970e-01 3.045375856311427487e-01 8.164660847728841819e-01 0.000000000000000000e+00 5.773933948493327195e-01
3.124836781192996127e-01 5.853172672315944125e-02 3.591195024692702686e-01 8.165089845643328514e-01 0.000000000000000000e+00 5.773327273987870489e-01
2.931559265564745997e-01 1.120176555759706399e-01 3.257205429662740626e-01 8.165089845643328514e-01 0.000000000000000000e+00 5.773327273987870489e-01
3.529786013812211687e-01 8.148185742200905746e-02 2.706387404314129497e-01 8.164660847728842930e-01 0.000000000000000000e+00 5.773933948493327195e-01
3.788886877384663454e-01 1.778006193245155325e-02 2.754006551773006684e-01 8.164660847728841819e-01 0.000000000000000000e+00 5.773933948493327195e-01
2.953883956086564844e-01 2.442553639727211567e-01 3.130576603725903628e-01 8.165089845643328514e-01 0.000000000000000000e+00 5.773327273987870489e-01
2.927207442477812172e-01 3.201274426296684683e-01 3.389740340118015394e-01 8.165089845643327404e-01 0.000000000000000000e+00 5.773327273987869379e-01
3.286061570951676059e-01 2.072007484653268228e-01 2.821186473085914859e-01 8.164660847728841819e-01 0.000000000000000000e+00 5.773933948493327195e-01
1.738968289177714177e-01 -3.386486614135568451e-02 5.037081900482468511e-01 8.165274388786518678e-01 0.000000000000000000e+00 5.773066269828101005e-01
1.307002860537284372e-01 -3.714426413061090726e-02 5.603769737721692179e-01 8.163946074968400080e-01 0.000000000000000000e+00 5.774944543890274673e-01
6.672443235500530312e-02 -9.101428255027688152e-02 6.173803510282018792e-01 8.165022471078503541e-01 0.000000000000000000e+00 5.773422559174331559e-01
1.811302372036338593e-01 -1.058582746192168328e-01 4.984307211183735542e-01 8.165274388786518678e-01 0.000000000000000000e+00 5.773066269828099895e-01
1.553719074143846690e-01 -9.386796673209168995e-02 5.509702782772478713e-01 8.165192613526768284e-01 0.000000000000000000e+00 5.773181928885309233e-01
1.033155600038996591e-01 1.035954041794113073e-01 5.885745075893626943e-01 8.163946074968400080e-01 0.000000000000000000e+00 5.774944543890274673e-01
1.558222554835948792e-01 7.912109283195202514e-02 4.701646031901957068e-01 8.165274388786518678e-01 0.000000000000000000e+00 5.773066269828101005e-01
1.544548224523402957e-01 1.128452412345303940e-01 5.668340977407460013e-01 8.165274388786518678e-01 0.000000000000000000e+00 5.773066269828101005e-01
1.545021825948519056e-01 3.763850399826211557e-02 6.023960663557208495e-01 8.165192613526768284e-01 0.000000000000000000e+00 5.773181928885309233e-01
1.471793945500841361e-01 1.624548693011946404e-03 5.320056413003652063e-01 8.165274388786519788e-01 0.000000000000000000e+00 5.773066269828101005e-01
4.898849365983136417e-02 -1.314164713114523465e-02 6.216226302049472352e-01 8.165192613526768284e-01 0.000000000000000000e+00 5.773181928885309233e-01
6.260754728453350737e-02 -6.084226045470171595e-02 6.847871061195716091e-01 8.165202306794413500e-01 0.000000000000000000e+00 5.773168219367870169e-01
6.110354846290303454e-01 -1.771698843938947499e-01 -8.399606819466493013e-02 8.165080995831466293e-01 0.000000000000000000e+00 5.773339790061886578e-01
6.323999962489430526e-01 -2.627901471999882776e-01 -1.294792534564401798e-01 8.165096036701130489e-01 0.000000000000000000e+00 5.773318518100962748e-01
6.799970938006112409e-01 -2.518768014285540646e-01 -1.854356692961282027e-01 8.164841671414885260e-01 0.000000000000000000e+00 5.773678245341267168e-01
6.473108228079630377e-01 -2.741601127068855615e-01 -1.624252808532371528e-01 8.164841671414885260e-01 0.000000000000000000e+00 5.773678245341267168e-01
6.965542942201018439e-01 -1.460704822672561909e-01 -2.182727837952109784e-01 8.164841671414885260e-01 0.000000000000000000e+00 5.773678245341266058e-01
4.967869700955407364e-01 -3.429497752230805663e-01 3.983029293660404757e-02 8.165096369044591018e-01 0.000000000000000000e+00 5.773318048073814435e-01
4.639226071671677110e-01 -3.962452066135474515e-01 9.727126546250451644e-02 8.165096036701130489e-01 0.000000000000000000e+00 5.773318518100962748e-01
4.665543853992067946e-01 -4.023987966815546491e-01 1.720653916872555977e-01 8.164839012417077768e-01 0.000000000000000000e+00 5.773682005558682384e-01
5.298023628055253953e-01 -4.560835464013580087e-01 3.449431162004937962e-02 8.165096369044591018e-01 0.000000000000000000e+00 5.773318048073814435e-01
4.739947544183933936e-01 -5.016470094033055327e-01 1.024023833239004755e-01 8.165088516266298946e-01 0.000000000000000000e+00 5.773329154096118465e-01
5.484925772787611065e-01 -4.268019064648894689e-01 6.674461057230739180e-02 8.165096369044591018e-01 0.000000000000000000e+00 5.773318048073814435e-01
4.997270515576826000e-01 -2.945602058556604508e-01 5.024693246966194932e-02 8.165096369044591018e-01 0.000000000000000000e+00 5.773318048073814435e-01
4.904928008920074189e-01 -2.953201055578926759e-01 6.551119709993036277e-02 8.165088516266298946e-01 0.000000000000000000e+00 5.773329154096118465e-01
4.982129398743219140e-01 -2.868280505419482096e-01 6.650551879880155920e-03 8.165096369044591018e-01 0.000000000000000000e+00 5.773318048073814435e-01
4.742046757909070265e-01 -1.998057610710171628e-01 8.080107782241041647e-02 8.165088516266298946e-01 0.000000000000000000e+00 5.773329154096118465e-01
3.838968047377540604e-01 -3.776807391797549762e-01 1.553781314495785160e-01 8.164660847728842930e-01 0.000000000000000000e+00 5.773933948493327195e-01
4.185804682200831572e-01 -3.876012829732549125e-01 1.742510550855398965e-01 8.164839012417077768e-01 0.000000000000000000e+00 5.773682005558681274e-01
3.877657914400152173e-01 -2.616128722987625110e-01 1.656281742229922804e-01 8.164660847728842930e-01 0.000000000000000000e+00 5.773933948493327195e-01
