4.647064386896361254e-01 1.657033999269500457e-01 -4.885228431471991817e-01 -1.558567143161589674e-01 -2.710030421679796575e-01 -9.498768529331954591e-01
4.743766446990512753e-01 1.377464144336609242e-01 -4.680994312435322047e-01 -1.527656511008964324e-01 -2.687645130669764626e-01 -9.510143491870088894e-01
4.385436913634829237e-01 1.195602020003690841e-01 -4.658789466159891646e-01 -1.527656511008964324e-01 -2.687645130669764626e-01 -9.510143491870088894e-01
4.500002470565755419e-01 1.224345905791967004e-01 -5.075063873251879354e-01 5.547919634419307827e-02 -3.113527391961397606e-01 -9.486735637552377032e-01
4.532107035918567783e-01 1.056881580677116877e-01 -4.654229972160228712e-01 2.668378888606512400e-01 -3.341469761807998595e-01 -9.039598107093140822e-01
4.074038352891368731e-01 1.373087038878779698e-01 -4.815398604753058365e-01 2.668378888606512400e-01 -3.341469761807998595e-01 -9.039598107093140822e-01
4.093110344592884586e-01 1.414629967131099952e-01 -4.732756576214704469e-01 2.716662844302992763e-01 -3.288343968132945161e-01 -9.044696619435460549e-01
4.099339859778364237e-01 1.352527698542471124e-01 -4.748354628763353791e-01 2.716662844302992763e-01 -3.288343968132945161e-01 -9.044696619435460549e-01
3.187791850965092655e-01 1.097791973396796961e-01 -4.917213243434388481e-01 4.648220351410617956e-01 -3.359869957881812530e-01 -8.191783775885165264e-01
3.635709541408414514e-01 9.956646464051824297e-02 -4.655658970109239347e-01 6.416069634475346506e-01 -3.268672520626660916e-01 -6.939007882865068089e-01
3.606107946760784277e-01 1.479612659551951814e-01 -4.738822540083903467e-01 6.416069634475346506e-01 -3.268672520626660916e-01 -6.939007882865068089e-01
3.867942431206591869e-01 1.388125988141500067e-01 -5.404049224275040419e-01 6.406015946360761326e-01 -3.282401985001878186e-01 -6.941815101529813514e-01
3.416386990001786805e-01 1.826624825992401169e-01 -5.282792570279075672e-01 7.873107693202333612e-01 -3.037600356550677061e-01 -5.365366653372483086e-01
2.824349209344020895e-01 1.606824123477101629e-01 -5.932878576595393971e-01 7.860222754954853119e-01 -3.057267418629583955e-01 -5.373082371737469831e-01
2.858524595691541159e-01 1.331315222354570449e-01 -5.621098327111369031e-01 7.860222754954853119e-01 -3.057267418629583955e-01 -5.373082371737469831e-01
4.954031948885279091e-01 1.159116782186913053e-01 -4.532894546790057766e-01 -2.194376357960615420e-01 -5.266238521811427153e-01 -8.212882820971750819e-01
4.896186410896560814e-01 8.232819758739876037e-02 -4.642449058537728712e-01 -2.198788612454660174e-01 -5.268013569552182362e-01 -8.210564028661719860e-01
4.730556870286097837e-01 1.288883376993036067e-01 -4.555144185896603526e-01 -1.594165022024103193e-02 -5.899181031465673408e-01 -8.073057013103592805e-01
4.498727075075906745e-01 1.266554198153883870e-01 -4.820793521323841202e-01 -1.594165022024103193e-02 -5.899181031465673408e-01 -8.073057013103592805e-01
4.239304053482536583e-01 1.132013833888570048e-01 -4.190726273267706414e-01 -1.227233776733260492e-02 -5.877401904560919377e-01 -8.089566479412610978e-01
4.621660431025234606e-01 1.413512113929974723e-01 -4.707713953784370964e-01 1.958952520189090607e-01 -6.231161163149205873e-01 -7.571996802858930176e-01
3.828918551196433540e-01 1.366614204093798135e-01 -5.022079397143794921e-01 1.958952520189090607e-01 -6.231161163149205873e-01 -7.571996802858930176e-01
3.937981941817881304e-01 1.079167584125959312e-01 -4.055885631972955263e-01 1.905217658193721908e-01 -6.272192665235369891e-01 -7.551804078832716760e-01
4.087029672897065646e-01 1.132493196985656231e-01 -4.604011413697108313e-01 3.891013945838335264e-01 -6.343788361268328790e-01 -6.679547866489775609e-01
3.922057185100212839e-01 1.063515584109661072e-01 -4.735948234431454074e-01 3.911173551550621297e-01 -6.325475907429544131e-01 -6.685138442409347403e-01
3.390655959229904592e-01 1.218292614626651088e-01 -5.412127739675491878e-01 3.911173551550621297e-01 -6.325475907429544131e-01 -6.685138442409347403e-01
3.279095990015654660e-01 1.383723006248287479e-01 -5.230066521155308790e-01 5.683591208553450125e-01 -6.103490529842112711e-01 -5.517625787073781041e-01
3.960531247592331550e-01 9.550476919776934581e-02 -5.045728033549663483e-01 5.677378491785434189e-01 -6.109966808247264680e-01 -5.516854091158192031e-01
2.933626252183720862e-01 7.784009840023634053e-02 -5.008073677085315145e-01 5.677378491785434189e-01 -6.109966808247264680e-01 -5.516854091158192031e-01
3.428941185509036815e-01 1.594060298247027829e-01 -5.428555529566211346e-01 7.201652944467764605e-01 -5.604473770114939413e-01 -4.089751658417953295e-01
3.598555502315158861e-01 1.239178872605102982e-01 -5.177880353976598293e-01 7.207033392039171593e-01 -5.597906967213299723e-01 -4.089267327096280935e-01
3.422947510300570206e-01 1.692500004374600242e-01 -5.523886073071166969e-01 7.740735729057832692e-01 1.979481693070707926e-01 -6.013539939144449953e-01
3.474022067271631542e-01 2.319893247142647275e-01 -5.199481852562959361e-01 7.740735729057832692e-01 1.979481693070707926e-01 -6.013539939144449953e-01
3.278489049950710221e-01 2.616851086337012022e-01 -4.999996307745319113e-01 7.743230690605182875e-01 2.013376892683412800e-01 -5.999057589328384843e-01
3.469388818667070717e-01 1.540011475724201162e-01 -4.976437476099947466e-01 6.436682309684836900e-01 1.133721427919166386e-01 -7.568605985785440415e-01
3.492949043119788488e-01 2.311887917607883813e-01 -4.892557970582405158e-01 6.432303745773245707e-01 1.100680289927688238e-01 -7.577200764231877272e-01
3.658985937629911089e-01 2.528000316996819596e-01 -5.234638257965217312e-01 4.829208933119161773e-01 1.720049455246655881e-02 -8.754950335609971157e-01
3.882544981904217374e-01 1.951882819375625189e-01 -5.532446909170526395e-01 4.829208933119161773e-01 1.720049455246655881e-02 -8.754950335609971157e-01
3.428783530355612452e-01 2.513048067747324921e-01 -5.112908858196124617e-01 4.829209143330626119e-01 1.720060329106945854e-02 -8.754950198294345620e-01
4.449106661120063588e-01 2.351605546608962760e-01 -4.998241333009865173e-01 2.953438619408241261e-01 -7.804477014876268215e-02 -9.521979925762846797e-01
4.053144356578347041e-01 3.204604383388310884e-01 -4.213508640566151486e-01 2.963432573891151001e-01 -7.435824778943279922e-02 -9.521825060279640596e-01
4.499907144247058399e-01 2.449877857261589242e-01 -4.696954051344760517e-01 2.963432573891151001e-01 -7.435824778943279922e-02 -9.521825060279640596e-01
4.098789914805960333e-01 2.623790178554327723e-01 -4.779267083877577482e-01 9.745532345388224771e-02 -1.647701609380971266e-01 -9.815056056869633228e-01
3.803542082601147900e-01 2.674567403822130651e-01 -5.350509758738504207e-01 9.629419295843448523e-02 -1.678568148573492680e-01 -9.810970992253669198e-01
3.188158705776908963e-01 2.318016265355047623e-01 -5.735389486379174340e-01 6.358418365156106589e-01 4.690232677015041540e-01 -6.129619346183403650e-01
3.203502957710230303e-01 2.503579700437696953e-01 -5.250290445232500547e-01 6.358418365156106589e-01 4.690232677015041540e-01 -6.129619346183403650e-01
3.586249730783797607e-01 2.544962890252177590e-01 -5.620105541752382639e-01 6.358466698919210680e-01 4.694546831802877684e-01 -6.126265688226801842e-01
2.963333930109887104e-01 2.197213097089027733e-01 -5.594854911299381728e-01 4.934557833111100633e-01 4.017828529017174466e-01 -7.714090542837669373e-01
3.453262913636399589e-01 2.398774097284232798e-01 -5.551909888631091361e-01 4.934557833111100633e-01 4.017828529017174466e-01 -7.714090542837669373e-01
3.138374881329101806e-01 2.543211905623555813e-01 -5.169029085508723975e-01 4.934557833111100633e-01 4.017828529017174466e-01 -7.714090542837669373e-01
3.557737932111484924e-01 2.706843286785459712e-01 -5.343566939512245373e-01 4.933093133931075180e-01 3.987860831553366459e-01 -7.730560013357673510e-01
3.015955597717454029e-01 2.628004066518147552e-01 -5.043163358025276599e-01 3.303157502470169815e-01 3.134019262244813753e-01 -8.903205814635168913e-01
3.627545181572537358e-01 2.499872661813387908e-01 -5.309301803708610379e-01 3.303165819294658911e-01 3.134116242839847244e-01 -8.903168590261048010e-01
3.628979704404284301e-01 2.924963745958786276e-01 -4.468699850524898154e-01 1.487479200827548920e-01 2.114732910213176220e-01 -9.659985007522876588e-01
3.823064888298538522e-01 3.030786213842303067e-01 -5.015468185149876135e-01 1.487479200827548920e-01 2.114732910213176220e-01 -9.659985007522876588e-01
3.948950821303121028e-01 3.085969376032185463e-01 -4.972105012834953652e-01 1.489884139250956807e-01 2.131869139742169905e-01 -9.655846893081073690e-01
4.226386973238790423e-01 2.884249788326454511e-01 -5.508398710278357147e-01 -4.147036997304374278e-02 9.988386664806188364e-02 -9.941345088053884504e-01
4.098150583074014475e-01 2.895407510190441402e-01 -5.112958008160874979e-01 -4.161490250016531417e-02 9.919611324397249741e-02 -9.941973300141128123e-01
2.849878114699342380e-01 2.275312578002694208e-01 -5.405481566187014808e-01 4.663680829933162797e-01 7.034338330308912424e-01 -5.363596309498018799e-01
2.907925538328969828e-01 2.950544935634951682e-01 -5.455193079948746915e-01 4.663680829933162797e-01 7.034338330308912424e-01 -5.363596309498018799e-01
2.980398365417559758e-01 3.235150608351907708e-01 -5.399479129253511589e-01 4.663285877225710196e-01 7.006484977156755001e-01 -5.400271575776901534e-01
3.570429509369880128e-01 2.822865995723302657e-01 -5.663252064232475735e-01 4.663285877225710196e-01 7.006484977156755001e-01 -5.400271575776901534e-01
3.327175803983999369e-01 2.781498989352489959e-01 -5.427640854562262307e-01 3.099708689686435648e-01 6.524785191629398629e-01 -6.915127203614993556e-01
3.025107484035937655e-01 2.703499915320357050e-01 -5.081229697911686660e-01 3.100247327221622995e-01 6.567048302100643165e-01 -6.874761312797138535e-01
3.414034001994463163e-01 2.765483008093130302e-01 -5.014823106619046289e-01 1.392966542171544808e-01 5.766804043436689620e-01 -8.050069275291542592e-01
3.591217162483567038e-01 3.488937959579025971e-01 -4.721256136303750295e-01 1.392753287919670235e-01 5.757135957780928903e-01 -8.057023261888649479e-01
3.398493180190267915e-01 2.918547917460201369e-01 -4.727473326093550310e-01 1.392753287919670235e-01 5.757135957780928903e-01 -8.057023261888649479e-01
4.105543040351611883e-01 2.837242998883955925e-01 -4.914089347634402749e-01 -3.591285441394675287e-02 4.680160334571165648e-01 -8.829899542548089730e-01
3.912961717245055926e-01 2.614853433648403058e-01 -5.033365426787875796e-01 -3.591285441394675287e-02 4.680160334571165648e-01 -8.829899542548089730e-01
4.224734182614980904e-01 3.224334248118585489e-01 -4.894417738414857943e-01 -3.593985766753014094e-02 4.674852919546954588e-01 -8.832699635088192558e-01
3.810213302804031921e-01 2.976425988570048364e-01 -5.025276396575687476e-01 -2.119504860555271597e-01 3.354157821126563244e-01 -9.179178855271209470e-01
3.556376797434495640e-01 3.839152620136369043e-01 -5.338264597183098870e-01 -2.119504860555271597e-01 3.354157821126563244e-01 -9.179178855271209470e-01
3.569718904847885010e-01 2.812017594665595643e-01 -4.785032426481812262e-01 -2.119504860555271597e-01 3.354157821126563244e-01 -9.179178855271209470e-01
4.146241286749165478e-01 3.639022533597726095e-01 -5.031994519292641854e-01 -2.117252800706997951e-01 3.377346061144125833e-01 -9.171192624799274773e-01
4.481799101594806101e-01 3.188275492562289148e-01 -4.920338734928709212e-01 -2.117252800706997951e-01 3.377346061144125833e-01 -9.171192624799274773e-01
2.577707859302941218e-01 2.765925331690622935e-01 -5.573688994937509023e-01 3.743144369848661057e-01 7.661156032263028992e-01 -5.224515142651046107e-01
2.903454510836991909e-01 2.887187111934708117e-01 -5.426792473245501958e-01 3.765302812108615171e-01 7.647175155905499011e-01 -5.229073232230416757e-01
3.102980416426054933e-01 3.045808450379406951e-01 -5.436291280266268844e-01 3.765302812108615171e-01 7.647175155905499011e-01 -5.229073232230416757e-01
2.584268302037280307e-01 3.753457594534599373e-01 -5.317965509101685306e-01 4.191738686887246934e-01 6.139809988398214902e-01 -6.688203053677294063e-01
2.318847927153014077e-01 3.751030163576197229e-01 -4.853324491248883210e-01 4.400988598609081870e-01 4.345597117358983574e-01 -7.857931346640422143e-01
2.902263464393078918e-01 3.382607374300151126e-01 -4.757192856663831626e-01 4.400988598609081870e-01 4.345597117358983574e-01 -7.857931346640422143e-01
1.975157200789252887e-01 3.520839159869454948e-01 -4.950385739355476211e-01 4.393666248573881994e-01 4.352725910342913895e-01 -7.858083357000750224e-01
2.201344515850122141e-01 3.114736657917932527e-01 -5.430414639681975242e-01 1.389738608914126983e-01 7.832098189830125623e-01 -6.060269345809069508e-01
2.318893604318562618e-01 3.312028589102785081e-01 -5.564246677159868648e-01 1.400532619270474233e-01 7.827037304032322673e-01 -6.064321513874888492e-01
2.450241134643584562e-01 3.048720063971788186e-01 -5.393921659832606741e-01 1.762374972950555285e-01 6.349366502262866474e-01 -7.521939874437959528e-01
2.065858619593948786e-01 3.447897015553356148e-01 -5.339104888585006758e-01 1.762374972950555285e-01 6.349366502262866474e-01 -7.521939874437959528e-01
1.995170777483777913e-01 3.179296509189247777e-01 -5.422710591105152078e-01 1.762374972950555285e-01 6.349366502262866474e-01 -7.521939874437959528e-01
1.959180543177285738e-01 2.931680758399064501e-01 -5.147034045000260516e-01 1.762512122185075913e-01 6.349286660204871424e-01 -7.521975134610267011e-01
2.524555073938167249e-01 3.507687828481497183e-01 -5.134221969567656085e-01 2.053177739669037327e-01 4.534347580397078414e-01 -8.673185873107683852e-01
1.917818864179788307e-01 3.204734344135868329e-01 -5.139200647726108739e-01 2.076110383143756621e-01 4.517893881625313357e-01 -8.676312612589247575e-01
1.870144332437989609e-01 3.179194697897769206e-01 -5.416157407345225661e-01 -1.076219388747975125e-01 7.607181016678694618e-01 -6.400980300451348803e-01
1.861165909614870551e-01 2.731495005214513161e-01 -5.387929867563427955e-01 -1.114044351402648653e-01 7.620003620935960065e-01 -6.379220171778888782e-01
1.925081470785003079e-01 3.401480037001310963e-01 -5.483842007723740419e-01 -8.028140409796717669e-02 6.117649162788769690e-01 -7.869552613499432026e-01
2.327795721843841092e-01 3.641324940175641456e-01 -5.486366475677565413e-01 -7.703366541931641609e-02 6.103654983793623812e-01 -7.883652534074401252e-01
1.736434752318014585e-01 2.992897167783277745e-01 -5.458487922910670864e-01 -4.124483769021432267e-02 4.290642487370767699e-01 -9.023318313234858223e-01
1.710954846992550349e-01 3.677948062519165728e-01 -5.171381040808803453e-01 -4.188064411514937774e-02 4.294022449504323879e-01 -9.021417425660055445e-01
2.329361471818167661e-01 3.611966884171743941e-01 -4.754325914077543458e-01 -4.188064411514937774e-02 4.294022449504323879e-01 -9.021417425660055445e-01
1.846542115474554824e-01 2.973001329062830989e-01 -5.371460149066223932e-01 -3.513457672004194898e-01 7.005123776582689032e-01 -6.211590461531629748e-01
1.796759594988350528e-01 2.377987911034909752e-01 -5.041921158882336496e-01 -3.510646101328480650e-01 7.004467053238965235e-01 -6.213920280412115194e-01
1.597659179355697678e-01 3.335370178925729512e-01 -5.397746714455474715e-01 -3.257694808088334448e-01 5.472240870802805857e-01 -7.709864096679635015e-01
1.684575604859559483e-01 3.469256400162730736e-01 -4.726044736788078127e-01 -3.258089901087991014e-01 5.472364191241650966e-01 -7.709609611053241940e-01
1.704266819705410885e-01 2.976800690181726217e-01 -5.035702216952733234e-01 -3.258089901087991014e-01 5.472364191241650966e-01 -7.709609611053241940e-01
1.673838919559884064e-01 2.979328215033053007e-01 -4.939587062645217630e-01 -3.258089901087991014e-01 5.472364191241650966e-01 -7.709609611053241940e-01
1.565215602157954133e-01 3.422565621202385278e-01 -5.468679432496892368e-01 -2.851963892405484091e-01 3.678751618605440310e-01 -8.850598199275753197e-01
1.556055976340910418e-01 2.887222722447264633e-01 -5.248724673664382223e-01 -2.852544437046444226e-01 3.678978321052369105e-01 -8.850316872739760754e-01
1.313388984268722415e-01 2.645188770442791770e-01 -5.233711170309517380e-01 -4.941756788040370107e-01 5.758327261320171919e-01 -6.513118070432458717e-01
1.298288369210837678e-01 2.842204107765431420e-01 -5.599665887309818180e-01 -4.941756788040370107e-01 5.758327261320171919e-01 -6.513118070432458717e-01
1.131582650420439318e-01 2.926993282914469030e-01 -5.630332848097756582e-01 -4.953047460896784493e-01 5.754161462304784314e-01 -6.508221471018821314e-01
1.101530815825082082e-01 3.208128109911893566e-01 -5.779409505058086260e-01 -4.953047460896784493e-01 5.754161462304784314e-01 -6.508221471018821314e-01
1.206400347946853246e-01 2.441100067867714440e-01 -5.249404262016376110e-01 -4.953047460896784493e-01 5.754161462304784314e-01 -6.508221471018821314e-01
1.148828264666246490e-01 2.465105336309390827e-01 -5.649175740429037695e-01 -6.442199423672153591e-01 4.051413024483315195e-01 -6.487227380837295998e-01
1.291738207867821064e-01 2.217370212698888399e-01 -5.497243706536670826e-01 -6.442199423672153591e-01 4.051413024483315195e-01 -6.487227380837295998e-01
1.002910789055547480e-01 3.019258907875478903e-01 -4.968426888621791937e-01 -6.451691509892379939e-01 4.045078552392324389e-01 -6.481744839636794930e-01
1.076311812436515081e-01 2.542328559368668972e-01 -5.547751694052275306e-01 -6.451691509892379939e-01 4.045078552392324389e-01 -6.481744839636794930e-01
6.960267672972696162e-02 2.506253813159309285e-01 -5.457505998809428771e-01 -6.451691509892379939e-01 4.045078552392324389e-01 -6.481744839636794930e-01
1.049452767537308456e-01 2.194014502742795691e-01 -5.404685242052987837e-01 -7.481962226080660638e-01 2.038012779139199981e-01 -6.314011811801388818e-01
9.963087760242597679e-02 2.219474271956184963e-01 -5.310923408715819694e-01 -7.481962226080660638e-01 2.038012779139199981e-01 -6.314011811801388818e-01
1.067096687503443359e-01 2.654091731670240040e-01 -5.436861175624165821e-01 -7.489117141885812678e-01 2.030214759669008717e-01 -6.308038717758016611e-01
9.466057017983467436e-02 2.493914187701988805e-01 -4.988328981286781483e-01 -7.489117141885812678e-01 2.030214759669008717e-01 -6.308038717758016611e-01
3.948004977855534836e-02 1.495534600403747860e-01 -5.425516340300853280e-01 -7.995153833541772670e-01 -1.477889887663753551e-02 -6.004637673732005076e-01
6.419618511051114473e-02 1.869506375900352457e-01 -5.204121260153601325e-01 -7.995153833541772670e-01 -1.477889887663753551e-02 -6.004637673732005076e-01
3.432185608176524516e-02 2.098501886261620319e-01 -5.420693200627946240e-01 -7.982006463509154770e-01 -1.235084281729710402e-02 -6.022650453468831877e-01
7.606538979317485627e-02 2.090159246969423568e-01 -5.539828543978979614e-01 -7.982006463509154770e-01 -1.235084281729710402e-02 -6.022650453468831877e-01
6.940752574930045271e-02 1.750093651510552517e-01 -5.729069728296785069e-01 -7.982006463509154770e-01 -1.235084281729710402e-02 -6.022650453468831877e-01
1.119422396741327486e-01 1.233005401064746626e-01 -5.387595036184905650e-01 -7.942139525444429360e-01 -2.373108978399706692e-01 -5.593815650789006888e-01
1.224509400998360920e-01 9.785785053521708909e-02 -5.924521344153567126e-01 -7.942139525444429360e-01 -2.373108978399706692e-01 -5.593815650789006888e-01
9.402045758352850502e-02 1.459211382813864755e-01 -4.715245806402876827e-01 -7.947219055000589449e-01 -2.394305706542879109e-01 -5.577545111915432896e-01
9.518105986098303328e-02 1.254647843137189911e-01 -5.179739972893130373e-01 -7.348393737364741218e-01 -4.516953414878133732e-01 -5.059470459295064559e-01
1.000524375121684129e-01 9.748352613091525176e-02 -5.323928208704427067e-01 -7.348393737364741218e-01 -4.516953414878133732e-01 -5.059470459295064559e-01
8.363057806478998990e-02 1.177889628438544833e-01 -4.785161586332375427e-01 -7.348952501407739479e-01 -4.503391916310457987e-01 -5.070735487102691064e-01
9.879758862120381624e-02 1.508458384727486001e-01 -5.503577132496410007e-01 -7.348952501407739479e-01 -4.503391916310457987e-01 -5.070735487102691064e-01
8.030704949992834019e-02 1.277630804425238520e-01 -4.521474814054358138e-01 -7.348952501407739479e-01 -4.503391916310457987e-01 -5.070735487102691064e-01
6.982955096944536144e-02 1.885383636172232591e-01 -5.839076491303170080e-01 -7.348952501407739479e-01 -4.503391916310457987e-01 -5.070735487102691064e-01
7.789277163366885304e-02 1.161317319483431282e-01 -4.934688286018925063e-01 -6.230387749031326416e-01 -6.402320338276623612e-01 -4.493613555125748893e-01
7.181394356628667541e-02 8.200599702013225412e-02 -5.644924332186426197e-01 -6.230387749031326416e-01 -6.402320338276623612e-01 -4.493613555125748893e-01
8.078503361837763297e-02 6.843234940985817860e-02 -4.912209463848696278e-01 -6.232423988925818170e-01 -6.396383921243743442e-01 -4.499240375254084934e-01
9.408827598272417880e-02 4.645433187204269648e-02 -5.219714333018279362e-01 -6.232423988925818170e-01 -6.396383921243743442e-01 -4.499240375254084934e-01
6.678231128975323228e-02 5.308256309026833375e-02 -4.955630960130978924e-01 -6.232423988925818170e-01 -6.396383921243743442e-01 -4.499240375254084934e-01
1.432716920456277854e-01 4.641893194167222986e-02 -5.466455078345066054e-01 -4.664680758882654987e-01 -7.937731947621111672e-01 -3.902968734876708368e-01
1.269287792403256121e-01 8.772642280506319501e-02 -4.960008333902575783e-01 -4.664680758882654987e-01 -7.937731947621111672e-01 -3.902968734876708368e-01
1.312959818717089888e-01 8.847907722257161711e-02 -4.709505891030252300e-01 -4.667703696968646399e-01 -7.933595145205019072e-01 -3.907762821523920183e-01
6.647259525097029553e-02 8.659407131912782996e-02 -4.894370354649793531e-01 -4.667703696968646399e-01 -7.933595145205019072e-01 -3.907762821523920183e-01
1.384574218694867020e-01 3.474535009949301922e-02 -4.940902746030674808e-01 -4.667703696968646399e-01 -7.933595145205019072e-01 -3.907762821523920183e-01
9.279785011368098246e-02 8.844995039055859876e-02 -4.840796339994964392e-01 -4.667703696968646399e-01 -7.933595145205019072e-01 -3.907762821523920183e-01
1.091273122968474396e-01 3.028797113542956998e-01 -5.100460866776678204e-01 -4.547792624303144127e-01 3.872518206459351631e-01 -8.020048939188262338e-01
5.850513151515195770e-02 2.824531888719940542e-01 -5.090620773134209021e-01 -4.547792624303144127e-01 3.872518206459351631e-01 -8.020048939188262338e-01
9.486083003546626202e-02 3.086004202802803409e-01 -5.058047128125553460e-01 -4.542179953745158483e-01 3.868689194067952974e-01 -8.025076023783045409e-01
8.694029625505522718e-02 3.870445547822096155e-01 -5.006693130632198230e-01 -4.542179953745158483e-01 3.868689194067952974e-01 -8.025076023783045409e-01
7.811211702131279355e-02 3.523852712330387549e-01 -5.226459283590804139e-01 -6.342737518043580769e-01 3.830460530821374054e-01 -6.715448823349188245e-01
8.849631918756169224e-02 3.573502617416280391e-01 -5.303470419085354326e-01 -6.342737518043580769e-01 3.830460530821374054e-01 -6.715448823349188245e-01
8.806498551514550799e-02 3.587452314227523864e-01 -4.719477644665537874e-01 -6.331688051286210595e-01 3.820144834785356158e-01 -6.731732307694816564e-01
1.334158758350451612e-01 3.144391649875560857e-01 -5.066143693638714973e-01 -6.331688051286210595e-01 3.820144834785356158e-01 -6.731732307694816564e-01
6.626202969053024416e-02 3.864370160134078525e-01 -5.250342956466469424e-01 -6.331688051286210595e-01 3.820144834785356158e-01 -6.731732307694816564e-01
5.672858166895668880e-02 3.247386054013290946e-01 -4.704570770251018663e-01 -7.759347399922396082e-01 3.810615089856110860e-01 -5.027100612110172451e-01
6.769712928484708514e-02 3.117161442580904107e-01 -4.675321275204167848e-01 -7.759347399922396082e-01 3.810615089856110860e-01 -5.027100612110172451e-01
8.995309093721891303e-02 3.480024668012191014e-01 -4.545898817647954782e-01 -7.761315609192208642e-01 3.813716933693319100e-01 -5.021707196180416055e-01
7.772752596780395373e-02 3.258264940344602900e-01 -4.338383508893224327e-01 -7.761315609192208642e-01 3.813716933693319100e-01 -5.021707196180416055e-01
7.631191609799999054e-02 3.698917864080455975e-01 -4.850645197387187801e-01 -8.725363114781379270e-01 3.830998739018267041e-01 -3.031746555511035668e-01
5.757825334712612930e-03 3.322689428312893267e-01 -4.257814605751111259e-01 -8.725363114781379270e-01 3.830998739018267041e-01 -3.031746555511035668e-01
1.526020375989934133e-02 3.268097245687185959e-01 -4.570471634677975570e-01 -8.725363114781379270e-01 3.830998739018267041e-01 -3.031746555511035668e-01
1.048818198272340185e-01 3.690195678760173625e-01 -4.458122856361971253e-01 -8.726518716649300789e-01 3.837342739041731399e-01 -3.020376100933979679e-01
4.747446182678405346e-02 3.482956800052481872e-01 -4.116457354320011142e-01 -8.726518716649300789e-01 3.837342739041731399e-01 -3.020376100933979679e-01
1.369890588698347011e-02 2.960354909214857333e-01 -4.296660844582272931e-01 -9.172608218324960205e-01 3.881434818317371360e-01 -8.931529680133297455e-02
8.792900608663328788e-02 2.879064182024719809e-01 -3.843501947045076528e-01 -9.172608218324960205e-01 3.881434818317371360e-01 -8.931529680133297455e-02
5.105983211703891966e-02 3.477701022825539501e-01 -3.969424603108094862e-01 -9.172292534088187788e-01 3.882675436296227356e-01 -8.910000704219957213e-02
2.677333723353005901e-01 4.007494899325976245e-01 -5.049399640197229644e-01 4.608561528199779933e-01 4.678113021086914292e-01 -7.541645656137259124e-01
2.690939004720278027e-01 3.748524957258510537e-01 -4.834874927045276771e-01 4.608561528199779933e-01 4.678113021086914292e-01 -7.541645656137259124e-01
2.903631699176382197e-01 4.430177184994135153e-01 -4.297951755746396429e-01 4.619743450029600851e-01 4.684702715458987643e-01 -7.530705871542172636e-01
3.060578768877660338e-01 3.679195875678288874e-01 -4.151991014710855743e-01 2.834500607002681249e-01 5.053646778333668044e-01 -8.150230705246271912e-01
3.094743175166490556e-01 3.655048481641192115e-01 -4.215931234200637756e-01 2.815504551694668622e-01 5.039895901739491757e-01 -8.165315879928717324e-01
3.322331079292227263e-01 3.863128915128564156e-01 -4.467428393238616069e-01 2.815504551694668622e-01 5.039895901739491757e-01 -8.165315879928717324e-01
3.039730566130911527e-01 3.709831510331453308e-01 -4.426557278785926974e-01 9.260936398686574200e-02 5.218143182732581931e-01 -8.480172892971953313e-01
3.703744162711093413e-01 3.581171724747057028e-01 -4.863300977894233212e-01 -1.002359622643283626e-01 5.202801687648198614e-01 -8.480927413078093169e-01
3.297070862250764400e-01 3.265539931375926463e-01 -4.762002648219328949e-01 -1.002359622643283626e-01 5.202801687648198614e-01 -8.480927413078093169e-01
2.875337525051731014e-01 3.786843820427582830e-01 -4.029393244165995203e-01 -9.970980312041617666e-02 5.207520939491888656e-01 -8.478650905711492269e-01
4.182561270695045463e-01 3.639673519078653885e-01 -4.944052384663234490e-01 -2.896907050648036552e-01 4.998538174529947864e-01 -8.162263513123825254e-01
3.890959954258618736e-01 4.029713599159757131e-01 -4.631515037000956680e-01 -2.911953303903183632e-01 4.984093986864501225e-01 -8.165741551505806273e-01
2.279528905538859285e-01 4.483974322299064119e-01 -4.133144601151226838e-01 4.561949817745967750e-01 6.964510117393730715e-01 -5.539333234703242015e-01
2.647966127896496102e-01 4.090616741093661135e-01 -4.829708564700166407e-01 4.561949817745967750e-01 6.964510117393730715e-01 -5.539333234703242015e-01
2.593832464142171723e-01 3.885754962549646252e-01 -4.610641450152052623e-01 4.561949817745967750e-01 6.964510117393730715e-01 -5.539333234703242015e-01
2.866731648302833224e-01 3.944074907901214400e-01 -4.324939205928421404e-01 4.564040213978477478e-01 6.965077055822435081e-01 -5.536897915949250404e-01
2.644399008544418561e-01 3.345214172939540709e-01 -4.565292133843339983e-01 2.735959653059394370e-01 7.480632716828896633e-01 -6.046044899993735511e-01
2.649126559866655239e-01 3.938933946161441990e-01 -4.296537024301812502e-01 2.735959653059394370e-01 7.480632716828896633e-01 -6.046044899993735511e-01
2.978484166651485521e-01 4.018388488062588082e-01 -4.479542105375842187e-01 2.735959653059394370e-01 7.480632716828896633e-01 -6.046044899993735511e-01
3.131900668112278519e-01 4.345754153410087972e-01 -4.216168356320805777e-01 2.723921864869630061e-01 7.475016328645249786e-01 -6.058414030137923012e-01
2.714459836598567266e-01 4.206031660202549372e-01 -4.436391323558236954e-01 8.594007949724133399e-02 7.697558580766314940e-01 -6.325268545229655315e-01
3.229357073327094874e-01 3.754191356244649946e-01 -4.185267791410793303e-01 8.627907924546264484e-02 7.699664432697755911e-01 -6.322243246847173426e-01
3.597228850382603871e-01 4.292662656586506142e-01 -4.132374738642472511e-01 8.627907924546264484e-02 7.699664432697755911e-01 -6.322243246847173426e-01
3.261865122314556720e-01 4.263414427013364483e-01 -4.699374695611922004e-01 -1.076214813427657929e-01 7.631524389138496511e-01 -6.371938258751663753e-01
4.115223047365845765e-01 3.730918811619103881e-01 -3.973262059255609491e-01 -1.076214813427657929e-01 7.631524389138496511e-01 -6.371938258751663753e-01
4.164529551785747241e-01 3.936158102603258824e-01 -4.278780801885662122e-01 -2.979313205587336699e-01 7.283102997101735809e-01 -6.170907838934284184e-01
4.227957165420285768e-01 4.228289204922878186e-01 -4.630697590333336389e-01 -2.979313205587336699e-01 7.283102997101735809e-01 -6.170907838934284184e-01
3.795809302381236705e-01 4.179253640730791752e-01 -4.747497041481166247e-01 -2.953773950299262152e-01 7.305718666800279371e-01 -6.156435187029863920e-01
3.532883859310078645e-01 4.224013176098788680e-01 -4.616596863701377673e-01 -2.953773950299262152e-01 7.305718666800279371e-01 -6.156435187029863920e-01
2.617336871298825418e-01 4.239904000703358378e-01 -4.010078631555353268e-01 4.416221085568889371e-01 8.483377616825130696e-01 -2.920495768483001298e-01
2.795515198546628666e-01 4.207337917564194507e-01 -4.475222359513641446e-01 4.416221085568889371e-01 8.483377616825130696e-01 -2.920495768483001298e-01
2.943093493000609739e-01 4.278992456225741425e-01 -4.295965747640120291e-01 2.562304456971176148e-01 9.092221672576211722e-01 -3.281173711725893227e-01
3.058956980284974758e-01 4.367871794389138751e-01 -3.828277950264738494e-01 2.562304456971176148e-01 9.092221672576211722e-01 -3.281173711725893227e-01
2.771241829470976747e-01 4.095160083728179856e-01 -4.312357132888484101e-01 2.579644029437314634e-01 9.094615429706246479e-01 -3.260890502169230265e-01
3.298906059061055274e-01 4.552135053277404086e-01 -4.040556752376260330e-01 7.026275727368548607e-02 9.348415989526521752e-01 -3.480435745821888194e-01
3.300589029259530793e-01 4.033120302226201326e-01 -3.883397044925075425e-01 7.020053834103134882e-02 9.348210036511833687e-01 -3.481114412788287038e-01
3.316432890242101972e-01 4.312748754630109649e-01 -4.036494769174224229e-01 7.020053834103134882e-02 9.348210036511833687e-01 -3.481114412788287038e-01
3.899228840563203624e-01 4.332946785901422571e-01 -3.942448439598609800e-01 -1.234402769717155707e-01 9.257365597624430675e-01 -3.574553397843464597e-01
3.862992891770013482e-01 3.835140141276197068e-01 -3.795699551392130444e-01 -1.214544685271272545e-01 9.267579627359836536e-01 -3.554834603469506082e-01
4.107388088586469976e-01 4.364151565990037063e-01 -3.549863180064010137e-01 -3.106225948031299811e-01 8.829296745272673386e-01 -3.520636212915845831e-01
3.819168932294685348e-01 3.937683459834433464e-01 -4.052562563022621966e-01 -3.106225948031299811e-01 8.829296745272673386e-01 -3.520636212915845831e-01
3.961744033331745518e-01 4.190497181403126103e-01 -3.989288984491120016e-01 -3.135312921190231417e-01 8.808856574413576057e-01 -3.545963724804345185e-01
4.510036928325877326e-01 4.491389311068348933e-01 -4.314976796727402197e-01 -3.135312921190231417e-01 8.808856574413576057e-01 -3.545963724804345185e-01
2.649134063617143986e-01 4.055061311560451687e-01 -3.573759081833914331e-01 3.431177614793329833e-01 9.290195815746927765e-01 -1.385381492881817833e-01
2.711424317807651363e-01 4.518227242509721964e-01 -3.467957695847999622e-01 2.275753160537290209e-01 9.279995718468937449e-01 -2.950021528311734254e-01
2.728148068517170510e-01 4.573866826654141016e-01 -3.601051686207278890e-01 2.275666784226101080e-01 9.280311116435318031e-01 -2.949095839293304211e-01
2.418652970736427654e-01 4.505993459204055140e-01 -3.431072422070734484e-01 2.275666784226101080e-01 9.280311116435318031e-01 -2.949095839293304211e-01
2.767626798692525147e-01 4.528977977092992768e-01 -2.875265038819055374e-01 1.062443153633382403e-01 8.934651203910415340e-01 -4.363854077505309181e-01
3.123007653691889374e-01 4.891125458161348916e-01 -3.138261886170506942e-01 1.062279106300206416e-01 8.935227199213172655e-01 -4.362714521803960910e-01
3.475587247817951697e-01 4.437116896790289644e-01 -3.165715064104199783e-01 -2.028289837656772551e-02 8.255914041545326931e-01 -5.639037483645529258e-01
3.063502000719168228e-01 4.622531623516407118e-01 -2.673136782010592793e-01 -2.028698223913895024e-02 8.256068982575270887e-01 -5.638809164187188472e-01
3.309383634258974971e-01 4.943016540236560563e-01 -3.075644134778193761e-01 -2.028698223913895024e-02 8.256068982575270887e-01 -5.638809164187188472e-01
3.246006450473146732e-01 4.491915069980198516e-01 -2.953618058617867859e-01 -1.450205319630080703e-01 7.281439480521436636e-01 -6.699070355088109219e-01
3.299406714202676172e-01 4.833512650942116129e-01 -2.617819224238748244e-01 -1.452958502806876162e-01 7.294898819498055742e-01 -6.683813492491172958e-01
3.727386682666935513e-01 4.965556258309051785e-01 -2.725534152282869660e-01 -2.657286012330743463e-01 6.047969181150352203e-01 -7.507389681675442628e-01
3.553305712585095311e-01 4.425920216563695719e-01 -2.694003330591335788e-01 -2.657286012330743463e-01 6.047969181150352203e-01 -7.507389681675442628e-01
3.751541185981858706e-01 4.868515753441294280e-01 -2.691739395700444293e-01 -2.653592754975084289e-01 6.020235381372692762e-01 -7.530950235103941459e-01
4.023981615897999076e-01 5.091460764259474470e-01 -2.872679158287501089e-01 -3.742916153687968484e-01 4.570884763031068942e-01 -8.068307824417215723e-01
3.911348089279544915e-01 5.523860050326400151e-01 -2.421595441383887493e-01 -3.743319426836871355e-01 4.576512157927194457e-01 -8.064930014390095936e-01
2.368041733900957402e-01 4.613580918215070548e-01 -3.550000867615403788e-01 8.953105297228274029e-02 9.919196171695568998e-01 8.988694915210819480e-02
2.807230178101931539e-01 4.397949324986626385e-01 -3.338790384077767182e-01 8.914573623336634334e-02 9.922225026502730083e-01 8.687659607650276283e-02
2.022266153901469965e-01 4.569878476022690705e-01 -3.406149471409193330e-01 8.914573623336634334e-02 9.922225026502730083e-01 8.687659607650276283e-02
2.261607540460958132e-01 4.307947823203195914e-01 -3.354203234100331388e-01 -5.265443413675895135e-02 9.976481635190211916e-01 -4.388225601381747637e-02
2.325661888928715892e-01 4.045727812637363030e-01 -3.414448123463837970e-01 -5.265443413675895135e-02 9.976481635190211916e-01 -4.388225601381747637e-02
2.677033210676322272e-01 4.452400165590603698e-01 -3.196792851639846944e-01 -1.884962076686193255e-01 9.671984936130221255e-01 -1.702828636335708412e-01
2.554076588370746137e-01 4.460763782060088722e-01 -3.073352883002070657e-01 -1.885176343160665513e-01 9.672929167124447725e-01 -1.697218749301487861e-01
2.881478790667413858e-01 4.744266290349816173e-01 -3.417189304261484262e-01 -3.208961936536863235e-01 9.006496887955225406e-01 -2.930115543303782877e-01
3.231164797222972340e-01 4.851557115654272501e-01 -2.946430227685924996e-01 -3.208911156830905886e-01 9.006340730843152009e-01 -2.930651092764502419e-01
2.528871790455066715e-01 5.211078682040823917e-01 -3.055753381336908658e-01 -4.394657042371050149e-01 8.024256249079415593e-01 -4.037115446584167433e-01
3.516610549463506374e-01 4.817387636437009957e-01 -2.411433769795179594e-01 -4.394657042371050149e-01 8.024256249079415593e-01 -4.037115446584167433e-01
2.749909562847034916e-01 4.537022136100001823e-01 -2.341952421610118684e-01 -4.393753202386288526e-01 8.021215110739333687e-01 -4.044136612896160332e-01
3.016238512320418286e-01 4.885448076134251139e-01 -2.776094760961734798e-01 -5.447612956982090804e-01 6.709556144983955805e-01 -5.030444255553266908e-01
3.235063548923638455e-01 5.527538921986343556e-01 -2.131732668825898347e-01 -6.294683688607155547e-01 5.211611226959009802e-01 -5.763338067423928734e-01
3.499402503296996647e-01 5.225021187207017359e-01 -2.147018385261146300e-01 -6.294683688607155547e-01 5.211611226959009802e-01 -5.763338067423928734e-01
2.938651492624341777e-01 5.052206835444659205e-01 -2.215520669092677086e-01 -6.287206573249527475e-01 5.177092472010620394e-01 -5.802477664027574367e-01
1.525899271867445506e-01 4.397823275119459585e-01 -3.243308493029952166e-01 -1.184868130326950514e-01 9.274805169879168920e-01 3.545994440847046736e-01
1.693108785059350418e-01 4.433882032800022799e-01 -3.500453173415195574e-01 -1.184868130326950514e-01 9.274805169879168920e-01 3.545994440847046736e-01
1.828734972574972972e-01 4.433171649555349147e-01 -2.966760209920013547e-01 -1.176999839845803281e-01 9.268120988225606594e-01 3.566034874284739198e-01
2.221146391366957684e-01 4.767944033673048310e-01 -2.771308676711138896e-01 -2.807072063778550675e-01 9.254975381058793138e-01 2.542789241118827981e-01
1.887398535770725416e-01 4.148734117886734296e-01 -2.993304706446038854e-01 -2.800484423096851749e-01 9.249762810581305672e-01 2.568885934404036564e-01
2.554371513901043111e-01 4.491379346954900709e-01 -2.960193956544868166e-01 -2.800484423096851749e-01 9.249762810581305672e-01 2.568885934404036564e-01
2.650038093910936365e-01 4.381980459862204746e-01 -2.842354171647047401e-01 -4.324462874943093560e-01 8.899101338154404850e-01 1.450867401417987590e-01
1.982623758695850891e-01 4.520416474626480219e-01 -3.032343572012344834e-01 -4.325990554282777012e-01 8.900200789708611060e-01 1.439524792119403485e-01
2.434332328820643099e-01 4.313492791924010694e-01 -2.982751052572791828e-01 -4.325990554282777012e-01 8.900200789708611060e-01 1.439524792119403485e-01
2.565269506520115317e-01 4.550936044017251936e-01 -2.967450505449903408e-01 -5.678206817139067608e-01 8.226583343443275576e-01 2.851207378937757608e-02
2.331930512229221653e-01 4.745896839609364259e-01 -2.700284568453489298e-01 -5.678202397542585489e-01 8.226583490514387531e-01 2.852044988034852999e-02
2.801502542406966167e-01 4.586494116870958870e-01 -2.364741855402312243e-01 -5.678202397542585489e-01 8.226583490514387531e-01 2.852044988034852999e-02
3.212423852025452775e-01 4.793442196296638924e-01 -2.487805743273412973e-01 -6.829095022584313890e-01 7.251355865395219258e-01 -8.839113563658343442e-02
2.913853833718966224e-01 5.064866134454238944e-01 -2.206739885638316356e-01 -6.829041461801786950e-01 7.250611196062991537e-01 -8.904100159578685891e-02
3.098335437605614917e-01 5.016196297920236802e-01 -2.032777083052121070e-01 -7.727094694631776450e-01 6.018053629015239769e-01 -2.018672360362120666e-01
2.555222898674592846e-01 4.997816379221577399e-01 -2.125335666192920692e-01 -7.727094694631776450e-01 6.018053629015239769e-01 -2.018672360362120666e-01
3.075055255768114892e-01 5.240258125620669283e-01 -2.526001481737121246e-01 -7.726356868494678176e-01 6.015134122789704829e-01 -2.030165270493032026e-01
2.618501201348996110e-01 4.944757958934423159e-01 -1.961939115757534990e-01 -7.726356868494678176e-01 6.015134122789704829e-01 -2.030165270493032026e-01
3.286829266562984464e-01 5.422816891440441767e-01 -2.051726490263064973e-01 -8.355770773072395130e-01 4.525990539610264540e-01 -3.113921068882049559e-01
3.784483153356360541e-01 4.998733522627122894e-01 -1.760499112307584990e-01 -8.355770773072395130e-01 4.525990539610264540e-01 -3.113921068882049559e-01
3.054016282112908542e-01 5.321629347493632700e-01 -1.972920244351743513e-01 -8.354659570189987283e-01 4.522560956049135883e-01 -3.121875376284710124e-01
4.104793174617596407e-01 5.315236686207648331e-01 -2.841289904735340710e-01 -1.593783675799083366e-01 4.648859699905287801e-01 -8.709073262141781013e-01
4.518920786884889074e-01 5.010457086596827869e-01 -2.562621377193930461e-01 -1.617880981225459092e-01 4.664511858284272616e-01 -8.696251505937161452e-01
4.164886457786167728e-01 5.279490922041154555e-01 -2.952378135748743304e-01 -1.617880981225459092e-01 4.664511858284272616e-01 -8.696251505937161452e-01
4.519526541782192819e-01 5.000394770551687129e-01 -3.361610530273774766e-01 -1.991789082240603692e-01 6.505446673473511687e-01 -7.328843007628118578e-01
4.476785322341756967e-01 5.243519922433482749e-01 -3.283400817139951466e-01 -1.971340462698353557e-01 6.495590405721599625e-01 -7.343100303088997416e-01
4.380222029833402142e-01 4.481580761700472704e-01 -3.357239867866470551e-01 -1.971340462698353557e-01 6.495590405721599625e-01 -7.343100303088997416e-01
3.995501907586680446e-01 5.222059468131913240e-01 -3.081120399897256390e-01 -2.245130889320932632e-01 7.992718887847091169e-01 -5.574570124204140109e-01
4.685350675467064852e-01 4.984251742399785079e-01 -3.705087320727897815e-01 -2.243764450283536049e-01 7.992261448195444595e-01 -5.575776002973280576e-01
4.387801460762368877e-01 4.677063491844402621e-01 -3.081227737326118765e-01 -2.243764450283536049e-01 7.992261448195444595e-01 -5.575776002973280576e-01
4.395462624807961460e-01 4.478717269290830583e-01 -3.417981619397099102e-01 -2.243764450283536049e-01 7.992261448195444595e-01 -5.575776002973280576e-01
4.488109403499516148e-01 4.928915436281717799e-01 -3.381421543499848470e-01 -2.243764450283536049e-01 7.992261448195444595e-01 -5.575776002973280576e-01
4.108090821192919573e-01 4.440563730924563246e-01 -3.400665930851634600e-01 -2.394920281989619537e-01 9.059449628411319067e-01 -3.491522486422332650e-01
4.815976018131740144e-01 4.160780516421377362e-01 -4.083649615907606334e-01 -2.388222805114877945e-01 9.058271422920853855e-01 -3.499158564830210927e-01
4.463134017152091126e-01 4.382416377067659408e-01 -3.618272241194997463e-01 -2.388222805114877945e-01 9.058271422920853855e-01 -3.499158564830210927e-01
4.815335743330325657e-01 5.260547270559625677e-01 -2.352520314121642198e-01 2.306446312556600653e-01 4.973436086613122198e-01 -8.363327023360285217e-01
4.568458877818951103e-01 5.247285708888853595e-01 -2.508471051653223816e-01 2.306446312556600653e-01 4.973436086613122198e-01 -8.363327023360285217e-01
4.170010575261219321e-01 5.325462168120977946e-01 -3.213595389480683462e-01 2.306446312556600653e-01 4.973436086613122198e-01 -8.363327023360285217e-01
4.842740715444076027e-01 5.388871670066508468e-01 -2.342623275310471986e-01 2.312299989846731685e-01 4.967113222753716251e-01 -8.365468007786532878e-01
4.853718314563513214e-01 4.841359283220378895e-01 -2.582655322257966235e-01 2.312299989846731685e-01 4.967113222753716251e-01 -8.365468007786532878e-01
4.378998971466143142e-01 5.194326926751557938e-01 -2.415036542384051965e-01 2.162129509656476045e-01 6.818418145358046134e-01 -6.988159269687889141e-01
5.025944483983337818e-01 4.944871563631184630e-01 -2.503361960782606310e-01 2.148253527253933537e-01 6.829639272143344098e-01 -6.981477937731979111e-01
4.889606109394432076e-01 5.229941309041636899e-01 -2.773685403747082612e-01 2.148253527253933537e-01 6.829639272143344098e-01 -6.981477937731979111e-01
4.442640492362175397e-01 4.718237310311104715e-01 -3.469160911779334278e-01 2.148253527253933537e-01 6.829639272143344098e-01 -6.981477937731979111e-01
4.672151348049516373e-01 4.984468150740927750e-01 -3.258067323475549726e-01 1.879195821498728936e-01 8.319638604260501946e-01 -5.220367473555869164e-01
4.823566485150043159e-01 4.710215011496039494e-01 -3.204140717568239594e-01 1.871949674174906153e-01 8.323984199010895368e-01 -5.216041743695445376e-01
4.821664102263760188e-01 4.634586746965779214e-01 -3.370096325547469185e-01 1.871949674174906153e-01 8.323984199010895368e-01 -5.216041743695445376e-01
4.702880883977897941e-01 4.752415891926036196e-01 -3.398955931695172850e-01 1.497969454166865055e-01 9.366302981244833958e-01 -3.166773749087098411e-01
5.206016052956282669e-01 4.570195459306968244e-01 -3.895520053986540887e-01 1.497969454166865055e-01 9.366302981244833958e-01 -3.166773749087098411e-01
4.837026304904666896e-01 4.493632740220253052e-01 -4.308997247089968452e-01 1.511510827020325354e-01 9.360758786880036819e-01 -3.176716851349600801e-01
4.894323894862382951e-01 4.471814060416069991e-01 -3.992103947373549788e-01 1.511510827020325354e-01 9.360758786880036819e-01 -3.176716851349600801e-01
4.974086461443147367e-01 4.492373919002852212e-01 -3.824960659392193096e-01 1.511510827020325354e-01 9.360758786880036819e-01 -3.176716851349600801e-01
5.076536235394427665e-01 5.828674955574749683e-01 -2.485957966123185092e-01 3.911285210373413590e-01 5.028923832534162308e-01 -7.707903287514971113e-01
5.107151236112229542e-01 5.018031605556929620e-01 -2.623065374694030782e-01 3.912760553539809671e-01 5.028942009312296069e-01 -7.707142603951014914e-01
5.666775678742009825e-01 5.132305334980264977e-01 -2.745512975161125135e-01 2.210380728919809634e-01 6.262056983427564116e-01 -7.476687727164081920e-01
5.662691933894600238e-01 5.419025973164599552e-01 -2.334288857307905141e-01 2.198832806682940455e-01 6.260601686986320136e-01 -7.481310099518589940e-01
4.999543988385786730e-01 4.921368205090244086e-01 -3.056073455192669930e-01 2.198832806682940455e-01 6.260601686986320136e-01 -7.481310099518589940e-01
5.969689330541083638e-01 5.106088368036107994e-01 -2.308535056390635665e-01 4.056483954298142902e-02 7.206288237896087967e-01 -6.921333629557652189e-01
6.179825283059633412e-01 5.404405143841539694e-01 -2.847630783230592488e-01 3.908610079494200668e-02 7.202986269839669609e-01 -6.925620294888101824e-01
5.991259119259008115e-01 4.649940625234013636e-01 -3.298190326701916919e-01 -1.434386369429001551e-01 7.827376054809677131e-01 -6.055965640571980835e-01
5.659303064307825704e-01 4.962935188174874557e-01 -2.562301816395409215e-01 -1.434386369429001551e-01 7.827376054809677131e-01 -6.055965640571980835e-01
5.972044054416122405e-01 4.454056973088109106e-01 -2.754123425886554899e-01 -1.385140924224086134e-01 7.842670112409911853e-01 -6.047636739086760249e-01
5.173726357535313181e-01 5.498165919677844293e-01 -2.195645373363511732e-01 5.171080628150582781e-01 6.294478935927388941e-01 -5.799953453462552977e-01
5.335619817701007239e-01 5.420497871798537481e-01 -2.021652350678590504e-01 5.171080628150582781e-01 6.294478935927388941e-01 -5.799953453462552977e-01
5.309674257361098881e-01 5.444551038006792965e-01 -2.352973165193416871e-01 5.180972793451421587e-01 6.292426065408592839e-01 -5.793349214822349769e-01
5.206742713640990505e-01 5.244224802212921199e-01 -2.368616945388654360e-01 3.521041174952755926e-01 7.587871175954370440e-01 -5.479642329697089753e-01
6.074565620575478331e-01 5.027035001876680731e-01 -2.174972485622090890e-01 3.508633930095441666e-01 7.588581064142133625e-01 -5.486613288498332075e-01
5.799008722129364024e-01 5.280954182256947238e-01 -2.395699862291493509e-01 1.714744203735930062e-01 8.533979513675929995e-01 -4.922483720228393311e-01
5.432334435493834102e-01 5.076177906374518267e-01 -2.470670427227496802e-01 1.707719352880500974e-01 8.533521470714978685e-01 -4.925718822734798663e-01
5.908047071525608374e-01 4.645891638934632750e-01 -2.521329376565527025e-01 -1.420766290159264887e-02 9.094195925749831710e-01 -4.156370375166609787e-01
5.644624192850754563e-01 4.949223567789825529e-01 -1.961416127311145507e-01 -1.420766290159264887e-02 9.094195925749831710e-01 -4.156370375166609787e-01
6.129531351214259072e-01 5.368592894796937465e-01 -2.636432867690891579e-01 -1.501973642502020187e-02 9.092752240487784743e-01 -4.159242412372314845e-01
5.415580110414990322e-01 5.564117361335109146e-01 -1.935373426093946470e-01 6.231928401097571735e-01 6.968407144316879354e-01 -3.550263409189088337e-01
5.287440506913543281e-01 5.884674989116663868e-01 -2.319527374687654631e-01 6.237746982291695330e-01 6.965549309399106104e-01 -3.545650208810857684e-01
