1.228089528285585680e-02 -2.002676119485310158e-01 1.957156423186734717e-01 6.802440423779626544e-02 -5.169858446486843562e-01 -8.532867729321598205e-01
9.118997762413464173e-03 -1.617311679106517019e-01 2.049710845523171621e-01 8.105707788631019706e-02 -5.671780406923726536e-01 -8.195967424782104604e-01
4.026377824413798767e-03 -1.744374724424203049e-01 2.194012941926130611e-01 2.284758849970544570e-02 -5.686539784502240291e-01 -8.222594727289435079e-01
-2.860155871968129981e-02 -1.428999728054788365e-01 1.941700163946170343e-01 2.284758849970544570e-02 -5.686539784502240291e-01 -8.222594727289435079e-01
1.017095450069585572e-02 -1.639440080004472555e-01 2.022731260499081307e-01 4.969006929215967483e-02 -5.365338699319397442e-01 -8.424145674367204961e-01
-1.544685652028450484e-02 -1.749007680450357649e-01 1.986680556150944577e-01 6.259822184395913425e-02 -5.073966345982235948e-01 -8.594359300264163837e-01
-1.975837577567586198e-02 -1.428698188492520949e-01 2.040227348195046142e-01 8.498729555527409496e-02 -4.993707238279865845e-01 -8.622099742972781922e-01
-3.234753665593032707e-02 -1.647718866526944048e-01 1.675375945268957056e-01 5.934330867630448897e-02 -5.398664911342831996e-01 -8.396562055184881856e-01
-4.068051648758917727e-02 -1.810480818249461110e-01 1.972299806286924584e-01 -2.250788974693390676e-02 -4.967436519601284850e-01 -8.676054052024194663e-01
-7.008049040278689634e-02 -2.018602743842959624e-01 2.162833667934103421e-01 -6.309789903092462467e-03 -5.332579625388287337e-01 -8.459291530266088710e-01
-5.841216521839560222e-02 -1.771283450601346399e-01 1.876297840522337113e-01 6.868528968554818426e-02 -5.023972207546391067e-01 -8.619044979339803847e-01
-4.516883602819502658e-02 -1.517052695177371624e-01 1.638488791070456529e-01 1.162155392478501081e-01 -5.169374308847328736e-01 -8.480976600531471288e-01
-1.671196972832015779e-02 -1.978845953501435773e-01 2.194708173597008094e-01 8.937126446786622380e-02 -5.085991869676314003e-01 -8.563525232655527786e-01
-5.095085792298176264e-02 -1.763863079668241129e-01 2.049977638653580070e-01 8.937126446786622380e-02 -5.085991869676314003e-01 -8.563525232655527786e-01
-3.830785865647881594e-02 -1.990009130363898648e-01 2.055282562810444580e-01 6.722805162615554109e-02 -5.003934470735228457e-01 -8.631840980928856544e-01
5.247251604324012358e-03 -1.996882763623721302e-01 2.033491570166145734e-01 5.082355830820548676e-02 -4.858021739395622096e-01 -8.725899459176045259e-01
-3.307634186747947236e-02 -1.791975820535100516e-01 2.037510027285108494e-01 9.687289603013463091e-02 -5.029575085523825262e-01 -8.588651737062777958e-01
-1.950070067308579472e-02 -1.507232963048193986e-01 1.682453118358101796e-01 1.032325248907904058e-01 -5.365018337062472664e-01 -8.375612384981211411e-01
-2.509007488993177104e-02 -1.533333869301862495e-01 1.935456924704258286e-01 1.032325248907904058e-01 -5.365018337062472664e-01 -8.375612384981211411e-01
-4.174249140126780333e-02 -1.664375781827546474e-01 1.946776018116573026e-01 2.653897239306487674e-02 -5.299936386784408482e-01 -8.475862350844936000e-01
-4.904159042302419502e-02 -1.633476092205825292e-01 1.747432806166432095e-01 6.317995820531106810e-02 -5.377337539409953182e-01 -8.407441363183572047e-01
-2.524152776835571904e-02 -1.207478684136954750e-01 1.845979036376794447e-01 -4.001847842153712781e-02 -7.572653844003912615e-01 -6.518800955495978044e-01
7.193821976573925442e-03 -1.371443655379281923e-01 1.483317435569516951e-01 -4.001847842153712781e-02 -7.572653844003912615e-01 -6.518800955495978044e-01
-1.870031171174226653e-02 -1.512834641651173151e-01 1.807164241970294349e-01 -7.236262410641219889e-02 -8.050236733194746641e-01 -5.888128191774135711e-01
2.388738937573382792e-02 -1.458624852963151530e-01 1.713635949913338286e-01 2.663378263055450890e-01 -7.298006165194917960e-01 -6.296469029595929134e-01
3.142816317556937356e-02 -1.395270496620110712e-01 1.637506466824450169e-01 1.666948965133808191e-01 -7.552632149455750232e-01 -6.338692985359579701e-01
3.846698236943388999e-02 -1.327871198204833014e-01 1.473497228332651676e-01 2.033006161190749339e-01 -6.727305582959604013e-01 -7.114087822204685496e-01
5.734039725591529024e-02 -1.583519309065738179e-01 1.699731018185097475e-01 1.265749284613666426e-01 -7.228025900273049587e-01 -6.793638225095736116e-01
1.294967901419560516e-02 -2.060262058793757012e-01 2.239475250994521771e-01 8.484497982281831441e-02 -8.863079771363443493e-01 -4.552576183474000282e-01
3.479874989650968281e-02 -1.989592631336320472e-01 2.216018798332704542e-01 1.602358613235426166e-01 -9.851643715526170464e-01 6.144615341288260646e-02
3.727001173638517378e-03 -2.212740647937636029e-01 2.068460491613683394e-01 5.208066854449022731e-02 -8.889276129187551057e-01 -4.550772494363159448e-01
8.764527700005603217e-03 -1.982537999561822528e-01 2.110918075339624778e-01 8.492184572538592768e-02 -8.203916957692343193e-01 -5.654606490565666777e-01
-5.879568265821163986e-02 -1.768855948971976011e-01 1.706045326475854607e-01 -3.955337649623984486e-01 -3.693686028967267387e-01 -8.409042014217733563e-01
-5.937621128230192308e-02 -1.647009405561864204e-01 1.662872506665621919e-01 -3.288590075529209122e-01 -3.632896926773548363e-01 -8.717065746830758854e-01
-6.683048841258895645e-02 -1.676352843232735701e-01 1.773901781328798000e-01 -4.498316752577861122e-01 -3.891019537488002999e-01 -8.038974645585345025e-01
-2.365832490897777987e-02 -1.613524046547634427e-01 1.989790626668522244e-01 -4.700193732092839971e-01 -3.192980641117494911e-01 -8.228794170851770895e-01
-5.093556247633900663e-02 -1.582372653097893211e-01 1.958921904975735595e-01 -3.426759254436819724e-01 -3.846469093334932143e-01 -8.570997405562013061e-01
-6.702688393933771416e-02 -1.891975626570346347e-01 1.936503321588876336e-01 -3.280275448925464299e-01 -3.648197463372489513e-01 -8.713807907420234589e-01
-9.751414894504439879e-02 -5.702743854326149109e-02 4.335646341542169491e-02 -9.200285445734903700e-01 -3.464340556299130847e-01 1.831145058967072470e-01
-9.475278024778813202e-02 -4.942538287388112406e-02 8.038468546810247084e-02 -9.550994834934833921e-01 -2.514096098701447679e-01 1.567743113377396968e-01
-1.356980416113416354e-01 -2.657803730282489590e-02 4.096105061445339673e-02 -8.819409670735645079e-01 -3.454195455601104525e-01 3.207264693510541997e-01
-1.280958192050529743e-01 -1.450891337819605609e-02 4.629689737135055105e-02 -9.066720123046080326e-01 -3.400547566771869312e-01 2.496169556835670378e-01
-1.134141061121127364e-01 -1.960532048701743579e-02 4.701519415612243069e-02 -9.148428603054010733e-01 -3.076696559939736675e-01 2.615376143670017361e-01
-9.594753750343630594e-02 -4.137892360566179650e-02 2.450014166512197791e-02 -9.369030198320407177e-01 -2.443752273855022417e-01 2.499869589996381869e-01
-1.101500512383458835e-01 9.269276514333839312e-04 5.676864657745196718e-02 -9.369030198320407177e-01 -2.443752273855022417e-01 2.499869589996381869e-01
-9.113506433925772088e-02 -9.586310047789810967e-03 7.609134181651017181e-04 -8.948839320313476398e-01 -2.932218987427743229e-01 3.364575252387688176e-01
1.623276617982567782e-02 -1.286088112088017155e-01 -8.611227352481978792e-02 -1.545149210798257323e-02 -9.964396773329762258e-01 8.288076271482448798e-02
2.546176276022951018e-02 -1.299848712310482379e-01 -1.327889382117088124e-01 -1.545149210798257323e-02 -9.964396773329762258e-01 8.288076271482448798e-02
1.647543274818448478e-02 -1.293846462831935162e-01 -8.524991278989761667e-02 2.086761729562895684e-01 -9.740173379785960206e-01 8.800272812479391360e-02
2.294264487622352591e-02 -1.273716452622533080e-01 -1.068417114954098857e-01 2.170006829214356225e-01 -9.718540887037304676e-01 9.170787251633370774e-02
4.014389885777003286e-02 -1.494151929755526687e-01 -8.247806750659161801e-02 2.247949641151855971e-01 -9.710025081169685324e-01 8.137169863662085945e-02
4.367848377528567999e-03 -1.473386564117566133e-01 -1.045331812013136769e-01 2.256923591781769545e-01 -9.739932809234389532e-01 2.000119307900368251e-02
5.892948942180920024e-02 -1.337092410766065054e-01 -1.126176062543904760e-01 2.018350932160778155e-01 -9.792741162268636668e-01 1.687603136261982967e-02
3.594529635446898352e-02 -1.386997109458766586e-01 -1.097191488457982672e-01 4.033738174473761040e-01 -9.149933478280548593e-01 8.759955955332392880e-03
8.327967623204379083e-03 -1.232848559320818271e-01 -1.466346105423141644e-01 3.891603429603069375e-01 -9.203937191040802990e-01 3.781043904499769431e-02
1.285844390995033622e-02 -1.166095275651521934e-01 -1.632119522941708756e-01 2.042311642018161122e-01 -9.788043409158423414e-01 1.522149050108267433e-02
2.635332181275526139e-02 -1.164101517855422874e-01 -1.307607291862909471e-01 2.041201994784124230e-01 -9.788473485931804552e-01 1.388568748725514494e-02
-1.589519902754604752e-02 -1.136689160089829620e-01 -1.221863040337226175e-01 3.355083930431490558e-01 -9.403168630866054478e-01 5.690619643386533172e-02
-6.725363264043162162e-03 -1.503051149026821132e-01 -8.756469553989186527e-02 3.813688891364632738e-01 -9.221075855167323310e-01 6.538632220366943915e-02
4.252725906717059329e-02 -1.284939186976563341e-01 -8.688998748216014700e-02 3.813688891364632738e-01 -9.221075855167323310e-01 6.538632220366943915e-02
1.348600795782134779e-04 -1.423003381229507591e-01 -1.162258496344153458e-01 4.805880602648199273e-01 -8.757788092744740460e-01 4.523929217707085837e-02
8.243031705853552313e-03 -1.043367002760439977e-01 -9.945431189745070066e-02 4.585267691839765569e-01 -8.874957719114433541e-01 4.587435864418823450e-02
3.973554402288307502e-03 -7.753967379327902920e-02 -1.473329693984372080e-01 4.618118898322325916e-01 -8.859419731136246590e-01 4.285555605892159975e-02
3.625864062299840110e-03 -1.498730083512612721e-01 -1.181725899458406781e-01 3.560242771122283378e-01 -9.341759015805419786e-01 2.370862739377569209e-02
-1.205693269203460954e-02 -1.565628233338208497e-01 -6.636883779079827406e-02 5.736793132086613622e-02 -9.160287804029251246e-01 3.969889090761779538e-01
-2.293559214717685174e-02 -1.627160657605039862e-01 -6.592753383820890156e-02 3.803975720646098346e-01 -9.111956201096406138e-01 1.581778399787964473e-01
-4.089227686205558487e-03 -1.562658066855574235e-01 -1.024016743066496204e-01 4.798868088868246118e-01 -8.523137057527510052e-01 2.080144169100620888e-01
-3.127268798147640055e-02 -1.781032854777808150e-01 -9.277080807117561723e-02 5.179473558741841677e-01 -8.514150623947720486e-01 8.260101736811517603e-02
2.348260240842945431e-03 -1.314678342044250658e-01 -1.176372736850209294e-01 5.696797751511125663e-01 -8.212484171511339470e-01 3.187461545704617372e-02
-3.005347509532590826e-03 -1.233445184132246075e-01 -1.367647364930155429e-01 6.590188864925898837e-01 -7.518018010973790410e-01 2.209432308996648123e-02
1.788572186160113792e-03 -1.534255587434074086e-01 -1.160446714505967980e-01 6.907611853479571629e-01 -7.230636887550890846e-01 -5.280797342177923417e-03
-1.372856909973536876e-02 -1.651833384982625552e-01 -1.518220693322770432e-01 7.286752416608804905e-01 -6.848531139479823171e-01 -2.933343861442038944e-03
-3.374807905113602624e-02 -1.683021190730603356e-01 -1.102133515855930473e-01 7.286752416608804905e-01 -6.848531139479823171e-01 -2.933343861442038944e-03
-3.001695304370886191e-02 -1.383428042020577731e-01 -1.281420396880328938e-01 7.312106733981245110e-01 -6.804562917897301055e-01 4.806439505945062085e-02
-3.394855717329130218e-02 -1.953877009845577106e-01 -2.398793739200316411e-01 7.725852146752912875e-01 -6.262941877178829220e-01 1.042481486451033446e-01
-6.826766504800774182e-02 -2.140666185679030997e-01 -1.737252155929960851e-01 7.276141458743177193e-01 -6.776951746652961628e-01 1.063339313622919668e-01
-8.406117096439011394e-02 -2.066958287832037500e-01 -1.895077403265576221e-01 7.193545696277715562e-01 -6.804083274507994883e-01 1.399053647693656310e-01
1.456191675534636472e-02 -1.509613988084212155e-01 -1.855843271357791591e-01 6.372906546431249541e-01 -7.697106663949416783e-01 3.749815385311701388e-02
-1.229932636537127075e-02 -1.495164765087877157e-01 -1.892535167302269172e-01 6.376219758259196180e-01 -7.691820314135859871e-01 4.239361383887580575e-02
4.642997075683615027e-02 -1.329869223298015823e-01 -1.823357137889502488e-01 1.834801370364261275e-01 -9.823884420950803609e-01 3.532687576187849149e-02
4.213509032544925786e-02 -1.326932877783703613e-01 -1.647976100299391455e-01 1.834801370364261275e-01 -9.823884420950803609e-01 3.532687576187849149e-02
6.488248403712128243e-04 -1.509667675270570941e-01 -1.928143064586123889e-01 3.710552642825393765e-01 -9.261900572676318166e-01 6.700722846675487288e-02
2.837599495245837072e-02 -1.214074474492333605e-01 -1.893201919776435205e-01 1.610446786305126110e-01 -9.839831546803491369e-01 7.643142540933726969e-02
1.634051443661889771e-02 -1.434001973417094455e-01 -1.638966105422740016e-01 4.026997383322933333e-01 -9.150180385969307606e-01 2.397727652024234449e-02
8.171485586556073710e-03 -1.310175317665643602e-01 -2.006079209294767685e-01 4.262715182397807112e-01 -9.040600937699458939e-01 3.111172753526833187e-02
4.482139893426384525e-03 -1.375112794570160779e-01 -2.279422731520927281e-01 5.188264192704842293e-01 -8.522403746089824983e-01 6.712295101758430915e-02
6.902335623146777996e-03 -1.584078303035317270e-01 -2.018849351342432152e-01 5.020295398775251883e-01 -8.634677413016325076e-01 4.888558910166902055e-02
8.157189956448084381e-03 -1.601477096490161178e-01 -1.768878075202378053e-01 6.365122936623881511e-01 -7.698223952826108718e-01 4.717605047043965660e-02
-1.696333800044104792e-02 -1.516384149827247896e-01 -1.892853126294274380e-01 5.755498531099433324e-01 -8.167128624872500575e-01 4.150261236361696415e-02
-1.368130097832085876e-02 -1.196781513512995970e-01 -1.943909482309471581e-01 5.904907863920109135e-01 -8.054497896408814306e-01 5.070766760170009047e-02
2.786723419052385131e-02 -1.504117486719793173e-01 -2.168205912711227978e-01 6.313935306452457263e-01 -7.692878252691462970e-01 9.766499553063366645e-02
2.422169585387064228e-02 -1.598433123550483392e-01 -2.364580755337943596e-01 5.999452892343294375e-01 -7.979715031899898836e-01 5.750765185820608250e-02
-1.458831567376514537e-02 -1.569374422085591525e-01 -2.561762271751212849e-01 4.521210707907575843e-01 -8.881897315922505642e-01 8.188734970131088253e-02
-1.281086325040278195e-01 1.671036460466280571e-01 2.347148607472810955e-01 -1.871248982136254901e-01 3.359858628168269634e-01 9.230914215048109384e-01
-1.081503692317977022e-01 1.444460828999685198e-01 2.443827926091753366e-01 -2.635068021023665441e-01 4.278233929397568525e-01 8.645989299665471917e-01
-1.214095696063204333e-01 1.739182350830652812e-01 2.416286478464966803e-01 -3.982649172803570115e-01 3.367342802419293069e-01 8.532262772404635154e-01
-2.063812419532303488e-01 -1.605528165242733896e-02 2.377835549347156185e-01 -6.922330069116069406e-01 6.041269119368359447e-02 7.191409951357603525e-01
-1.687542339781752943e-01 -1.989557612224542027e-02 2.269355046748705307e-01 -7.000676698411788523e-01 -7.677139950843434035e-02 7.099376098367085053e-01
-1.669077362005513265e-01 -5.517141041617524416e-02 2.595066852383024480e-01 -8.714125818313236405e-01 -1.675387277505566153e-01 4.610541041242249838e-01
-1.806563727078635273e-01 -4.094134379209627556e-02 2.562728225252177694e-01 -3.134215348769430753e-01 1.982460182426579870e-02 9.494071448213828868e-01
-2.747646763393705310e-03 5.767780691585486924e-02 2.683235413313589945e-01 1.408734058676049949e-01 -6.284044160349223918e-02 9.880312557901896886e-01
3.379256959966760177e-02 7.097223965549578906e-02 2.757322159765398517e-01 1.645603743792411755e-01 3.999547091479430105e-02 9.855558053659203566e-01
2.055481801962158461e-02 6.216009276896027752e-02 2.616601843891860901e-01 1.924816324575270854e-01 -8.364952696379613847e-03 9.812649228077363617e-01
-4.370013183689353681e-02 -1.922178098669701657e-02 2.799994374052810486e-01 -9.144486285553415916e-01 -6.334228237030530007e-02 3.997142241619320302e-01
-2.118875138131585609e-02 1.234087194978862601e-02 2.855436252023805244e-01 -5.884711083213318705e-01 7.808317894427480033e-01 2.097700437781795380e-01
-3.877241703395967187e-02 4.697814960607833712e-02 2.355427035490938181e-01 -5.547092539301290426e-01 6.451726638946152503e-01 5.254044892912559384e-01
-1.135737916843116042e-02 1.961839445657856396e-02 2.736816583922283552e-01 -4.348731530402299289e-02 3.275783039105794603e-01 9.438227101605028979e-01
-2.204937938113302187e-02 4.431172569512326076e-02 2.450699514887255404e-01 9.154560128583268119e-03 4.553789195522155442e-01 8.902506577679731858e-01
2.657480983920174761e-02 -5.256058140822132685e-04 2.869527599803866624e-01 1.889895719836169330e-01 9.629617682397988432e-01 1.923215395891201274e-01
3.339288450278098813e-02 3.400595722904822121e-02 2.838640047451713166e-01 3.563876615186600261e-01 6.837872207289202864e-01 6.367282556044454589e-01
-5.353403979815208637e-03 2.351130451755344131e-02 2.669787710243480827e-01 -2.925896239788914888e-01 5.738083252439453164e-01 7.649413819506888368e-01
-1.361211311860422921e-02 4.799171028795749111e-02 2.784194474608833736e-01 -2.065882488485576082e-02 2.829080049723393664e-01 9.589245401369952404e-01
-1.031009124170630988e-02 3.787399596192174422e-02 2.510219702361731753e-01 -5.300062032489538666e-02 2.595021064146890155e-01 9.642870895182180657e-01
-3.476857410521441705e-02 1.940987781979212068e-01 2.144870889207911857e-01 -2.861103770157920057e-01 7.003292940503412778e-01 6.539722716284170900e-01
4.637422866234305885e-02 1.691643470804725935e-01 2.543294657944947801e-01 -1.250846899777986222e-02 2.702907354863445244e-01 9.626974896163292827e-01
-1.040438887713662219e-01 -8.626401733957340945e-02 1.508731204361127287e-01 -5.641832666989986533e-01 -4.245701399434466117e-01 -7.081224737608944331e-01
-8.090254854045517141e-02 -7.742201689561004074e-02 1.451486678678149678e-01 -6.529093763224812497e-01 -5.123916606783873728e-01 -5.578208783986424724e-01
-9.142100038806094675e-02 -9.322289834833062672e-02 1.749578741661501624e-01 -7.077247972152700406e-01 -4.300347586051276871e-01 -5.605316385343778185e-01
-1.107969967531855782e-01 -5.033010663410165952e-02 1.247313766365637511e-01 -7.426984797464581955e-01 -4.630333687207532911e-01 -4.837345011815996076e-01
-1.143423411969844428e-01 -6.922596884535006656e-02 1.710548645199422291e-01 -6.525143868086695775e-01 -3.840368533658833905e-01 -6.532539094904347143e-01
-1.123440167194585948e-01 -1.133939768397048270e-01 1.503832937186569407e-01 -5.592194723784482679e-01 -4.035599283170459017e-01 -7.241636320401008131e-01
-1.121905712259790022e-01 -7.006473712815940169e-02 1.665774083842203879e-01 -6.045486601615455147e-01 -3.328374650509327015e-01 -7.236989286680954869e-01
-1.023347558975438304e-01 -6.028015342543931177e-02 2.009412354521577238e-01 -7.125198163328385625e-01 -2.198490194143251641e-01 -6.663196830317843489e-01
-1.622856239590806660e-01 1.040254242541772955e-01 2.199921882477418600e-01 -7.499296926979203137e-01 3.522798494766614108e-01 -5.599146039019733401e-01
-1.419854395972448002e-01 9.262703998157577334e-02 2.065256355240769059e-01 -5.668375680995608734e-01 2.788446637927574634e-01 -7.752037311992763247e-01
-2.008957376155142693e-01 7.949344061083819801e-02 2.279979427447271501e-01 -6.457457186444129915e-01 3.041088919987322559e-01 -7.003786466331722860e-01
-1.775204290830923737e-01 1.118956662291288318e-01 2.412204802204756526e-01 -6.654481209898092109e-01 3.671833929101721017e-01 -6.498885706350793212e-01
-1.632201753168104064e-01 8.610124683745855323e-02 2.251391822902579221e-01 -5.511851209114877470e-01 4.463240898389898015e-01 -7.049750132559211568e-01
-1.006015682891600316e-01 1.301635560099823619e-01 2.188129724672046306e-01 -4.732453983455895408e-01 3.302819545650114152e-01 -8.166716741955974967e-01
-1.249131976066286676e-01 7.779187248767230334e-02 7.015608156522736005e-02 -7.846017822706122802e-01 5.236248831119625358e-01 3.319894953816492356e-01
-7.763976722462895275e-02 8.101917269249084286e-02 1.436812261486692527e-02 -7.088960380700920494e-01 6.280503874434812950e-01 3.209659141413923056e-01
-1.000595726227208465e-01 9.918618224076745926e-02 3.506256820431678106e-02 -6.084427562386777177e-01 7.263409475059018350e-01 3.197283852849318597e-01
-1.246736287438310053e-01 6.749012655453491549e-02 -3.793767831285830422e-02 -9.911815220771234003e-01 -1.262140683565649013e-02 1.319086440775045777e-01
-1.323384749441058883e-01 8.069251899939247630e-02 -1.026468454381268547e-02 -9.983903808899562415e-01 -2.232606145150265765e-03 5.667153444374772864e-02
-1.241969379603196505e-01 5.037338997466222351e-02 -6.982171610595347411e-02 -9.603207974424567972e-01 2.782511937790193013e-01 1.897996733491497112e-02
-1.246137637806989384e-01 5.597746222474339617e-02 -4.504271744753839124e-02 -9.603207974424567972e-01 2.782511937790193013e-01 1.897996733491497112e-02
-1.083569005980209582e-01 5.009454130668559296e-02 -8.000479749918595895e-02 -9.873923469059017188e-01 1.576987545147450764e-01 1.369146070197976503e-02
-1.050041353268087729e-01 5.296970325089681714e-02 -4.118431419560859147e-02 -9.923998707397035934e-01 1.193434755465159203e-01 2.999385604249052081e-02
-1.401708005814422398e-01 3.450662591990615036e-02 6.004626558803845965e-03 -9.107394165683246889e-01 3.569093814790135211e-01 2.077724922145751663e-01
-9.896255171129064721e-02 6.708161740751066027e-02 -2.226905023301387759e-02 -9.163399731354222588e-01 3.481020925668801280e-01 1.978534477453775253e-01
-9.377515712822864780e-02 7.195349220906599452e-02 6.264101415122651229e-02 -8.431036910880173041e-01 4.976607021553656196e-01 2.037400098262229786e-01
-1.405903210452727481e-01 7.757790794046938443e-02 -1.454323145741787462e-02 -9.324663539558654124e-01 2.811976005564739700e-01 2.267915522711031473e-01
-1.191389237408536084e-01 8.458637186642359307e-02 -3.610756169936447241e-02 -8.787107347789820944e-01 3.902413391980616986e-01 2.749166087472431630e-01
-1.315808352328177722e-01 8.051978945973356505e-02 -2.027354986242017529e-02 -9.481460879092347138e-01 1.874024439283549781e-01 2.567086285890940456e-01
-9.339609580965092805e-02 8.897695578987811771e-02 -6.921771390288107562e-03 -8.239888277746311163e-01 4.488995790791466822e-01 3.457333938241348714e-01
-8.163562360370711646e-02 9.529053805054445159e-02 -1.619830442993498276e-03 -9.095705120752023420e-01 3.170075139561994715e-01 2.686777245298986316e-01
-1.034562088902239163e-01 6.933882003425728691e-02 2.323785062461086390e-02 -8.921354039811986159e-01 3.329625654527929024e-01 3.053364553576891072e-01
-1.036825963809701046e-01 7.905387592959745025e-02 -1.026404547235229212e-05 -8.451778004302420433e-01 3.970796372528827001e-01 3.577740171379371059e-01
-1.102617744032652336e-01 7.105390594674830529e-02 -1.280607652380098653e-02 -8.451778004302420433e-01 3.970796372528827001e-01 3.577740171379371059e-01
-1.354695555284974873e-01 4.278577594605445511e-02 5.032319491688070495e-02 -9.325757951540348811e-01 2.688472361880522854e-01 2.408807794052175433e-01
-1.063506402925732536e-01 1.933695155511525390e-02 4.797716064587276286e-02 -9.257907160280336445e-01 -1.189206153579761838e-01 3.588445866376992477e-01
-1.165357563694824211e-01 -1.376501172269523933e-02 2.327725967488199904e-02 -9.257907160280336445e-01 -1.189206153579761838e-01 3.588445866376992477e-01
-1.148756557935744632e-01 3.614050215365605806e-02 5.031345102759615662e-02 -9.600894291469516117e-01 9.006241906945859632e-02 2.647962399877270556e-01
-6.996688728059237417e-02 9.757938049438896408e-03 3.799631787768123492e-02 -9.577882038278939802e-01 1.346332784289999140e-01 2.539992853289082531e-01
-1.104071822387383967e-01 -1.205635943215416575e-02 6.913507749415657988e-02 -9.427550529024701920e-01 -6.097916134608766942e-02 3.278634656505486911e-01
-9.469706069982410102e-02 8.352034529965097348e-03 5.679110199353048366e-02 -9.648450404762181076e-01 -6.591821429763082552e-02 2.544186252856823205e-01
-1.382311582472916522e-01 1.531640176121044569e-02 4.434988994795843742e-02 -9.638405567440047061e-01 4.317757205630579076e-02 2.629583207406253065e-01
-1.232201337147671300e-01 2.153909869817790049e-02 3.185862540708579715e-02 -9.619255392460942522e-01 3.106154393477758222e-02 2.715408577626926001e-01
-1.359718914690261626e-01 1.637880834248942735e-02 3.951070301323561518e-02 -9.455132391980912709e-01 3.760259384353612649e-02 3.234049465258240774e-01
-1.280048527135933534e-01 2.427395499497226120e-02 3.166294343847519954e-02 -9.348343388087811956e-01 -4.493832745723443101e-02 3.522290529034982631e-01
-1.186647881635312374e-01 3.710048072318168633e-02 8.901541418405745087e-02 -9.380150555730015771e-01 3.439520472385322325e-01 4.271703078166008000e-02
-7.931488039309270155e-02 3.082752793631945987e-02 8.192018353544554266e-02 -9.446970070697174870e-01 3.271821957212291410e-01 2.234671422275592845e-02
-9.563678494613421510e-02 3.652620373427502981e-03 1.025476991085324668e-01 -9.939802697676796139e-01 9.534157077325566831e-02 -5.397414376402123737e-02
-1.177793755837533568e-01 5.089826969559476527e-03 9.153620779969742771e-02 -9.676523638508502945e-01 2.490157118300378170e-01 -4.049787643372695228e-02
-7.622977134008822320e-02 6.565389524616827011e-03 6.767720284390661700e-02 -9.737773289310316382e-01 2.266719743853501112e-01 1.943012321609970464e-02
-1.067745769756512780e-01 3.189932502682248788e-02 9.492479094739135481e-02 -9.927972861749096989e-01 1.146708524182402655e-01 3.470078053025318215e-02
-8.403562367387781840e-02 2.517100375167034484e-02 9.156518756443689233e-02 -9.927204495401183992e-01 1.161350014700070349e-01 3.191818444753353329e-02
-8.333403884587382848e-02 3.329010686006859954e-02 6.763322184268097392e-02 -9.361139261649089605e-01 2.762295347533844092e-01 2.176877611857130634e-01
-5.236152999801156616e-02 9.218200733109900222e-03 6.184446406988208106e-02 -9.533734039529487836e-01 2.055449474757431449e-01 2.209760783486792168e-01
-1.006807471168940371e-01 2.912296417543083771e-02 9.317898264430696242e-02 -9.790102900406441044e-01 1.737608468046378807e-01 1.065176985869906306e-01
-5.026635483735458071e-02 1.430274399587058154e-01 -5.303408104582331417e-02 -4.719077167161721265e-02 9.988756933676554706e-01 -4.514451054409744993e-03
-7.988751185069342675e-02 1.194998618735686191e-01 -3.352193229863570378e-02 -4.358748269194651082e-01 8.179351896566443569e-01 3.754932233466744540e-01
-7.830729242625525388e-02 1.430410721836506693e-01 -2.212335579238886019e-02 -4.799120072424583605e-01 7.704842978753982941e-01 4.195693173147545529e-01
-9.520618031823956107e-02 1.174857558017038117e-01 -1.083381529278138189e-01 -5.276941132392084510e-01 7.193398465051943358e-01 4.517622251611668749e-01
-1.178034417564921138e-01 1.287094652552358554e-01 -1.226208094756316702e-01 -5.011567827911139750e-01 7.544622607598339137e-01 4.238261154667329889e-01
-1.170587318853826830e-01 1.497401543415754765e-01 -7.985162552668674529e-02 -5.011567827911139750e-01 7.544622607598339137e-01 4.238261154667329889e-01
-1.022886142632901674e-01 1.546702508132918596e-01 -9.676949153619451849e-02 -4.521669655905621310e-01 7.936874324938441028e-01 4.069463044800295526e-01
-2.283368153262678446e-02 9.139259785356791677e-02 -2.383631572511130461e-02 -3.587220875948273456e-04 9.922015599855407153e-01 1.246432335938190555e-01
-4.139636483465579386e-02 1.332132516203110573e-01 -1.202563742410336402e-02 -1.097802448152609134e-01 9.587707589163314559e-01 2.621200673266037007e-01
-3.246161863972457651e-02 1.685923337027278313e-01 -3.905491612029975829e-02 -1.097802448152609134e-01 9.587707589163314559e-01 2.621200673266037007e-01
-5.032372266794898907e-02 1.364733880540500432e-01 -4.530172015597271062e-02 -8.260234313573902587e-02 9.870731991532758487e-01 1.373439202214757071e-01
-4.409329076660606361e-02 1.196063783397251362e-01 -6.846444511171700942e-02 1.034264229357383935e-01 9.938810735915929451e-01 3.877352956773801734e-02
-6.446215788916165312e-02 1.305922419579899352e-01 -5.434795381832770167e-02 7.649200794936490688e-02 9.956756379284931180e-01 5.271619063971183516e-02
-6.194634259661602194e-03 1.555904318344731863e-01 -4.716623402875731036e-02 1.551036083203941873e-01 9.878264564445394802e-01 1.190641147526251900e-02
-1.314525736778414389e-02 1.060606143719228234e-01 -6.241041820143453100e-02 1.440882409140429588e-01 9.891911751423206889e-01 -2.719187104359516854e-02
-3.380605773831677624e-02 1.458629783315973649e-01 -7.173486851408922282e-02 4.470197239977656556e-02 9.987587777920329257e-01 2.196901105954015068e-02
-6.796744880399607780e-05 1.264592445270650845e-01 -3.788047029648396180e-02 4.368088590089348744e-02 9.988188036855996099e-01 -2.128327068334890868e-02
2.192111080504128423e-02 1.485543185748415262e-01 -1.318079930682942436e-01 -6.036159355211369038e-01 7.948719736503416788e-01 -6.185748047045775549e-02
4.367982842785504694e-02 1.645937457170159046e-01 8.056828639463813752e-03 1.139862982690117155e-01 9.017133057725582601e-01 4.170374539530622426e-01
4.890286119622892086e-02 1.601748865606030803e-01 -4.527923849055418698e-02 -9.757162708680318375e-02 9.243216667033534728e-01 3.689298497687177880e-01
9.171885516649957992e-02 1.788842622559584372e-01 -1.078224707913772312e-01 -5.205058079201997645e-02 9.401333271284603166e-01 3.368086463581140277e-01
4.695160358623799712e-02 2.002676413062955685e-01 -1.341201103451973298e-01 -3.263144927612522950e-01 9.210940016701211208e-01 2.123786521788141590e-01
5.841663812397358130e-02 1.606153921652744010e-01 -8.704409570154335307e-02 -3.850363014197093203e-02 8.905381999309629482e-01 4.532760581914852538e-01
7.746209982030663466e-02 1.810192367778625799e-01 -1.277393666951982809e-01 -5.113823572119842453e-02 9.147938480050068488e-01 4.006708081449352754e-01
4.557984822872788999e-02 2.003287553193634218e-01 -1.186178573831002392e-01 -3.085119164199339251e-02 9.191529663224434765e-01 3.926907542518950356e-01
9.121564990736708012e-02 2.028831457277360806e-01 -9.940180684107728648e-02 4.353995641438591635e-01 7.847558812213162316e-01 4.411183814259985736e-01
6.387873703872631870e-02 1.664915049903412936e-01 -4.373952874016255599e-02 4.657188955491270987e-01 7.684938911169120201e-01 4.387744860910773870e-01
8.216191007834654225e-03 1.563026889998148095e-01 -5.398075357366733523e-02 -4.523266851683976908e-02 9.159010271508307710e-01 3.988474823324060226e-01
-5.799893405080278758e-02 9.321979981871959808e-02 -4.027090151725808143e-02 -2.210072972808101166e-01 9.417835354988196572e-01 2.533762948895877387e-01
-7.815677162022285906e-02 1.360465196120192455e-01 -2.316727490949925874e-02 -3.009117087001232371e-01 8.926553832843138192e-01 3.355868147897155263e-01
-7.128036542064941639e-02 1.126727068177158925e-01 -3.750328578889546797e-03 -4.108116429348954712e-01 8.320482806138062015e-01 3.727324144164826381e-01
-4.268759433577598572e-02 1.341024932294052341e-01 2.047272351787688544e-04 -4.108116429348954712e-01 8.320482806138062015e-01 3.727324144164826381e-01
-4.693242806987152349e-02 1.258168776618800999e-01 -3.726927349918249949e-02 -2.968751163861635955e-01 8.868043696748350024e-01 3.541795804338818687e-01
-4.039988479010568623e-02 1.298302969280987762e-01 1.352402094222247136e-03 -2.968751163861635955e-01 8.868043696748350024e-01 3.541795804338818687e-01
-4.845275481105962290e-02 1.329675763828398194e-01 -4.899496396696162610e-03 -3.564470294160865249e-01 8.587181254054870871e-01 3.681693853656677895e-01
-5.749401929683845697e-02 1.150171228255035677e-01 1.193725048457868962e-02 -3.564470294160865249e-01 8.587181254054870871e-01 3.681693853656677895e-01
-5.096878244788229095e-02 1.042569725042405693e-01 2.693602115371332428e-02 -2.764775907396396226e-01 8.893063908901163162e-01 3.642722675977402846e-01
-2.920450853012984335e-02 1.227324073864681508e-01 3.437838858265605813e-02 -2.267634516052069171e-01 9.159589362265246892e-01 3.310552282669257385e-01
-2.870923723583945417e-02 1.126731800879719886e-01 1.554765629490502746e-03 -1.138945714438055479e-01 9.592696199457602102e-01 2.585146472537844797e-01
-1.172249210330862310e-02 1.411227512738226497e-01 2.452897432337334052e-02 -2.274846044987369753e-01 9.157126801408489447e-01 3.312416672843506715e-01
-3.337927123374798133e-02 1.318235278494154228e-01 -4.018088195068155594e-03 -2.334237637483256855e-01 9.158860547607997615e-01 3.265977360795127016e-01
4.017448592366225368e-02 1.124148937483642891e-01 3.646985535967033065e-04 -1.436786137490551341e-01 9.374754627668211437e-01 3.170113762332264495e-01
-2.595612283543919513e-02 1.108616326666064661e-01 2.736243756677200073e-02 -1.436786137490551341e-01 9.374754627668211437e-01 3.170113762332264495e-01
-3.281363268240711922e-02 1.418033342818691978e-01 9.991306075788224800e-03 -1.572395868593661483e-01 9.303673382896733290e-01 3.311983215055365748e-01
-1.493049999373998078e-02 1.217678654572857955e-01 2.848945308216853378e-03 -1.413361795981820379e-01 9.352824491152617048e-01 3.244546574077006862e-01
-3.540065225466898502e-02 1.528089683504257890e-01 -9.635538569739416151e-03 -1.603740127212552047e-01 9.519682506301168079e-01 2.608383135889311144e-01
-1.441837144587235914e-03 1.260636716659372381e-01 -4.286516395676091828e-02 -1.891471913882119826e-01 9.515606561245112394e-01 2.423956635458661968e-01
-2.771363113925101249e-02 1.149054359447401474e-01 -2.416552778972468757e-03 -1.833025730315537560e-01 9.440701385091047060e-01 2.741016969947687731e-01
-5.469864567231051689e-03 1.184313161678038073e-01 4.400741707644843098e-02 -1.159039246408176127e-01 9.679381581086110575e-01 2.228497303793864071e-01
-6.312972129479827929e-03 1.084994371484708509e-01 2.153230899922550096e-02 -1.577466264248469918e-01 9.484911572185109607e-01 2.747371953883739892e-01
-2.742170627229137056e-03 1.435051236179147038e-01 4.543544554717116740e-02 -6.270973120178903459e-02 9.577349809005054615e-01 2.807333182436805297e-01
-7.214295949945535857e-02 9.891007514830008063e-02 5.453387274476791113e-02 -4.902088924256054470e-01 8.035606773349742715e-01 3.376173568225105392e-01
-3.511202829548409898e-02 1.135645677592855285e-01 2.469310871068424590e-03 -3.785782896239144324e-01 8.641306127990939778e-01 3.315972898696455951e-01
-3.122215629472505083e-02 1.157727994614593664e-01 1.214301904264308146e-02 -2.786890705034220095e-01 9.076027405647634216e-01 3.139899159228991543e-01
-1.026997355860131966e-02 1.239619873601014721e-01 3.231690407812758126e-04 -2.786890705034220095e-01 9.076027405647634216e-01 3.139899159228991543e-01
3.216140870430388848e-02 1.226562088223559222e-01 2.659345565387274957e-02 1.428426730187732849e-02 9.599606982389621290e-01 2.797702942490731814e-01
-7.815270650214010267e-03 1.410987629965122780e-01 1.455749032522305787e-02 -5.673905762351556109e-02 9.360351456292693717e-01 3.473022969788536751e-01
8.031586438451455978e-04 1.546845470120810917e-01 1.079970120468356880e-02 -5.389107693219536560e-02 9.362849980426065644e-01 3.470823450817466238e-01
7.359335453261883590e-03 1.141907836421035410e-01 2.487946403881434801e-02 -5.389107693219536560e-02 9.362849980426065644e-01 3.470823450817466238e-01
3.379836510076935502e-02 1.435117560284553118e-01 2.042737591463642532e-01 1.139251395194780664e-01 4.763064667574792854e-01 -8.718676575664875417e-01
5.268388985496993276e-02 1.780370582319080464e-01 1.859653324424114795e-01 7.772736960437938436e-02 4.436840938987237637e-01 -8.928061832422827804e-01
6.844176887766627304e-02 1.821473254098065764e-01 1.965772743361371699e-01 3.252293227842166790e-01 3.728509780375852678e-01 -8.690270627418549276e-01
7.586623643803125372e-02 1.828712422566357021e-01 2.391749894146082966e-01 3.252293227842166790e-01 3.728509780375852678e-01 -8.690270627418549276e-01
4.714996351429337484e-02 1.648658414458917254e-01 1.999648795350058295e-01 3.749773226412123628e-01 3.873455513834933583e-01 -8.422324093314419446e-01
8.362006036432487188e-02 1.883972189956221177e-01 1.950750405903162454e-01 3.148862834868750848e-01 4.065920588891119847e-01 -8.576301802759369597e-01
1.140959009837329563e-01 1.667707613212784101e-01 2.203274923000677343e-01 5.734471625037695919e-01 7.866774423279490058e-01 2.286852718229392678e-01
1.412490744852213098e-01 1.438874829744404837e-01 2.318227842890470125e-01 7.951632418231545651e-01 6.057458421886967592e-01 2.806053321656398758e-02
1.322792343129862158e-01 1.243179559038478516e-01 2.317699472555479479e-01 7.951632418231545651e-01 6.057458421886967592e-01 2.806053321656398758e-02
1.268802284308631068e-01 1.433217427741277639e-01 2.559568125718197917e-01 5.668617563095202927e-01 5.680085351947268268e-01 -5.966858915540292907e-01
1.229854512097733887e-01 1.548644657686625847e-01 2.002335104351676276e-01 7.585721289886168117e-01 5.949883568630258690e-01 -2.656260158928599457e-01
4.083094317437181014e-02 1.798239118631465294e-01 1.985999374813295359e-01 3.866483285317249829e-01 9.197255221323008545e-01 -6.788250129517765796e-02
8.484584897125985181e-02 2.069156451614259651e-01 2.468386078149318874e-01 4.732012640240675361e-01 8.726655567026261329e-01 -1.205628046742444476e-01
5.519338158550442242e-02 1.706949129527115805e-01 2.374060162522597384e-01 3.542012205155918858e-01 8.867783027767127679e-01 2.969271579187692800e-01
1.249951598019704291e-01 1.969591210244668322e-01 2.344950530524725907e-01 2.288849435650082143e-01 9.732655461881740688e-01 -1.912744656973442217e-02
1.109443582333154571e-01 1.671566640433817530e-01 2.182433945575034395e-01 4.301985854698043843e-01 8.958393608423281806e-01 1.113598519457888875e-01
1.097837631235979577e-01 1.781388632860415600e-01 2.202895536724096548e-01 3.652656660281979328e-01 5.431397768359770284e-01 -7.560292163928205023e-01
1.240587989591862977e-01 1.727666570634529275e-01 2.504631415709628883e-01 5.029030096656628146e-01 7.055585271506548128e-01 -4.992752023025145980e-01
1.502342271599763912e-01 1.736655244891836813e-01 2.465169621148066148e-01 5.557386343350302349e-01 5.690280052781081510e-01 -6.061037035991885258e-01
9.054837231958798305e-02 1.565312297040157563e-01 1.940279305973146018e-01 2.864326413167612162e-01 3.934564219327682522e-01 -8.735836456963735897e-01
9.915645061335355559e-02 1.564240042863186408e-01 1.994056086773629555e-01 2.795472887296642228e-01 4.317148011040113365e-01 -8.575987662488896435e-01
7.613141735456976922e-02 1.884212549551413651e-01 1.993453665104800432e-01 2.922959134996703789e-01 5.262918987235533086e-01 -7.984860276105966159e-01
-1.412703082245882376e-02 -6.082014960372442158e-02 4.994975378133025834e-01 -6.510441024902984264e-01 -7.589795358982986961e-01 9.572914927270160038e-03
-5.465254460053265567e-03 -2.805220897361148519e-02 5.249296612681532137e-01 -1.951982491327581837e-01 -9.798231104373307243e-01 4.294549788301670057e-02
-9.614747239029445419e-03 -6.689718140325423557e-02 5.416994508122161545e-01 -1.739062408473090460e-01 -9.844893105149707946e-01 2.318225347361710376e-02
-1.261598503140473962e-02 -4.750354606337700569e-02 4.880417593172947655e-01 -4.056089719372481528e-01 -9.139532822056120054e-01 -1.306751045906508722e-02
-9.836489059725932876e-03 -1.953091495424719506e-02 5.126573878653031269e-01 -9.961762651661879575e-01 8.684123544368463343e-02 -9.562873321306617977e-03
-6.865313674870789085e-02 -1.134282011898252694e-02 6.843585075817768537e-01 -9.972542394570895752e-01 -3.265550289516932353e-02 -6.646502851519248134e-02
-7.996187576928243113e-02 -1.503746584454939902e-02 6.528417661459023913e-01 -9.972542394570895752e-01 -3.265550289516932353e-02 -6.646502851519248134e-02
-3.554805221470808824e-02 -4.436984946113976813e-03 6.811251667885700467e-01 -9.296051110877983081e-01 -3.330894133809361168e-01 -1.577522745730987330e-01
-3.194666779343286606e-02 2.248519616173185950e-02 5.081201136832138587e-01 -9.998925258535716898e-01 1.358946275895271845e-02 -5.501203876180176672e-03
-1.111064119377300555e-02 -4.696087114862405008e-03 4.666749134171881974e-01 -9.998925258535716898e-01 1.358946275895271845e-02 -5.501203876180176672e-03
-3.421791925967911790e-02 -1.434210913600253781e-02 4.650554753332466484e-01 -9.999424026146728206e-01 -4.729687142565213755e-03 9.634392182646979441e-03
-1.820647706426562623e-02 -1.591644841474474867e-03 4.776959771309754466e-01 -9.266902603943315553e-01 3.758048892144529307e-01 -3.980770377526042340e-03
-5.688150342771644552e-02 2.496629772197334497e-03 5.126424310729447154e-01 -9.906022281107019767e-01 1.303407887168092361e-01 -4.145484843528882829e-02
-1.262727222628701879e-03 3.214470916536608242e-02 4.751713440016565038e-01 -8.247880841605804703e-01 5.652337573730796816e-01 -1.534326408004331281e-02
-2.327444378926345897e-02 -6.983973921129555534e-03 4.888493263588770676e-01 -9.218655033539344679e-01 3.859230255116211650e-01 -3.503444171031608323e-02
-4.388357912772276881e-02 1.575580355587917827e-02 5.198166907859927965e-01 -9.940381276672849431e-01 -9.560358440865061869e-02 -5.242285181041422826e-02
-3.972999286401715513e-02 7.113655255954465934e-03 3.846719436210079834e-01 -9.955306285567551150e-01 -9.110999454748112958e-02 2.485430544091359745e-02
-5.416945359843784724e-02 -8.398667570704398955e-03 3.847339060362927055e-01 -9.922346405447821649e-01 -1.240824513019561509e-01 8.600196617787712536e-03
1.824056455984725267e-02 -2.076396975781915830e-02 3.608193317761644869e-01 8.553294887676851088e-01 -5.180362427444392681e-01 -7.065185605115860065e-03
5.241269617317845242e-02 3.858916276049336597e-03 4.390344558646778195e-01 8.193469995212157020e-01 -5.722716421364808514e-01 -3.428792764219714545e-02
3.039275415849598816e-02 -3.750236399326111608e-02 4.101784834189898254e-01 6.544382783799357339e-01 -7.560804242377516804e-01 7.275429579556476518e-03
3.842926923701026065e-02 -4.034684151509773664e-02 3.946416862645802937e-01 6.785484239927918049e-01 -7.341396123816240626e-01 -2.471974573204805195e-02
3.546527925853532048e-02 -1.761333442076414013e-02 5.867643180987240914e-01 3.791255293628353340e-01 -9.253448712987818459e-01 8.379417584778939146e-04
2.333420639582368949e-03 -4.051850976246926944e-02 4.846265995225767509e-01 3.694788854588820226e-01 -9.285352333548497761e-01 -3.616177012698541804e-02
3.008552169006176169e-02 -1.457512462940198372e-02 4.755230906748132425e-01 2.390309992245415460e-01 -9.709165646988894283e-01 -1.360903387549606582e-02
4.974328230328394461e-03 -4.434776208983145368e-02 4.838223448018721395e-01 2.431262186103275713e-01 -9.695763803678316695e-01 -2.848305561306477621e-02
1.422503493870826488e-02 -4.367160953312471117e-02 -3.985565393258769240e-01 1.765936597300253597e-01 1.110681003988562010e-01 -9.779972169781188107e-01
1.311595317975890185e-02 -8.676376792722288733e-02 -4.172363592695698120e-01 9.194241366663905013e-02 1.246670524687586573e-01 -9.879295109459503843e-01
-1.963750222018830482e-01 -7.168545993267687322e-02 -3.780892031392315555e-01 -2.941854066325925721e-01 -8.642709512403327909e-02 -9.518326027999026717e-01
-2.506833162091558487e-01 5.745178178709083039e-02 -3.858370136879664125e-01 -8.672720540597175232e-01 6.939039104128234825e-02 -4.929748045064536455e-01
-1.294008551266965790e-01 7.136910606441407290e-02 -3.861275183439351055e-01 2.821243611317162531e-02 -2.115132440675481992e-02 -9.993781466113818013e-01
-1.321208372307228762e-01 1.862656826032897950e-01 -4.162314709650880573e-01 -4.295959973112657981e-01 5.366607677295767154e-01 -7.262523662433330029e-01
-1.069079188475225151e-01 1.961635246603571636e-01 -4.023521486707014039e-01 -3.320236139542043774e-01 5.730390542195339387e-01 -7.492573403817752720e-01
-1.135608276252342980e-01 1.907480219916390107e-01 -3.677446789009616301e-01 -2.551527218675537223e-01 3.931956491262740827e-01 -8.833426685221013042e-01
-9.957202079956659069e-02 1.978719529468619120e-01 -3.979010874198316006e-01 -2.120004751277691779e-01 3.982101813446032867e-01 -8.924597750145931707e-01
-1.307385958300120721e-01 1.858907275704296258e-01 -3.749984981025397679e-01 -5.045948119392247300e-01 8.630236492436539342e-01 -2.396365185411186705e-02
-1.078989081706676484e-01 2.442507693921561196e-01 -3.895734157982951862e-01 -5.078366609726431280e-01 8.155573543205588694e-01 -2.774313024620816415e-01
-1.031340665512817945e-01 1.747048295116028216e-01 -3.571212300163504882e-01 -5.118161828116702949e-01 8.590024586272962948e-01 -1.260837358071444786e-02
-1.129030831635097626e-01 2.012856667955577328e-01 -3.716497005862524072e-01 -5.926384510918940585e-01 7.854323223621701988e-01 -1.785377642857906011e-01
-1.293891473878658049e-01 1.972519565723058754e-01 -4.142078417942137158e-01 -5.698366290242383725e-01 8.038030551219745856e-01 -1.708416366079198168e-01
-1.277707424135059722e-01 1.815349099129161536e-01 -3.669299781709964292e-01 -5.034783014766329723e-01 4.968573052450183103e-01 -7.068538874243129877e-01
-1.153535665167061824e-01 1.586851963230135054e-01 -3.882455234820118561e-01 -5.332629696981849854e-01 7.631345828224039840e-01 -3.650427559192870874e-01
-1.399710304068774169e-01 1.982257539215570019e-01 -3.982744942776293429e-01 -5.059652951715463143e-01 7.032317379672839985e-01 -4.994639554537275150e-01
-1.223820728901919841e-01 2.052088062187125417e-01 -3.810575623288923186e-01 -2.593452996248828968e-01 7.465819560276738542e-01 -6.126625486320933511e-01
-1.140623922516244837e-01 2.070531780302909686e-01 -3.710839948052365722e-01 -2.595153772017573801e-01 4.214767756830735679e-01 -8.689125943129318852e-01
-1.327340720970047183e-01 1.911158765016268968e-01 -4.091580489952011956e-01 -1.650177847328351821e-01 3.441854444533298807e-01 -9.242864872691429756e-01
-1.473058369564890779e-01 1.580862636833588186e-01 -3.832091497694485316e-01 -3.443548116991275165e-01 4.937984225530331339e-01 -7.984878718827195243e-01
-1.107916130874681965e-01 1.845320491129077145e-01 -3.910606561414214921e-01 -3.920954704050959583e-01 4.902201772328280138e-01 -7.784248967765748928e-01
-1.443601800621844289e-01 1.972557690042334166e-01 -3.837680385991576459e-01 -2.247032865603723339e-01 2.395228445198064882e-01 -9.445301688999181433e-01
-1.232494683513943312e-01 1.840590568597184340e-01 -3.965794222227010946e-01 -2.912888615195036723e-01 2.881264064376800604e-01 -9.122137759691969494e-01
-1.144752378976146984e-01 1.768151246121888454e-01 -4.053819936627990339e-01 -2.193830499142595536e-01 2.155228299255164681e-01 -9.515361197512233193e-01
-1.284725316177589005e-01 1.765036490054173179e-01 -3.565365000615418056e-01 -1.699104822524836189e-01 2.284440855207811594e-01 -9.586155265857644325e-01
-1.678593425366043390e-01 1.837355878684162891e-01 -3.611239732839964800e-01 -8.268496468288561996e-01 5.560061282005807071e-01 8.471627318523418382e-02
-1.921210579363408499e-01 1.357926338078021544e-01 -3.749021254371375789e-01 -8.445652925342997941e-01 5.344660182752686284e-01 -3.248910518055319469e-02
-1.745822935749238303e-01 1.532638761652308501e-01 -3.932313271886948569e-01 -6.844177274553217005e-01 6.518160089850844052e-01 -3.266623100017038706e-01
-1.638137368937195582e-01 1.489902723721596434e-01 -3.922488825117314004e-01 -7.237514675712439782e-01 5.407958693711547582e-01 -4.286299579585723385e-01
-1.612302857863665562e-01 1.399480477732713002e-01 -3.850083006009984432e-01 -4.539600925624616701e-01 3.196291872339782625e-01 -8.317195543143300895e-01
-1.969108098987849831e-01 6.964565326570343329e-02 -3.916346255630944184e-01 -4.867903451129766412e-01 2.557001426857602455e-01 -8.352560068238186197e-01
-2.042288524940594763e-01 1.270131881077601332e-01 -3.732178859388117220e-01 -3.755594954880492886e-01 1.733211468188455284e-01 -9.104476071769106449e-01
-2.040769915237526655e-01 6.378997714574224931e-02 -4.029900868895806010e-01 -3.755594954880492886e-01 1.733211468188455284e-01 -9.104476071769106449e-01
-8.241300830862374749e-02 1.209819385941449943e-01 -4.024843679143558783e-01 -1.376764065224289624e-01 1.043976820208595419e-01 -9.849600657263939407e-01
-3.495559286274974725e-02 1.243665256567073885e-01 -3.883986017558750392e-01 -5.817919654557698363e-03 -4.272928512437429438e-02 -9.990697473167992060e-01
