8.196446917552083766e-01 2.357751583270864537e-01 1.521016867013798013e-01 -2.858902835707194390e-01 -8.586731563937028966e-01 4.253788385060182642e-01
8.163533200456086769e-01 3.439451395354186092e-01 2.238749532947683085e-01 -4.502917949699544731e-01 -7.861840066756003997e-01 4.232635196071544703e-01
-6.097425700942299409e-01 5.174022562049374052e-01 3.951775528623412415e-01 -8.941955855841990930e-01 -2.306468939715760613e-01 3.836877181028807149e-01
-5.767390879287103145e-01 5.489434592750583874e-01 3.092135148659793109e-01 -8.941955855841990930e-01 -2.306468939715760613e-01 3.836877181028807149e-01
-5.653979447619166265e-01 4.844401281947879334e-01 2.635091781113577114e-01 -8.786400177801819700e-01 -2.005520812438688349e-01 4.333250302763437811e-01
-5.898590994589560932e-01 5.103269318498777629e-01 2.179006312179159743e-01 -8.758044987423911909e-01 -2.007694102171557748e-01 4.389283812920331540e-01
-6.132708712404320028e-01 5.111231030560476896e-01 3.058021369843398340e-01 -8.849772999143423746e-01 -1.941552942393280079e-01 4.232244089784522045e-01
-6.024064561101547532e-01 5.379500775032896032e-01 3.051231433090745293e-01 -8.849772999143423746e-01 -1.941552942393280079e-01 4.232244089784522045e-01
-6.345716388791926565e-01 5.487594902524829399e-01 1.807607870451911347e-01 -8.742133977581977300e-01 -2.143655025427258221e-01 4.356585434714574379e-01
-6.343319093765782402e-01 5.849047408184916419e-01 2.252644618934895593e-01 -8.742133977581977300e-01 -2.143655025427258221e-01 4.356585434714574379e-01
-5.821842589110388655e-01 6.087468456235494152e-01 1.765465887058284555e-01 -8.742133977581977300e-01 -2.143655025427258221e-01 4.356585434714574379e-01
-5.858864237123986296e-01 4.161353615822671048e-01 3.061315360411346331e-01 -8.889979601625138672e-01 -1.940219476571141966e-01 4.147747709953311102e-01
-6.146405736428290911e-01 4.841689727774245999e-01 2.818884498765483193e-01 -8.851816159727294853e-01 -2.404881314161007588e-01 3.982699654655112997e-01
-5.368716977003120672e-01 4.144479480241767266e-01 3.651772227730095688e-01 -8.916998639559274853e-01 -1.953748152681069883e-01 4.082891551093824067e-01
-5.447470502261477776e-01 4.514584557305665324e-01 3.871475671618925252e-01 -8.888089538971780668e-01 -1.942624306242189403e-01 4.150671650711177385e-01
4.525734192526969513e-01 5.376003636947074282e-01 2.571251620357388190e-01 7.789147353795512485e-01 6.271264512355513299e-01 2.061351330447097532e-03
3.803857802561142476e-01 6.090588617759696843e-01 2.762088956064755463e-01 8.474785585146111799e-01 5.123280618478518456e-01 -1.389246194928035472e-01
4.490795784508341271e-01 4.765028644002623492e-01 2.679746756113917106e-01 8.615555381462329798e-01 4.895812768718681984e-01 -1.342841316986713995e-01
3.565381320124146325e-01 5.731299356595289662e-01 1.776808213576924755e-01 7.249421075094928391e-01 6.887318281405392373e-01 -1.036386346328930196e-02
4.196641499842109768e-01 5.224242973703634441e-01 1.459241718428519463e-01 7.417414828597234111e-01 6.701275803089982164e-01 2.736053205377526193e-02
4.240786614876779770e-01 4.085922548186636805e-01 2.457847562078798731e-01 7.043632355885036667e-01 6.509823765566498111e-01 2.830095011902429847e-01
4.858875696341478090e-01 3.800924086712698102e-01 3.064228083546656212e-01 8.084629533082942077e-01 5.784858512629634797e-01 1.083594620538284869e-01
4.542491229552589882e-01 4.912834289335601401e-01 3.157527612636214509e-01 8.854561812076824356e-01 4.431536879753008584e-01 -1.399362711915577706e-01
4.854575962452614135e-01 5.193524220897318688e-01 2.577434768684236932e-01 8.623572490273436753e-01 5.044101298753772555e-01 -4.370807624566840771e-02
5.157776536516981425e-01 4.706421093937643296e-01 2.904108467790328940e-01 8.324469054594010320e-01 5.532815149537577692e-01 3.019461543953807711e-02
7.011915928814693721e-01 4.227906155403975408e-01 3.029812068930103908e-01 -6.753341458597136304e-01 -4.986611030660659805e-01 5.433791454637043605e-01
6.319555960341707301e-01 4.056533297180780484e-01 1.803370058229203654e-01 -5.083311519480144813e-01 -5.645429103203480903e-01 6.503005015884857354e-01
7.187425245215245395e-01 3.435607654482430440e-01 1.598607067125084047e-01 -3.879056600811786604e-01 -6.014977550960520780e-01 6.983764382418661265e-01
6.310700969969418317e-01 3.929417381520121100e-01 2.510141572860172809e-01 -5.967741285337775370e-01 -4.868973859284917438e-01 6.378021441550286719e-01
6.395209934723771195e-01 4.277802009532816196e-01 2.697153709797153742e-01 -7.263484596327260956e-01 -4.329092538856066930e-01 5.338609304766301911e-01
6.361257238185472618e-01 5.348611486176418905e-01 2.142893748059311876e-01 -7.110272541209028407e-01 -3.605476684615807614e-01 6.036933183862540631e-01
7.004172197979792180e-01 4.290628323464748539e-01 2.335522317298384110e-01 -6.578237061598928292e-01 -4.202857395801738449e-01 6.250022949714737486e-01
8.494067024150416811e-01 3.089665758268521634e-01 3.644557645951025937e-01 8.710223642326353488e-01 3.530020618816536726e-01 3.416278462214276668e-01
8.522578205274815577e-01 3.865320702485114945e-01 3.155037016046129406e-01 8.671047358054396748e-01 3.900269467634303044e-01 3.098521549742309644e-01
8.765388251258038332e-01 4.283725160844280011e-01 1.869681197892803515e-01 8.693571065686440669e-01 3.877399859479369604e-01 3.063917827809497507e-01
8.376116963912458857e-01 3.340295603701434746e-01 2.638412106444255056e-01 8.693571065686440669e-01 3.877399859479369604e-01 3.063917827809497507e-01
9.103927003993441680e-01 3.382091199903852208e-01 2.865363992588368935e-01 8.843521916848139375e-01 3.430495929464382199e-01 3.166041342774116307e-01
8.753363159121888559e-01 5.307202404930256856e-01 2.033578392900305953e-01 8.427067876272670288e-01 4.995253345609703133e-01 2.007976847941301268e-01
7.878193124882650888e-01 5.249877441308614667e-01 2.518035205032010948e-01 8.297708398750562875e-01 4.895564103651110499e-01 2.679829740178849007e-01
8.604945653282954909e-01 4.847048448506949825e-01 1.840384960347346555e-01 8.297708398750562875e-01 4.895564103651110499e-01 2.679829740178849007e-01
8.615479465144880722e-01 4.849069074155157866e-01 1.984388458166727320e-01 8.585552037741229769e-01 4.582283687005352379e-01 2.300211385730032143e-01
8.465390293981582825e-01 4.550691764616432433e-01 3.760515190998020563e-01 5.561833258423533322e-02 3.193793484091411727e-02 9.979411652991607706e-01
8.241406672780995368e-01 3.633430928214862465e-01 3.589902854111989283e-01 8.310183043937138248e-01 4.329742781277349239e-01 3.492017357379019749e-01
8.682101883684028021e-01 3.918096928186402539e-01 3.659974324076921137e-01 8.300792239855292465e-01 4.101320338057205528e-01 3.778362036041078009e-01
8.358190628465116401e-01 4.526548101054058693e-01 3.714217512974772317e-01 7.930983473690476071e-01 4.930916543429921806e-01 3.575690588093110023e-01
7.794561493342776481e-01 4.529498483815891374e-01 3.780842184724658162e-01 7.930983473690476071e-01 4.930916543429921806e-01 3.575690588093110023e-01
8.415842264225605884e-01 4.153838235872006068e-01 4.097232264088478404e-01 7.995822349374845928e-01 4.371884775405497359e-01 4.117456553239554062e-01
8.491742967462804215e-01 4.449491695122457791e-01 2.091695147659006215e-01 8.679230879460906323e-01 4.242903062233731037e-01 2.582387450693625075e-01
7.846509039600423341e-01 4.501513612084645510e-01 2.790364399032866372e-01 8.314716266627900643e-01 4.696122145206634291e-01 2.968489549042280795e-01
8.642304654879391368e-01 4.326450354669749143e-01 3.553747484089528896e-01 8.511987420528360770e-01 4.099720550562780397e-01 3.276943936056909146e-01
8.656273070555872140e-01 5.200216322481595599e-01 3.103641669553801052e-01 8.440334396552231500e-01 4.443860346347083268e-01 3.002142650931374224e-01
9.184428062333460652e-01 2.469887175424715364e-01 3.233871038488658756e-01 -6.213820970192961424e-01 -7.805662728177876764e-01 6.782759942124604036e-02
8.604801048572547906e-01 2.871212651030321528e-01 2.428913037345618586e-01 -6.264239429065784348e-01 -7.673847071499856343e-01 1.367982272754534046e-01
8.159840417790892309e-01 3.028095146545196625e-01 3.957431427840132909e-01 -7.390230055199323855e-01 -6.554639661439637388e-01 1.556020128375932843e-01
9.041934094541228539e-01 2.847564504234396110e-01 3.779596288751805311e-01 -7.067816867434995043e-01 -6.963001577616018123e-01 1.250029503059117142e-01
8.732018555232253787e-01 2.998765630409048200e-01 3.452976331744669891e-01 -6.725793314613631724e-01 -7.221818429243980209e-01 1.615253188862531275e-01
7.213439259099466705e-01 5.190094152770328151e-01 4.068137679474823076e-01 -8.635923157090482638e-01 -4.506755340867727999e-01 2.260528151204616865e-01
7.937473428954684440e-01 4.522549344348666400e-01 4.117815448389263167e-01 -7.967599539474730097e-01 -5.266673308174888435e-01 2.963023766951632942e-01
8.060734208594803052e-01 4.589968122113398663e-01 4.221999242940431274e-01 -8.245504965383280149e-01 -5.154923716465338313e-01 2.332039738782953620e-01
7.993325520447264187e-01 4.504734490941002534e-01 3.630541706959378168e-01 -7.046271528137723061e-01 -6.233660933678865090e-01 3.389915768228113913e-01
8.421494070520267883e-01 3.871765047285085637e-01 4.485067289645045530e-01 -7.689579072009743443e-01 -6.114404078070910797e-01 1.866664529415924256e-01
7.986711032780793307e-01 3.556055429772736476e-01 3.901215313167941123e-01 -7.945753899797856068e-01 -5.684340011984272412e-01 2.133840104600580323e-01
7.609383006402079541e-01 4.253620943369111340e-01 4.077296124572877822e-01 -7.945753899797856068e-01 -5.684340011984272412e-01 2.133840104600580323e-01
8.080496696427040826e-01 3.111498498024955484e-01 3.751858412832108081e-01 -7.446959998179827345e-01 -6.171518334093378799e-01 2.540698375931072506e-01
7.865932969855163881e-01 4.755203114238321649e-01 3.311102533094458789e-01 -7.712244057259938224e-01 -5.758007670785786347e-01 2.714155350091593810e-01
7.509614714588217499e-01 3.205194449759333208e-01 2.031871475223725187e-01 -4.870123409916110591e-01 -7.140279545928881477e-01 5.029742138338378910e-01
7.771757741708744671e-01 3.191819248576294732e-01 3.034773928522929709e-01 -5.595584138363443039e-01 -7.417726389632651740e-01 3.696859932299678686e-01
7.352196610138846955e-01 3.632305777739293640e-01 3.089973448123390365e-01 -6.183420655639344510e-01 -6.606315923129612022e-01 4.256982372434356399e-01
8.476427175066403308e-01 3.602680064450222708e-01 3.379674833691915237e-01 -7.199350999880814728e-01 -6.578884908445185031e-01 2.210795906895820506e-01
8.331599568797913857e-01 3.452706783112071687e-01 2.615027242785531447e-01 -6.341521232686433418e-01 -7.332244514072148167e-01 2.454240990865812488e-01
8.226414427003508889e-01 3.682219379849480667e-01 3.682279470639609475e-01 -6.961283728031798512e-01 -6.528117907407041676e-01 2.987340865189510586e-01
8.971414205893021299e-01 2.308269985872793972e-01 2.393127597861465228e-01 -6.106001749952889579e-01 -7.856603460881128598e-01 9.952510678431539248e-02
8.689956105030890443e-01 3.518468323679717069e-01 2.576103940776163781e-01 -5.870991070844892024e-01 -7.849831127320826551e-01 1.977780351455797336e-01
8.464791502972699444e-01 3.478019715131167588e-01 2.562935912952999939e-01 -5.407109968726578897e-01 -8.199130347445333644e-01 1.880803905700595691e-01
8.169475093999085669e-01 3.733013391580313201e-01 2.587860030370462416e-01 -4.814011187641293321e-01 -8.431614304948280569e-01 2.394405249295944726e-01
6.972219979079268271e-01 3.998416522965011488e-01 2.241485077725925423e-01 -5.739079190930930219e-01 -6.666750869879302099e-01 4.755775738950183684e-01
8.015953241949544950e-01 3.880252784626016527e-01 2.880305934752375174e-01 -6.671086678158746341e-01 -6.261885777744671255e-01 4.035515956971538754e-01
7.834298819247741408e-01 4.935986771112009786e-01 3.391996786667959563e-01 -8.044803987453115202e-01 -5.194356388562095805e-01 2.880935700785872133e-01
7.821926377635223249e-01 4.050953466897377342e-01 3.415369001626234469e-01 -7.390266444446935701e-01 -5.768813869272796380e-01 3.479187896875861052e-01
7.488382975205880587e-01 3.773912832295187592e-01 3.725788759455132548e-01 -7.713990680613201922e-01 -5.173807665408876044e-01 3.704870041009404869e-01
6.782401925304577528e-01 4.735318073681417106e-01 2.447418172447345941e-01 -7.334614065102096347e-01 -5.055671424572756312e-01 4.543525389250618884e-01
7.236681454504739763e-01 4.145666389440190169e-01 3.094944912249725233e-01 -6.628965072648654866e-01 -5.619819584859103712e-01 4.947165845131765161e-01
8.729561004100100385e-01 2.918189521449338075e-01 2.632074928777418665e-01 5.246697403692354156e-01 -6.952538640953477567e-02 -8.484620699745416550e-01
9.032705266218006290e-01 2.376731469023696253e-01 2.259020144047016732e-01 5.669572973634959823e-01 -6.316996924502607524e-02 -8.213214827044663657e-01
-7.206429902303148616e-01 5.712966652672608614e-01 1.650188401082778866e-01 -8.621692623624503948e-01 -2.746348240508859617e-01 4.257227694825906350e-01
-6.598301307038337837e-01 6.922920813691800790e-01 2.814668809608309452e-01 -8.621692623624503948e-01 -2.746348240508859617e-01 4.257227694825906350e-01
-6.638955520441185421e-01 6.602718515262733234e-01 1.880574560871264012e-01 -8.621692623624503948e-01 -2.746348240508859617e-01 4.257227694825906350e-01
-6.248401430110246402e-01 5.624365518855293233e-01 2.394378690832035250e-01 -8.662607116959495368e-01 -3.122082679391622317e-01 3.900235592915580196e-01
-6.648489794467813407e-01 6.447010240702160111e-01 2.436354366560604390e-01 -8.662607116959495368e-01 -3.122082679391622317e-01 3.900235592915580196e-01
-6.817503779669978892e-01 6.570583154894182876e-01 2.367583958521083942e-01 -8.738786469941367541e-01 -3.200348329616139464e-01 3.659423670729162192e-01
-6.241049983645502452e-01 6.265592286171445258e-01 2.494440097039325455e-01 -8.738786469941367541e-01 -3.200348329616139464e-01 3.659423670729162192e-01
-6.131303835113625089e-01 6.162356422695728364e-01 3.368762007061804620e-01 -8.738786469941367541e-01 -3.200348329616139464e-01 3.659423670729162192e-01
-6.041568317662217025e-01 5.429043794365980835e-01 2.584026452892525527e-01 -8.738786469941367541e-01 -3.200348329616139464e-01 3.659423670729162192e-01
-2.252290164891461999e-01 6.148572042071956956e-01 2.154427054131982933e-01 4.043021931990715689e-01 9.040211051408513221e-01 -1.388725244039823448e-01
-2.409583143357732771e-01 6.059992827050867392e-01 2.390699904347296512e-01 6.838155732294461941e-01 6.667722247224381338e-01 -2.963293136825554397e-01
-3.443986664162864142e-01 6.416021294428033706e-01 1.635857686779810527e-01 7.332741267547380204e-01 5.544389645095836316e-01 -3.935816175402718220e-01
-2.359544615528338385e-01 6.311726191813286091e-01 1.993237594212092512e-01 5.146248402130783051e-01 8.366901173999136132e-01 -1.873790844277510026e-01
-2.766265644956875658e-01 7.115597318499548019e-01 2.635136904570818950e-01 6.792075027656496733e-01 6.808448915077334185e-01 -2.740937830281318655e-01
-1.518999115030757463e-01 6.069911644338947809e-01 2.291338215859717586e-01 -7.289090277108857263e-01 4.791671420956450933e-01 4.889687917009253870e-01
-6.987025789905143558e-02 6.767616553686222058e-01 2.565186270147244985e-01 -7.516480060118563289e-01 3.655902276415066710e-01 5.489709104419210339e-01
-1.080472373397653452e-01 7.482850289744107375e-01 2.578133684751416910e-01 -8.176336105453059222e-01 1.864774642624190404e-01 5.447030697810554267e-01
-1.317037125516691831e-01 6.239486672563219205e-01 2.772655159758855015e-01 -7.218982509423595983e-01 3.648241213903951619e-01 5.880189416490665399e-01
-9.295932572681937789e-02 7.347855132227345543e-01 2.077100387389313463e-01 -7.818061545862522443e-01 2.808576782700079599e-01 5.566849209452665592e-01
-1.528953768014709724e-01 6.360724964868125220e-01 2.034361147205937248e-01 -7.282738472047270983e-01 4.375842168727520076e-01 5.273871980068213228e-01
-1.053474296886237338e-01 6.366161553653436611e-01 2.399626237425184216e-01 -1.663229142615441636e-01 9.276385179830509697e-01 3.344001617011511662e-01
-7.401408413102222861e-02 6.059146154261336736e-01 3.072357262349256213e-01 -4.933874840384746552e-01 6.862554063684472849e-01 5.344364394614773417e-01
-1.518527099861520513e-01 5.699459517179698009e-01 2.391202969295193881e-01 3.382349620741858381e-02 9.523626109556095898e-01 3.030865030946130467e-01
-1.392830708038444720e-01 6.332123492972020484e-01 3.094274315137276465e-01 1.979067031387195599e-02 9.724332047697901160e-01 2.323402496979008192e-01
-1.886584555972703192e-01 5.895787914191215062e-01 2.934477094148589260e-01 3.719018732915872483e-01 9.273842649292585172e-01 4.058844421540228758e-02
-5.383678727892997340e-02 5.287990079458601000e-01 3.555170004372252279e-01 -3.633869108690503391e-01 7.325316639449400702e-01 5.756277567378992321e-01
-4.277970408411216341e-02 6.921857569591512993e-01 3.483837156073871788e-01 -7.991229281033515042e-01 1.680723584770005552e-01 5.771951386623972446e-01
-9.386898398497743601e-02 6.977829063588690817e-01 2.649055399944281186e-01 -8.282009155186180749e-01 1.290544292593005238e-01 5.453697808117708989e-01
-8.938514672702478625e-02 6.528927791489493870e-01 3.357653035702763411e-01 -7.446841780189006332e-01 3.526024651157507184e-01 5.666718420767086206e-01
-1.324503927971898976e-01 6.812461167284256103e-01 3.250179767906819506e-01 -8.422478788943077443e-01 1.681021404685173193e-01 5.122110706222020582e-01
3.040658252934219097e-01 6.498788635536959513e-01 1.312174666145348723e-01 8.173311067453560286e-01 4.948462265426036844e-01 -2.951221340783465319e-01
3.012473063645326188e-01 7.096668013827958088e-01 1.317259871291777407e-01 8.572692128650378773e-01 3.834360746353207006e-01 -3.436077317843921897e-01
2.890909527501717147e-01 7.388355448450687479e-01 2.168602296420619746e-01 9.083759094704871861e-01 2.490478839590898608e-01 -3.358993280570309881e-01
3.526278858083201628e-01 7.030603519422311543e-01 2.691007936117423838e-01 8.884773685417211020e-01 3.332976140032398171e-01 -3.154689621641501573e-01
3.441066688676098773e-01 7.061420851993900349e-01 1.682291067046341182e-01 8.934887986896409284e-01 3.346358135968353076e-01 -2.994939713492185129e-01
3.252492126649340620e-01 6.327859588362405585e-01 2.850383352416526184e-01 8.753530858963708416e-01 3.494863271785741965e-01 -3.340902305170436737e-01
3.034168371094297934e-01 5.784402501069352276e-01 1.348270462017188698e-01 7.939101370594062734e-01 5.540843753374038450e-01 -2.503940879519196971e-01
4.031514215837243009e-01 5.872273002766923433e-01 2.202842806108616380e-01 8.664528781712277361e-01 4.426595033143153612e-01 -2.308938588059875341e-01
4.395131981137336274e-01 5.888500485202882162e-01 1.594735412680559627e-01 8.192441773074474742e-01 5.578205163839542458e-01 -1.329482961492256810e-01
3.702561101009749223e-01 6.301892941967421891e-01 1.941175729269340455e-01 8.399595208367153232e-01 5.243970958172976538e-01 -1.395553268569117711e-01
3.437250986090981120e-01 6.398651684874392398e-01 2.335872953215195613e-01 8.642875015255442328e-01 4.149376081436475516e-01 -2.843130247715729420e-01
4.284679895753631951e-01 5.698251353709217204e-01 2.260807677924907277e-01 8.293624943750680378e-01 5.239207604378153249e-01 -1.940744437225739860e-01
6.354633913718717997e-01 4.678454593836282038e-01 2.704313112244935424e-01 -7.772142566466765379e-01 -3.957461787778868700e-01 4.892064607584971081e-01
7.140502552485825660e-01 5.576962268009248991e-01 3.797711677590874801e-01 -8.227576759213834912e-01 -4.462228469038913570e-01 3.520724039362216895e-01
6.365913558652116500e-01 5.746363073664401133e-01 3.260870304529881469e-01 -8.348699516082545014e-01 -3.812776620944425821e-01 3.970132344008531766e-01
6.514239514214891225e-01 5.276584721607578965e-01 3.850826787795144091e-01 7.908978278564450237e-01 4.969955042119453270e-01 3.570379457215595576e-01
7.873965596342145101e-01 4.665985772775004259e-01 3.629512481815573843e-01 7.908978278564450237e-01 4.969955042119453270e-01 3.570379457215595576e-01
8.042498198317675762e-01 5.448242954633569779e-01 4.307568585482587920e-01 7.383616177897445176e-01 5.439137537603959682e-01 3.987228985714098006e-01
8.135912125550470719e-01 4.690590767532890060e-01 1.973490789973042780e-01 8.292074552946918642e-01 5.242604537610956461e-01 1.938194332514459051e-01
8.155948255189601204e-01 5.236958286008237540e-01 2.373368522948937631e-01 8.292074552946918642e-01 5.242604537610956461e-01 1.938194332514459051e-01
8.136585657734585197e-01 5.560957157951835761e-01 2.845819742109286232e-01 7.851590993005809205e-01 5.622638930350286612e-01 2.595852526138465732e-01
7.947933548987419217e-01 4.870864292789803818e-01 3.045694464706444338e-01 8.091624972661927151e-01 5.250977512967230920e-01 2.636823934225859811e-01
8.104266851046971754e-01 5.102541091914193361e-01 2.674649935563742642e-01 8.104296293012730468e-01 5.212240340183235121e-01 2.674496631373216582e-01
6.566378402074664056e-01 5.959221679442494590e-01 4.277712739219544091e-01 7.050733100179361612e-01 6.079886962553542329e-01 3.649950310977749801e-01
6.649495877977207314e-01 6.085287972651485244e-01 3.708504655743189438e-01 7.343597075966102894e-01 5.672569064847936549e-01 3.727404216125791980e-01
6.973234171145834548e-01 5.807775163682513675e-01 3.506736963077625169e-01 7.362123234045699904e-01 5.972569507297756930e-01 3.182381964381634787e-01
7.620229125363899847e-01 5.912610109081648524e-01 3.071860127595641421e-01 7.748106452889240714e-01 5.415008637150843240e-01 3.262595263632597775e-01
6.949244757829340369e-01 5.064916615584069692e-01 4.491838399716364116e-01 -8.548033753286993219e-01 -4.569729797280998596e-01 2.459408167122414113e-01
-6.455438637711879979e-01 6.796735893934716666e-01 3.236568830175995948e-01 -6.530672231070022704e-01 6.978561994928506040e-01 2.941086991788984806e-01
-6.618082874623583134e-01 7.148338644823891697e-01 3.429267098028792038e-01 -6.119300989929387091e-01 7.264247999435412551e-01 3.128075510173597973e-01
-6.505734658681602278e-01 7.172226855488958996e-01 2.179852680759863104e-01 -5.962177702653577160e-01 7.759521176640333806e-01 2.059676710372460862e-01
-6.103742673876881852e-01 7.477419621461206534e-01 2.339246375621343299e-01 -5.962177702653577160e-01 7.759521176640333806e-01 2.059676710372460862e-01
-5.829182895028259814e-01 7.395640034672691376e-01 9.468558668382548449e-02 -5.962177702653577160e-01 7.759521176640333806e-01 2.059676710372460862e-01
-6.709575319178300301e-01 7.330475481300526841e-01 3.414892698178444430e-01 -6.418606906898339792e-01 7.240660502646218966e-01 2.524741741274925677e-01
-5.670789304383221374e-01 7.810936265829223624e-01 3.395752211576135160e-01 -5.960166428810390604e-01 7.489447659174220950e-01 2.895615634260074178e-01
-6.455052441781596873e-01 7.476843292037269606e-01 2.663485730495174786e-01 -5.960166428810390604e-01 7.489447659174220950e-01 2.895615634260074178e-01
-6.559120686263880673e-01 7.050063522539393723e-01 2.540025536826226449e-01 -6.136002391670843936e-01 7.488732016138648362e-01 2.503670793029641461e-01
-4.302071648574504747e-01 8.484415749008343832e-01 2.150900794350627532e-01 -4.314590463306623436e-01 8.838519297392415375e-01 1.806899489060040942e-01
-4.333123052328688996e-01 8.275785292527635395e-01 2.402719124933628547e-01 -4.133288140516274689e-01 8.835376694037864187e-01 2.202736439504293375e-01
-4.202142852682804741e-01 8.438319504190865405e-01 2.377714214913121960e-01 -4.133288140516274689e-01 8.835376694037864187e-01 2.202736439504293375e-01
-4.482764442267699323e-01 8.900713033431759680e-01 1.846070473217857610e-01 -5.193041156551851945e-01 8.344266561125751602e-01 1.845410280462649044e-01
-5.124673810461255474e-01 8.213459364509846372e-01 1.098144262763065121e-01 -5.193041156551851945e-01 8.344266561125751602e-01 1.845410280462649044e-01
-4.060432620771184942e-01 7.776736712529332962e-01 2.357454470927255463e-01 -4.594127127831379442e-01 8.548271024599164436e-01 2.412686971681606840e-01
-5.877086411290990409e-01 8.787287077816763325e-01 2.071376938174564475e-01 -4.753252712377174505e-01 8.560683127298717165e-01 2.030096807115877033e-01
-5.069212649690190142e-01 8.508767448915051101e-01 1.996542892674905423e-01 -4.753252712377174505e-01 8.560683127298717165e-01 2.030096807115877033e-01
-5.670052630962865159e-01 8.438175057882603136e-01 2.511266308073198394e-01 -5.504331291691930694e-01 8.055580778411113307e-01 2.193161041463762007e-01
-5.110697659754873667e-01 7.220499366878951886e-01 2.921973459864770084e-01 -5.504331291691930694e-01 8.055580778411113307e-01 2.193161041463762007e-01
-5.652337677907857127e-01 8.297092880375190882e-01 2.730876290107323578e-01 -5.504331291691930694e-01 8.055580778411113307e-01 2.193161041463762007e-01
-5.159184403405561170e-01 7.854185479046474905e-01 2.497771295831640870e-01 -5.562146778820780124e-01 7.737271142858551665e-01 3.032681729549269178e-01
-4.247948566764789269e-01 8.690579131935042279e-01 2.596528916547243271e-01 -4.724020224103632204e-01 8.357221760297008917e-01 2.800085243609212737e-01
-4.837887897724909569e-01 8.352455520309013393e-01 2.581205146040822518e-01 -4.724020224103632204e-01 8.357221760297008917e-01 2.800085243609212737e-01
-4.787016748421819012e-01 7.977206082271268706e-01 3.010562532517915835e-01 -4.724020224103632204e-01 8.357221760297008917e-01 2.800085243609212737e-01
-4.979995791539428285e-01 7.920114832885134515e-01 2.352751068372637699e-01 -5.345665462986725069e-01 8.036271042495984895e-01 2.615761550556818804e-01
-3.464173909140872420e-01 8.510331424354394825e-01 1.771420456569023638e-01 -3.535009660495792572e-01 9.162561957517371125e-01 1.884453521543276444e-01
-3.673581388262843750e-01 9.002527565588752667e-01 2.330238268112293787e-01 9.193726204071730468e-01 -4.310279912431208560e-02 -3.910193518910505817e-01
-3.615505210881871379e-01 9.392407790154678748e-01 2.370051633784471257e-01 9.055597442195300051e-01 -5.236744169659429682e-02 -4.209741092979629173e-01
-3.526962397151408579e-01 8.598139248550558111e-01 2.099807543807774290e-01 -3.650741703772097391e-01 8.977612318953692716e-01 2.464662667163620979e-01
-3.711936449762185397e-01 8.419747750990187463e-01 2.205373659285440047e-01 -3.501533580254058697e-01 9.095640243501134092e-01 2.237988191916083502e-01
-3.040408342664810970e-01 9.118869726130713893e-01 2.129919126232287241e-01 9.073075965063651660e-01 -8.128943561462374442e-03 -4.203889218312222842e-01
-2.859489470517949661e-01 8.740822144872421040e-01 3.238349328548492112e-01 -3.447666076392360557e-01 8.924915274762442730e-01 2.908519548499772234e-01
-2.410365631570396960e-01 8.340348921017236572e-01 3.269089470147772403e-01 9.115592611228162667e-01 4.328141922559909649e-02 -4.088843751123819592e-01
-3.046071140355561258e-01 8.110649529862548057e-01 3.095682742817978395e-01 9.161318073128953410e-01 4.935540230437835546e-02 -3.978272940523071011e-01
-2.997041626789118673e-01 8.559531115644550825e-01 2.744932332110975315e-01 9.181289702818742349e-01 1.834496037592028145e-02 -3.958568634720777135e-01
-2.788007516638260075e-01 7.420451691585707721e-01 3.244499874708800524e-01 8.927300189643617712e-01 2.069708315739915150e-01 -4.002451600175333524e-01
-2.665346796453751943e-01 7.452728990652724983e-01 2.541423133173048576e-01 9.079412910447124396e-01 1.274803152569081999e-01 -3.992385016979953516e-01
-2.986900327583590364e-01 7.446836817599506997e-01 2.686243261945402416e-01 8.767770467231905673e-01 2.763491417451570675e-01 -3.935646861648984252e-01
-3.129184324766221548e-01 8.039777037532043202e-01 2.836279656624587364e-01 8.703433284909104506e-01 1.781809804107726269e-01 -4.590795451457391763e-01
-3.631413009358736010e-01 6.663506038170392554e-01 2.049379214157862616e-01 7.950232667022580912e-01 4.153463493091666958e-01 -4.420694691082135974e-01
-2.797244406324213561e-01 7.365605220947469833e-01 2.550837984289859306e-01 8.688636554584052707e-01 3.183104343257807112e-01 -3.791495953087520854e-01
-9.358430881378360100e-02 8.568486366776926211e-01 2.556746924080162131e-01 -9.196464221714342191e-01 -1.031396771849247274e-01 3.789626171239977026e-01
-8.734884954440826077e-02 7.631663867541031987e-01 1.891701653500361957e-01 -9.178248946564965260e-01 -3.507929126504060607e-02 3.954325556566297140e-01
-6.985298552154663165e-02 9.027621923716810937e-01 3.006283548994500565e-01 -9.222100983297507604e-01 -1.935325354540577136e-01 3.347740913800755225e-01
-4.429502713645495915e-02 7.970220399407670353e-01 1.934317357496505574e-01 -9.280723734264358926e-01 -8.702419327016119865e-02 3.620890214688919917e-01
-1.530136973871223105e-01 8.449322838979316241e-01 2.402531165986758199e-01 -9.164382310354676209e-01 -1.084793046900087016e-01 3.851924313256361865e-01
-8.888700825611439704e-02 7.463014435612190800e-01 1.888487981800473503e-01 -8.628627414215230829e-01 2.115544168451099216e-01 4.590344411695695404e-01
-9.183686897610381095e-02 7.683396251722406367e-01 3.073244656295240351e-01 -8.689317136734635572e-01 5.532526039463064177e-02 4.918300443595980953e-01
-1.456592815491162818e-01 7.523429224065576459e-01 2.526503972069903958e-01 -8.466776357861779401e-01 1.335831187274165721e-01 5.150655603421616657e-01
-9.664027095727382999e-02 7.718011104320944282e-01 1.934546577168496651e-01 -8.983278214829437669e-01 6.888781419420657998e-03 4.392717494219990915e-01
-1.458511062865915364e-01 7.849544810797804972e-01 2.085552174303982320e-01 -9.061178220022856333e-01 2.094768900851320947e-02 4.225064342409909357e-01
-4.552162047658380589e-02 8.105291052659586715e-01 3.888199425429160194e-01 -9.219826345446792137e-01 -1.910308428339155540e-01 3.368311723760384346e-01
-9.129258944882104321e-02 7.406956639206490056e-01 2.772233412822783793e-01 -9.205122599323295463e-01 -1.289405879604719474e-01 3.688244895484614760e-01
-7.772402134350701874e-02 8.763189429592167512e-01 3.310691654636840897e-01 -9.058573291129671246e-01 -1.324387736628552248e-01 4.023462072929243072e-01
-5.877008930764719696e-02 7.833868861075735657e-01 3.205599009419838330e-01 -9.112432835108892348e-01 -7.395540220751067872e-02 4.051743781887232609e-01
-4.350230351973984749e-02 7.743545295540396056e-01 3.970551478417132518e-01 -8.777144423354455993e-01 2.289127433643474169e-03 4.791785863447680649e-01
-6.742966677576386902e-02 5.972041784127259945e-01 3.956740034467031153e-01 -8.534917720060203328e-01 1.056054153091836728e-01 5.102933385567541835e-01
-2.305026532813297252e-02 6.590454006025063816e-01 3.681329667051568832e-01 -8.385621572503841881e-01 5.980313126314974054e-02 5.415137061226652504e-01
-4.289527227567074830e-02 7.271753085219426760e-01 3.869919082354797979e-01 -8.611901765234986073e-01 2.760696169333076364e-02 5.075325955300685754e-01
-5.272359129892685570e-02 8.447084194171406990e-01 2.732880046882307234e-01 -9.135389657145472908e-01 -1.936432579127300435e-01 3.576993804665297705e-01
-9.876583620060544466e-02 8.048283781871723441e-01 2.529566941635656985e-01 -8.886948867555729548e-01 -2.055815811861052764e-02 4.580379464512404630e-01
-2.997612264825016276e-02 7.812312121567012158e-01 3.055077775085230374e-01 -9.052578952559779957e-01 -8.477011103071017961e-02 4.163197945721025528e-01
-1.028203804944116950e-01 8.099883377582801636e-01 2.825777455829283635e-01 -9.233025621641659519e-01 -1.879874805527534387e-01 3.349225072408758552e-01
-8.910388224871461371e-02 9.094780169460731090e-01 3.739147298903233718e-01 -9.250007939541555757e-01 -1.491570522325134096e-01 3.494648837200799441e-01
3.356304370380135960e-01 7.598026083676758802e-01 1.973777842229305912e-01 8.989265768043649407e-01 1.466420683737281183e-01 -4.128281885940700002e-01
2.339407226706059495e-01 7.724219669370100405e-01 2.025234777796276753e-01 9.078987432914821243e-01 7.681075938418557847e-02 -4.120921974177287339e-01
3.350482232788257742e-01 7.503877269260780247e-01 3.158762188674347771e-01 9.199020508762043580e-01 6.495649100553754773e-02 -3.867310060882122036e-01
3.017319822523741868e-01 7.152789270264351407e-01 1.530483796223388870e-01 9.040285383752680870e-01 2.544970626707453443e-01 -3.434583626803099365e-01
2.768997664909103595e-01 7.115856091841881170e-01 9.987946018882734589e-02 9.040285383752680870e-01 2.544970626707453443e-01 -3.434583626803099365e-01
2.358969371707773377e-01 8.316876117088625175e-01 1.540355663517432583e-01 9.205038755205215972e-01 1.005290393237333185e-01 -3.775798291809920881e-01
2.567675244341515728e-01 8.113789421206653030e-01 1.425487835623736321e-01 9.205038755205215972e-01 1.005290393237333185e-01 -3.775798291809920881e-01
3.647334581703459699e-01 7.428836000688803232e-01 1.851032459056407564e-01 9.169330734875795752e-01 1.862485125251429618e-01 -3.529096631247045091e-01
3.202541025252580997e-01 8.589811753829394991e-01 1.723519875725443296e-01 8.863934623107774247e-01 2.073879392784281628e-01 -4.138802636204814700e-01
3.103893279304239528e-01 7.915437565205801773e-01 3.017443175887044027e-01 9.057956650431112644e-01 1.188547310080973196e-01 -4.067035358908264175e-01
3.509109934525565522e-01 7.796387568614662200e-01 2.938401946237630957e-01 9.057956650431112644e-01 1.188547310080973196e-01 -4.067035358908264175e-01
3.687504693425816549e-01 6.939995461798444953e-01 2.845824896189981246e-01 8.989037030101311165e-01 2.314981801710927212e-01 -3.719955984849098729e-01
3.715760537221574067e-01 7.563122800554809011e-01 2.112183245693465272e-01 8.893950640622589887e-01 2.176473214024786385e-01 -4.020025665440665197e-01
3.522599154503815999e-01 6.619918233405565067e-01 2.595278456313983573e-01 9.145829861007835904e-01 1.967623114568455012e-01 -3.533023553914315107e-01
3.247073809293017921e-01 8.024283977694567360e-01 3.395870775913916728e-01 9.179846650742510272e-01 3.746891614357039657e-02 -3.948420380500804461e-01
3.058061227415608818e-01 8.582627963115506686e-01 2.933162722301586034e-01 9.171022255606469109e-01 8.589032114925108929e-02 -3.892895588178377220e-01
2.931225970633904443e-01 7.737457452013437598e-01 2.361576774553621194e-01 9.195939667289736441e-01 1.305779222793030103e-01 -3.705352109704169727e-01
3.633720240219075470e-01 8.030923112500236716e-01 2.539074979303806989e-01 9.048670014734070399e-01 9.088925666585645491e-02 -4.158784109174860633e-01
-3.844667649558413669e-01 8.551994819444038720e-01 1.902648242715845317e-01 -4.283612597096801422e-01 8.883011270933512948e-01 1.656132204403307495e-01
-3.779010025535068373e-01 9.231102764634342428e-01 2.081477552255690811e-01 -3.848072925823597945e-01 9.054410929382660234e-01 1.791641001824654800e-01
-3.394052470296214929e-01 9.310253301030377848e-01 1.164938648612809380e-01 -3.900459773488018644e-01 9.112091403414688262e-01 1.325218401327856177e-01
-1.120465579038093795e-01 9.422817229449260701e-01 1.422701838580430200e-01 -9.093080895538859787e-01 -1.299274361752721374e-01 3.953196929078824917e-01
-8.920749053528019556e-02 8.986131144193815201e-01 1.797880730606124522e-01 -9.093080895538859787e-01 -1.299274361752721374e-01 3.953196929078824917e-01
-6.711874118340646622e-02 9.060831397408736221e-01 1.989090720959844627e-01 -9.093080895538859787e-01 -1.299274361752721374e-01 3.953196929078824917e-01
-7.364013858250678668e-02 9.523069354162901901e-01 2.276624144663916272e-01 -9.204592941672362638e-01 -1.961746060393976532e-01 3.380387725194264337e-01
-1.585615706099664513e-01 9.910067995808701236e-01 2.982051859243933234e-01 -9.185320736952192755e-01 -2.067923424162830537e-01 3.369506740031051328e-01
-4.717706351352578958e-02 9.090730427180333528e-01 3.865915898587515276e-01 -2.765396620906081585e-02 9.278805934939907685e-01 3.718505914613388641e-01
9.828770612852096022e-03 9.026609490579096118e-01 4.142605808769730391e-01 -2.765396620906081585e-02 9.278805934939907685e-01 3.718505914613388641e-01
-4.663327700152940930e-02 9.299609247676514645e-01 3.264881030608186019e-01 -9.156388977724645439e-01 -2.528517493013530681e-01 3.125242418777651743e-01
-1.217033448308591781e-01 9.323257176300551174e-01 2.799086883434765971e-01 -9.246436431006592738e-01 -2.290786987774955097e-01 3.042319559808763785e-01
-8.306418082097713484e-03 9.122838745294118423e-01 3.497826193355425550e-01 -1.551839611429747627e-02 9.490516780291998744e-01 3.147381321225623529e-01
4.175389750288625856e-02 9.010077479336411344e-01 3.186697792176837463e-01 -1.551839611429747627e-02 9.490516780291998744e-01 3.147381321225623529e-01
5.144777026947405102e-02 8.685921900725601663e-01 3.027632551174750386e-01 -1.551839611429747627e-02 9.490516780291998744e-01 3.147381321225623529e-01
-2.393263182478188103e-02 1.026353606492438120e+00 2.015901006307080912e-01 -8.251142628499606030e-03 9.619862017533434839e-01 2.729733801701173523e-01
-1.248833579023998636e-01 9.556505897225088253e-01 3.089448253033425518e-01 -7.511370815716081339e-02 9.541328871338757844e-01 2.898074611469750872e-01
-6.062599593375777446e-02 9.841649724731389437e-01 2.798854116863315200e-01 -1.372881837762914350e-02 9.478035363890906506e-01 3.185592189127284257e-01
-8.300445242101200938e-02 9.916486123502816774e-01 2.494337553360074788e-01 -1.372881837762914350e-02 9.478035363890906506e-01 3.185592189127284257e-01
-4.286596250548761061e-02 1.012517294837290027e+00 2.819729179121355789e-01 -2.266243165832130396e-02 9.681482276272421750e-01 2.493500020725116784e-01
-1.064810290188482611e-01 9.427993209661629237e-01 2.886156255840119367e-01 -7.832247829562118124e-02 9.595663059229112557e-01 2.703665917436727795e-01
9.624932316193846038e-02 1.001411357350552978e+00 2.124102397364613648e-01 7.903667378905464280e-02 9.725144734253129419e-01 2.190178147426566357e-01
2.227871227020822020e-01 9.236077834499092365e-01 1.925752498202285834e-01 2.106030281407644811e-01 9.560323164780734073e-01 2.040798235679099071e-01
1.490441623081132927e-01 9.420787758245832144e-01 1.221361162594528371e-01 1.652164083122479588e-01 9.676491826052122658e-01 1.906793062392064253e-01
1.979424711017095107e-01 9.396401121218562746e-01 2.664090708705758592e-01 1.531828445090221147e-01 9.634198140606163863e-01 2.199028831632998393e-01
1.658453766226902215e-01 8.800243846101453160e-01 2.474625057209550172e-01 1.632863391238436324e-01 9.699607781800433370e-01 1.803154465038925014e-01
3.116921055153310319e-02 9.705645813167225189e-01 2.570853798556721470e-01 7.883136486843901614e-02 9.639812825407111374e-01 2.540190993294499378e-01
5.857024717798060831e-02 9.423873346159190589e-01 3.556783816529534015e-01 7.883136486843901614e-02 9.639812825407111374e-01 2.540190993294499378e-01
4.783494486285537473e-02 9.244792164654539457e-01 2.998176195606113148e-01 7.696953685115336119e-02 9.389954697249685012e-01 3.352062025573285253e-01
1.288909423478076244e-01 9.484147474563014990e-01 3.106127387178412302e-01 1.589901981943848130e-01 9.473038593001461560e-01 2.780962334034013939e-01
1.310879958385411659e-01 9.730044115133535954e-01 2.922961269862319744e-01 1.589901981943848130e-01 9.473038593001461560e-01 2.780962334034013939e-01
1.465619201707312746e-01 9.594081568642219837e-01 2.711854114447997954e-01 1.582339177561167265e-01 9.540748589281257130e-01 2.543682189913419323e-01
7.917655714284911606e-02 9.202791130978289491e-01 3.053449429683652294e-01 8.932661364851225694e-02 9.584127999585594360e-01 2.710454961250673978e-01
1.351293642823467589e-01 9.414647354425150771e-01 1.863165230497990654e-01 8.788876315192213629e-02 9.598062981246854308e-01 2.665472479539278128e-01
2.893697572542905383e-01 8.500299077226046718e-01 2.513186845124036339e-01 2.348908491955408739e-01 9.454305186970153319e-01 2.258039487708093929e-01
1.859782245168591919e-01 9.491280505803239009e-01 2.488341918990971124e-01 1.595705355235741141e-01 9.468997651602926169e-01 2.791381001083553803e-01
1.217418829029348615e-01 8.870886033667537696e-01 2.763660856630496543e-01 2.142102856469632610e-01 9.343414405115473276e-01 2.848157756618355241e-01
2.147535638128404145e-01 8.790165263722253819e-01 2.656325591173820944e-01 2.148271413533428820e-01 9.337414347144320503e-01 2.863149182899570877e-01
1.635614600364422855e-01 8.890713658389972629e-01 2.545026174507181715e-01 1.619729039838345430e-01 9.407115428717062189e-01 2.980378692095647097e-01
3.325446849376607616e-01 8.702201294353023586e-01 2.354094702419035623e-01 9.133834609097216672e-01 -1.364060494852346699e-02 -4.068717085682138634e-01
2.688936137501241608e-01 8.632015902091353388e-01 2.239859500165947981e-01 9.131380479641608705e-01 -1.251740104222531270e-02 -4.074582432978258173e-01
2.906835517913963773e-01 8.814081867767054046e-01 2.716613550272209965e-01 9.098776854511438916e-01 -1.984637967728999919e-02 -4.144016393932028475e-01
2.878126076243096576e-01 8.919208043731566837e-01 2.523625462864111935e-01 3.140318351655218554e-01 9.157656940909073562e-01 2.505138719288279026e-01
2.862537859012528330e-01 8.733996906118014492e-01 3.015452207073603397e-01 2.972732788584573904e-01 9.063423900157012714e-01 3.002866459524439757e-01
2.665130821221088908e-01 8.901566040384047973e-01 2.968718109306044961e-01 2.420192523199271306e-01 9.220437966321188838e-01 3.020958765007082936e-01
3.059065258795348186e-01 9.080448663477939109e-01 2.822840082872452583e-01 2.841559557057892760e-01 9.203623738376592867e-01 2.686791649176357710e-01
2.162045911429325007e-01 9.538883994473779104e-01 2.970695306967789384e-01 2.172625513797703245e-01 9.173306668863724367e-01 3.336186915593245539e-01
3.332712954879791245e-01 8.477534800259176606e-01 3.411406620589089167e-01 9.059303916342786867e-01 3.394046378501575090e-02 -4.220641780954890732e-01
2.929489960457223874e-01 9.103163630523085637e-01 3.184010606150187717e-01 9.069917396447632063e-01 9.340707524079750260e-03 -4.210448140033501985e-01
3.498257949635739661e-01 8.279791219169574390e-01 2.794960922035356621e-01 9.069887103282927576e-01 -1.362161269419395922e-02 -4.209345923117148724e-01
-9.524004840801908456e-02 9.779952393430459967e-01 2.254046419192065609e-01 -1.066927186241733994e-01 9.744623570986982175e-01 1.975848637680327757e-01
-1.018770892157810221e-01 9.627133776291931788e-01 1.964106527017473458e-01 -7.127077803394610278e-02 9.823258867810339412e-01 1.730789656725833237e-01
-1.432286752230029631e-02 1.035204780540244007e+00 2.077631850732893914e-01 -7.127077803394610278e-02 9.823258867810339412e-01 1.730789656725833237e-01
4.269681780814900407e-02 1.042912249644510236e+00 2.108355989375011175e-01 -1.729657005860939581e-02 9.764885573531232321e-01 2.148742097661408557e-01
-8.416307760184130529e-03 9.525090335924457641e-01 2.081552714074329513e-01 -2.115342133773689959e-02 9.788712050195829129e-01 2.033806695564207012e-01
-6.491487628141301425e-02 9.750208619907638763e-01 1.820871171124898158e-01 -2.115342133773689959e-02 9.788712050195829129e-01 2.033806695564207012e-01
1.453193473848454764e-01 9.819884116629828963e-01 1.964150236992851795e-01 1.301006609017789362e-01 9.791347079919775487e-01 1.561058667647861609e-01
3.294231110147041036e-02 9.750087358442887098e-01 2.056172875978632408e-01 4.741550975657615741e-02 9.867946318702491837e-01 1.548809993078016922e-01
1.217955476333769937e-01 9.402378414369004789e-01 1.558390673887629363e-01 4.741550975657615741e-02 9.867946318702491837e-01 1.548809993078016922e-01
1.193763114949315252e-01 9.895866046317669529e-01 1.710123019472970518e-01 7.364522611703583355e-02 9.752305978446702550e-01 2.085705197234205832e-01
-3.899130621105890704e-01 -9.062911226880333571e-01 4.161528721121469099e-01 -3.144655411500675291e-01 -8.478048563882834010e-01 4.270109470653387640e-01
-3.473733814635992512e-01 -8.595626747048097371e-01 4.331252224515659277e-01 -3.467141354024379507e-01 -8.577897633628149832e-01 3.794549119224915890e-01
-2.912023006327648100e-01 -8.664792215884807858e-01 3.432674859599676442e-01 -2.847147499065213472e-01 -8.888475253074579197e-01 3.590091752873105224e-01
-1.967147537737803376e-01 -8.950318222673692148e-01 4.222702242752853219e-01 -1.967026771883597092e-01 -8.864263358847279672e-01 4.189945200559398453e-01
-2.049041942681629203e-01 -9.139094792173545478e-01 4.016793274549900761e-01 -1.967026771883597092e-01 -8.864263358847279672e-01 4.189945200559398453e-01
-3.220272910388441989e-01 -9.073567605580522555e-01 4.576231683364051506e-01 -2.798223253959533086e-01 -8.616225407713201667e-01 4.234454669078131506e-01
-2.621441369396926846e-01 -8.428524035291904415e-01 3.702908054670288052e-01 -2.798223253959533086e-01 -8.616225407713201667e-01 4.234454669078131506e-01
-2.273352697761619745e-01 -9.096567591143361886e-01 3.813884673354001054e-01 -2.892085347431881948e-01 -8.842813835466859507e-01 3.666126813743038615e-01
-2.187745291077098364e-01 -8.987643557489232160e-01 3.274802242239242545e-01 -1.936421115684225092e-01 -9.123857171932985288e-01 3.606314402391904150e-01
-1.334939510354742620e-01 -8.630021904119795639e-01 4.016979209239423532e-01 -1.936421115684225092e-01 -9.123857171932985288e-01 3.606314402391904150e-01
-1.345044109737042748e-01 -9.322205298587398214e-01 3.649871333869033063e-01 -1.936421115684225092e-01 -9.123857171932985288e-01 3.606314402391904150e-01
-2.469539224085382234e-01 -8.466046319667653863e-01 3.594428001520253435e-01 -1.960629983378534280e-01 -9.105178609613302498e-01 3.640281933493263455e-01
-6.524241798637434031e-02 -9.283748499900703610e-01 3.220471900516971298e-01 -8.196401192704705352e-03 -9.186959404287593500e-01 3.948804731145942881e-01
1.247114656145970751e-02 -8.452737800952517810e-01 4.747542088997056542e-01 -3.150532152616557138e-03 -8.959050858385341209e-01 4.442343427919597798e-01
-6.075490906521058276e-02 -9.104633664224734968e-01 3.822957357736104789e-01 -5.607166159053952100e-04 -9.237769452363709943e-01 3.829305956000846889e-01
-1.843536278166574630e-02 -9.223677294519647685e-01 4.233484525102155782e-01 -5.607166159053952100e-04 -9.237769452363709943e-01 3.829305956000846889e-01
-4.235638394693347353e-03 -9.263248423107220964e-01 3.813188448271014330e-01 7.698430056239769057e-05 -8.976354225696154820e-01 4.407387459954993925e-01
2.296482575094280568e-02 -9.102352300789211537e-01 4.173703698532536532e-01 7.698430056239769057e-05 -8.976354225696154820e-01 4.407387459954993925e-01
-7.919630952530967716e-02 -8.840022370563662690e-01 4.254489587206626289e-01 -8.222491546638273363e-02 -8.949380571718777988e-01 4.385486713033924233e-01
-1.708967775160166735e-01 -1.002202294289258999e+00 4.093540440039024064e-01 -8.222491546638273363e-02 -8.949380571718777988e-01 4.385486713033924233e-01
-1.543245226118744040e-01 -8.672151383743730291e-01 4.055945877169901959e-01 -8.222491546638273363e-02 -8.949380571718777988e-01 4.385486713033924233e-01
-8.202326088263454940e-02 -9.485479805869703185e-01 3.946226556069176716e-01 -8.405712939666351580e-02 -8.932688867951430467e-01 4.415938120958654012e-01
2.241067887296506467e-03 -9.117296409210952080e-01 4.103307795318063000e-01 3.205744821571055586e-02 -9.275931300403407187e-01 3.722140581921384306e-01
4.328375216424189958e-02 -8.351974009569169688e-01 3.938499624072580585e-01 9.162181922860584971e-01 2.256389683582305794e-01 3.311061462466385330e-01
1.148703183334392509e-02 -7.667184629423994258e-01 4.784682162028797148e-01 9.075540919378286553e-01 2.473668874285336605e-01 3.393452419156965383e-01
-1.204696818139988634e-02 -8.453781541550910994e-01 4.710548862937914416e-01 9.177193865156699770e-01 2.851915636903343265e-01 2.765084078525716915e-01
5.148696270222387350e-02 -8.059626904349618259e-01 4.138914550882162313e-01 9.183248287486638350e-01 2.216904159101553418e-01 3.279220462203167874e-01
-3.657757549593815966e-03 -8.099859866266063690e-01 4.179377802750148807e-01 9.236896168489604486e-01 2.213769865255772462e-01 3.127134815806237311e-01
2.784434003283091097e-01 -8.488269390348359700e-01 3.587387245397961610e-01 -9.048617724306299293e-01 -3.937699284704097857e-02 -4.238804374207695846e-01
-3.657731050083605218e-01 -7.810130921006087634e-01 4.655875400674115427e-01 -3.623198073641119565e-01 -8.020031765001034429e-01 4.748844723460397543e-01
-4.291230518002547289e-01 -8.306488539881121680e-01 4.351070438537135709e-01 -3.623198073641119565e-01 -8.020031765001034429e-01 4.748844723460397543e-01
-3.391124676075314981e-01 -8.084505783058921757e-01 4.828864752682285877e-01 -3.623198073641119565e-01 -8.020031765001034429e-01 4.748844723460397543e-01
