3.537774015689819640e-01 2.612760897910340052e-01 5.099299576744522611e-01 6.833031291631067594e-01 4.562946041716610668e-01 5.699930419572977192e-01
-7.428812570608471777e-01 3.003556683819953443e-01 -1.076464841367784642e-01 -5.487126845470879921e-01 8.042780506178134337e-01 -2.281473364112272251e-01
-7.299074048064324582e-01 2.510523021989100600e-01 -5.720239588976234330e-02 -5.487126845470879921e-01 8.042780506178134337e-01 -2.281473364112272251e-01
-5.829980618718938468e-01 3.110274974608985277e-01 -2.163658843773512419e-01 -5.355516732695753124e-01 7.080392580495343813e-01 -4.602877516497946297e-01
1.645277578327633897e-02 -2.915165570822645935e-01 7.790083310233663072e-01 5.668136848906069752e-02 -8.457534137980068367e-01 5.305547903046627933e-01
5.787341964734249444e-02 -2.873295646733972086e-01 7.144374116254011975e-01 5.554570166672438691e-02 -8.476445261851239810e-01 5.276489668849431158e-01
8.779380390154388758e-01 1.221850760295876970e-01 -2.576501113059260217e-01 6.006029498474314554e-01 4.196897116683145357e-01 -6.805414333854558073e-01
-4.685285028062659562e-01 4.366781538259333351e-01 -3.946167379989706792e-02 -6.139775978233689147e-01 7.426979903606965028e-01 -2.672661678649738692e-01
-4.869970191496494349e-01 4.654317035830696225e-01 -1.443003747619277521e-01 -6.139775978233689147e-01 7.426979903606965028e-01 -2.672661678649738692e-01
2.961042797666542659e-01 1.358677285508660959e-01 6.683335078644314642e-01 7.530345749424000035e-01 3.813485939754067688e-01 5.362016214208039644e-01
2.592876519611153618e-01 1.786832541363881643e-01 5.861095708196585319e-01 7.530345749424000035e-01 3.813485939754067688e-01 5.362016214208039644e-01
-5.620688085914852250e-01 4.274877876809322075e-01 -2.324688647851228807e-01 -5.983066866585343702e-01 7.238689566248347473e-01 -3.435736345160370075e-01
-5.404221450204357291e-01 3.861537208495760543e-01 -1.712569464281651077e-01 -5.983066866585343702e-01 7.238689566248347473e-01 -3.435736345160370075e-01
6.708253913009407654e-01 3.432783463500738153e-01 7.557926717120957982e-02 5.311136721521948489e-01 8.157212862077154458e-01 2.291659889264572869e-01
6.915956245360741494e-01 2.708950805912636040e-01 8.427252429407439127e-02 5.311136721521948489e-01 8.157212862077154458e-01 2.291659889264572869e-01
-5.470049045392122444e-01 3.102645680632255543e-01 -2.425686707625011873e-01 -5.411531231847350742e-01 6.584165395620493744e-01 -5.231070231783769842e-01
-6.768994495013843649e-01 2.930421931487484644e-01 -2.611071013298851828e-01 -5.411531231847350742e-01 6.584165395620493744e-01 -5.231070231783769842e-01
-3.408578829063756144e-02 -3.912899534863401030e-01 5.086413770728580586e-01 -2.609949893705309359e-02 -7.464814753905153477e-01 6.648941442470628349e-01
-2.483510265493315237e-03 8.810913337165960924e-01 -2.091828531069961361e-01 2.723685147202875231e-02 5.798189265443977058e-01 -8.142899768158716745e-01
4.377947890453469659e-01 -5.413982350863685289e-01 -2.001106645095557801e-01 6.689044982505926162e-01 -6.361678145820670593e-01 -3.845221500902121226e-01
4.283986903747175057e-01 -4.503379844660768128e-01 -2.336786215010442647e-01 6.689044982505926162e-01 -6.361678145820670593e-01 -3.845221500902121226e-01
2.019530297197222601e-01 -1.194517383055222204e-01 8.894512736673927389e-01 6.672123984520398343e-01 -3.562988029917975030e-01 6.541244364327699623e-01
2.185854458944673784e-01 -3.032480808857928450e-02 8.163793357734252520e-01 7.919797139187034762e-01 -9.292508459946856314e-02 6.034343886400821422e-01
2.181021299944785885e-01 8.267093636849236205e-03 8.502643383047233661e-01 7.919797139187034762e-01 -9.292508459946856314e-02 6.034343886400821422e-01
1.356810086654447745e-01 -3.846102765111580890e-02 9.105198266498760740e-01 6.790263901364352872e-01 -3.066549642523060948e-01 6.669976719582296765e-01
7.078838180704760674e-02 -7.004392792553755520e-02 9.437779068853877629e-01 4.907063419739758903e-01 -3.727568266289950083e-01 7.875656379934314888e-01
2.489916046992884102e-01 1.807406219633829469e-03 8.331216165447773436e-01 8.070762535114347491e-01 4.352682204694180435e-02 5.888406718123672112e-01
-6.942257137333489592e-01 -6.336487655564200516e-02 -3.245356198839059458e-01 -5.442821748980204433e-01 -1.216521156214850075e-01 -8.300347443650161194e-01
-7.108715967877250463e-01 -2.330313044372493009e-02 -3.782997095715002756e-01 -5.442821748980204433e-01 -1.216521156214850075e-01 -8.300347443650161194e-01
-6.831961166358795357e-01 -2.806723670583991664e-02 -3.152051334599261234e-01 -5.442821748980204433e-01 -1.216521156214850075e-01 -8.300347443650161194e-01
1.850702107050499756e-01 9.892342441363100036e-02 8.216941457022218787e-01 7.903269934512763273e-01 2.079636713984394925e-01 5.763109879229685317e-01
-6.835660878107120420e-01 3.799008708158765901e-01 -4.165038654943438445e-02 -5.531892887353940802e-01 8.323729202507498259e-01 3.371842911031922019e-02
-5.987284537215483704e-01 3.211470027345085798e-01 7.528314765118000740e-02 -5.531892887353940802e-01 8.323729202507498259e-01 3.371842911031922019e-02
-6.203284321855041528e-01 -2.540658889089001948e-01 -2.102607018114025506e-01 -5.482887928324090554e-01 -5.960736792449975452e-01 -5.865795500745923929e-01
-6.748882630378812975e-01 -3.145397406817840302e-01 -2.575750963066960053e-01 -5.482887928324090554e-01 -5.960736792449975452e-01 -5.865795500745923929e-01
-6.213828623247201755e-01 -2.811474059726701835e-01 -2.587861470553551868e-01 -5.482887928324090554e-01 -5.960736792449975452e-01 -5.865795500745923929e-01
3.928449639367812551e-01 3.209938173960154295e-03 6.053814231101349863e-01 8.396059503044795980e-01 1.420555878824432232e-02 5.430101751466773763e-01
4.140094207814306593e-01 -2.269648614766024697e-02 6.305000920204878456e-01 8.396059503044795980e-01 1.420555878824432232e-02 5.430101751466773763e-01
3.904322987496462449e-01 2.331533400344257267e-02 6.758273089519200028e-01 8.396059503044795980e-01 1.420555878824432232e-02 5.430101751466773763e-01
3.938181001408449511e-01 6.024229046472201476e-02 5.543825751209056074e-01 8.396059503044795980e-01 1.420555878824432232e-02 5.430101751466773763e-01
-6.762923002859508315e-02 -3.904757772253251713e-01 -5.823082095001951286e-01 -1.510796049882204514e-05 -8.119534272576508505e-01 -5.837222213830002282e-01
4.474267301517219630e-01 -3.266327548865609331e-02 4.922704626457624633e-01 7.402158277712002077e-01 2.639451908177660108e-02 6.718510680794059775e-01
4.551355718322327437e-01 -1.021916429713371974e-03 4.615906218693670571e-01 7.402158277712002077e-01 2.639451908177660108e-02 6.718510680794059775e-01
-3.152134617266831862e-01 6.816902924264117702e-01 2.447460599849769769e-01 -6.583556221140381970e-01 5.247761635718961593e-01 5.396089815575719761e-01
-2.128134913492563118e-01 6.304300637341889724e-01 2.937583170125850351e-01 -5.600055834131257848e-01 5.305999324387000726e-01 6.362841018304413732e-01
-7.418952441109154250e-02 1.538042118094910538e-01 9.695645657931417638e-01 -4.262605185057190549e-01 5.462874601588569856e-01 7.210214845872630063e-01
-2.463904837730856306e-02 5.851175311517816668e-01 3.681985490583523091e-01 -3.986058412828370062e-02 5.599472028419023584e-01 8.275688876839687458e-01
2.263797464328195230e-01 7.778615616174423542e-01 -1.464295247121930321e-01 7.075286047707302073e-01 5.890808401172088482e-01 -3.903678230054153375e-01
2.133769352694835919e-01 7.935749926117674491e-01 -5.269197529691969917e-02 7.075286047707302073e-01 5.890808401172088482e-01 -3.903678230054153375e-01
-9.829986851683072957e-02 3.724645890451554475e-01 5.521526805732257515e-01 -2.566746451562707532e-01 7.440971192417926705e-01 6.167962416146581806e-01
-1.316102125236798259e-01 3.553869979981968408e-01 4.836990690787724700e-01 -2.566746451562707532e-01 7.440971192417926705e-01 6.167962416146581806e-01
6.681491428720338632e-01 2.716989518229521727e-01 -1.417129663762886072e-01 5.377988364764323403e-01 7.866271313221085970e-01 -3.032988093490404657e-01
8.478200635740444913e-01 1.761188741733163976e-01 3.803273148967959566e-02 5.929877384539247176e-01 7.807255799565903098e-01 1.970611855357251030e-01
8.042646927991130568e-01 1.296253183040425028e-01 1.528992192653254312e-02 6.529702779148431890e-01 7.136951454055927568e-01 2.535134228878271889e-01
8.780452337952212583e-01 1.896181404427512152e-01 1.007614848516385775e-01 6.529702779148431890e-01 7.136951454055927568e-01 2.535134228878271889e-01
3.199418109452261128e-01 -4.680499255240287981e-01 -2.013530389749569605e-01 6.829513227576399226e-01 -5.785134795557507204e-01 -4.459816641027835593e-01
9.114452063548841299e-01 1.260262623386172176e-01 6.474206043087581131e-02 7.295135257622162861e-01 5.983858156417788399e-01 3.312769707792911911e-01
-2.752139632039919404e-01 2.583592980111948378e-01 6.435048747521840973e-01 -6.188775780251239977e-01 5.776701693002984639e-01 5.322477984156638309e-01
-2.956432821821883827e-01 2.363039025069617327e-01 6.162494761217357508e-01 -6.188775780251239977e-01 5.776701693002984639e-01 5.322477984156638309e-01
-2.761399695664694676e-01 2.158148764488941052e-01 6.511096516478200869e-01 -6.188775780251239977e-01 5.776701693002984639e-01 5.322477984156638309e-01
-1.090069946284958485e-01 7.264526076547795919e-01 -3.264468019104110330e-01 -1.906790417417215597e-02 5.234174563556072135e-01 -8.518630062472666298e-01
-4.102676261838881719e-03 7.493636939395500463e-01 -2.686297124899507116e-01 -1.906790417417215597e-02 5.234174563556072135e-01 -8.518630062472666298e-01
2.175145301569251233e-01 3.608669893915801286e-01 5.117131708020172809e-01 3.137591427376578146e-01 6.887865733596721940e-01 6.535505005031907455e-01
2.145165063482650514e-01 3.568469695161934352e-01 4.978770726253161083e-01 3.137591427376578146e-01 6.887865733596721940e-01 6.535505005031907455e-01
-1.757358724893998969e-01 6.657625435831617811e-01 -2.778900032959096822e-01 -3.708746760829971789e-01 5.541161867640931327e-01 -7.452564835050765613e-01
-2.146536462099924436e-01 6.089656782170340676e-01 -3.454316309051946865e-01 -4.597930934807540893e-01 5.280731586801362676e-01 -7.139531148954965101e-01
-1.361307664935036688e-03 4.061128290775055105e-01 5.875891706681112270e-01 4.875735555402838095e-02 8.059989440154039508e-01 5.899054352397777867e-01
1.376116215166356960e-01 2.267091579777606031e-02 9.998195419237961845e-01 3.976138904233053606e-01 9.436911353202713515e-02 9.126870572948995175e-01
2.696765206366549816e-02 7.972135637021494636e-01 -2.361139100754378328e-01 1.032780913262202754e-01 5.910456001608247467e-01 -7.999992089886984736e-01
-4.401423781852805139e-01 5.617836858238264286e-01 -1.451804623593500876e-01 -7.230917486794792293e-01 6.254271803375286432e-01 -2.932220405881884040e-01
1.298879757993970097e-01 1.748087316972373947e-02 9.425683969194409428e-01 6.592070497718484079e-01 -3.431562719340462003e-02 7.511780769307760952e-01
7.892222688028200928e-01 1.962451132731232450e-01 -3.941001589951953488e-02 5.616606350554645966e-01 7.912045550550466100e-01 -2.419352869864955513e-01
1.761145466762486789e-01 3.208059412686981027e-03 9.051081025847622641e-01 6.291566996045434568e-01 -1.078807796334367991e-01 7.697555356919494329e-01
5.384122647794808980e-02 1.592969097066040604e-03 8.913470778019624285e-01 4.813004612573902885e-01 -7.408307558208072907e-02 8.734194661820420258e-01
2.520976979406522878e-01 -6.488376640451812838e-01 2.383649575807808285e-01 6.035711221980367691e-01 -5.445620964709875222e-01 5.823693188482078620e-01
2.938680655989462931e-01 -6.925325620271844951e-01 2.396086628700423715e-01 6.035711221980367691e-01 -5.445620964709875222e-01 5.823693188482078620e-01
2.332252888303019966e-02 -6.110058279169043871e-01 3.523448806140396794e-01 7.687994032509856690e-02 -5.380473015414588556e-01 8.394013200368246608e-01
2.044283738489597463e-02 -6.648411850446289684e-01 3.311917614267551047e-01 7.687994032509856690e-02 -5.380473015414588556e-01 8.394013200368246608e-01
-2.074707956187973878e-02 -6.706138343602477958e-01 2.758795118728740170e-01 -3.553161307223926674e-02 -5.392064736564481375e-01 8.414237239580678596e-01
9.406832832897599195e-01 -4.732330608086769697e-02 8.727653633163279245e-02 6.514004205984748053e-01 -3.992480885150139214e-01 6.451964474958288287e-01
-7.115299820688881782e-01 2.767715608382381176e-01 1.636646306742710610e-01 -5.221996329778840762e-01 7.922877266995828061e-01 3.155751914187339691e-01
-6.917533318205404402e-01 2.722311112629499097e-01 1.371438200637384308e-01 -5.221996329778840762e-01 7.922877266995828061e-01 3.155751914187339691e-01
-7.438207817223538854e-01 2.924799123089337760e-01 1.468429260681244075e-01 -5.221996329778840762e-01 7.922877266995828061e-01 3.155751914187339691e-01
-2.511201883835975646e-01 -6.404578211853207970e-01 2.600588914524182838e-01 -5.077810998106638829e-01 -5.352237629662288665e-01 6.750510189840042141e-01
-2.480980991458419938e-01 -6.360346460561503434e-01 2.837722398343264785e-01 -5.077810998106638829e-01 -5.352237629662288665e-01 6.750510189840042141e-01
1.570107606620874952e-01 6.327327446639129105e-02 9.036807644284966523e-01 6.531608039794875031e-01 3.780505511223839488e-01 6.560935489249466457e-01
1.673819596323876391e-01 1.060126976783202640e-01 8.195738281993191210e-01 6.531608039794875031e-01 3.780505511223839488e-01 6.560935489249466457e-01
2.302809365133854369e-01 -8.002601698442615152e-01 5.222424416763738614e-02 7.946687735322898183e-01 -5.419389799207618985e-01 2.735026186622906974e-01
3.473908305128832752e-01 -6.609737027440540924e-01 1.935637321984743919e-01 7.329413627475699355e-01 -5.395260983001954891e-01 4.143773015341248867e-01
3.397721202095337345e-01 -6.549256484951829771e-01 1.720613751082141207e-01 7.329413627475699355e-01 -5.395260983001954891e-01 4.143773015341248867e-01
-2.011743576651576215e-01 -7.490452421649080872e-01 -3.038032196611685776e-01 -4.123541838371723722e-01 -5.367918682110750517e-01 -7.360832271519596182e-01
-1.743374206407523053e-01 -6.599193414350920106e-01 -2.663449562279034399e-01 -4.123541838371723722e-01 -5.367918682110750517e-01 -7.360832271519596182e-01
-2.132619683095920426e-01 -6.829481174793807785e-01 -2.270394439784597929e-01 -5.268304991834918960e-01 -5.502475700162338113e-01 -6.478250047823890245e-01
-2.448406270351095038e-01 -7.070405684593411566e-01 -2.694342722918188771e-01 -5.268304991834918960e-01 -5.502475700162338113e-01 -6.478250047823890245e-01
1.974458675305595101e-01 4.433513327403583448e-02 8.311077174534776679e-01 7.605235773702366808e-01 2.495700847264485933e-01 5.994319486594044122e-01
1.527045813008408026e-01 9.560337053583886635e-02 8.438533854213113861e-01 7.018841861754803180e-01 2.149295183789225183e-01 6.790904883196262620e-01
1.700157612548356956e-01 3.113078277264701155e-02 9.441857895100701503e-01 7.018841861754803180e-01 2.149295183789225183e-01 6.790904883196262620e-01
1.461868266863454724e-01 6.010774850278885473e-03 9.753169269553978449e-01 7.093660817344360492e-01 2.238443973684103583e-01 6.683512907532286329e-01
-4.034196806909090549e-02 -6.009333851548621652e-01 -3.811322840812973456e-01 -4.746789934137757988e-02 -5.515669571797091608e-01 -8.327788963942551748e-01
4.996361858905653541e-01 8.596350837502234055e-02 4.293066451926007554e-01 6.688486037787447769e-01 1.770896838377510052e-01 7.219977763826347372e-01
2.393588975717419326e-02 -6.475331380413168469e-01 -3.756825835192307839e-01 -5.843846262772661032e-02 -5.887340597320335212e-01 -8.062116055956688454e-01
8.081594762709282120e-03 -5.917802988127177644e-01 -3.527332903399201247e-01 -5.843846262772661032e-02 -5.887340597320335212e-01 -8.062116055956688454e-01
5.844201799452853896e-01 5.082666106002142747e-02 3.724260584888425818e-01 5.892619340924436511e-01 3.712577949924966009e-02 8.070886255710741919e-01
6.229218519896119188e-01 5.673681386515858072e-02 3.732013531485341429e-01 5.892619340924436511e-01 3.712577949924966009e-02 8.070886255710741919e-01
4.364790069711621534e-01 3.610655779658790421e-02 4.864313481640001324e-01 6.729448782655311767e-01 2.689085533679432677e-02 7.392036747172222588e-01
5.100563807892311008e-01 6.241348362485404228e-02 4.324657934418757455e-01 6.729448782655311767e-01 2.689085533679432677e-02 7.392036747172222588e-01
2.772020762595112098e-01 -6.059500398547178479e-01 -2.789851144201728195e-01 5.118086596719413350e-01 -5.390259167798068241e-01 -6.689566181184694038e-01
3.082576019082179930e-01 -5.864428960833247828e-01 -2.679397362086785583e-01 6.337552014436621528e-01 -5.472843763770040004e-01 -5.466572564383802568e-01
2.147696329881763344e-01 -5.932096667770782039e-01 -2.508738920059040978e-01 6.337552014436621528e-01 -5.472843763770040004e-01 -5.466572564383802568e-01
2.769553416087319753e-01 -6.406395853698011456e-01 -2.599498862156343071e-01 5.804597349081410673e-01 -5.352448315421682867e-01 -6.136607095600683515e-01
1.172149209722825880e-01 -1.515583340569506485e-02 9.006323429820699555e-01 6.785420585502954793e-01 1.274326649362028108e-01 7.234235209651291854e-01
-3.879204013297655185e-01 -6.431899999919403754e-01 -1.777019169917225163e-03 -8.191753854887976471e-01 -5.724781117941887265e-01 3.493564549053125579e-02
-3.521974341930588781e-01 -6.034258667201981563e-01 3.160013409004049090e-03 -8.191753854887976471e-01 -5.724781117941887265e-01 3.493564549053125579e-02
-3.621277783883963819e-01 -6.034867365157871033e-01 -4.747940701157109950e-02 -8.191753854887976471e-01 -5.724781117941887265e-01 3.493564549053125579e-02
-2.794681186815685670e-01 -4.296603473654101446e-01 5.054651588156561237e-01 -3.194840051179625440e-01 -7.424043247883775898e-01 5.888682272030802967e-01
-9.066632091218390643e-02 -5.086192777534227494e-01 4.976980222807348420e-01 -3.194840051179625440e-01 -7.424043247883775898e-01 5.888682272030802967e-01
8.589500834091939874e-01 -1.704207079098253586e-01 -9.794781915884816226e-02 5.936869716761483673e-01 -7.701455405153802003e-01 -2.332629976791800730e-01
1.746721822569761717e-01 -1.895700904813781701e-02 8.316257913769835586e-01 7.040064371330941873e-01 1.828819760747190104e-01 6.862427553731788032e-01
2.976104002962411399e-01 -6.200729411702867733e-01 -2.303571950617428477e-01 6.340513085220882417e-01 -5.435369121752622323e-01 -5.500423286115434518e-01
-2.619322504541440333e-01 -8.204710389306161256e-01 -7.319561513859862423e-02 -7.844384181838059966e-01 -5.413172222170575809e-01 -3.027078344022448020e-01
-3.304567418960965841e-01 -6.017896352085922995e-01 -1.717693892539045031e-01 -7.215803463940317908e-01 -5.333596929953863253e-01 -4.414173100205022737e-01
-3.501069416636793385e-01 -1.729645296816288425e-01 -6.016188699115583294e-01 -7.660087499944453482e-01 -3.300878206957226779e-01 -5.516091238914525574e-01
-3.269477653881751045e-01 -1.524151406801126651e-01 -6.571640076848189738e-01 -7.660087499944453482e-01 -3.300878206957226779e-01 -5.516091238914525574e-01
9.125057159744934809e-01 -9.627985512991280026e-02 -7.166355626927546629e-02 7.013912784583897775e-01 -6.667734069358220994e-01 -2.519196266782363081e-01
9.056362152576499236e-01 -1.573544614782664830e-01 -1.938895779054939511e-02 7.013912784583897775e-01 -6.667734069358220994e-01 -2.519196266782363081e-01
-3.282333350621589596e-01 -1.629004422984510481e-01 -6.891899895541568899e-01 -7.934457760301010243e-01 -2.761801756632705218e-01 -5.423728524461709499e-01
-3.369173781408471013e-01 -3.527002932453383033e-01 4.604640131214701726e-01 -5.532380252832382883e-01 -6.164821944474146997e-01 5.602476160681123529e-01
-3.056421123786435268e-01 -2.944672610339019725e-01 4.984994304870279391e-01 -5.532380252832382883e-01 -6.164821944474146997e-01 5.602476160681123529e-01
9.874111412832965451e-01 -1.381026892331791989e-01 -3.910787601721843476e-02 7.814894979350786031e-01 -5.364647168712053382e-01 -3.185588990586769587e-01
9.330381629316459868e-01 -1.363707263784633139e-01 -1.874759742681817443e-01 7.814894979350786031e-01 -5.364647168712053382e-01 -3.185588990586769587e-01
5.676366635506936709e-02 8.410878127217161770e-01 -2.246876293813550862e-01 1.327104257233916174e-01 5.702930562733173891e-01 -8.106502161047974830e-01
-3.491298209671482855e-01 1.423607162345276178e-01 -6.754422010324296899e-01 -7.928895693167807845e-01 2.823646611767802184e-01 -5.399966009033502212e-01
-3.469193658762809163e-01 1.038734114982721030e-01 -7.069816685718620652e-01 -7.928895693167807845e-01 2.823646611767802184e-01 -5.399966009033502212e-01
-2.970806718295805893e-01 1.046442764872576731e-01 -6.469058188409669841e-01 -7.928895693167807845e-01 2.823646611767802184e-01 -5.399966009033502212e-01
-3.395044577379782158e-01 8.327265733917470214e-02 -6.558142874259107469e-01 -8.168458191081744424e-01 2.039056909940389073e-01 -5.396159532350197630e-01
-2.254070205478745370e-01 1.087264319249235806e-01 -6.758477405650732406e-01 -8.168458191081744424e-01 2.039056909940389073e-01 -5.396159532350197630e-01
-1.341620771231588904e-01 2.688026116427116308e-01 -6.975651038925452241e-01 -3.103184546646482467e-01 7.815567217174282932e-01 -5.411760780308486618e-01
-1.454888914883724904e-01 2.122106402597138120e-01 -7.244735298009078450e-01 -3.103184546646482467e-01 7.815567217174282932e-01 -5.411760780308486618e-01
-1.389590365317604492e-01 4.508443876202256062e-01 -4.778761009128880133e-01 -1.730742283078690325e-01 7.406929434812824509e-01 -6.491681407560518924e-01
-2.461853002276214175e-01 -3.054835760149621215e-01 5.840918333616332836e-01 -4.702044195170848040e-01 -6.916699761605756835e-01 5.481792115217706263e-01
-2.525914616140217950e-01 -4.271590479185317646e-01 5.565981802185129279e-01 -4.702044195170848040e-01 -6.916699761605756835e-01 5.481792115217706263e-01
-3.296665165872291747e-01 -2.663341970959235416e-01 5.050135062808823738e-01 -5.432095365519965524e-01 -6.439451123830348678e-01 5.387560594897896626e-01
-2.472181941753458789e-01 -3.019613936785092156e-01 5.259851941287645438e-01 -5.432095365519965524e-01 -6.439451123830348678e-01 5.387560594897896626e-01
-1.193712175842570888e-01 2.608288527182498484e-01 -6.530358669582957409e-01 -2.684839546379369501e-01 8.028317763698665788e-01 -5.323321378169636464e-01
-1.634067896942373033e-01 3.220737912036732431e-01 -6.644757776981179420e-01 -3.481287564862733386e-01 7.647397927995589484e-01 -5.421986888735611521e-01
2.620408249291424907e-01 -6.110467095704222862e-01 -2.149373385815421811e-01 7.000662418560147371e-01 -5.408133962163366171e-01 -4.662918908650969807e-01
3.376124181511727662e-01 -6.022137518908717846e-01 -2.300430333685966056e-01 7.000662418560147371e-01 -5.408133962163366171e-01 -4.662918908650969807e-01
2.997975035897175733e-01 -6.200490513120253677e-01 -1.491063799043280402e-01 7.000662418560147371e-01 -5.408133962163366171e-01 -4.662918908650969807e-01
-6.709767612088441968e-01 2.827361910440649995e-01 7.954694802025077949e-02 -5.528264680018885047e-01 7.847296982490578054e-01 2.803251629135339873e-01
8.941686668705816077e-01 -6.258230437208618657e-02 2.036742465387474388e-01 6.777334228755754753e-01 -1.002466260124106889e-01 7.284421881594203008e-01
5.075025838720547133e-01 -4.439175121670911883e-01 9.627923804769984717e-02 7.085102991770759751e-01 -6.639231524365629689e-01 2.392053586747307503e-01
4.741399868450309474e-01 -4.028524771196526633e-01 1.440658803090731910e-01 7.085102991770759751e-01 -6.639231524365629689e-01 2.392053586747307503e-01
-1.736970874876795912e-01 -4.031185541994086741e-01 5.461224344172110889e-01 -2.628711611708190454e-01 -7.697314608155558791e-01 5.817320954317853898e-01
7.971766270954288025e-01 -7.996024439164746422e-02 -1.812954830464504341e-01 5.966402495610614309e-01 -1.335138744840318470e-01 -7.913244959711385196e-01
1.338180600428245381e-01 -3.304223077170658773e-01 -7.025782305512813242e-01 2.069532556294083336e-01 -8.237823631473865094e-01 -5.277811744953547768e-01
9.731150973601966625e-02 -3.047774269091969579e-01 -6.613774000454920587e-01 2.069532556294083336e-01 -8.237823631473865094e-01 -5.277811744953547768e-01
9.634003610831826103e-02 -3.225391690108241893e-01 -7.079268181767301993e-01 2.441926571460774353e-01 -8.078064939026786684e-01 -5.364872921184619114e-01
5.617907715472601760e-02 -2.759527068703281905e-01 -7.495371213839832070e-01 2.441926571460774353e-01 -8.078064939026786684e-01 -5.364872921184619114e-01
7.957099181252506870e-02 -2.834691813252970816e-01 -6.985481095241807825e-01 2.747751231689590234e-01 -8.034886839801435032e-01 -5.281141603889643044e-01
7.111313345476432124e-01 -8.594286046538189561e-03 -3.001174583983096111e-01 5.158246892305524689e-01 2.991355041598681153e-02 -8.561717523264326113e-01
1.651509558198625827e-01 -2.926601334062313153e-01 -6.363116529954649936e-01 2.715294086425112940e-01 -7.992700297221770889e-01 -5.361335652896190851e-01
-1.731108078779752257e-01 -3.748909551070263579e-01 5.399774537486580206e-01 -3.313500060663364111e-01 -7.575910480734726615e-01 5.623726321210663626e-01
7.372232531490888752e-01 1.549141568024779356e-02 -2.794001739234198145e-01 5.483965399624912695e-01 9.326536342157951132e-02 -8.310010872092817857e-01
-1.742766283787184067e-01 -2.211546210157131487e-01 8.364666588613979270e-01 -4.629375122588468283e-01 -6.741985305134240436e-01 5.754521710769100462e-01
-1.802694752106587250e-01 -1.827464974542956089e-01 8.402164963215019711e-01 -4.629375122588468283e-01 -6.741985305134240436e-01 5.754521710769100462e-01
6.594101528983301597e-01 -3.442810017198738581e-01 -4.784009837726124759e-02 5.253754678273433454e-01 -8.201852591090603717e-01 -2.264437204812786986e-01
6.159583193480532293e-01 5.467346390900828385e-02 -3.797466315616604970e-01 6.187732689224421101e-01 1.982130800536487936e-01 -7.601521009394638373e-01
6.688275089110302662e-01 7.774235397338558062e-02 3.502549736772878064e-01 5.522693329675096852e-01 2.434071458435459190e-01 7.973402944890725097e-01
4.770777486413392277e-01 4.068811181109487918e-01 2.119001063050633404e-01 6.411867145207119645e-01 7.043045736700208614e-01 3.046878150330681878e-01
4.643043873637080488e-01 4.375880279181580401e-01 1.123411839861040845e-01 6.411867145207119645e-01 7.043045736700208614e-01 3.046878150330681878e-01
4.367575803154465364e-01 3.745539795211115797e-01 1.512154717178231800e-01 6.411867145207119645e-01 7.043045736700208614e-01 3.046878150330681878e-01
5.271232595825297018e-01 4.632388999992492762e-01 1.866055038285092116e-01 6.698799676736268971e-01 6.649572856762768769e-01 3.302917454851375667e-01
6.281281349103576828e-01 -2.409497882551867587e-01 -3.465269229784628813e-01 5.316965755480969058e-01 -4.681230690938872341e-01 -7.058041822860975367e-01
6.083340031230333178e-01 -3.036580663237636313e-01 -2.715388872790536201e-01 5.480435234369317454e-01 -5.625457004280913775e-01 -6.190239343908290337e-01
6.038839084661413725e-01 -2.123224782579327119e-01 -2.486435493482970216e-01 5.480435234369317454e-01 -5.625457004280913775e-01 -6.190239343908290337e-01
6.053422525574628787e-01 -2.008530012972074008e-01 -2.728275669653435487e-01 5.480435234369317454e-01 -5.625457004280913775e-01 -6.190239343908290337e-01
4.674854982578575679e-01 -1.542656782095054302e-01 -4.213182982678719268e-01 6.410075493111139222e-01 -3.505772228897724441e-01 -6.827920126341948670e-01
5.194086393089382137e-01 -2.374571245818077325e-01 -4.177652163381129213e-01 6.410075493111139222e-01 -3.505772228897724441e-01 -6.827920126341948670e-01
4.435797949426592557e-01 -1.240872005725865285e-01 -4.357795540931435063e-01 6.410075493111139222e-01 -3.505772228897724441e-01 -6.827920126341948670e-01
-1.249694121631035465e-01 -1.594741487188497397e-01 -8.463416020075488211e-01 -4.519024202151115666e-01 -6.360183773337385604e-01 -6.255116516080917455e-01
-8.238451952615291618e-02 -1.518993730707845768e-01 -9.601204372134746201e-01 -4.519024202151115666e-01 -6.360183773337385604e-01 -6.255116516080917455e-01
2.815793353754140194e-01 -1.618049670411218222e-01 6.410601749280755435e-01 6.923180447728944920e-01 -4.659626233473687096e-01 5.509760053986696438e-01
2.624081585927853233e-01 -1.551284297218495922e-01 5.897457188127657179e-01 6.923180447728944920e-01 -4.659626233473687096e-01 5.509760053986696438e-01
3.963943952235670087e-01 -1.033367855826091836e-01 6.271385512845667476e-01 7.872169517314591136e-01 -2.634109574418175281e-01 5.575877853811133100e-01
3.291214181033306763e-01 -8.025071267244868189e-02 7.041157404071209935e-01 7.872169517314591136e-01 -2.634109574418175281e-01 5.575877853811133100e-01
4.790318475987554447e-01 4.071441268280679981e-01 -2.602426372408343513e-01 6.037556979886329334e-01 6.840307977287148899e-01 -4.093664921618240249e-01
6.625629258530303378e-01 -7.251623067251582178e-02 3.584969092202300867e-01 5.504045059030002740e-01 -1.512451688636685665e-01 8.210845137847104791e-01
6.338428810705443173e-01 -8.217278917601357480e-03 3.517483300883240127e-01 5.504045059030002740e-01 -1.512451688636685665e-01 8.210845137847104791e-01
-1.321754519490562774e-01 -2.309297781073035294e-01 7.819028135380742262e-01 -3.675527740758289252e-01 -7.618949581934462145e-01 5.333113827292358389e-01
-1.307988429349456749e-01 -2.403477910538087681e-01 6.621392547814317631e-01 -3.675527740758289252e-01 -7.618949581934462145e-01 5.333113827292358389e-01
-4.675640386351235384e-02 -2.219111075082932927e-01 -7.370777194828931345e-01 -2.556332916848851403e-02 -8.474946351237666597e-01 -5.301880417722157901e-01
3.100468973745537649e-01 8.267153686178121963e-02 6.341902265289035556e-01 7.959255678027568059e-01 2.539948629000616798e-01 5.495353493072470119e-01
-8.141188128256952039e-01 2.499433546466500455e-01 -5.230230146432517102e-02 -5.524850005783268347e-01 8.166187848740856792e-01 -1.670152218414165946e-01
-7.880119988849003665e-01 2.415629109589484957e-01 -4.005072389924662496e-02 -5.524850005783268347e-01 8.166187848740856792e-01 -1.670152218414165946e-01
-7.974023786695169091e-01 2.418160710063598506e-01 -1.241842085239039384e-01 -5.524850005783268347e-01 8.166187848740856792e-01 -1.670152218414165946e-01
6.157935508562082383e-01 4.139980938184159021e-01 -2.572259729337822085e-02 5.769912995172609138e-01 8.147003044727442189e-01 -5.783125602475042148e-02
5.509548611829663267e-01 4.022646923338930036e-01 -4.423409771379677169e-02 5.769912995172609138e-01 8.147003044727442189e-01 -5.783125602475042148e-02
5.599109192615097097e-01 4.027754150411772538e-01 -6.645009227975950949e-02 5.769912995172609138e-01 8.147003044727442189e-01 -5.783125602475042148e-02
3.826411732527379428e-01 -4.996936143560739008e-01 1.154609741550194635e-01 7.630416560085166999e-01 -6.251350273822118275e-01 1.642365024457767830e-01
4.115031246464099235e-01 -5.292226822411291165e-01 1.681075568690117983e-01 7.630416560085166999e-01 -6.251350273822118275e-01 1.642365024457767830e-01
3.950802751784867617e-01 -5.245112343685336409e-01 1.258071607276156634e-01 7.507013240323137104e-01 -6.340530696678555733e-01 1.855376698703005145e-01
-4.010739608112315890e-01 1.162659170563199867e-01 -5.348275099927981557e-01 -7.046509573167570872e-01 1.521493360187457511e-01 -6.930494988827512470e-01
-5.414182038249333584e-02 -3.067113333819703191e-01 6.935847324138756376e-01 -1.036366141766865145e-01 -8.418788459950832248e-01 5.296219980967363794e-01
-5.212010737359947660e-02 4.029290396614575998e-01 -6.155038954928973016e-01 -1.280709661314542447e-01 8.250833143908670175e-01 -5.503047809604579843e-01
-4.230635080016140193e-02 3.077463278212104747e-01 -6.354040183995751656e-01 -1.280709661314542447e-01 8.250833143908670175e-01 -5.503047809604579843e-01
-6.652425205186401902e-02 -2.933871677749381734e-01 6.453672087651379785e-01 -1.046528342255417660e-01 -8.454941981373459425e-01 5.236290148613307327e-01
-6.263796052294097194e-01 1.051793449705285544e-01 3.344358794473211161e-01 -5.502583842527040137e-01 1.712733027177477108e-01 8.172399686357478821e-01
4.221744019660959857e-02 7.792731777239995106e-01 -2.481573001763051622e-01 3.864226292773136756e-02 5.417345904453226835e-01 -8.396608893064284596e-01
3.295592907022946300e-02 7.994813078244337179e-01 -2.483698152111449842e-01 3.864226292773136756e-02 5.417345904453226835e-01 -8.396608893064284596e-01
-3.552257278843397315e-02 -3.937139968063195217e-01 -6.441334323311728172e-01 -1.269071418659174499e-01 -8.271880628546481873e-01 -5.474070569641921180e-01
-6.613943176995318307e-01 3.278526902744270943e-01 -1.241718931819240090e-01 -5.345444146235872607e-01 8.084221481316877789e-01 -2.464059642234210923e-01
-7.292378478227663496e-01 3.707695029803666498e-01 -1.343561722925793456e-01 -5.345444146235872607e-01 8.084221481316877789e-01 -2.464059642234210923e-01
2.651472076113937093e-01 -8.166824117355170332e-02 -7.802349718681941271e-01 8.204411257173238603e-01 -1.739621170319236021e-01 -5.446223839225318164e-01
2.488529092363899187e-01 -1.044717251249295820e-01 -8.268577412392494885e-01 8.204411257173238603e-01 -1.739621170319236021e-01 -5.446223839225318164e-01
4.406314318815678921e-01 -5.368553732426166736e-01 4.355799020137919586e-02 7.311796630086354609e-01 -6.813864940668779013e-01 3.299615289433718152e-02
4.687223569050485983e-01 -4.422992197065910291e-01 6.422649380432640664e-02 7.311796630086354609e-01 -6.813864940668779013e-01 3.299615289433718152e-02
2.960676734723436399e-01 -1.158440139890374032e-01 -7.455681256506082599e-01 8.364834298153736025e-01 -1.346188837224729928e-01 -5.311998002537503538e-01
-6.980836148065366897e-01 2.048258892734307612e-01 -2.157024608379007335e-01 -5.371198889962808254e-01 2.889490798811125138e-01 -7.924712323362164135e-01
-1.695126887706145113e-01 -2.648656952866907943e-01 6.984545136441366875e-01 -2.595470620435255671e-01 -7.923208704985041928e-01 5.521439674188849400e-01
-6.098982811934790249e-02 -3.510373995153069915e-01 6.363682949290035973e-01 -2.595470620435255671e-01 -7.923208704985041928e-01 5.521439674188849400e-01
-1.029300977506872883e-01 -2.661704911580456967e-01 7.253614359393666389e-01 -2.054290759312338288e-01 -8.141640382440713530e-01 5.430799329676483378e-01
-6.369066356959552921e-01 -1.032166873806457663e-01 -2.965745221380289287e-01 -5.495062666492550596e-01 -1.543814592342331038e-01 -8.211024466885399331e-01
-6.255880101968159801e-01 -9.826614231319574788e-02 -3.282371747267370798e-01 -5.337580981356048193e-01 -1.861396657550277167e-01 -8.248965495789569724e-01
-7.251836070499994014e-01 -7.062176062510097663e-02 -3.280785649748376165e-01 -5.337580981356048193e-01 -1.861396657550277167e-01 -8.248965495789569724e-01
-7.057204833168949643e-01 -3.551223183377522630e-01 -1.530080878626100260e-01 -5.486188332604066131e-01 -7.612944633368009528e-01 -3.456126674251431830e-01
1.660433606723664690e-01 -2.951893616710228874e-01 7.473145459295763571e-01 4.465455549847717753e-01 -7.046425819635869781e-01 5.514307744468311956e-01
2.270358475583582614e-01 -1.626260565986049622e-01 6.294899540618792422e-01 5.668290890734362097e-01 -6.497191447103288775e-01 5.065272122769488572e-01
8.705326160879883757e-02 5.972700106528724406e-01 3.612732111604885499e-01 1.717607742815152605e-01 5.505707299019904077e-01 8.169272353113244955e-01
2.409495611553312544e-02 6.533479759083685723e-01 3.484265639539314563e-01 1.717607742815152605e-01 5.505707299019904077e-01 8.169272353113244955e-01
1.259419858913964074e-01 6.149308082024484978e-01 3.536782702295051539e-01 2.641033312956219126e-01 5.482171746305400939e-01 7.935410259329146454e-01
1.153333542314487897e-01 6.125084117852547250e-01 3.574978058091262123e-01 2.641033312956219126e-01 5.482171746305400939e-01 7.935410259329146454e-01
1.173439149563374473e-01 6.851098373452016999e-01 3.328250610536102050e-01 2.641033312956219126e-01 5.482171746305400939e-01 7.935410259329146454e-01
1.281516009844581305e-01 1.381137746473477534e-01 7.710049842333677184e-01 4.862777781779760167e-01 6.548058768544570141e-01 5.785872329106103162e-01
3.190387313195068297e-01 1.661646527401056672e-01 -7.220577719709333486e-01 7.309745899073269992e-01 4.196290870655418614e-01 -5.381334204436246660e-01
2.275404157403098926e-01 1.271414022997641169e-01 -7.090462249297893038e-01 7.309745899073269992e-01 4.196290870655418614e-01 -5.381334204436246660e-01
2.936183904165285408e-01 1.564352470425258157e-01 -8.090770942196394699e-01 7.309745899073269992e-01 4.196290870655418614e-01 -5.381334204436246660e-01
6.920130570482986299e-01 1.243830722348158446e-01 2.949005406500295190e-01 5.158842884935098683e-01 4.614100550758530872e-01 7.217784715274093710e-01
6.263859725745879459e-01 2.209426685101562593e-01 2.417891567261450103e-01 5.552936129604600923e-01 5.099255270730750356e-01 6.569817046498062085e-01
6.508764126550392604e-01 2.401785810675566568e-01 2.557346860441799818e-01 5.552936129604600923e-01 5.099255270730750356e-01 6.569817046498062085e-01
2.718181469375932080e-01 6.883215752872016147e-01 1.220429450327473742e-01 8.166681201043931582e-01 5.350354626911619782e-01 2.163105066056908998e-01
-4.955505096094703354e-02 1.677973881973519044e-01 -9.702467840777628805e-01 -2.715194821542097903e-01 6.398983132281331754e-01 -7.188931210816388306e-01
-1.249514490129808308e-01 6.145062181872371632e-01 -3.336930225486181567e-01 -1.661277808885534002e-01 5.441233142542030166e-01 -8.223936887537904861e-01
-2.856520104561940249e-02 6.511071945687894047e-01 -3.022240795405219949e-01 -1.987162618050795915e-01 5.530704111155798630e-01 -8.090889738728729297e-01
-1.094203216665105283e-01 7.043159897203263853e-01 -3.264213556786936254e-01 -1.987162618050795915e-01 5.530704111155798630e-01 -8.090889738728729297e-01
4.460360206979165909e-01 -4.840848848261222193e-01 1.643841267599931502e-02 7.395938085680960894e-01 -6.716725883846648149e-01 4.309213780242596853e-02
4.533989721464023459e-01 -4.560588827378683763e-01 -6.304438176543748253e-04 7.395938085680960894e-01 -6.716725883846648149e-01 4.309213780242596853e-02
1.653134928570615392e-01 1.346471084024787046e-01 8.345310745666427721e-01 6.035364350386704935e-01 5.397410212828510634e-01 5.868759677524352236e-01
4.059565709930079147e-01 -3.400416607297704896e-01 4.116249935602897536e-01 5.660152067965449341e-01 -5.785511435401077263e-01 5.872864377656769053e-01
3.333835365175376042e-01 -3.472497212299248681e-01 4.231266612488523982e-01 5.660152067965449341e-01 -5.785511435401077263e-01 5.872864377656769053e-01
3.693758926970835965e-01 -4.088650374017459566e-01 3.823784152055052510e-01 5.660152067965449341e-01 -5.785511435401077263e-01 5.872864377656769053e-01
-1.692842311110630271e-04 3.474409686801597785e-01 -6.981321106352764705e-01 -5.335617891561712095e-02 8.488847106360061234e-01 -5.258781857236036750e-01
4.738008472318096242e-02 2.457173615897588204e-01 -7.250505423105130243e-01 -5.335617891561712095e-02 8.488847106360061234e-01 -5.258781857236036750e-01
-2.759944824200739610e-01 7.275832315693770980e-01 -1.313899074654327759e-01 -8.275301241284206410e-01 5.235343942498936753e-01 -2.027452384086926018e-01
-2.575626296082170197e-01 6.544261165210342179e-01 -1.146944822192708796e-01 -8.275301241284206410e-01 5.235343942498936753e-01 -2.027452384086926018e-01
-2.978762338304360990e-01 6.223187990793763724e-01 -1.326665432059935812e-01 -8.275301241284206410e-01 5.235343942498936753e-01 -2.027452384086926018e-01
2.409986723224081528e-01 -4.633315029553257691e-01 4.687084634780181447e-01 4.511391692655344898e-01 -6.459089605571675108e-01 6.158531193607473808e-01
2.726091998958158902e-01 -4.383134165933694759e-01 5.605424963228915480e-01 4.511391692655344898e-01 -6.459089605571675108e-01 6.158531193607473808e-01
2.223708039131487013e-01 -3.804944233922705199e-01 4.400585919218678588e-01 4.511391692655344898e-01 -6.459089605571675108e-01 6.158531193607473808e-01
2.259628549939397130e-02 1.810674232823650809e-01 -7.933761460044881364e-01 8.895121398550701053e-02 8.245238138646715509e-01 -5.587916981313887366e-01
4.707628321828072337e-02 2.479449622400097253e-01 -8.184584398759051638e-01 8.895121398550701053e-02 8.245238138646715509e-01 -5.587916981313887366e-01
-1.350480069148447260e-01 -7.247424605115028173e-01 3.254005544704373087e-01 -1.433164131880099168e-01 -5.383255915363509558e-01 8.304612954304140260e-01
-1.563986238781513438e-01 -7.570253366679677853e-01 3.006860652211914564e-01 -1.433164131880099168e-01 -5.383255915363509558e-01 8.304612954304140260e-01
-1.588182538744210559e-01 -6.386753678406482670e-01 3.434838672862471909e-01 -2.398696639317883239e-01 -5.398493595364302067e-01 8.068613346377164763e-01
-1.283253946743492802e-01 -6.691459987775632001e-01 3.371913267434555883e-01 -2.398696639317883239e-01 -5.398493595364302067e-01 8.068613346377164763e-01
3.163939084725361228e-01 -6.679566448011222679e-01 -1.563280470460923777e-01 7.166771524002512050e-01 -5.300730599266211263e-01 -4.532068075034792476e-01
2.988333007573539812e-01 -5.650638925419158021e-01 -2.273484802386335490e-01 7.166771524002512050e-01 -5.300730599266211263e-01 -4.532068075034792476e-01
2.706472699714650432e-01 -5.896810959886114034e-01 -1.994117958945740565e-01 7.166771524002512050e-01 -5.300730599266211263e-01 -4.532068075034792476e-01
-9.011096141028566986e-03 3.231210001352223249e-01 -7.866592870423011474e-01 3.580290394692144107e-02 8.513303014430071425e-01 -5.234069830580463378e-01
5.584442022689980328e-02 2.574172453720710574e-01 -7.391917238252943001e-01 3.580290394692144107e-02 8.513303014430071425e-01 -5.234069830580463378e-01
-2.254739426875134248e-02 3.349305798644889309e-01 -8.034604982259537787e-01 3.580290394692144107e-02 8.513303014430071425e-01 -5.234069830580463378e-01
3.984192786746871273e-01 -4.750988645412934641e-01 -1.466646123065653839e-01 6.689330256150476384e-01 -7.174355871729631851e-01 -1.944602414358357068e-01
-1.197913150133657345e-02 3.187089003332044812e-01 -7.270911395152153123e-01 -4.712468414909132264e-02 8.444414168946610122e-01 -5.335709489625403146e-01
3.052807874942928823e-01 -6.347682691600350369e-01 8.014598487586445386e-02 7.920252346962346479e-01 -5.632617490152860285e-01 2.354405014024041620e-01
2.149861048222141413e-01 -3.997834793735975389e-01 4.977808095310393699e-01 3.320753819720952960e-01 -7.186928960815011092e-01 6.109062627032658677e-01
1.375437632037639912e-01 -3.453576776745447829e-01 4.634785535239110965e-01 3.320753819720952960e-01 -7.186928960815011092e-01 6.109062627032658677e-01
5.751230063509701340e-01 -4.233041539141528808e-01 -1.376677732341489158e-01 6.307168861397735027e-01 -7.439557738722950564e-01 -2.207397020479607841e-01
5.739459751318679581e-01 -3.189044196228211225e-01 -1.310682075713515971e-01 6.307168861397735027e-01 -7.439557738722950564e-01 -2.207397020479607841e-01
6.135480667746576744e-01 -2.945473609794310166e-01 -2.158968901168630827e-01 5.507915407747181469e-01 -6.214224890911530519e-01 -5.571918598317527893e-01
5.796989798825422646e-01 -3.132825051775074421e-01 -2.851351852437755685e-01 5.507915407747181469e-01 -6.214224890911530519e-01 -5.571918598317527893e-01
2.134356312311329051e-01 -3.402987057521895120e-01 5.784553999953484515e-01 3.844252147659895091e-01 -7.472437983302033793e-01 5.420737589195527839e-01
1.325424177561295436e-01 -5.926335429533732269e-01 -3.259746403089756051e-01 2.312567017536718839e-01 -5.536130243439359999e-01 -8.000205979665609979e-01
7.872993898768898546e-02 -6.398325646442558634e-01 -3.192663023449187065e-01 2.312567017536718839e-01 -5.536130243439359999e-01 -8.000205979665609979e-01
1.134698292766795902e-01 -6.393764020439149931e-01 -3.533435957558450080e-01 2.327608543446268441e-01 -5.528863394948172472e-01 -8.000869204560095982e-01
-6.516348061966386052e-01 3.142939747254294702e-01 -1.282871322531264902e-01 -5.324814991847145462e-01 8.145531821722256094e-01 -2.301446641551786465e-01
-6.890252380064032511e-01 2.446923676880811693e-01 -1.016120523824468047e-01 -5.324814991847145462e-01 8.145531821722256094e-01 -2.301446641551786465e-01
6.206500410083648500e-01 -2.744427218017353454e-01 -2.555139646409427256e-01 5.410904867304774379e-01 -6.295296185221697094e-01 -5.575962200132876800e-01
5.824592219020737760e-01 -3.316197954496280520e-01 -2.459058568191412886e-01 5.410904867304774379e-01 -6.295296185221697094e-01 -5.575962200132876800e-01
-2.410023129894947949e-03 -4.974449070264312933e-01 4.716313317720932652e-01 5.127701605854373401e-02 -7.490257950485871286e-01 6.605535754016956806e-01
-2.108720215187930014e-01 2.446151592892784332e-01 -7.297563089178649154e-01 -4.736344398136188016e-01 6.962900708780693781e-01 -5.393056226473561532e-01
-2.615552175878799734e-01 2.215524677644447049e-01 -6.393988523883519237e-01 -5.672646414353882394e-01 6.321060226366008727e-01 -5.278757455346072547e-01
-2.778043052403721958e-01 1.805383803003515475e-01 -6.832561230196009250e-01 -5.672646414353882394e-01 6.321060226366008727e-01 -5.278757455346072547e-01
-3.620827101941881954e-01 -2.744474551990215283e-01 -4.336027476794833135e-01 -6.355412590826310382e-01 -4.827969770534965011e-01 -6.024901550661800886e-01
-4.087133998285207848e-01 -2.989494217829194445e-01 -4.800938826398769010e-01 -6.355412590826310382e-01 -4.827969770534965011e-01 -6.024901550661800886e-01
-4.092891879708639435e-01 -2.364463966581816790e-01 -4.209417958979479457e-01 -6.355412590826310382e-01 -4.827969770534965011e-01 -6.024901550661800886e-01
-3.708281072424139957e-01 -2.863064210087524208e-01 -4.589286698325930058e-01 -6.355412590826310382e-01 -4.827969770534965011e-01 -6.024901550661800886e-01
-2.847323149407040566e-01 -7.626877507600502218e-04 -8.164228535400395170e-01 -8.114090185575382197e-01 -3.135836435890451690e-02 -5.836369227424073047e-01
4.602328374331490224e-01 -3.969327346407668378e-01 1.530371690565230647e-01 6.207835385306595954e-01 -6.548583689549181130e-01 4.310316866531479496e-01
5.763596952451939537e-03 -3.760377445477110503e-01 6.716802412785159992e-01 3.563924370210843490e-02 -8.131507765331813520e-01 5.809609788374998640e-01
-7.224117041167219325e-03 -3.480262942279121474e-01 6.341711186679349632e-01 3.563924370210843490e-02 -8.131507765331813520e-01 5.809609788374998640e-01
-8.379720658834974856e-01 1.209215877185425975e-01 3.765357079025380416e-02 -6.675782350854253533e-01 7.373890846766479878e-01 1.029399720223590914e-01
-9.092143567692099193e-01 1.341484363017475534e-01 1.806834656033387207e-02 -6.675782350854253533e-01 7.373890846766479878e-01 1.029399720223590914e-01
-3.082003821613097938e-01 1.053427374468831126e-02 -7.700385674566327943e-01 -8.370478741211819784e-01 -4.203434494610831101e-02 -5.455125757250345320e-01
-1.870942242388561605e-01 8.985532162009617074e-02 -8.130229971119704580e-01 -6.854886565857639669e-01 4.170932915273319885e-01 -5.967733974090505544e-01
-9.237266623347474559e-02 1.545195519882118229e-01 -8.302395352828769726e-01 -6.505601553004807247e-01 4.714648583199077536e-01 -5.953926197936986187e-01
-2.195805115180317069e-01 1.514854898786835435e-01 -8.798427625340560221e-01 -6.505601553004807247e-01 4.714648583199077536e-01 -5.953926197936986187e-01
-2.163238119071319021e-01 1.622619889458061515e-01 -8.430218383909307001e-01 -6.505601553004807247e-01 4.714648583199077536e-01 -5.953926197936986187e-01
-5.112028765551311638e-02 8.644305814555361955e-01 -2.424974766961484618e-01 -7.562894529437455549e-02 5.835441894075958924e-01 -8.085520648927267962e-01
-3.412142111772533681e-01 2.392593899769617505e-01 -5.552663722957353887e-01 -6.151842151453186247e-01 5.518928871915008694e-01 -5.629943361202381924e-01
-3.505963312518589059e-01 2.548839497936317700e-01 -5.461114741937102002e-01 -6.151842151453186247e-01 5.518928871915008694e-01 -5.629943361202381924e-01
-2.236970868428545256e-01 6.058335786198214279e-02 -7.473349329158367471e-01 -8.233039355821868410e-01 2.020471866252711857e-01 -5.304220621653055190e-01
-3.155350090102562177e-01 6.216515194004143541e-02 -7.260503386221474065e-01 -8.568093717006038945e-01 9.249357523862741792e-02 -5.072697892695685606e-01
-3.237906746682908676e-01 3.039741679714447198e-02 -7.125694650588588752e-01 -8.568093717006038945e-01 9.249357523862741792e-02 -5.072697892695685606e-01
-4.092696491080330956e-01 2.668252035974004177e-01 -4.442360553095976994e-01 -6.626165803526816722e-01 4.273096515178478882e-01 -6.150981459583614308e-01
