-7.451790949986214496e-02 -4.087756477517187625e-01 -3.066372697429353700e-01 -6.535949539972424338e-02 -2.251168817924805721e-01 -9.721370921290493072e-01
-1.356867945162498756e-01 -3.777979847867011798e-01 -2.140492675360006758e-01 -6.535949539972424338e-02 -2.251168817924805721e-01 -9.721370921290493072e-01
-1.267057524575953831e-01 -3.168087032853494911e-01 -2.767557853533133549e-01 -8.192186309899268659e-02 -2.120649729406752226e-01 -9.738158222159160049e-01
-4.121615973429695878e-02 -4.179547601203782992e-01 -2.897522661541671596e-01 -4.177805355524710773e-02 -2.306882834033414098e-01 -9.721303977047290878e-01
-6.328013971514226399e-02 -3.667222393486169185e-01 -2.446602823616067235e-01 -4.177805355524710773e-02 -2.306882834033414098e-01 -9.721303977047290878e-01
-1.276847932920194828e-01 -2.983876974744036903e-01 -2.992040031154535318e-01 -5.283688900426557200e-02 -2.218096517008537605e-01 -9.736574046206893929e-01
-9.818793540245686347e-02 -3.529825354093817924e-01 -3.240751068578083816e-01 -5.283688900426557200e-02 -2.218096517008537605e-01 -9.736574046206893929e-01
-3.614965557385861616e-02 -3.932008168044107133e-01 -3.326304793011859995e-01 -2.321131053787765797e-02 -2.251701271322223419e-01 -9.740429399725522019e-01
-1.636492446510460358e-02 -3.702294458457042747e-01 -2.503933665831964417e-01 -2.321131053787765797e-02 -2.251701271322223419e-01 -9.740429399725522019e-01
-8.702362105336088755e-03 -4.039778616349165019e-01 -2.640519674357846291e-01 8.328458509670946461e-03 -2.298260273274773391e-01 -9.731960922351273746e-01
3.484466826025281461e-02 -3.453105760733234941e-01 -2.048537779088134281e-01 3.588207977824957231e-03 -2.258937072509508703e-01 -9.741453473624609449e-01
8.376177030938975615e-03 -3.638492266492713290e-01 -2.628243858810286881e-01 3.588207977824957231e-03 -2.258937072509508703e-01 -9.741453473624609449e-01
1.056615873356680502e-01 -3.883059888030937490e-01 -3.442235403442750474e-01 3.327492811675673845e-02 -2.273438746073986605e-01 -9.732458794350583586e-01
7.284225139428870954e-02 -3.595928849329732557e-01 -3.289618579484248073e-01 3.327492811675673845e-02 -2.273438746073986605e-01 -9.732458794350583586e-01
6.009367563331338702e-02 -3.732586650373300174e-01 -2.834769869502041240e-01 3.239664648099999794e-02 -2.266173816096184179e-01 -9.734449237882879524e-01
5.183114026454095635e-02 -3.317475196510700219e-01 -2.576454387642300170e-01 3.239664648099999794e-02 -2.266173816096184179e-01 -9.734449237882879524e-01
2.048400112442634244e-02 -3.934626712999812481e-01 -2.895307728862634433e-01 3.239664648099999794e-02 -2.266173816096184179e-01 -9.734449237882879524e-01
1.075915218088962788e-01 -3.779465062045259116e-01 -2.863563082921537495e-01 5.973607934504270717e-02 -2.216947556034458977e-01 -9.732846634784764195e-01
6.243184532380982588e-02 -3.805236776322784564e-01 -3.065120438954190285e-01 6.336348301963047602e-02 -2.241549015104949416e-01 -9.724914648203557554e-01
6.072683131423690234e-02 -3.375254727937571086e-01 -2.731142428001464006e-01 6.336348301963047602e-02 -2.241549015104949416e-01 -9.724914648203557554e-01
1.659573951793117397e-01 -3.920946548397871712e-01 -2.694841121207830481e-01 8.748046541475276716e-02 -2.223010806367607950e-01 -9.710455178407172427e-01
1.693707854121989098e-01 -3.248915147607751575e-01 -3.229442149828153918e-01 8.189865463098856824e-02 -2.188435076420131575e-01 -9.723168874048080390e-01
1.348246144174733430e-01 -3.465140972285842280e-01 -2.538367755743977106e-01 8.189865463098856824e-02 -2.188435076420131575e-01 -9.723168874048080390e-01
1.615044512876749050e-01 -3.302215016499279732e-01 -2.675662732564265678e-01 1.033473616662401867e-01 -2.201645495682786613e-01 -9.699726253611615778e-01
1.557185971090851995e-01 -3.356186357008820731e-01 -2.642264802624091358e-01 1.335305142212210860e-01 -2.161333911169174005e-01 -9.671897223482669448e-01
1.912246264910005822e-01 -3.266886626975068486e-01 -2.696283543110871705e-01 1.181868730533144618e-01 -2.272421391245452726e-01 -9.666399915397565490e-01
2.442064784334052330e-01 -3.772750005799063722e-01 -2.828568873671612471e-01 1.398658153118014502e-01 -2.201662280674318573e-01 -9.653830253975489439e-01
-2.329526250949011668e-01 -2.980060111156956348e-01 -2.959922708086880072e-01 -1.657930066392924173e-01 -1.866879613166493035e-01 -9.683286033413123217e-01
-2.688876279996502139e-01 -3.192725838807978778e-01 -3.031657336134004344e-01 -1.576975666568239953e-01 -1.953524189352627838e-01 -9.679715439446855418e-01
-2.423117706920493997e-01 -3.045081417334011831e-01 -2.485068633153299233e-01 -1.455846392362242503e-01 -1.979988393068744523e-01 -9.693304763864535323e-01
-2.354297375223224353e-01 -3.057571080752959913e-01 -3.022789005351715352e-01 -1.317337913721964016e-01 -1.828689136584639718e-01 -9.742716092692426111e-01
-1.358008972215435373e-01 -3.382913025157521236e-01 -2.959629128179827040e-01 -1.165085962166612088e-01 -1.908904330498853996e-01 -9.746725550551069706e-01
-2.017449763939167806e-01 -2.817032238765352359e-01 -2.863013018922850317e-01 -1.165085962166612088e-01 -1.908904330498853996e-01 -9.746725550551069706e-01
-1.497109815658272391e-01 -3.014043452749919361e-01 -2.542951188343213764e-01 -1.165085962166612088e-01 -1.908904330498853996e-01 -9.746725550551069706e-01
-1.260876644072840835e-01 -3.614035066553115683e-01 -3.146122841627615463e-01 -1.044408024376699690e-01 -1.698797754013711414e-01 -9.799147823641376487e-01
-1.670490662175900531e-01 -2.567498298165081794e-01 -3.404091720523363951e-01 -1.044408024376699690e-01 -1.698797754013711414e-01 -9.799147823641376487e-01
-1.480258900815632217e-01 -3.353556359963962841e-01 -2.655325619762017864e-01 -1.230287541350202213e-01 -1.775248382076766995e-01 -9.763958508081252985e-01
-7.688282119369110879e-02 -3.743661817622730426e-01 -2.939032222739907385e-01 -4.664942777826118492e-02 -1.991335538195687926e-01 -9.788614093073387812e-01
-5.336953001354328985e-02 -3.478401596420556130e-01 -2.806364101271109912e-01 -4.664942777826118492e-02 -1.991335538195687926e-01 -9.788614093073387812e-01
-4.974209139518088324e-02 -2.616403793711585268e-01 -3.102161190221205400e-01 -5.878403038782549495e-02 -1.911808216504774782e-01 -9.797930042638657300e-01
-1.141994349011907495e-01 -3.396026095070273088e-01 -2.971324298001238318e-01 -5.878403038782549495e-02 -1.911808216504774782e-01 -9.797930042638657300e-01
-1.027992860413900478e-01 -3.318567648268022086e-01 -2.772251533501700616e-01 -5.878403038782549495e-02 -1.911808216504774782e-01 -9.797930042638657300e-01
-3.722147917499853825e-02 -3.490007654510463575e-01 -2.947941887584572540e-01 -2.266487280158709788e-02 -2.058106250810803062e-01 -9.783293362383768121e-01
-6.694054858950615472e-02 -2.888529012966974396e-01 -3.082952142848007782e-01 -3.535395651094598579e-02 -1.963735955308032743e-01 -9.798915800930869668e-01
-4.692971034027104693e-03 -3.351061250082462695e-01 -2.495319589244273939e-01 -3.535395651094598579e-02 -1.963735955308032743e-01 -9.798915800930869668e-01
5.659624713381927567e-03 -3.341984988382360466e-01 -2.716565670208771488e-01 1.331165637289561223e-03 -2.000497291084498974e-01 -9.797848406061822057e-01
3.776604143657961987e-02 -3.353075257626293437e-01 -2.556249310848945910e-01 1.331165637289561223e-03 -2.000497291084498974e-01 -9.797848406061822057e-01
4.820903932871498099e-02 -3.233744144040803237e-01 -2.728045920616052333e-01 2.816706581044539290e-03 -2.013347900901364118e-01 -9.795184370206602154e-01
3.441356031602989252e-02 -2.819867432824010867e-01 -3.376921165786317403e-01 2.967142413702213155e-02 -1.934113446474168829e-01 -9.806689851072882824e-01
5.979989846219078281e-02 -3.198580181140348033e-01 -2.933038214237156383e-01 3.803314877881012329e-02 -2.002208638966181120e-01 -9.790123008698414786e-01
1.021616700741085765e-01 -2.869001337417915742e-01 -3.026385248541286765e-01 5.340578064827335852e-02 -1.875221104789240589e-01 -9.808074636109163080e-01
1.096645175173409786e-01 -2.869732741647719187e-01 -2.837306716163542353e-01 5.340578064827335852e-02 -1.875221104789240589e-01 -9.808074636109163080e-01
1.360234180682786120e-01 -3.282644814024096025e-01 -3.162009204148671926e-01 6.576736737795485510e-02 -1.944243471798209610e-01 -9.787102873740898268e-01
8.421918614084888954e-02 -3.001888424455415039e-01 -2.505789235972338269e-01 8.394419495250825258e-02 -1.721502144095000131e-01 -9.814874812306769725e-01
1.139102724921214338e-01 -3.494379779955891774e-01 -3.113604657930918451e-01 1.165018829425992358e-01 -1.895846924013854795e-01 -9.749281797537194816e-01
8.297489702587620974e-02 -2.605811325740102213e-01 -3.411475223798183798e-01 1.165018829425992358e-01 -1.895846924013854795e-01 -9.749281797537194816e-01
2.088127457905142037e-01 -3.418244182902485107e-01 -3.105216512672467344e-01 1.107167448336245641e-01 -1.911274377889862486e-01 -9.753010329829777669e-01
1.848408105631685894e-01 -3.601247493609015526e-01 -3.249638354623001213e-01 1.107167448336245641e-01 -1.911274377889862486e-01 -9.753010329829777669e-01
1.644928225266741872e-01 -3.175754780939097355e-01 -3.582766023311324544e-01 6.981021380956713152e-02 -1.732869473322247167e-01 -9.823941001106132331e-01
1.660687026585784543e-01 -2.667386916984632594e-01 -3.083992491099609712e-01 6.981021380956713152e-02 -1.732869473322247167e-01 -9.823941001106132331e-01
2.675209826063731366e-01 -3.195550275053749556e-01 -2.866710259095419655e-01 1.318940407401270887e-01 -1.981755246621887956e-01 -9.712519876129510621e-01
2.198611173085383008e-01 -3.608835476117577823e-01 -3.395615529136218891e-01 1.175322602266985900e-01 -1.899279544458122027e-01 -9.747376774938133481e-01
2.022818447213685367e-01 -2.634360439828565270e-01 -3.311003894226042799e-01 1.175322602266985900e-01 -1.899279544458122027e-01 -9.747376774938133481e-01
2.151344490059998171e-01 -3.560213578772261078e-01 -2.683679118645597717e-01 1.556183265087685841e-01 -1.998105802782244866e-01 -9.673978852899615122e-01
2.714008163321108835e-01 -3.104152929780184533e-01 -2.908545348145920029e-01 1.485905467305022321e-01 -1.927121789130347707e-01 -9.699396195232572460e-01
2.796492452605969237e-01 -2.978343616830033680e-01 -2.861343972023707716e-01 1.687521665766757994e-01 -2.015352560228899081e-01 -9.648348287947869917e-01
-2.689673376867658394e-01 -2.684364803250075537e-01 -2.445768226949540936e-01 -1.974972654786781301e-01 -1.660366953838771920e-01 -9.661400757211379142e-01
-3.208659696160544583e-01 -2.609830738521258797e-01 -2.439721333781812163e-01 -1.870546271207592925e-01 -1.775509126828328232e-01 -9.661709164936640448e-01
-2.457866572069634659e-01 -2.806975997557539237e-01 -2.922078297925594370e-01 -1.670676156923511790e-01 -1.784261912693043406e-01 -9.696661827948845902e-01
-2.363676560398190740e-01 -3.095068233100401467e-01 -2.714621124932979357e-01 -1.577736923662265978e-01 -1.633643259577062246e-01 -9.738683478794818438e-01
-2.413288409465328965e-01 -2.681582590393448706e-01 -2.958743043445176690e-01 -1.577736923662265978e-01 -1.633643259577062246e-01 -9.738683478794818438e-01
-2.106732763596164404e-01 -2.849079256062348464e-01 -2.652422770642009486e-01 4.825366272109976595e-01 8.743701915990524931e-01 5.133392097698125101e-02
-1.822207938149287831e-01 -2.955049294271274718e-01 -3.097102397977520294e-01 3.145520838040684608e-01 9.454962325098156262e-01 8.422506090388411082e-02
-1.418091206141048888e-01 -2.338023244832211356e-01 -3.102976422541813273e-01 -3.020569227930915979e-01 9.528953184343624816e-01 2.742494300163836329e-02
-1.523749917685402189e-01 -2.904990150242788838e-01 -2.951771488693509804e-01 -2.463652750879172793e-01 9.580058149223708019e-01 -1.467276722563916613e-01
-9.805021826067127078e-02 -2.908394224638074510e-01 -3.377081852732263800e-01 -4.868703297632623328e-02 -1.744442433327193231e-01 -9.834626473781489242e-01
-2.961542431415413110e-02 -2.960317005161535175e-01 -2.874413167645810119e-01 -3.160188407871155486e-02 -1.736513623845948595e-01 -9.843000179135676930e-01
-7.634067107203200420e-02 -2.884429794815477344e-01 -2.274167507710818659e-01 -3.160188407871155486e-02 -1.736513623845948595e-01 -9.843000179135676930e-01
-3.315443395305442409e-02 -2.677446323923695082e-01 -3.174023670244568440e-01 -3.732031854468341459e-02 -1.695044051671988072e-01 -9.848225476971154135e-01
-2.970692578884846780e-02 -2.398711724357510677e-01 -3.004883019772072172e-01 1.012512566547930665e-03 -1.685881138029965420e-01 -9.856860670125405788e-01
1.767659505058023772e-02 -2.738103919337490089e-01 -2.722458698623477780e-01 1.012512566547930665e-03 -1.685881138029965420e-01 -9.856860670125405788e-01
-4.773445282949255464e-03 -2.620987366512979588e-01 -2.880769979718769691e-01 1.012512566547930665e-03 -1.685881138029965420e-01 -9.856860670125405788e-01
-3.208586319272090787e-02 -2.513694156294514759e-01 -3.484338573814205753e-01 -4.635495065765410372e-03 -1.628496601706739821e-01 -9.866400054567985300e-01
-4.435958045682286341e-03 -2.586071413099147454e-01 -3.236021589862580483e-01 -4.635495065765410372e-03 -1.628496601706739821e-01 -9.866400054567985300e-01
-7.879043893587265451e-03 -2.670618658694670078e-01 -3.114487337228431518e-01 -4.635495065765410372e-03 -1.628496601706739821e-01 -9.866400054567985300e-01
3.769409571448337215e-02 -2.572026994000601308e-01 -2.851785505473200533e-01 3.227524099756139825e-02 -1.661193311726411881e-01 -9.855773316332430145e-01
4.307014527028647788e-02 -2.795352770165420719e-01 -3.620028847044528542e-01 3.524763384541604316e-02 -1.689869464146375733e-01 -9.849878254322517179e-01
9.341333796682338431e-02 -2.536422283604338745e-01 -2.754393361160746845e-01 3.524763384541604316e-02 -1.689869464146375733e-01 -9.849878254322517179e-01
1.108449449987316537e-01 -2.340092010128499433e-01 -3.623709921967395720e-01 -3.804553213073957191e-02 -1.996519133416488692e-02 -9.990765379188317752e-01
1.094312498015049540e-01 -2.485680262450085665e-01 -3.421796172515311207e-01 1.572756734689297609e-01 -1.857432224858590886e-01 -9.699298004677778806e-01
9.049604879304304350e-02 -2.453796039654179695e-01 -3.660389723984673882e-01 1.572756734689297609e-01 -1.857432224858590886e-01 -9.699298004677778806e-01
1.345940300406012757e-01 -2.695335164472032474e-01 -3.016310528383551182e-01 2.407795508122434203e-01 9.694315297838791423e-01 -4.719869671444412024e-02
1.464363121755550834e-01 -2.697298487168672820e-01 -3.064176491703493044e-01 3.736697151108446247e-01 9.267768715132241875e-01 3.815199126049694661e-02
1.714894413783297489e-01 -2.781456586258913011e-01 -3.032237631236507358e-01 -1.329093712589980714e-01 9.905632724828800084e-01 3.345896351570906008e-02
1.451454202970557383e-01 -2.999771294869147398e-01 -3.084500837751101288e-01 -5.379111342414707314e-02 9.934895742749545455e-01 -1.004240106924649129e-01
2.481620720726482876e-01 -2.948563188036190663e-01 -2.845943392524220572e-01 1.519715550572319773e-01 -1.785627124830801715e-01 -9.721213937385452253e-01
2.568648657623690545e-01 -2.439703450642713989e-01 -2.502086110247304651e-01 1.367293038042018682e-01 -1.646118647478123642e-01 -9.768357238888565330e-01
2.152618333100536074e-01 -2.161399285786032576e-01 -2.929360426599300071e-01 1.367293038042018682e-01 -1.646118647478123642e-01 -9.768357238888565330e-01
2.407600138804790180e-01 -2.783861788358818479e-01 -3.130858392028541548e-01 1.777544302821785771e-01 -1.738345583458304477e-01 -9.685994573815165376e-01
2.664875182306927215e-01 -2.772305399161618666e-01 -3.142424099754566047e-01 1.728288322152407019e-01 -1.684390879692921617e-01 -9.704424085947548351e-01
3.333973605162471321e-01 -3.155677230627929597e-01 -2.848269883684517723e-01 1.728288322152407019e-01 -1.684390879692921617e-01 -9.704424085947548351e-01
-3.472449056597067818e-01 -2.343188898512321705e-01 -2.636042852659183366e-01 -2.096471708641103604e-01 -1.521990346044242159e-01 -9.658589532712091863e-01
-2.808103430802604272e-01 -2.531204581073945858e-01 -3.025416911209037885e-01 -1.978653485230712217e-01 -1.532824162393565115e-01 -9.681703386933872002e-01
-2.886104957454023734e-01 -2.333493623601318456e-01 -3.368170954635993919e-01 -1.896198214809141358e-01 -1.434992346500335303e-01 -9.713147239470844019e-01
-2.489265401869859007e-01 -2.245206527603328395e-01 -2.688244766268261809e-01 -1.627415467504343405e-01 -1.437366549376563885e-01 -9.761429009057071005e-01
-2.961274286317411297e-01 -2.137858618239202868e-01 -2.863281613229969325e-01 -1.614848389165884079e-01 -1.459618122325505862e-01 -9.760214117374030884e-01
-2.542828107965595663e-01 -1.907069889093183090e-01 -3.110781067496429797e-01 -1.614848389165884079e-01 -1.459618122325505862e-01 -9.760214117374030884e-01
-2.798241230169013494e-01 -2.229404079268679228e-01 -2.719504901222199456e-01 -1.614848389165884079e-01 -1.459618122325505862e-01 -9.760214117374030884e-01
-2.065317537927142955e-01 -2.698438987155977187e-01 -2.737993561105818152e-01 8.127909531707656621e-01 5.823361268390023771e-01 1.598442435333036551e-02
-2.087765998792331379e-01 -2.651656700082006823e-01 -2.789073111410583783e-01 8.510849630462236082e-01 5.101881827445635675e-01 -1.239451647479977159e-01
-1.710518933823244048e-01 -2.603142857842022928e-01 -2.488208163785501637e-01 4.112052860012776478e-01 9.097118022509492752e-01 -5.774642508361248205e-02
-1.322195526110514496e-01 -2.453707192080775701e-01 -3.146988962655438149e-01 -5.153523343021213510e-01 8.551441079682773339e-01 -5.604039736202765659e-02
-1.163368103892644112e-01 -2.352280106704137397e-01 -3.227457102946873491e-01 -6.116133593502497412e-01 7.911448796914600790e-01 4.344882309983926112e-03
-5.070162895056484764e-02 -2.143583546479301827e-01 -2.545907478940216961e-01 -6.446116925596062641e-01 7.485542508377005522e-01 -1.553779243272621902e-01
-6.029952410383591921e-02 -2.488037423751436883e-01 -3.195861060202298543e-01 -1.274957395125728143e-01 -1.620412160667680790e-01 -9.785128924555593910e-01
-3.664340247395937722e-02 -2.536177325399353588e-01 -3.008222750272510071e-01 -1.281215037802617071e-02 -1.413166432356286195e-01 -9.898815359159423011e-01
3.763152580623390156e-03 -2.285302630158187742e-01 -3.346973500618061204e-01 -1.281215037802617071e-02 -1.413166432356286195e-01 -9.898815359159423011e-01
-2.658937739305513442e-02 -2.697376758265868646e-01 -2.932403757445180004e-01 -5.248589012193118596e-03 -1.526747516875284205e-01 -9.882625524173890286e-01
1.341635216134125230e-02 -2.368359074549029053e-01 -2.563628927041318173e-01 1.355894681468460504e-02 -1.357681896732673976e-01 -9.906478454194105332e-01
1.955126495683731300e-02 -2.196589644801829611e-01 -2.967979102830086147e-01 1.355894681468460504e-02 -1.357681896732673976e-01 -9.906478454194105332e-01
8.776901130413951313e-02 -2.990938900044816662e-01 -3.327529706056466252e-01 9.649876205321682165e-02 -1.605411806612365710e-01 -9.823006251825827650e-01
8.732177571580221342e-02 -2.426576860190913509e-01 -2.934102995416973392e-01 2.218535767482687771e-02 -1.825107972876125612e-02 -9.995872688232750880e-01
9.924159807255344967e-02 -2.332085575351219575e-01 -2.935435522595081781e-01 5.841601694633943298e-01 8.116022814477473757e-01 -7.657229349431077595e-03
8.855005739932937658e-02 -2.268162197574969952e-01 -2.791065358612074832e-01 6.099913099120549687e-01 7.921413886244628166e-01 2.055777857364778083e-02
1.540826726571121186e-01 -2.584656258984472932e-01 -2.926753535384888361e-01 4.346363399726327903e-01 9.005086255488196079e-01 -1.324640658328308553e-02
1.869141413129852269e-01 -2.605939654497864133e-01 -2.653313431905408581e-01 -6.035247257889961858e-01 7.790679621848519698e-01 -1.697380795769146966e-01
1.819318570053989337e-01 -2.415455112692840300e-01 -2.976949063495735737e-01 -8.882893993773587349e-01 4.567818944887033217e-01 -4.787738319000169745e-02
2.285489143784209254e-01 -2.496092165199134127e-01 -2.829988690574298804e-01 -8.177845386522883953e-01 5.440976110785600284e-01 -1.875799508472798804e-01
2.122516596870989980e-01 -2.333526584973045492e-01 -3.385985232881137952e-01 1.324587059521568355e-01 -1.853979549629371504e-01 -9.736951727892260156e-01
3.342074926405263491e-01 -2.903451176358551877e-01 -3.443388832901807528e-01 1.733909223736129213e-01 -1.545571384346492438e-01 -9.726498234191585102e-01
2.974223385646347917e-01 -2.383124325645646635e-01 -2.750759346968966734e-01 1.673940854075172679e-01 -1.449519684748754311e-01 -9.751759569461501131e-01
2.713949274109586640e-01 -2.283780237678013358e-01 -2.495664741235319728e-01 1.673940854075172679e-01 -1.449519684748754311e-01 -9.751759569461501131e-01
3.145932376804976838e-01 -2.248214567003009867e-01 -2.702076795420927380e-01 2.029040142792157830e-01 -1.512088291239007121e-01 -9.674532810344688150e-01
3.819867693981335854e-01 -2.078553592651923854e-01 -2.864171758886071006e-01 2.178569410923553717e-01 -1.516124113434474674e-01 -9.641327864690150129e-01
-4.005642344543788314e-01 -2.444714609197187749e-01 -2.594066541992479658e-01 -2.137682218894847441e-01 -1.251526265572553698e-01 -9.688343343296769161e-01
-3.717928387987454730e-01 -2.032322752623448303e-01 -2.908607021359264633e-01 -2.275852316768776640e-01 -1.152011660947864918e-01 -9.669196728027532606e-01
-3.535752551244129571e-01 -2.267951502872825320e-01 -2.441553310596765169e-01 -1.924055559498102919e-01 -1.305879341320848042e-01 -9.725877304895217401e-01
-2.890420271654422502e-01 -1.683252984040178868e-01 -3.419897898646125367e-01 -2.034874361258584841e-01 -1.217766691043231653e-01 -9.714748098642500551e-01
-3.526290196984515068e-01 -1.856994501491647243e-01 -2.829710682921651177e-01 -2.034874361258584841e-01 -1.217766691043231653e-01 -9.714748098642500551e-01
-2.990160340307287945e-01 -2.319604410709972253e-01 -2.469849806485115151e-01 -2.034874361258584841e-01 -1.217766691043231653e-01 -9.714748098642500551e-01
-2.244268714340703352e-01 -2.056140002078400142e-01 -2.969078449243134354e-01 -1.614689597217716654e-01 -1.207121376807961111e-01 -9.794673832562784677e-01
-2.252988795931745725e-01 -1.909650807812198758e-01 -3.056842068676456359e-01 -1.614689597217716654e-01 -1.207121376807961111e-01 -9.794673832562784677e-01
-2.956702611803996850e-01 -2.343643554538322737e-01 -2.221787012341265855e-01 -1.627109158764704355e-01 -1.178212992107962737e-01 -9.796138521411996702e-01
-2.879145145502117753e-01 -1.674080863908459782e-01 -3.089806831105842422e-01 -1.627109158764704355e-01 -1.178212992107962737e-01 -9.796138521411996702e-01
-2.989772698702796716e-01 -1.895856078151599289e-01 -2.741859264264294160e-01 -1.627109158764704355e-01 -1.178212992107962737e-01 -9.796138521411996702e-01
-2.071391399254297605e-01 -2.518751533101074025e-01 -2.746063950865195169e-01 9.129581298204233475e-01 -1.234474988855193897e-02 -4.078664736712055983e-01
-2.386564403661689537e-01 -2.152304697598581007e-01 -2.826150327844426102e-01 9.953664830061950131e-01 8.423138724767811891e-02 4.637497073001294740e-02
-6.804804369570933986e-02 -1.871165632940097190e-01 -2.921144863964323379e-01 -6.936903471788560260e-01 7.201960307416942486e-01 -1.055365030626496600e-02
-5.840085474125199239e-02 -2.216825060313510065e-01 -2.761618137638571224e-01 -6.936903471788560260e-01 7.201960307416942486e-01 -1.055365030626496600e-02
-4.739883585402474703e-02 -1.993365258329557188e-01 -2.829153347057428713e-01 -7.167946575785592023e-01 6.970828188893996025e-01 1.676193533111602213e-02
-2.173727317304503109e-02 -1.604497206282115562e-01 -3.232338405232601519e-01 -7.460484057373352185e-01 6.658438791094891673e-01 -7.981538022744217795e-03
-3.082424467721282813e-02 -2.023694774354905246e-01 -2.752363304817992962e-01 -7.477932100266945215e-01 6.638939332794380199e-01 -7.082400209597469569e-03
6.706878338180856380e-02 -1.695933458685033590e-01 -3.118036048425411044e-01 7.268064625451879923e-01 6.866693333935909305e-01 1.541403838557134885e-02
4.696569446957591515e-02 -2.065132037191287351e-01 -2.878650053893634930e-01 7.058397454033986662e-01 7.052819225856369334e-01 -6.608830064976001228e-02
7.606734662050834705e-02 -1.911181760483168512e-01 -2.631227224323416936e-01 7.841972289971838039e-01 6.204872551394700064e-01 -5.502021685252451305e-03
7.950036775073220097e-02 -2.016429133269058982e-01 -2.616792885797027957e-01 6.665159639350077825e-01 7.454204474133502289e-01 -1.023847634505063546e-02
2.077241296628383194e-01 -2.180304346102397983e-01 -2.659526227872201498e-01 -9.968164830194777837e-01 5.705559758092877687e-02 5.569163281285920836e-02
2.610366261673654487e-01 -2.208921267124383248e-01 -3.270969194856389040e-01 1.664926919801259786e-01 -1.295100279509066588e-01 -9.775005555892878339e-01
2.600042065172812333e-01 -2.333447691233606625e-01 -3.071449319441584835e-01 1.664926919801259786e-01 -1.295100279509066588e-01 -9.775005555892878339e-01
2.308971197504922079e-01 -1.586529422840976256e-01 -2.757733050993165791e-01 1.673698224646954502e-01 -1.314832230694973070e-01 -9.770872553561390506e-01
3.160801106492611146e-01 -1.644882083095035030e-01 -2.505301487010944683e-01 1.673698224646954502e-01 -1.314832230694973070e-01 -9.770872553561390506e-01
2.151765221818427720e-01 -1.690354655259003747e-01 -3.067685558315557670e-01 1.673698224646954502e-01 -1.314832230694973070e-01 -9.770872553561390506e-01
2.761361203319017688e-01 -2.535910478641519861e-01 -2.894410229272470492e-01 2.074978729323486426e-01 -1.280512272564602594e-01 -9.698182901588653371e-01
3.261520819341259814e-01 -1.959771064415106179e-01 -2.930515976394633682e-01 2.093416648749207853e-01 -1.303656368689641576e-01 -9.691134443764287676e-01
3.469449301318421330e-01 -1.804429896810076095e-01 -2.754783116507197871e-01 2.093416648749207853e-01 -1.303656368689641576e-01 -9.691134443764287676e-01
4.119743852653708904e-01 -2.101572139553737339e-01 -2.909387500505375979e-01 2.204831027048002601e-01 -1.309587033047092397e-01 -9.665593719220841873e-01
-4.472968898637824653e-01 -1.576086654258521680e-01 -2.818084258827502353e-01 -2.432707444520125772e-01 -9.030988402815283422e-02 -9.657450335055237645e-01
-3.680489754982130268e-01 -1.570444141098427393e-01 -2.364369076162759764e-01 -2.282989719699416997e-01 -1.023169005670039738e-01 -9.681997889154023706e-01
-3.726421226853814384e-01 -1.306612356117660134e-01 -2.687092655292428467e-01 -2.170157173353758351e-01 -9.225836316079605304e-02 -9.717986277291725816e-01
-3.428253735604379626e-01 -1.646858418143267999e-01 -2.748017663737546412e-01 -1.994222367192126089e-01 -1.020884781033791211e-01 -9.745813019653324361e-01
-2.944318493808666393e-01 -1.849882285670238213e-01 -3.498049739460710739e-01 -1.994222367192126089e-01 -1.020884781033791211e-01 -9.745813019653324361e-01
-3.245488179388429373e-01 -1.856600380580002430e-01 -3.246776156133081570e-01 -2.047123240819877232e-01 -9.530819216995801979e-02 -9.741710388192853509e-01
-2.498611301105469196e-01 -1.977406202127590940e-01 -3.446758507829501550e-01 -1.627886557448537386e-01 -1.125579023263604123e-01 -9.802196550695527755e-01
-2.213129628916213343e-01 -1.785822387560829227e-01 -3.119561333086627863e-01 -1.627886557448537386e-01 -1.125579023263604123e-01 -9.802196550695527755e-01
-2.694388169922545262e-01 -1.686579862525542928e-01 -2.469008776175166120e-01 -1.731172082470410489e-01 -9.849634620505133553e-02 -9.799637248352641716e-01
-3.103428102149610734e-01 -1.666455174565011910e-01 -3.228241577005185325e-01 -1.731172082470410489e-01 -9.849634620505133553e-02 -9.799637248352641716e-01
-2.468371429654719618e-01 -1.802169821808317640e-01 -2.967824322682486859e-01 9.845945325502463152e-01 -1.685725163187226927e-01 -4.644257975323943383e-02
-2.594843645754110750e-01 -1.712026077737039409e-01 -2.702007258157985703e-01 9.845945325502463152e-01 -1.685725163187226927e-01 -4.644257975323943383e-02
-1.990621443563820037e-01 -1.572666577139317790e-01 -2.688733490862688646e-01 9.714628121015690398e-01 -2.359841261211808039e-01 2.390600180988770168e-02
-1.238940554297152108e-02 -1.388629436784208915e-01 -2.771354986746535354e-01 -7.087235194758932932e-01 7.053545422670243203e-01 1.363607879779725994e-02
3.950808476343447423e-03 -1.870516936120071028e-01 -2.953342274430296177e-01 1.792411020186879603e-02 9.964868118704247602e-01 8.180929068136441606e-02
2.016252790509533155e-02 -1.540701128030183831e-01 -3.123941808907590989e-01 7.401547824032659317e-01 6.721828785485862712e-01 1.846823954010074625e-02
6.239398191879748368e-03 -2.366276762249929222e-01 -2.823505377846863840e-01 7.353496269773889260e-01 6.766045015181114675e-01 3.830502094559933013e-02
2.210355130299433979e-01 -1.844096558158699051e-01 -2.830570261098329099e-01 -9.604402493256046780e-01 -2.784699937226097766e-01 2.998344793388339844e-03
2.561117598502080095e-01 -1.918203130910856313e-01 -3.160086059690710991e-01 -9.604402493256046780e-01 -2.784699937226097766e-01 2.998344793388339844e-03
2.002126114427631443e-01 -1.250243530570267769e-01 -2.855943869967105808e-01 -9.648682191519435403e-01 -2.620069115393939829e-01 1.953709231551760059e-02
2.489776379054405575e-01 -1.750795254738407025e-01 -2.991320833283374614e-01 -2.452514143476309805e-01 -2.745235599561869355e-01 -9.297787687345137053e-01
2.982517232073426672e-01 -1.308066288083353235e-01 -2.615022210142053383e-01 1.642181867840770415e-01 -1.049423888605033051e-01 -9.808259183716552254e-01
2.273822201565040280e-01 -1.395810131141513033e-01 -3.286548369128154401e-01 1.642181867840770415e-01 -1.049423888605033051e-01 -9.808259183716552254e-01
2.584716926166895079e-01 -1.772698565453578456e-01 -2.752642836679648486e-01 1.642181867840770415e-01 -1.049423888605033051e-01 -9.808259183716552254e-01
2.936598286300091676e-01 -2.009829549010206939e-01 -3.248783157938906485e-01 1.688582625192640296e-01 -1.138469959702899104e-01 -9.790432823361366887e-01
2.361968648193271403e-01 -1.887110747704818792e-01 -3.037708534123923498e-01 1.688582625192640296e-01 -1.138469959702899104e-01 -9.790432823361366887e-01
3.281321224633477196e-01 -1.617496921062719084e-01 -3.177084818540449884e-01 2.096358142249560019e-01 -1.029235858285036387e-01 -9.723474486388300475e-01
2.865112524562002383e-01 -1.808297151863753061e-01 -2.410396372397148879e-01 2.091422002136217873e-01 -1.024148588324812065e-01 -9.725074481874821375e-01
4.050479481178033137e-01 -1.759583649474711076e-01 -2.872258579672808954e-01 2.286911834615419359e-01 -1.012180031771960642e-01 -9.682227318338382238e-01
3.733161395657144110e-01 -1.284108241841455111e-01 -3.220774570031794126e-01 2.280610678828982330e-01 -1.007159060412299162e-01 -9.684236963160320899e-01
-4.009797003061584819e-01 -9.588749546951381986e-02 -3.249627324595790734e-01 -2.383616241332270902e-01 -7.541999253778938761e-02 -9.682435441902877971e-01
-3.939667315509468026e-01 -9.758878909282836522e-02 -2.941397912334335896e-01 -2.383616241332270902e-01 -7.541999253778938761e-02 -9.682435441902877971e-01
-4.295853611126595473e-01 -1.058302004224669496e-01 -3.113248642379081166e-01 -2.471314029229668696e-01 -6.691327653721940161e-02 -9.666688590786298718e-01
-3.915624083313541948e-01 -1.434359207935193559e-01 -2.515467950450196999e-01 -2.208712149522364665e-01 -7.724693576541774576e-02 -9.722390741583966101e-01
-4.127566422128527979e-01 -6.924912625161130930e-02 -2.308201743616882240e-01 -2.255531830897890833e-01 -7.376598392028917150e-02 -9.714341672055476495e-01
-3.287031879119222677e-01 -1.289681804682203115e-01 -2.849241077512285059e-01 -1.995510865366524611e-01 -7.508462089557028929e-02 -9.770064808213966279e-01
-3.420204596297638511e-01 -1.277563784638957867e-01 -3.183819566653516286e-01 -2.016956843443403202e-01 -7.304485798045937117e-02 -9.767206866036383106e-01
-3.156728858715943109e-01 -9.424241634501781539e-02 -3.134404661309109774e-01 -1.799058957237686662e-01 -7.448770695167999945e-02 -9.808595466206714297e-01
-2.911081876824411219e-01 -9.370900380726025769e-02 -3.470888796674822530e-01 -1.799058957237686662e-01 -7.448770695167999945e-02 -9.808595466206714297e-01
-2.195653670695188464e-01 -1.436392677795081674e-01 -3.381603232223583388e-01 -1.325678900647204173e-01 -9.197918985936621994e-02 -9.868969465737559288e-01
-2.477593756963986926e-01 -1.549106670747071590e-01 -3.611438328872254577e-01 -1.325678900647204173e-01 -9.197918985936621994e-02 -9.868969465737559288e-01
-2.567053260167541096e-01 -1.086901514080412107e-01 -3.195231129129994518e-01 -1.482505520935862853e-01 -7.723301809993503297e-02 -9.859294268451073151e-01
-2.377313262001058136e-01 -1.259587968233948918e-01 -3.039472134572664408e-01 -1.482505520935862853e-01 -7.723301809993503297e-02 -9.859294268451073151e-01
-1.867401021022193075e-01 -8.644228413563043167e-02 -3.377886731046242375e-01 8.634568288870101416e-01 -5.043124427283052214e-01 -1.054821111841008734e-02
-1.822453276340281758e-01 -1.194598645556016470e-01 -3.513621915464034129e-01 9.032419269032713194e-01 -4.283984744977220038e-01 2.507525736837460176e-02
-2.035813167644691946e-01 -1.514047996402894114e-01 -3.101251486603868179e-01 9.105084721572878070e-01 -4.132204741355631761e-01 -1.493860384981874137e-02
-2.107643105377486614e-01 -2.132811414304913722e-01 -2.761517628384762557e-01 9.105084721572878070e-01 -4.132204741355631761e-01 -1.493860384981874137e-02
-2.909195296934181663e-01 -1.724137871930817023e-01 -3.248350778190773336e-01 9.105084721572878070e-01 -4.132204741355631761e-01 -1.493860384981874137e-02
-1.976370554851606953e-01 -6.354044415194383399e-02 -2.968489233938324534e-01 8.654796285400920830e-01 -5.008789445911910887e-01 -8.080559839460007762e-03
1.942337013293906067e-01 -1.385965788279156508e-01 -2.654064125904508353e-01 -8.605019714560632194e-01 -5.092200992534693382e-01 -1.520682861465720397e-02
1.690869357610103041e-01 -1.159803427789874164e-01 -2.987709239691350160e-01 -8.557766422019300601e-01 -5.173402280736182357e-01 -2.329609050115425111e-03
1.725288868937012443e-01 -1.171768262638270830e-01 -2.844740763413521334e-01 1.442297231168365168e-01 -9.271846760939891907e-02 -9.851908813695982037e-01
1.755122508480880805e-01 -1.105830166088800082e-01 -2.900623669893960255e-01 -9.027335524368473862e-01 -4.300278927376243732e-01 1.217147371470993222e-02
1.611379527985641880e-01 -1.051772493947913389e-01 -3.233960569994617229e-01 -9.183486663480214807e-01 -3.951819444226181699e-01 -2.160920681489976458e-02
2.093543454788576452e-01 -1.056826262940642747e-01 -3.234355436035799003e-01 1.363519555473223510e-01 -8.995857998849478288e-02 -9.865675841547169034e-01
2.435847275300442594e-01 -8.591319933047349144e-02 -3.092560846153853960e-01 1.363519555473223510e-01 -8.995857998849478288e-02 -9.865675841547169034e-01
2.345992932362315209e-01 -1.420341094167145712e-01 -3.430638129313710039e-01 1.621962926804024485e-01 -7.951457406704458275e-02 -9.835495895742469852e-01
2.736909776360418323e-01 -1.694336908839722822e-01 -3.060281559622196612e-01 1.621962926804024485e-01 -7.951457406704458275e-02 -9.835495895742469852e-01
2.564362240734304188e-01 -1.729546127429475444e-01 -3.296398986746785220e-01 1.621962926804024485e-01 -7.951457406704458275e-02 -9.835495895742469852e-01
2.457598031296746866e-01 -1.826910740414552370e-01 -2.931270984095864507e-01 1.705147598880390192e-01 -9.201032388840117704e-02 -9.810498544713597280e-01
2.812451231160324472e-01 -8.592115256460573780e-02 -3.100536811345915855e-01 1.705147598880390192e-01 -9.201032388840117704e-02 -9.810498544713597280e-01
2.663776759595641863e-01 -1.450287562332205071e-01 -2.727436835902701251e-01 1.705147598880390192e-01 -9.201032388840117704e-02 -9.810498544713597280e-01
2.570641154728088296e-01 -4.907302619636752516e-02 -2.976485740211413655e-01 1.705147598880390192e-01 -9.201032388840117704e-02 -9.810498544713597280e-01
4.041085303909964233e-01 -1.407262845751055813e-01 -2.971440418791411187e-01 2.076042477061525171e-01 -7.740631106191862842e-02 -9.751454964989316743e-01
3.409810930584972199e-01 -1.396041247838411270e-01 -3.094718265969754745e-01 2.045399800946181290e-01 -7.440559638012254895e-02 -9.760262310871625768e-01
2.914975970281571960e-01 -1.293764942180613831e-01 -3.016669120765396173e-01 2.045399800946181290e-01 -7.440559638012254895e-02 -9.760262310871625768e-01
4.118658610200680581e-01 -9.649499249093024256e-02 -2.761307629271871344e-01 2.289519515592633170e-01 -7.938643067015931087e-02 -9.701952373118807316e-01
4.291037278881628669e-01 -1.524112159058266525e-01 -2.460182831461219521e-01 2.461585608991251062e-01 -8.491641759482190799e-02 -9.655025452679726339e-01
4.268987101802123041e-01 -1.820023152850940296e-01 -2.704065284068090103e-01 2.419824938882024490e-01 -7.940009358483686441e-02 -9.670264204200241798e-01
-3.907175225768242943e-01 -6.598335301547453291e-02 -2.811317800858924576e-01 -2.493560336237219677e-01 -4.229619138591047406e-02 -9.674877780570108055e-01
-4.456066168581113152e-01 -3.500708146788424763e-02 -2.646568434234005118e-01 -2.493560336237219677e-01 -4.229619138591047406e-02 -9.674877780570108055e-01
-3.493626072630162671e-01 -2.744522373805602378e-02 -2.725760510405527137e-01 -2.237092338649316892e-01 -5.265343513714457885e-02 -9.732326517600115023e-01
-3.747728117780202428e-01 -1.036547323535746135e-01 -2.159351657098441402e-01 -2.237092338649316892e-01 -5.265343513714457885e-02 -9.732326517600115023e-01
-3.447114688192080556e-01 -4.108761411653399920e-02 -3.082154322486813647e-01 -2.237092338649316892e-01 -5.265343513714457885e-02 -9.732326517600115023e-01
-4.441367891466314610e-01 -9.936576732148104385e-02 -3.113296659172951064e-01 -2.280349525765713870e-01 -4.835527128098628807e-02 -9.724514528462298024e-01
-2.710083051554738054e-01 -9.160071458984503368e-02 -3.257602938023281269e-01 -2.018661668644996243e-01 -5.420391478353423637e-02 -9.779120544801426229e-01
-3.297635835093229439e-01 -3.639087756654449390e-02 -3.001760350778390762e-01 -2.026376603152462152e-01 -5.343394099563791855e-02 -9.777948622137659918e-01
-3.072125937537706908e-01 -4.759818403097354489e-02 -1.953825434555247487e-01 -1.792818870148354671e-01 -5.529067522885550146e-02 -9.822428142883697921e-01
-2.785873460151402359e-01 -7.103225302196454483e-02 -2.827074798299744618e-01 -1.797510345838525814e-01 -5.486662946473313401e-02 -9.821808481828661064e-01
-2.385354249284766803e-01 -1.151373484842991013e-01 -3.487747233698305083e-01 -1.423426903563334289e-01 -5.326178384345996858e-02 -9.883833977176739172e-01
-2.957430497975352957e-01 -8.544841783723472473e-02 -2.669901138639029226e-01 -1.423426903563334289e-01 -5.326178384345996858e-02 -9.883833977176739172e-01
-2.298529674645900245e-01 -8.297019237994592011e-02 -3.087931817378419264e-01 -1.423426903563334289e-01 -5.326178384345996858e-02 -9.883833977176739172e-01
-1.793307585421506367e-01 -6.412303113724027170e-02 -3.358221530549992950e-01 -1.423426903563334289e-01 -5.326178384345996858e-02 -9.883833977176739172e-01
-2.268097350554741098e-01 -2.522929591038491209e-02 -3.420037851529690864e-01 -1.423426903563334289e-01 -5.326178384345996858e-02 -9.883833977176739172e-01
-2.902107152631823728e-01 -6.067834310777271700e-02 -3.290046600767657647e-01 -1.521449594379762349e-01 -4.609309188823983161e-02 -9.872828055819663495e-01
-2.014509508092352796e-01 -3.888648135531624223e-02 -3.644951292276147892e-01 -1.521449594379762349e-01 -4.609309188823983161e-02 -9.872828055819663495e-01
-1.473214998474225434e-01 -3.829093634882207997e-02 -2.893397701181882886e-01 -1.029837999375712992e-01 -4.950171046026290850e-02 -9.934505109022424563e-01
-1.959074984856687407e-01 -5.724898305358748496e-02 -2.905175026375603209e-01 -1.283884946865971599e-01 -5.565006547107915341e-02 -9.901613326348257527e-01
-1.302339009969046280e-01 -6.865721086154390196e-02 -3.070907331225926629e-01 8.852485684488075046e-01 -4.632036763599374773e-01 4.215834752424739429e-02
1.715518018486401897e-01 -7.226717225102068098e-02 -2.965771255359291314e-01 -8.956453301513175314e-01 -4.442200969856480164e-01 2.208954531443953206e-02
2.483006428054112535e-01 -4.965728572344021291e-02 -3.163252287825039644e-01 1.265056771319822415e-01 -4.346217277451163569e-02 -9.910132961727088352e-01
1.867257577835335358e-01 -1.052868026861997069e-01 -3.238228223097675551e-01 1.265056771319822415e-01 -4.346217277451163569e-02 -9.910132961727088352e-01
1.921749231535289648e-01 -7.262321206406853469e-02 -3.247412780503164953e-01 1.200495048504868489e-01 -5.677748985342787741e-02 -9.911429932310962254e-01
2.538820935622430053e-01 -3.558694013997663885e-02 -3.043081587750030015e-01 1.493753173383589594e-01 -4.684485240220054303e-02 -9.876702761415272480e-01
2.249804397114166798e-01 -6.455544209502431241e-02 -3.393285578995109963e-01 1.493753173383589594e-01 -4.684485240220054303e-02 -9.876702761415272480e-01
2.745591401210743521e-01 -4.198569459473912302e-02 -3.127796807461978301e-01 1.423047909805850164e-01 -4.054128602079275917e-02 -9.889922904612311605e-01
2.044254172529841318e-01 -2.002360201834708919e-02 -3.131825845794058427e-01 1.423047909805850164e-01 -4.054128602079275917e-02 -9.889922904612311605e-01
2.272519457794807130e-01 -1.105351462428997150e-01 -2.801546760094713595e-01 1.740824911087518745e-01 -4.950620578541933825e-02 -9.834858524036342864e-01
3.443445391467772065e-01 -8.809843813230822107e-02 -2.761624788817085840e-01 1.740824911087518745e-01 -4.950620578541933825e-02 -9.834858524036342864e-01
2.621958749190228533e-01 -3.574110296384225977e-02 -2.815061361926167738e-01 1.740824911087518745e-01 -4.950620578541933825e-02 -9.834858524036342864e-01
3.080810544033528720e-01 -4.787243000498565826e-02 -2.756089373221750072e-01 1.720706562842546083e-01 -4.736107590032559433e-02 -9.839454343282809656e-01
3.097837325282500331e-01 -6.356662687777334120e-02 -3.302072106208443492e-01 2.036525237431260904e-01 -5.170135779483136379e-02 -9.776771548804985557e-01
3.488211084132413764e-01 -1.209955760714928746e-01 -2.635069020334457890e-01 2.036525237431260904e-01 -5.170135779483136379e-02 -9.776771548804985557e-01
3.455345027861650431e-01 -1.035980625832364221e-01 -2.966526267329143707e-01 2.036525237431260904e-01 -5.170135779483136379e-02 -9.776771548804985557e-01
2.836669470099149049e-01 -8.868811331974112144e-02 -3.171603663956735208e-01 2.018331081726018328e-01 -4.976541494088652928e-02 -9.781547934356544793e-01
3.626369385622555952e-01 -3.831140068707382385e-02 -3.769655593547339145e-01 2.018331081726018328e-01 -4.976541494088652928e-02 -9.781547934356544793e-01
3.669999104671942680e-01 -1.551782338202654377e-01 -2.946459051039757027e-01 2.291165615478919226e-01 -5.414131262544626122e-02 -9.718921336710492076e-01
3.785727490293105957e-01 -7.530556752102374185e-02 -2.954715338648824519e-01 2.264476817371343653e-01 -5.142534030477797363e-02 -9.726648352903559669e-01
4.252351730448792333e-01 -7.392631085274799230e-02 -2.879780264905899001e-01 2.493846230899296468e-01 -6.128546482267601542e-02 -9.664633472448721507e-01
3.941613064124355748e-01 -1.355261828243022049e-01 -2.642707118436325997e-01 2.493846230899296468e-01 -6.128546482267601542e-02 -9.664633472448721507e-01
3.780825625572335480e-01 -6.481918051444846007e-02 -2.658991332274385222e-01 2.433470099793085262e-01 -5.446663568672122785e-02 -9.684088074419295866e-01
-3.190704256065332589e-01 -2.432543150016296118e-02 -2.712823599695184384e-01 -2.455407431092621329e-01 -1.801080884876540139e-02 -9.692189403008819593e-01
-3.705318216759075356e-01 2.424256153054860433e-02 -2.667938730487028343e-01 -2.455407431092621329e-01 -1.801080884876540139e-02 -9.692189403008819593e-01
-4.030839310914700047e-01 -2.246154428112401638e-02 -2.562557967605789133e-01 -2.464736236526015312e-01 -1.712956280078686486e-02 -9.689981067689501515e-01
-3.566835786846961343e-01 -1.211397377136161704e-02 -3.117859549074097902e-01 -2.231004813948199716e-01 -1.715422908543297320e-02 -9.746445032040574885e-01
-3.525870520558441190e-01 -3.485533191607088563e-03 -3.043830226767219593e-01 -2.193213629972356471e-01 -2.089763823464350564e-02 -9.754288433551925319e-01
-3.086345978052534855e-01 -1.317671087217900903e-02 -2.852692476048350745e-01 -1.977713250305207227e-01 -2.184404246879381728e-02 -9.800047657048887029e-01
-2.779761730115027918e-01 4.164781373681623183e-03 -3.467694252877977501e-01 -1.977713250305207227e-01 -2.184404246879381728e-02 -9.800047657048887029e-01
-2.939672887093716103e-01 -5.291655997263650796e-02 -3.146964730037964397e-01 -1.781796143545206490e-01 -2.100863279243684462e-02 -9.837736845314916101e-01
-2.647534745236431730e-01 6.642777592548190085e-03 -2.951077556152020831e-01 -1.785211077202218666e-01 -2.075010448322063897e-02 -9.837172598172099214e-01
-2.581217282227074583e-01 2.482781620462204061e-02 -3.205658480845375302e-01 -1.785211077202218666e-01 -2.075010448322063897e-02 -9.837172598172099214e-01
-3.166821463912298795e-01 -4.069779140005565926e-02 -3.397372733211701523e-01 -1.785211077202218666e-01 -2.075010448322063897e-02 -9.837172598172099214e-01
-3.040535978883515122e-01 -3.907168684075852660e-02 -2.938575323302869968e-01 -1.644995940855537575e-01 -2.483699935027174760e-02 -9.860644030736342991e-01
-3.329450599112106501e-01 -6.551059856721211383e-02 -2.858908897153968898e-01 -1.644995940855537575e-01 -2.483699935027174760e-02 -9.860644030736342991e-01
-2.246685660096329751e-01 -2.978188292439896967e-02 -3.271896764235033839e-01 -1.644995940855537575e-01 -2.483699935027174760e-02 -9.860644030736342991e-01
-1.833015460489241244e-01 1.408976314764647485e-02 -3.001452811020193789e-01 -1.644995940855537575e-01 -2.483699935027174760e-02 -9.860644030736342991e-01
-1.799976327190021541e-01 8.308761747297749301e-03 -3.528539294617276112e-01 4.202097711166099536e-01 9.044654982518134378e-01 -7.325237695955712225e-02
-2.141749204441612264e-01 -5.354153848261963833e-02 -2.924032862187136428e-01 4.202097711166099536e-01 9.044654982518134378e-01 -7.325237695955712225e-02
-1.300393832585989562e-01 -1.432361662949714967e-02 -3.235927881944520301e-01 4.202097711166099536e-01 9.044654982518134378e-01 -7.325237695955712225e-02
-1.972571027006947975e-01 -4.750242672276464018e-02 -2.918517302420486903e-01 -8.742542508536513268e-02 -4.211778555846810296e-02 -9.952803058376540335e-01
-1.873447187879062337e-01 -2.411175348032300672e-02 -2.500582294730904209e-01 4.243350129142497429e-01 9.022073704084595525e-01 -7.721177109558005625e-02
-2.470925093874684064e-01 -1.491495017605779135e-02 -2.831179549250140148e-01 5.256639750848680626e-01 8.485400697757036204e-01 -6.047425305879657043e-02
-1.762410095575980273e-01 -5.778224417668395563e-02 -2.772856553080449427e-01 7.875683121020120581e-01 6.059261650679818034e-01 1.122035483342518070e-01
1.700069287215269231e-01 -1.412574475039236194e-02 -3.220654872744270203e-01 -7.978587816680072775e-01 6.026157137318096657e-01 -1.660319483547432681e-02
2.004786132994866299e-01 9.446734513742262307e-04 -3.230979399630252713e-01 -3.927799619187243851e-01 9.192149368061998116e-01 -2.770923072731101486e-02
1.680973956092943755e-01 -2.854448345904104373e-02 -3.276993587293106081e-01 1.159599529968657755e-01 -4.008786059200287327e-02 -9.924445842132046947e-01
1.707593874475098750e-01 -2.853663901676905743e-02 -3.382502245389891748e-01 1.159599529968657755e-01 -4.008786059200287327e-02 -9.924445842132046947e-01
1.744820524015114893e-01 -1.084609460768527767e-02 -3.284482409757359389e-01 1.159599529968657755e-01 -4.008786059200287327e-02 -9.924445842132046947e-01
2.793862369001155477e-01 -1.049633077872703414e-02 -2.787513382898935688e-01 1.634233803591164935e-01 -2.552787134026508146e-03 -9.865527264317138778e-01
2.646187825290227669e-01 -5.313990872186623304e-02 -2.576514952536604341e-01 1.779282884901432216e-01 -1.897952320557342795e-02 -9.838604077072404808e-01
2.547726771364114962e-01 -6.469667393981386704e-03 -3.515046257632167270e-01 1.389100969336302949e-01 -6.487703299811325118e-03 -9.902837445276898576e-01
3.287783854591844745e-01 -3.550724744743944533e-02 -2.719029245951423146e-01 2.039480159484492738e-01 -2.642713871724251123e-02 -9.786249604061357799e-01
3.482971576938742042e-01 -5.071524363562665561e-02 -2.644902177619403716e-01 1.915135056019866278e-01 -1.437469964302243511e-02 -9.813847080437980708e-01
3.099362339312383141e-01 3.140350713988980524e-02 -3.056956444254920191e-01 1.915135056019866278e-01 -1.437469964302243511e-02 -9.813847080437980708e-01
