4.666430985823510208e-02 -5.756285280091527623e-01 -3.790309485654080879e-01 -9.462098398965248514e-01 -2.739127984185133480e-01 -1.722170657790093873e-01
-5.141155860403586603e-03 -5.334681678913478775e-01 -4.162581415957479214e-01 -9.233872379088081672e-01 -3.100583862179919770e-01 -2.263179312450446234e-01
1.421515710851906783e-03 -4.226426926722740562e-01 -3.513412897068808327e-01 -8.705102469842936896e-01 -3.826083726511785299e-01 -3.095524883966545571e-01
-1.930725329469097293e-02 -4.616918983853612879e-01 -3.095786003196718261e-01 -8.408396600315302116e-01 -4.180261009302211894e-01 -3.438645737192728147e-01
-4.438487964398916963e-02 -3.400614966721703936e-01 -4.007902907560651484e-01 -7.836281016985933157e-01 -4.451811509071653128e-01 -4.332905966037468581e-01
-6.322260987474810634e-02 -3.477466287219199148e-01 -4.008770963775027396e-01 -7.632762925488959516e-01 -4.356170851486680373e-01 -4.771237327563891406e-01
-9.262344292298832493e-02 -3.126503022594314118e-01 -4.065783745145503114e-01 -7.600964684171238606e-01 -4.006784293957886822e-01 -5.115761477206889341e-01
-7.403359963733480154e-02 -2.934439236077120983e-01 -3.904556022711076491e-01 -7.244847348665038878e-01 -3.955245202178351849e-01 -5.645194618893690786e-01
-8.516645044801886277e-02 -2.565530115958329360e-01 -4.274251707922334664e-01 -7.499908442497531524e-01 -3.592074365364667510e-01 -5.554131354932496656e-01
-4.264306888265388673e-02 -2.355618165626781058e-01 -4.683231929467771559e-01 -7.985594384832973569e-01 -2.907366044787307313e-01 -5.270436889152729787e-01
-6.766133782443679856e-02 -2.265209641772252813e-01 -4.829589731418214016e-01 -7.628810734832225382e-01 -2.944582656789673791e-01 -5.755925620562003520e-01
-6.093274863337461850e-02 -2.605697838038460445e-01 -5.356041328105908272e-01 -8.031493032614533956e-01 -2.747497104640975740e-01 -5.286433516753394901e-01
-3.986530629911525653e-02 -2.763257077796618111e-01 -5.144080167517153246e-01 -8.381449922533462660e-01 -2.772904576525225817e-01 -4.697051990935300347e-01
-3.054067295151090961e-02 -2.922967198806601385e-01 -4.463434154827061184e-01 -8.375538949760977792e-01 -3.106043185057142386e-01 -4.494757283057324582e-01
-4.532820100287821008e-02 -3.013385525700028600e-01 -5.122060244938850815e-01 -8.008063254837681777e-01 -3.519512386896984091e-01 -4.846024707427440403e-01
-7.986310311062402856e-02 -3.334204869911366331e-01 -4.463829302922812658e-01 -7.802640800818883005e-01 -3.623589070021924763e-01 -5.097881793942860007e-01
-1.609778229772406560e-02 -3.463989446779071613e-01 -4.140374252394297128e-01 -8.472939505252989889e-01 -3.326094926330027124e-01 -4.140819807884046355e-01
-5.897875991847367771e-02 -3.613011849434165645e-01 -5.237160455204382670e-01 -8.802071355079438275e-01 -3.021203238818756520e-01 -3.660037001157374625e-01
1.871054163657321842e-02 -3.751798060189376338e-01 -4.957280615391618239e-01 -9.082289486186763128e-01 -2.522286833775380099e-01 -3.339174571247324197e-01
-3.206337438649693033e-02 -4.215606422990083035e-01 -4.564058747056762844e-01 -8.991944126122374259e-01 -2.886420234835986864e-01 -3.288391561329442325e-01
-3.614508696223526357e-02 -3.502365602766528974e-01 -4.427999917888559844e-01 -8.706511921100050788e-01 -3.259025045606803173e-01 -3.684481770866871453e-01
-8.048876997309560577e-02 -4.158533199022830251e-01 -3.840588624087057368e-01 -8.264521264316277982e-01 -3.567548863474760967e-01 -4.355488879377834577e-01
-2.162030843878962050e-03 -3.532078682973756600e-01 -4.220746742481114588e-01 -8.243649917172247710e-01 -3.874050487254609987e-01 -4.127222899881748952e-01
-2.694123934410155505e-02 -4.069350377268591279e-01 -4.219019610539057052e-01 -8.708840461158391388e-01 -3.398864365264664400e-01 -3.550185748467890590e-01
-5.034299033065622875e-02 -4.751075826504316257e-01 -3.829232577533566162e-01 -8.994970140948487236e-01 -3.026321451299490151e-01 -3.151490224774572968e-01
2.326304559578773468e-02 -4.113232216060149216e-01 -5.096367374013930363e-01 -9.310902771805785738e-01 -2.538960848951305471e-01 -2.619306660448862956e-01
5.850391400022429689e-02 -4.305506814057495912e-01 -5.177127428891837857e-01 -9.466304902031185131e-01 -2.136030580539361456e-01 -2.413802987151399126e-01
5.761881446717875832e-02 -4.158518021830693301e-01 -5.680932212513285506e-01 -9.792077229729144738e-01 -1.197180860964562332e-01 -1.637675643453286867e-01
7.098599548934161896e-02 -4.281795948654126827e-01 -5.352164311110425565e-01 -9.619315712506365523e-01 -1.776375382025697225e-01 -2.076837915019174308e-01
1.799971188974665987e-02 -4.281045605852155100e-01 -5.295682756310811090e-01 -9.644702127955725457e-01 -1.717094555122249677e-01 -2.007811532932266274e-01
3.048141442043704810e-02 -4.590445642876996302e-01 -4.905991610960374616e-01 -9.602894029814560417e-01 -1.895498850883620412e-01 -2.047317844998854663e-01
-1.931197180701397370e-02 -5.899757409903308991e-01 -4.609711042922495228e-01 -9.835520829126862541e-01 -1.437014708391024242e-01 -1.094311997411846621e-01
2.575531511845367480e-02 -6.691170962607091433e-01 -5.182420097959439254e-01 -9.968458041474594911e-01 -6.174198565866634292e-02 -4.986351331915716417e-02
-2.533411300504720409e-02 -5.158199101976939094e-01 -5.760311380748546206e-01 -9.900219857018527359e-01 -1.023761237803185176e-01 -9.682766705171229338e-02
5.245647104811277522e-02 -5.427010876063669276e-01 -5.296499871020013961e-01 -9.794578959008282126e-01 -1.444680017761348079e-01 -1.406812944933804321e-01
2.145440875817131512e-02 -5.009781073217628444e-01 -5.032983512018244232e-01 -9.819993284701019620e-01 -1.301005263549244451e-01 -1.369349185797408275e-01
5.084170394464365000e-02 -5.227496331612947467e-01 -5.462293425898825383e-01 -9.807008494829081435e-01 -1.360691051050082756e-01 -1.403960200982373174e-01
6.482367252476700648e-02 -5.009372652446960617e-01 -6.213922458224636625e-01 -9.966677322537558226e-01 -5.370158928640608037e-02 -6.139683047413711792e-02
-3.283202231372595037e-02 -5.839982614594156907e-01 -6.811050581890341071e-01 -9.996401792392816121e-01 -1.664247165414894924e-02 -2.103663917306682757e-02
6.470678949559366400e-02 -5.105919338203255275e-01 -7.121248216721129953e-01 -6.560735423843991332e-02 6.065580476070658172e-02 -9.960002753105355877e-01
1.950211849106589512e-02 -5.586399899995854179e-01 -6.949129650105559941e-01 -8.449237753271345019e-02 8.762821972468837206e-01 -4.743316866150131816e-01
1.248164090588706893e-01 -5.384443233985373167e-01 -7.046146541359082915e-01 1.000000000000000000e+00 0.000000000000000000e+00 0.000000000000000000e+00
1.421331686426229590e-01 -4.753921224299442749e-01 -6.868619553574043524e-01 7.246109301763954680e-02 -5.299415345116693654e-01 -8.449327547196323618e-01
9.901768183141446134e-02 -5.021524418677122403e-01 -5.781126791469178849e-01 6.812259425884379382e-01 -4.090472072058842223e-01 -6.071339204998851269e-01
9.853321986891083739e-02 -5.026894363088361128e-01 -6.635518049573028154e-01 8.852467086794479911e-02 -7.020377934527411989e-01 -7.066161045516359263e-01
1.523039055696183419e-01 -5.386040862304567467e-01 -5.882013901945439827e-01 4.964081366558341368e-03 -6.632708545526267985e-01 -7.483629676816019316e-01
1.253231758502381943e-01 -5.423517025716394491e-01 -6.113013973531742362e-01 6.189925241662602717e-01 -5.490106370998557583e-01 -5.616365153526721166e-01
2.149292073024424155e-01 -4.942949661047438270e-01 -5.815958749215127677e-01 1.000000000000000000e+00 0.000000000000000000e+00 0.000000000000000000e+00
1.165166869650025999e-01 -6.280149191989613522e-01 -6.085559235747085571e-01 1.000000000000000000e+00 0.000000000000000000e+00 0.000000000000000000e+00
1.540054643421805425e-01 -6.630437089710105036e-01 -5.923978038008440583e-01 1.000000000000000000e+00 0.000000000000000000e+00 0.000000000000000000e+00
7.437039973894572775e-02 -7.255276686107148265e-01 -6.326868893639522318e-01 1.000000000000000000e+00 0.000000000000000000e+00 0.000000000000000000e+00
4.820939105128552865e-02 -6.566189539473643588e-01 -6.606563035321133537e-01 -6.393501218901589400e-01 -5.595283667070040101e-01 -5.274082180713828283e-01
1.140450635948873914e-02 -6.675421700803454428e-01 -6.638205028290582455e-01 -1.000000000000000000e+00 0.000000000000000000e+00 0.000000000000000000e+00
4.197039920842622618e-02 -6.871778976410789497e-01 -7.053131339864302518e-01 -9.999740463165048832e-01 -6.855236590198830575e-03 -2.216399036421014615e-03
-3.550828420751973857e-03 -7.188255039318074413e-01 -6.878918966842041405e-01 -9.999241982156072961e-01 1.227360153081337793e-02 -9.780226672630083513e-04
6.747470081975151524e-02 -6.420549601651827087e-01 -6.434251886787172303e-01 -1.000000000000000000e+00 0.000000000000000000e+00 0.000000000000000000e+00
-5.198689698716021934e-03 -6.790159032217462087e-01 -6.969767947569245337e-01 -1.000000000000000000e+00 0.000000000000000000e+00 0.000000000000000000e+00
5.791428151890720688e-02 -6.021345336531039871e-01 -7.352170674328688538e-01 -1.000000000000000000e+00 0.000000000000000000e+00 0.000000000000000000e+00
6.636475759578611133e-02 -5.993241064686053443e-01 -7.206144019337128448e-01 -1.000000000000000000e+00 0.000000000000000000e+00 0.000000000000000000e+00
8.968391874969880440e-03 -5.466262877296487188e-01 -6.835838873630428747e-01 -1.000000000000000000e+00 0.000000000000000000e+00 0.000000000000000000e+00
8.397501525832629099e-03 -6.813948388823303226e-01 -6.258576613596520399e-01 -1.000000000000000000e+00 0.000000000000000000e+00 0.000000000000000000e+00
7.510552004773717039e-02 -6.854096678754716399e-01 -6.886036260202447190e-01 -9.079726092931675874e-01 -1.256828884810605174e-01 -3.997368538381397829e-01
1.410523230576528064e-01 -5.501945613729721796e-01 -8.243563569698347804e-01 -5.605867647320625369e-02 -5.975790728331016322e-01 -7.998479083575846804e-01
1.118225827000392941e-01 -5.959986251729150197e-01 -8.635225431021114062e-01 5.278078911344899482e-02 -5.398336550203212125e-01 -8.401153570837535112e-01
8.510382591251933193e-02 -5.501055192124592041e-01 -7.936652163584927422e-01 1.000000000000000000e+00 0.000000000000000000e+00 0.000000000000000000e+00
3.530894416555069998e-02 -5.460039840524431032e-01 -7.399296750457873273e-01 9.119916541541159272e-02 7.176738695297614212e-01 6.903817271783135867e-01
5.870040231931092367e-03 -4.955283072859124061e-01 -7.755857227624625150e-01 9.058305010923956013e-02 -6.804020103189998281e-01 7.272192347475214813e-01
1.079925780431027771e-01 -4.711766791202474658e-01 -7.321210490050261699e-01 9.978479764874632618e-01 -5.964422098013442280e-02 -2.723935982264734379e-02
6.367933573083892074e-02 -5.088958991762233541e-01 -7.349133323990526545e-01 9.990273909468667668e-01 -4.401690708353919040e-02 2.604616803912056851e-03
1.764847781562596252e-01 -5.273217342011129460e-01 -7.404173401674968291e-01 1.000000000000000000e+00 0.000000000000000000e+00 0.000000000000000000e+00
6.904477282054168052e-02 -4.705465879108263194e-01 -8.075657204151894808e-01 1.000000000000000000e+00 0.000000000000000000e+00 0.000000000000000000e+00
9.718697007631769968e-02 -4.720075922935174084e-01 -8.024865302967817415e-01 -3.567614400028859957e-04 -4.991964157597372775e-01 -8.664887830860283913e-01
3.734869396250740936e-02 -5.228611224465027352e-01 -8.573776351668920270e-01 -7.808583443118785050e-01 -3.268771721447360501e-01 -5.323641239313299245e-01
7.766487134457716879e-02 -3.639215237916554879e-01 -8.070708920443235845e-01 -1.000000000000000000e+00 0.000000000000000000e+00 0.000000000000000000e+00
5.712574883798218067e-02 -2.883070347223403718e-01 -7.684261704802261006e-01 -2.107982541088707085e-01 -4.216363593227125950e-01 -8.819222621987384825e-01
1.366675743261894227e-02 -3.956744360958224793e-01 -7.770196649728724481e-01 -1.000000000000000000e+00 0.000000000000000000e+00 0.000000000000000000e+00
5.151189972354053986e-02 -4.329621911323837669e-01 -7.502230499036383060e-01 -9.994665656966186251e-01 -1.124361668797422761e-02 -3.066211242527858843e-02
2.202839596309140793e-02 -3.869885790083300581e-01 -7.705976881733689332e-01 -9.988033114879274477e-01 -2.394304027119713643e-02 -4.264593513245850537e-02
1.659607395641786790e-02 -3.888231333279177915e-01 -7.927542351032746959e-01 -9.991305352545324370e-01 -1.661554282771174687e-02 -3.823738038270652062e-02
7.785269063929220468e-02 -2.488497647788534273e-01 -7.965239389455044394e-01 -2.127101496358841382e-01 -3.190226733463135678e-01 -9.235685822573498349e-01
6.456958291903350244e-02 -1.778642577909610722e-01 -7.338746994025295844e-01 -9.969091156635222495e-01 -2.054231795496383808e-02 -7.583025965939328705e-02
3.858319416010166925e-02 -1.936801229218387821e-01 -8.444830272121126580e-01 -9.967502827413948774e-01 -2.237579640017664864e-02 -7.738344519603020111e-02
-2.305145314710647930e-02 -6.197102402698297097e-02 -7.068648425451410366e-01 -9.648322965241924454e-01 -2.579818588990240649e-02 -2.615971964464498534e-01
4.181322187307306981e-02 -5.489798500021672578e-02 -6.887985183544395040e-01 -9.461373333730551671e-01 -3.531624050065076265e-02 -3.218336675281574522e-01
2.952789475188450502e-02 -4.982026304280965517e-02 -6.251317823786191052e-01 -9.243290674964016462e-01 -2.864370716234564129e-02 -3.805197932055968124e-01
9.190989662859049003e-03 -2.183634582793283346e-02 -6.183366836505121977e-01 -9.471747417418368009e-01 -1.409292715230393497e-02 -3.204081740695212122e-01
2.550301044894273672e-02 -4.794430073032889331e-03 -6.769915111632585081e-01 -9.250570643138312787e-01 4.178663777297686281e-03 -3.798051691750818359e-01
4.829787687226699475e-03 1.003955478093871978e-01 -6.231523625777092290e-01 -8.994804735868774381e-01 7.528670592483202584e-02 -4.304262881689666087e-01
6.093630976012388151e-02 1.865992909787673182e-01 -6.290831753411096905e-01 -9.256920271476485329e-01 8.193586078824341423e-02 -3.692976923731948746e-01
-5.866498400197457663e-02 8.595051537486650406e-02 -4.834099783550107055e-01 -8.388423753164346852e-01 1.157873307069055696e-01 -5.319180044153907216e-01
-6.235467757656109472e-02 1.059650737831921014e-01 -5.286283057976439714e-01 -8.015877288559570824e-01 8.477995058497313219e-02 -5.918356806803374282e-01
-3.478742076202622630e-02 6.870255629100210926e-02 -4.852106423136770541e-01 -7.675348834506158235e-01 6.922311841481186556e-02 -6.372584739047243430e-01
-1.399917174617550386e-01 1.107102859069070966e-01 -4.464172581965664133e-01 -6.230073990085949198e-01 1.843323023604026278e-01 -7.601864133796779610e-01
-9.591791793608117622e-02 1.185094902258129468e-01 -4.614589381079171049e-01 -2.060281100926683040e-01 1.642327729508402112e-01 -9.646657525487888352e-01
-1.379603352509074510e-01 5.778018172058378699e-02 -4.429028694167521651e-01 -4.422245727092930512e-01 1.982276898162217416e-01 -8.747246482649307930e-01
-1.224610288687350557e-01 1.068557227198699833e-01 -4.411308026497475776e-01 1.666153639562975852e-01 1.708826954132985632e-01 -9.711016552874351948e-01
-2.463793570060662519e-01 2.720803600612812234e-01 -4.299476019251800563e-01 9.410973660546870789e-01 1.414059656187521830e-01 -3.071483363008148948e-01
-2.084291400334224720e-01 1.819607013846621935e-01 -4.632526979632865527e-01 9.192091197717479067e-01 1.496557788326286498e-01 -3.642221053017618004e-01
-2.383079311235152820e-01 1.147422889792239775e-01 -5.126493982949227313e-01 9.092507326905037157e-01 1.269596850240285735e-01 -3.964143583176337748e-01
-1.623174349803585270e-01 2.141251977540529691e-02 -4.499956981553555613e-01 1.980837006869636541e-01 6.756595457813292793e-02 -9.778536134330655383e-01
-1.970937846809622251e-01 -6.824516398872956802e-02 -4.264450022544440388e-01 4.795537330543979126e-01 1.396525470553749114e-02 -8.774013840737889813e-01
-2.620286820522519933e-01 -4.425017684728316941e-02 -4.567067288595610952e-01 6.695142911399780683e-01 -5.469991783056703250e-02 -7.407823789404428538e-01
-2.372984772693995381e-01 -7.706071965155708581e-02 -5.034399492989145575e-01 8.633475107713548535e-01 -7.072630200675118772e-02 -4.996287280064619085e-01
-2.878918731876031756e-01 -1.137760276652927255e-01 -5.489550578749540222e-01 -4.774383510989176072e-02 -2.335612248910012290e-01 -9.711692336747568266e-01
-2.493664550266179725e-01 -8.293936247778865845e-02 -5.091316423294397486e-01 -7.394699559949632350e-01 -1.569180203544576768e-01 -6.546456438935842614e-01
-2.998287201544445613e-01 -3.141201127683276861e-02 -5.212747520088945041e-01 -7.661487005629548097e-01 -1.233178935301081358e-01 -6.307209095638045548e-01
-2.582203839453218741e-01 -7.757342379958516443e-02 -5.085975947899193939e-01 -9.991981009311258211e-01 1.361545430441038094e-03 -4.001626281491980908e-02
-3.326459226725244633e-01 -7.814772584682194712e-02 -4.964162508791193362e-01 -9.729182723789474574e-01 4.244974555693230289e-02 2.272180766869482671e-01
-3.375474317276732639e-01 -3.129223719308048268e-02 -4.925587682055592165e-01 -9.950080253793917029e-01 3.356786982475164216e-02 9.397993161325758626e-02
-3.018308403013054142e-01 -6.377167066609332191e-02 -5.113714211747156790e-01 -6.253762534511224658e-01 -2.268188426238653410e-01 -7.466309357709521866e-01
-2.147327464297093258e-01 -1.479664816328937205e-01 -4.580086443809106012e-01 6.909068225087160453e-01 -2.053174038006878588e-01 -6.931756821379806421e-01
-1.324442166859494951e-01 -2.060004246674341233e-01 -4.188778388748282122e-01 -2.421254995829413836e-01 -4.811969905240898737e-01 -8.425109487491956317e-01
-1.445971729891483981e-01 -2.491846888081522549e-01 -4.236210833998603209e-01 -4.704098554784265085e-01 -3.509949207752500189e-01 -8.096401258946730461e-01
-9.035446744834835231e-02 -1.613684511369567476e-01 -4.067821855035389511e-01 -6.480730813718353911e-01 -3.198782858578018140e-01 -6.911433740099727219e-01
-2.059162938305283130e-01 -9.422808170980398468e-02 -4.893263319543585399e-01 -2.123493111594831062e-01 -2.468723830370428696e-01 -9.454955296265047382e-01
-1.829947270409568727e-01 -8.090163330074828796e-02 -4.982672845136936202e-01 3.408321523290282484e-01 -1.904682757496553025e-01 -9.206276553915352379e-01
-1.110085765079768527e-01 -1.380206246725090152e-03 -4.583551903104281511e-01 -7.225415776502372989e-01 -6.531023415959355885e-03 -6.912966181747501881e-01
-6.763326669878630404e-02 -5.119510025328759262e-02 -5.011922190796204157e-01 -6.881511600219786251e-01 -8.475075338995820273e-02 -7.206006458228022549e-01
-7.588662388512452950e-02 -1.024621827364975007e-01 -4.697787811437049155e-01 -7.661844589183633980e-01 -1.130722827064500474e-01 -6.325946836604994239e-01
4.797723380244887925e-03 -1.189461881786672837e-01 -5.339350611403946845e-01 -8.173575659736690424e-01 -9.936523486872708699e-02 -5.674972770375925624e-01
-8.310554354176247216e-02 -1.228904344856225211e-01 -5.159264985087544941e-01 -7.643575386524097404e-01 -1.500401238599934628e-01 -6.270929072612030364e-01
-2.367438572162671589e-02 -1.276881046772397332e-01 -4.963935268941842005e-01 -7.623462729330603427e-01 -1.489494836212451878e-01 -6.297953726997652657e-01
-1.117080633988060956e-01 -1.007352053690635102e-01 -4.650491880522649724e-01 -3.523710441097681612e-01 -2.311328631280292756e-01 -9.068694761955723438e-01
-1.368927034577476498e-01 -9.108336370186742581e-02 -4.853976142433091834e-01 -6.023052390754585206e-01 -2.189761610001170200e-01 -7.676443446648358870e-01
-1.397640022458311870e-01 -6.620834593412316949e-02 -4.777648447951131638e-01 -7.268825551536591822e-01 -1.540941624617708505e-01 -6.692508797965773804e-01
-7.818216518710408014e-02 -1.724656676709185599e-01 -4.467473578878459195e-01 -6.416034520311048039e-01 -2.491830847393696757e-01 -7.254328367406192024e-01
-1.196391466285915001e-01 -1.620693195951666832e-01 -4.609613020186794086e-01 -7.211799452332720017e-01 -3.127387796835443545e-01 -6.181374784587827520e-01
-4.209922484266647585e-02 -2.622820345475993520e-01 -4.565171545353694516e-01 -7.798063041393173966e-01 -2.430049288524070150e-01 -5.769321732907731759e-01
-8.981406636695610235e-03 -3.055811421655202365e-01 -5.087186850017033635e-01 -8.681029500827958101e-01 -2.436300860558636983e-01 -4.324831201630410238e-01
-3.047475083185135006e-02 -2.504838258482428026e-01 -4.780504580438028617e-01 -8.732636249144899443e-01 -2.737020239574899927e-01 -4.031102125756412247e-01
-2.125094444200065213e-02 -3.303966811883789489e-01 -5.442647949252182871e-01 -8.994298598399826927e-01 -2.159577744739704097e-01 -3.799844297763774748e-01
2.497037641713342748e-02 -3.797295020378522734e-01 -5.827856442234679024e-01 -9.237639576185469048e-01 -2.057994851004947834e-01 -3.229655129224952570e-01
-1.624465554235215298e-02 -3.513651702966085200e-01 -5.682301285212122410e-01 -9.254273795271865666e-01 -1.885945224108627472e-01 -3.286582896232244644e-01
-3.443579662349312287e-02 -3.635485588072734919e-01 -5.736263002998938099e-01 -9.321820152398532233e-01 -1.583756268861145067e-01 -3.255055318605141190e-01
-1.302967808668954383e-02 -2.825494424264809457e-01 -5.781814841349686152e-01 -9.248237488107325932e-01 -1.759409316841908377e-01 -3.372622454318925933e-01
-1.449568852892895061e-02 -3.116928193781453027e-01 -5.912389258260576375e-01 -9.254205885104231921e-01 -1.646585714282096935e-01 -3.412979478640962294e-01
3.502288181557011021e-02 -5.306991223435492122e-01 -6.813973022875271512e-01 -2.030893718176928764e-01 -5.932334391416984598e-01 -7.789921653898759235e-01
5.196959666161157787e-02 -4.638449757158084052e-01 -6.826808176536119932e-01 -2.023834858111345225e-01 -5.323794884407040406e-01 -8.219568145337980969e-01
4.023417057368384314e-02 -4.542303699835274489e-01 -7.626256099330639415e-01 -9.987140583007519945e-01 -2.692227781980862863e-02 -4.295836018093592695e-02
5.020233259585775432e-03 -4.108015353168215089e-01 -6.602236599361436253e-01 -9.995583539348266155e-01 -1.322441170114501199e-02 -2.661225308497164668e-02
5.189803996886235143e-02 -4.121037110205697518e-01 -7.215441901490645682e-01 -9.967662307434503877e-01 -4.568315263578415220e-02 -6.610696494886454666e-02
4.071321219810272729e-02 -4.129684829377754940e-01 -6.508490695991308028e-01 -9.803147683039420412e-01 -9.807919211779006496e-02 -1.713576001194870857e-01
1.545868994172302363e-02 -2.924455946972309150e-01 -6.477531396475038061e-01 -9.665366640645849383e-01 -1.062923029965637811e-01 -2.334712473573362645e-01
-2.060224070848493128e-02 -2.519747820104036307e-01 -6.893342702312756920e-01 -9.789925845121338899e-01 -7.018344024728344344e-02 -1.914361621672049374e-01
-8.256194787063502599e-03 -1.926124613872207958e-01 -6.595576712975493860e-01 -9.647841096953694295e-01 -8.174790182586942622e-02 -2.500178038188103358e-01
1.499994182621487704e-02 -2.374757226038191615e-01 -6.447614943611933436e-01 -9.460909667455404959e-01 -1.125482104279215967e-01 -3.037182624933196240e-01
3.181153352697695808e-02 -2.342486200330360924e-01 -6.606592430906924607e-01 -9.466315042359453313e-01 -1.124208119280750012e-01 -3.020767389810473658e-01
1.565866741198636281e-02 -2.565537977183917628e-01 -6.179304428428759044e-01 -9.483163616625954750e-01 -1.351602017430959812e-01 -2.871024173840809879e-01
2.894676744322716502e-02 -1.589039707598700335e-01 -6.769591039308083813e-01 -9.523133547810155308e-01 -6.935234942405475722e-02 -2.971355346219823890e-01
1.090629143426483268e-02 -1.476447396689378744e-01 -6.531640142716315101e-01 -9.647855170847609019e-01 -6.076881745437992532e-02 -2.559219741418989891e-01
-3.096248453316564203e-02 -1.334349784591250254e-01 -6.370333487403607720e-01 -9.462525473575744694e-01 -7.840596626496428023e-02 -3.137811674931406669e-01
6.194978699105890656e-03 -1.755285489423549505e-01 -6.724341922908312341e-01 -9.470359627853472961e-01 -7.348258940940273487e-02 -3.126070924418053454e-01
-5.636815922300444232e-04 -1.194320024097664107e-01 -6.610655883492626561e-01 -9.247791504931266449e-01 -8.778166453769059574e-02 -3.702403303047943628e-01
3.034408111423752760e-03 -1.559042214348264344e-01 -6.404906972539804455e-01 -8.989508756211279650e-01 -1.193743584632844523e-01 -4.214701481261594607e-01
-2.058159085342074757e-02 -1.040575401350448681e-01 -6.129070171230045494e-01 -8.770167777684584332e-01 -7.935118558278991818e-02 -4.738617528976525883e-01
1.683212949790330315e-02 -2.730831015818830504e-02 -5.553339214655083067e-01 -8.688231143413290836e-01 -2.600694886080536991e-02 -4.944391111119598725e-01
-5.177717023380604133e-02 -6.664879374064883177e-02 -5.933968196256492744e-01 -8.383046788177532793e-01 -6.036037155184145048e-02 -5.418504323320108007e-01
-4.028706688710412265e-02 -7.714187636983925456e-02 -4.947083781386627521e-01 -8.436675975906542391e-01 -7.838234205820038270e-02 -5.311131642400567232e-01
-2.702019261972931144e-02 1.923086868946266570e-03 -5.300578593951249529e-01 -8.036608779405935987e-01 -1.864849913092426689e-02 -5.947952813766413938e-01
-2.229948206294869728e-02 7.361552149089005403e-02 -4.972067370469743230e-01 -7.476462574923067317e-01 4.411280416712024671e-02 -6.626304657697688061e-01
-1.389999129589392923e-01 -3.230954531287097073e-03 -4.486098158558199378e-01 -6.495148081470758505e-01 3.519575812040080798e-02 -7.595339180102476107e-01
-1.035649681479754863e-01 3.808570080396415924e-03 -4.833947886264760574e-01 -7.260076513498014972e-01 3.809325479226728650e-02 -6.866307552978356821e-01
-5.092130215253348746e-02 3.760081022177719917e-02 -5.349516253788130227e-01 -7.856492336192715253e-01 4.802107718153742627e-02 -6.168056889003020737e-01
-3.772965009218725435e-02 2.290783606154166846e-02 -5.833180489650284795e-01 -8.017447177074822351e-01 2.951430298033898628e-02 -5.969374452551410304e-01
-4.247795069966801840e-02 8.080204535258275755e-02 -5.306805225146274951e-01 -8.413171860411260417e-01 4.452475422344726042e-02 -5.387048716441896756e-01
-7.029370833942116814e-02 -8.696983460661743270e-03 -5.221714141858212477e-01 -8.048246445210442968e-01 6.634146775495250101e-03 -5.934755931528572503e-01
-8.122896471013864306e-02 -8.392613482013810966e-03 -5.292183646268601160e-01 -7.642258253776792465e-01 7.595922052741966787e-03 -6.449040159542918094e-01
-4.296111322537948807e-02 -9.550956304450909651e-02 -5.067666205516161426e-01 -7.640837237808986160e-01 -4.570975632305682851e-02 -6.434956730468371910e-01
-7.981872683560610471e-02 -2.594045922987403552e-02 -5.473000330548974945e-01 -7.635789922679898645e-01 -2.080129737975434934e-02 -6.453792904907316164e-01
-3.584936654999688194e-02 -5.957783914731646507e-02 -5.240325246409364146e-01 -8.002329570200107378e-01 -5.259749016382088416e-02 -5.973782039273581868e-01
-2.469416689879743235e-02 -1.802836096082732417e-02 -5.600318395459304988e-01 -8.383067779747479520e-01 -1.601921691834172490e-02 -5.449634214247041086e-01
-5.400784319850111120e-02 -3.392313997700704270e-02 -5.442155560073389520e-01 -8.394711026830756762e-01 6.845572890731419467e-03 -5.433612112507284486e-01
-3.272290578917999571e-02 1.808130240705543845e-02 -6.029628830225418623e-01 -8.456068757806681768e-01 2.676355885782074912e-03 -5.337994461889503661e-01
-5.365460521481207889e-03 3.882012647820665130e-02 -6.202891858100680889e-01 -8.394461481036726846e-01 1.479625793963504007e-02 -5.432414151966792337e-01
-1.566843028167197449e-02 1.715805604260582651e-02 -6.293514685823872190e-01 -8.688599246408288401e-01 -5.369053651962823505e-03 -4.950288927083102419e-01
2.147192350090111959e-02 -3.306235119256886734e-02 -6.351476978462522460e-01 -8.995427334375476480e-01 -1.273904822135188408e-02 -4.366469825501135271e-01
-2.754841948295649531e-02 -7.690798694129262481e-02 -6.373217361603938924e-01 -8.995170494484976409e-01 -3.089387515186954591e-02 -4.357919758664327570e-01
-5.205298275480488290e-02 -6.412179779338285368e-02 -5.940325364495048222e-01 -8.721300954748427703e-01 -5.299118360574561759e-02 -4.863959611541855410e-01
-5.330322150666088471e-02 -5.213031283314420450e-03 -5.801318128615754466e-01 -8.825712786431567647e-01 -4.934363075267495652e-02 -4.675822325734019791e-01
-2.760466519848137415e-02 -1.262710645895440131e-01 -5.810743740510864175e-01 -8.709210270091193307e-01 -9.503373365205579348e-02 -4.821464032651605613e-01
-1.438517835328531266e-02 -1.318274613471514256e-01 -6.036800554837599142e-01 -8.713574507777059885e-01 -1.131056454947649836e-01 -4.774340854310573645e-01
-2.348633377452070264e-02 -1.293440932518024333e-01 -5.326670134419512204e-01 -8.379879010982338450e-01 -1.347549828862951993e-01 -5.287885893249690827e-01
-1.607761422556297504e-02 -2.185398060150285648e-01 -5.521791469699701693e-01 -9.031526933267751689e-01 -1.871935237134027263e-01 -3.863596733826551999e-01
-6.746575541548079091e-02 -1.754100497742493991e-01 -4.415178635879840052e-01 -7.628718857425184074e-01 -2.262722581132449451e-01 -6.056627371334536436e-01
-2.871993675453441558e-02 -1.727009800430312492e-01 -5.279667345854467397e-01 -8.029747689469656224e-01 -1.853201638291115949e-01 -5.664697320359831645e-01
-2.003218849463922480e-02 -2.764478643145472092e-01 -5.191657918035325059e-01 -8.762363609391382591e-01 -2.111495243886884476e-01 -4.331578443461076011e-01
2.562119303891776528e-02 -2.309017742322318212e-01 -5.226060704512278665e-01 -8.706394428588695167e-01 -1.915205933589647080e-01 -4.531079593847665565e-01
-3.039406092087361053e-02 -1.903624739411664268e-01 -4.547764757302857896e-01 -8.366722919623865717e-01 -2.103219779733984662e-01 -5.057115199832451502e-01
-4.954119540717590031e-02 -1.853756201611142240e-01 -5.168813940395806661e-01 -8.399400772694417538e-01 -1.892943420852570002e-01 -5.085944540113602752e-01
-9.365744161232423745e-03 -2.591904300499930369e-01 -5.356057723714944263e-01 -8.987268706303880306e-01 -1.709727456549734459e-01 -4.038048194983678840e-01
-4.417452005238191315e-02 -2.963382145534689815e-01 -5.924066932865478252e-01 -9.252618314533297417e-01 -1.562263074527128204e-01 -3.456644096740654759e-01
-3.601675699154770205e-02 -2.207651671224789280e-01 -5.578390731559880189e-01 -8.877002126738957610e-01 -1.547324071614570029e-01 -4.336429575039139062e-01
-2.000098662597336180e-02 -2.106509432326013898e-01 -5.683991108557336913e-01 -8.995365984297422068e-01 -1.356509534706808739e-01 -4.152501979625584649e-01
1.461749778056636861e-02 -2.003537370428092046e-01 -5.691932019173805424e-01 -8.793889162907874146e-01 -1.307816055197472405e-01 -4.577895865597989000e-01
-4.158728030474172221e-03 -1.882475363143027158e-01 -5.371535784316601170e-01 -8.576590604363709680e-01 -1.613716491205865189e-01 -4.882418733696481938e-01
-2.447678170691443278e-02 -1.773838156645661523e-01 -4.990470856145510781e-01 -8.717171345679866068e-01 -1.568430620724877711e-01 -4.642299981477979731e-01
-6.178644306089593752e-02 -1.409396434249143293e-01 -5.404304535098622964e-01 -8.387728245837755559e-01 -1.696709295872482759e-01 -5.173702005264257942e-01
-2.006950451050660417e-02 -1.665190632513592062e-01 -6.137787900948429298e-01 -8.946145482200724697e-01 -9.608576835736315491e-02 -4.363855350858581450e-01
-7.867495446447839158e-03 -1.318514421701170169e-01 -6.568890590686770059e-01 -9.071040252338173904e-01 -1.088822308551926493e-01 -4.065795705745708366e-01
-2.486682200594970971e-02 -1.086470553877478540e-01 -5.633848460884872678e-01 -8.994417011282239693e-01 -8.489554706339873247e-02 -4.287159576693793661e-01
-5.260409874258716728e-02 -1.486073785740611441e-01 -6.033385265110422502e-01 -9.084946710237145062e-01 -9.025698983941354836e-02 -4.080332198567180324e-01
4.490620426724085262e-02 -8.716933148158159672e-02 -6.329764085982929611e-01 -9.537131687130059321e-01 -7.842664416876186928e-02 -2.903109596756972555e-01
3.840874218575245774e-02 -1.729083772126985552e-01 -7.610811649408628643e-01 -9.881554754654304773e-01 -3.174857643951820713e-02 -1.501358857893513032e-01
6.826025938529228787e-02 -2.145758650735035689e-01 -7.683909588523640810e-01 -9.938397760979584827e-01 -2.118820327241677237e-02 -1.087821653013341938e-01
1.893822179834558223e-02 -1.428371544737213339e-01 -7.769153507686719085e-01 -9.901872684453129070e-01 -3.177209371507666580e-02 -1.360871319036827953e-01
1.804357611363938477e-02 -1.022258098732231613e-01 -6.930937087312175615e-01 -9.794380062822454214e-01 -3.945441953902188714e-02 -1.978497930974377483e-01
6.026556328202303803e-02 -2.047062153829423137e-01 -6.896482056259783944e-01 -9.789095995696956987e-01 -4.998597084593619372e-02 -1.980843219159132140e-01
2.535065054123843836e-02 -2.955698379258632769e-01 -6.744971586574484146e-01 -9.899047483992763352e-01 -4.957549465675346184e-02 -1.327812465150995935e-01
4.806050434059423726e-02 -2.239991367734183170e-01 -6.765349360786350186e-01 -9.790431583164400653e-01 -6.222205111249579090e-02 -1.939146990537953252e-01
5.078881444126336769e-02 -2.192776946627404688e-01 -7.260948963248546884e-01 -9.777074768547046046e-01 -6.164367036598283195e-02 -2.007190763385913734e-01
6.126372949973055149e-02 -1.219314860454812077e-01 -6.665860937949600329e-01 -9.648209878357518754e-01 -5.364042139815978355e-02 -2.573774788591100537e-01
-5.848416074153107991e-02 -1.899681756437238134e-01 -6.805925342661118815e-01 -9.437539592998879234e-01 -8.372486518764957197e-02 -3.198728048069972019e-01
-5.429742075465786820e-03 -2.041372425542890556e-01 -5.937593309957054366e-01 -9.255491686292126596e-01 -1.102176995916282903e-01 -3.622303067752652428e-01
-2.956090698186966768e-04 -2.222015823638323617e-01 -6.406050741871672782e-01 -9.226536714075908030e-01 -1.379588693962743584e-01 -3.601076963812289145e-01
-2.512268630314791820e-02 -2.187273949806386730e-01 -6.169502222380761625e-01 -9.252789302830490836e-01 -1.460696971253928333e-01 -3.500322053125293209e-01
-3.149784217343114950e-03 -2.453186478543011029e-01 -6.062276975228094722e-01 -9.420408024256794466e-01 -1.400558923235707132e-01 -3.048663208533056168e-01
2.928625507437666864e-02 -1.907971547124777678e-01 -6.123877264538111209e-01 -9.427300735986857694e-01 -1.136922450139298130e-01 -3.135826553818134577e-01
9.392577532415159747e-03 -1.861575229943679133e-01 -7.086674120851638170e-01 -9.735649648985770233e-01 -5.554616713248453075e-02 -2.215533399407970394e-01
7.264688510649611186e-03 -2.945332037107427081e-01 -6.814332878823337047e-01 -9.904400415936833735e-01 -4.980555662140260381e-02 -1.286387598569538604e-01
2.350883059425309951e-03 -2.883045980715081558e-01 -7.373759096156772275e-01 -9.923236688437137021e-01 -3.362126472955806467e-02 -1.190098601399745687e-01
8.586588926037672098e-02 -2.977834691961175340e-01 -7.299958445139700380e-01 -9.899878951388474402e-01 -5.611937045297756693e-02 -1.295167315002808961e-01
5.563832485014298668e-02 -2.828310230085162580e-01 -7.066061888350491094e-01 -9.783192588858592442e-01 -7.089641192795999303e-02 -1.945896360774745926e-01
3.410417246914227568e-02 -2.087607875592520090e-01 -7.160080994591686565e-01 -9.647544462295498668e-01 -9.210575149782032622e-02 -2.465063671010074287e-01
4.633421028761958854e-02 -2.520048751980026869e-01 -6.580777599214906459e-01 -9.650901439481925914e-01 -1.006336380866829638e-01 -2.418137401792864183e-01
5.624446618586638469e-04 -3.398795651199642553e-01 -6.760948094677856623e-01 -9.786262713118017986e-01 -7.952659207809487096e-02 -1.896474156185738169e-01
5.332533898677699336e-02 -2.606123420267011381e-01 -6.749940725601172309e-01 -9.794235068999612714e-01 -8.496216456697286423e-02 -1.830601669503121309e-01
3.718325431213326260e-02 -3.668069311420070200e-01 -6.805477809227800101e-01 -9.796213500262990204e-01 -9.061737865934428593e-02 -1.792498291702396551e-01
-1.078120800376183852e-02 -3.269402894806175408e-01 -6.655039909565554357e-01 -9.691106361605332786e-01 -1.152812336211355010e-01 -2.180247968817217996e-01
7.585094379307935619e-02 -3.296975900674193882e-01 -6.240278065046428457e-01 -9.793624283150701437e-01 -9.250775883521814014e-02 -1.796984934830960501e-01
1.359378741994442946e-02 -3.859718850917904232e-01 -6.465615803803206330e-01 -9.830587889639221810e-01 -9.610691680572036599e-02 -1.560733096428893463e-01
-9.687351973853668141e-03 -3.755925822721327689e-01 -6.956676998236539511e-01 -9.896537184099278850e-01 -7.200890441984429680e-02 -1.240976845942621531e-01
-1.557720767582617544e-02 -4.385769044394533522e-01 -6.760919236035710655e-01 -9.994565783084172761e-01 -1.835642910518681462e-02 -2.737863375950405978e-02
1.555061664504995417e-02 -4.759563743334748742e-01 -6.618884365641642953e-01 -9.987665879685090342e-01 -2.980450191805382801e-02 -3.971138908624522595e-02
7.313387973808205267e-02 -4.478709725014086152e-01 -6.890153002905394786e-01 -9.998363124286488990e-01 -1.085016911372813954e-02 -1.447833482430332767e-02
1.998310673935950119e-02 -4.509517194712948651e-01 -6.854157612425497703e-01 -9.968388907824846656e-01 -4.484677627285654083e-02 -6.558195240672579085e-02
6.898294320807621394e-02 -4.801479955636489549e-01 -6.548465060245406422e-01 -9.967666835825116367e-01 -4.629307800952252999e-02 -6.567441989333057395e-02
3.118655231254933297e-02 -4.786258938132432195e-01 -6.220537175835981758e-01 -9.897142536173978433e-01 -8.087659711898506631e-02 -1.180028483766833447e-01
1.529919686402105711e-02 -4.377232389046224470e-01 -6.436466095011412758e-01 -9.829264716131241864e-01 -1.029755066331370511e-01 -1.524847416491983132e-01
9.578423493816781709e-03 -3.855926468053701983e-01 -6.061735784211026434e-01 -9.785669183373483238e-01 -1.087773474935308793e-01 -1.748550113894851987e-01
-1.141004534636464937e-02 -3.296012237606381068e-01 -6.172968450357015913e-01 -9.711617984995734032e-01 -1.341143692210990945e-01 -1.971245725512190405e-01
2.666244698599984364e-02 -3.293053182466074702e-01 -6.328904489502236164e-01 -9.641900651280725931e-01 -1.310661232894468065e-01 -2.305627672331302669e-01
3.308301609003137106e-02 -3.542549332015958452e-01 -6.761246514641152672e-01 -9.644471817841844263e-01 -1.313845365379102959e-01 -2.293027193629913474e-01
6.674171410063050799e-03 -3.314679583865107193e-01 -5.918596332107477487e-01 -9.650957541126541361e-01 -1.199820990511643870e-01 -2.327970818137631570e-01
-3.083030907320500821e-02 -3.306809370293528616e-01 -5.117589291551845054e-01 -9.080407467824469503e-01 -2.371660810116693330e-01 -3.452741696106766400e-01
-2.293602070903018320e-02 -3.076346433347372233e-01 -4.991891497613713535e-01 -8.994082746827412045e-01 -2.325620488363736305e-01 -3.701076179616446526e-01
-3.459215315394076340e-02 -2.323029167007874540e-01 -5.454933151352447940e-01 -8.705492965306070863e-01 -2.264781047066720121e-01 -4.368656434174454928e-01
-1.599246174038674445e-02 -2.281595244847971493e-01 -4.761233724682146784e-01 -8.457077104640896570e-01 -2.472661454733639519e-01 -4.729037129948682194e-01
8.308773066092053905e-03 -2.201186120241049871e-01 -5.116255117957776433e-01 -8.383548476171258645e-01 -2.316654062870970587e-01 -4.934493783628671748e-01
-1.089852826297369598e-02 -2.675262798628835204e-01 -5.158205228581763668e-01 -8.010211049974134134e-01 -2.525098810882885347e-01 -5.427743078863453974e-01
-7.402804929363379638e-02 -1.450115350665356351e-01 -4.536972747539577133e-01 -7.249495360151424483e-01 -2.385476545250400093e-01 -6.461758172138848400e-01
-6.496991271901284004e-02 -1.459836196318064216e-01 -5.331727706566317115e-01 -7.652296279749446484e-01 -2.002808432360444479e-01 -6.118097746048086760e-01
-7.455343175100995201e-02 -1.282814285073820559e-01 -5.192533846475820836e-01 -7.677002103736739747e-01 -1.998758822885641495e-01 -6.088398957620835272e-01
-9.374499723837068088e-02 -1.405014801473201125e-01 -4.509934864539109634e-01 -7.421421032986459387e-01 -1.943022106846206687e-01 -6.414606374786617771e-01
-1.226825392633287826e-01 -1.566071697094696957e-01 -4.882972749420081415e-01 -7.257685856244218137e-01 -1.911219039601460834e-01 -6.608573052841096862e-01
-6.919126794372032485e-02 -1.629335721010749527e-01 -5.054439484397291737e-01 -8.104671831931672399e-01 -1.438479441453754393e-01 -5.678474389588124005e-01
-2.055321760279683885e-02 -1.150395994248466225e-01 -5.543723181715453086e-01 -8.397488085690824056e-01 -1.052718028452314242e-01 -5.326723064253678919e-01
-7.241362072981580300e-02 -1.625041851918542501e-01 -4.471645915671483840e-01 -8.020721985044773072e-01 -1.139430446100780092e-01 -5.862569154996639664e-01
-1.009741636963835398e-01 -1.212663958214531684e-01 -5.161786017994932640e-01 -7.210492077818092538e-01 -1.306629802270250773e-01 -6.804522213612188564e-01
-7.209295741522429857e-02 -7.303809755401677317e-02 -4.738436574918077904e-01 -7.623309768637945849e-01 -7.882284988085663802e-02 -6.423693953252695987e-01
-5.693300465232963709e-02 -2.318491165824658473e-02 -4.940549034471615752e-01 -7.565054389045670069e-01 -6.563027336088556041e-02 -6.506859366287115476e-01
-5.613312804905420256e-02 -1.197036015583740204e-01 -4.631902157437816636e-01 -7.283035593972947419e-01 -9.365998706771398730e-02 -6.788237858175761863e-01
-1.068489319295605061e-01 -6.430296291591013069e-02 -4.245297464774087648e-01 -6.266289548114140073e-01 -1.404838926818111067e-01 -7.665509956218962140e-01
-1.956383377507232846e-01 -1.419011622581611842e-01 -4.317455874557888928e-01 -1.548291385189672596e-02 -2.195373648247279097e-01 -9.754812273049999760e-01
-1.097178697077671183e-01 -9.822989646421195764e-02 -4.223570606318217679e-01 -4.602117820983394614e-01 -1.005125130157495800e-01 -8.821010998435094841e-01
-1.426293383852549335e-01 -5.928457900687338772e-02 -4.919449550435740504e-01 -6.652205766436388723e-01 -4.551254381516933734e-02 -7.452584737964251804e-01
-9.407400342984087449e-02 -5.815883325453101438e-02 -4.724705813401970378e-01 -7.396079613615080817e-01 -8.971965716568055041e-03 -6.729781328704929066e-01
-1.170774751363553023e-01 -1.617616706577664626e-02 -4.487784601825496877e-01 -5.473690783195775955e-01 8.780172329489684818e-03 -8.368452668644547066e-01
-1.416375045078612505e-01 -9.737780965586803616e-02 -4.790166767489441035e-01 -2.587208412968158844e-01 -4.700161316314829113e-02 -9.648079470229965482e-01
-1.219512248601993670e-01 -5.330757193323328036e-02 -4.111679652331595713e-01 -7.984927555226128959e-02 -1.719941162122078926e-01 -9.818564646536481755e-01
-1.667723479699771694e-01 -8.484329426902564864e-02 -4.857854906433589082e-01 1.345704278330014103e-01 -1.144995326734958713e-01 -9.842665578848007746e-01
-2.082592795578921685e-01 -5.564201378061783138e-02 -4.330593516656127684e-01 1.872706892198754136e-01 -1.125696218046839531e-01 -9.758369583111018430e-01
-2.108510252574820887e-01 -9.071793157257675155e-02 -4.781652008538213039e-01 6.443221279585850114e-01 -2.036004362626841202e-01 -7.371538901590125592e-01
-2.248566809253706722e-01 -1.071057953397138024e-01 -4.683543175447117402e-01 7.856700220674489588e-01 -1.149883775204513653e-01 -6.078653547124959200e-01
-2.160703898993545924e-01 -1.051518203992873879e-01 -4.847505704653837788e-01 5.784689986125394201e-01 -1.683402932762264881e-01 -7.981448260208668932e-01
-2.375834585935977517e-01 -1.006899561813889427e-01 -4.805023078001226522e-01 5.606014561027145016e-01 -1.228894478673168977e-01 -8.189164737739631494e-01
-1.963670631377651687e-01 -1.201718233844696615e-01 -4.138652507847910278e-01 5.074773673815906605e-01 -1.980912283521015782e-01 -8.385860640658211462e-01
-2.392672433448930769e-01 -1.683451446983967592e-01 -4.391775320339507682e-01 3.162700978946007546e-01 -2.752423274039594858e-01 -9.078628125344662125e-01
-1.707174653640941009e-01 -1.268515200171843604e-01 -4.276684456507321430e-01 1.076059415027162264e-01 -2.449921953957231724e-01 -9.635350463519724018e-01
-1.479327620360917916e-01 -1.125783027259277397e-01 -4.096541926056597172e-01 3.524390185011222129e-03 -3.421586306427735202e-01 -9.396355943398940758e-01
-2.158587573654937586e-01 -1.651011310018545009e-01 -4.451456552443979198e-01 1.798734691714053979e-01 -3.950499416736307778e-01 -9.008779488209844866e-01
-1.874183061029642272e-01 -1.859642337436397952e-01 -4.034053875104198772e-01 5.083952045412728354e-02 -4.427117313225692463e-01 -8.952215737510840210e-01
-2.031199000334893978e-01 -1.664316918554914482e-01 -3.885761301023399339e-01 -2.310665593514365790e-01 -4.240006726745382259e-01 -8.756892569405131388e-01
-1.484049738906496052e-01 -1.960493555513953823e-01 -4.200232404616964232e-01 -4.260932720466880652e-01 -3.136667830149933445e-01 -8.485621207369393737e-01
-1.640893320945171485e-01 -2.471540120018538012e-01 -3.585054078171350800e-01 -6.638589024262607496e-02 -5.245997500155520354e-01 -8.487567471662974539e-01
-1.449077776429257280e-01 -3.354616513732245897e-01 -3.822380667176158431e-01 -2.398508982063441153e-01 -6.599724876910900706e-01 -7.119746218233090618e-01
-2.056451022773360393e-01 -3.332620252204810951e-01 -3.094912796197503702e-01 -7.287785286644284932e-01 -5.008489695326850955e-01 -4.669391457949934598e-01
-7.617190680953253579e-02 -3.464907857610608488e-01 -2.983964785033692557e-01 -6.230120492242682273e-01 -5.912946441221657023e-01 -5.120806873470422627e-01
-1.040355845734393242e-01 -3.241909493296108447e-01 -2.959152971914816854e-01 -6.402097668171797817e-01 -6.356450131529670644e-01 -4.313778757952901888e-01
-3.481130166528084019e-02 -4.690288850987254232e-01 -3.063429825960952702e-01 -8.037962659322036574e-01 -5.029921108095544158e-01 -3.176641297609713033e-01
2.077711825923110600e-03 -4.693283951627392758e-01 -3.090780780216620394e-01 -8.043819878937188417e-01 -4.898608470059160891e-01 -3.361636032095025595e-01
-1.951140441062239675e-02 -4.427720674677752544e-01 -2.979634120197370839e-01 -8.195967017558218881e-01 -4.990315606568185847e-01 -2.814760166326758517e-01
-5.456552752484379598e-02 -5.660728983661216240e-01 -1.999291962155013147e-01 -8.689931915770170434e-01 -4.537169987879789423e-01 -1.974632067085378695e-01
-7.769874610808757964e-02 -4.766641010103128684e-01 -2.135428318733673669e-01 -8.014146333878932049e-01 -5.443053918140856595e-01 -2.479238307098846905e-01
-1.344436042589300939e-01 -4.590328627387788019e-01 -2.431815737667448185e-01 -7.656957624834604959e-01 -5.583519240005601070e-01 -3.193009994969399079e-01
-1.459700153306916215e-01 -3.694689618567162381e-01 -1.835414488902303021e-01 -4.299231223714373717e-01 -7.946070631936799078e-01 -4.286790454093939995e-01
-1.242408948656867906e-01 -3.668758106075669101e-01 -2.891581993692530772e-01 -3.897894735033543556e-01 -7.725388252223872598e-01 -5.012463764158218149e-01
-1.539836152111074830e-01 -4.006174840486212974e-01 -3.323125983071606449e-01 -1.437977262494878616e-01 -7.829950810844406028e-01 -6.051784174299739139e-01
-1.839395042235486555e-01 -3.437413328087171593e-01 -2.763498362628711291e-01 1.900017776224252330e-01 -7.679554213922709094e-01 -6.116729479505675915e-01
-2.163143196769807819e-01 -3.683744177345945059e-01 -2.712360849359977677e-01 3.671117142043375803e-01 -7.667133974198669932e-01 -5.266683543852219707e-01
-2.081378811558304842e-01 -2.775571180326542597e-01 -3.601442642841630182e-01 6.231827345319890243e-01 -3.881646123119923408e-01 -6.789488295371849391e-01
-1.650445118029999769e-01 -3.096012620062039700e-01 -3.537476075773682282e-01 5.429488394046334543e-01 -4.769248729690443445e-01 -6.911940562046393621e-01
-2.238671263921920840e-01 -2.268773905003570457e-01 -4.633981181465202659e-01 8.802133000682685893e-01 -1.912274821294403793e-01 -4.343461712290817567e-01
-2.365588569758168558e-01 -1.851103623734577097e-01 -4.476138681589163504e-01 8.934201078633264848e-01 -2.149922125961680752e-01 -3.944348607672576446e-01
-2.795838382447266568e-01 -2.268776226526987294e-01 -4.991933768139215077e-01 7.053550501588387034e-01 -2.355947118154286257e-01 -6.685576900911599507e-01
-2.329454450124518738e-01 -3.240760300369521785e-01 -3.480351451396707096e-01 8.383266821293667848e-01 -3.806164202726907142e-01 -3.903069492704042687e-01
-2.119821856120635839e-01 -2.636896285030045917e-01 -3.566908990789016132e-01 6.737625192971610222e-01 -4.547539719615278919e-01 -5.824456134057122147e-01
-1.938625727965751222e-01 -2.956325651182931114e-01 -3.409017808035425534e-01 7.236314704524164920e-01 -4.508164369302227192e-01 -5.226107874550738330e-01
-2.129631539130968920e-01 -3.498821710222126957e-01 -3.402745967496587087e-01 8.680336722508043001e-01 -3.355142739506996596e-01 -3.659886826311958274e-01
-2.366176802554900704e-01 -3.640730710286736449e-01 -3.491257768422914021e-01 9.286633986255082851e-01 -2.606029256392834448e-01 -2.639515243402968392e-01
